9.5313 10.6895 35.95 64.9637878793
2.68996 2.96336 39.0873 30.8425690001
3.84926 0.820616 40.9683 28.3306335978
0.168451 3.5992 40.4488 29.1747392608
4.28064 2.48448 43.1223 30.4600847632
7.76457 3.61143 40.5819 28.5610472062
8.48401 1.1686 41.319 28.9107884297
11.1379 2.58568 41.5292 27.9969083965
4.01604 4.99069 40.8119 32.345358202
2.3105 6.97276 42.4344 30.1740354364
0.168475 7.55905 40.1992 31.1293669998
4.79012 6.88496 39.0272 29.8246475007
7.35085 7.22102 40.3506 31.6769534317
9.67105 4.62065 43.0025 29.7474580928
11.9593 6.36512 42.5605 31.0133918774
11.8765 7.41032 39.8973 32.691907578
1.06728 9.85091 42.9611 28.1074976942
3.52513 9.78998 41.1121 28.1108208352
0.738011 12.2119 40.87 29.6038232652
6.99768 10.2804 39.1132 29.7027749636
7.90704 11.9912 42.2072 33.8753228586
6.37826 9.39254 41.8189 27.7418296061
12.0918 10.0704 40.0111 31.8634992481
9.63492 11.1869 38.933 32.3604685973
2.6237 2.63264 47.4983 32.5126805794
0.164587 1.8669 46.79 28.8751560279
0.190492 0.464746 44.257 29.3282853535
7.86173 0.55073 43.8653 29.4625284507
4.25628 0.196656 47.2764 34.4581649134
5.08704 0.258254 44.573 30.5396816911
6.61466 3.93477 43.6802 30.1484929256
9.33958 2.96899 45.2848 32.6634454597
10.6275 0.443287 45.0237 28.1961838182
2.35681 5.16358 46.3876 30.0042253172
0.0820796 6.79593 46.9753 25.7571869505
2.14794 4.37065 43.7787 28.7882000936
4.35425 7.26067 46.6052 27.6338478476
6.01405 5.02869 46.2721 31.9656468107
8.06809 4.12255 47.5574 29.8584361841
7.69224 6.83948 43.3853 33.6267023038
7.68963 7.93554 46.5244 27.6506052741
2.06075 10.3807 45.5532 27.2341972291
5.45275 11.3495 44.9021 26.7870938464
6.19157 10.1249 47.5685 31.2972860765
4.36118 8.8196 44.1214 30.0125087068
9.14871 9.33788 44.7461 32.3476722726
9.77933 11.377 47.1535 25.8992816072
11.8171 8.41319 44.0549 33.5003879976
2.17661 3.68786 50.0883 29.7717952852
4.78375 0.725383 50.6057 31.1347063952
7.78052 2.23218 49.6692 35.8771927348
5.34956 3.90033 50.4687 30.4676261933
11.9165 0.772815 51.5027 31.5147745169
10.2839 3.02932 50.6131 34.9886873238
3.07161 6.07088 51.4897 30.375286505
6.10278 6.44772 49.2249 28.3364804296
9.81643 6.26117 47.702 33.0372810188
11.9037 5.08238 49.3739 31.1093526774
8.7671 7.35578 50.0639 31.4876550483
3.82399 8.2505 49.4869 31.837884346
1.61706 8.90315 47.7832 30.230841436
8.11439 11.4832 49.6571 28.6076060697
4.65362 11.1738 49.9841 29.9636852683
11.0489 9.21962 48.3648 29.3821804176
11.0871 9.42429 51.3492 30.191516539
1.45798 1.92908 52.1334 29.8570143837
3.68765 2.18882 54.1903 27.3865658372
1.72291 2.58672 56.0994 30.2889618009
5.67317 0.553581 55.6609 28.785617392
6.49477 1.68102 52.7169 30.4193363079
8.57698 1.57924 55.2797 29.3365840433
10.607 3.00234 53.7873 31.3737277475
1.45183 7.01017 55.7261 27.2788005103
0.812517 7.1273 52.9494 30.6667777498
3.70631 4.83559 55.5233 30.3232184654
4.0847 7.78857 53.9733 27.6411944846
7.69612 6.15477 54.5783 30.2599935237
6.56584 7.81556 52.278 28.0604101827
5.26952 4.88498 53.1119 28.0644024348
12.0513 7.02782 54.0824 29.5400421282
9.85036 5.33748 52.7267 32.6858099931
2.40526 10.3538 53.7434 32.0818461624
0.0169811 9.75608 52.1539 34.5122762009
5.13183 10.6969 52.6584 29.4823711995
6.46319 8.34893 55.7561 28.454199885
8.10072 10.1109 52.4271 27.5184885104
11.9076 9.75044 54.4232 29.1404682792
8.80672 9.80316 55.1455 29.337910359
1.75168 13.75 3.95152 29.6092509875
0.578434 16.3291 5.83838 30.8424688682
1.51929 13.8676 7.08749 30.3411202463
4.67495 15.2192 7.45422 29.0904045034
4.40487 14.6503 4.6958 30.956703209
5.72849 12.2634 4.80637 33.8705720634
9.30561 16.3149 5.81753 31.6665828421
9.88584 13.9016 4.63062 32.9579515661
10.5411 12.9811 7.10996 30.9312042447
1.01025 19.1085 4.72127 29.8299917114
2.73307 17.2577 7.72915 31.9322027807
5.35355 17.7767 5.35901 29.2274746991
4.17319 19.5469 7.96982 34.0364508094
7.05187 18.8923 7.46374 29.0261782924
11.4609 17.953 6.2475 32.4906748793
8.27013 18.2615 3.92622 26.779714466
3.51795 20.5875 5.46538 33.5549660792
0.548985 23.7396 5.35304 33.4302665842
2.95582 23.2886 6.80009 29.8444911336
7.78235 22.6807 7.24644 28.1781614727
7.90217 20.4984 5.28851 26.872698615
5.68509 21.0146 3.68508 32.3944282394
10.6394 20.7203 6.40232 27.3961058304
10.8004 23.4611 5.20316 28.4066716964
2.60719 14.1874 11.2111 32.4691950781
3.50653 12.8938 8.93264 30.5369728166
7.4342 16.3213 8.13695 29.405954585
4.81942 15.6554 12.3776 34.1146793365
7.48217 15.8059 11.056 27.2118065259
6.60882 13.2892 8.88513 27.8586889534
7.03459 12.2594 11.3996 31.1838206669
9.77218 14.7577 9.28634 28.5085282353
12.1905 13.8813 10.5913 31.0811288143
1.44964 16.6815 10.2969 32.3377937503
1.28253 18.554 12.4178 28.9576642306
8.07126 20.3373 10.0709 29.7314865645
8.12498 18.292 11.946 26.5117751806
11.5145 17.2206 9.02317 32.0425400948
11.1218 17.868 11.6045 28.736880051
3.08804 23.9935 11.2557 27.7420471436
3.75367 21.1979 10.6133 30.5998293114
0.950457 21.3128 12.155 32.3175372683
1.16815 22.1624 9.01084 31.266056656
7.29527 22.7941 10.7412 28.87292168
5.28565 23.2697 8.75205 28.1811723019
11.4226 22.7481 11.7319 29.1522826618
10.2401 21.199 9.08267 27.2954140993
9.44219 24.3832 10.9002 29.3218520366
10.3385 24.0657 8.08001 26.9546810766
3.2287 12.2887 15.7262 27.938559391
1.58143 14.2381 16.5116 33.2084705813
5.54799 14.6512 15.2982 28.7560758785
4.56517 12.5719 12.8027 27.269284243
11.0496 15.0449 15.8758 27.6846744743
9.19408 14.2785 12.558 25.3413839016
12.0246 15.6624 13.0225 28.8651289001
8.23549 15.7155 14.675 28.8491180203
9.14151 12.6101 15.5525 27.2429354405
2.30959 17.0326 16.2576 27.7343609208
0.181206 17.9315 14.7438 32.6424813175
3.79584 17.764 13.937 29.5047134969
3.98121 19.9874 15.7827 32.856508977
6.87853 20.0259 15.7647 29.8812110245
5.70797 19.6589 12.8014 31.8541821951
7.42456 17.454 16.819 31.0071643306
10.9843 18.0694 15.3303 27.322442599
8.97531 19.4217 14.122 27.7205975717
3.0969 21.9725 13.9616 32.6981256727
5.41888 22.7607 13.0292 28.5775549763
7.74232 24.054 14.8585 31.7090388697
9.86006 22.2267 14.1024 33.3686107138
12.1617 22.1269 15.7881 30.2501819033
1.77033 14.3374 19.304 27.3224953566
5.03868 16.1154 17.6618 28.8646664101
6.29751 14.2618 19.4508 27.7261184011
9.16621 14.6707 18.8525 28.4929743355
10.2288 12.2677 18.2259 27.4466877292
1.95696 17.7543 18.9199 27.2297977902
5.65751 17.6344 20.2588 31.8807990235
10.3584 19.524 20.1904 29.7286896052
9.96231 17.4182 18.1211 28.2259266907
11.8103 20.0718 17.59 27.6867155268
2.76311 23.6384 19.2406 30.3717348161
2.74785 20.5854 18.4725 31.5976867563
0.129308 23.1645 18.3694 29.7027879841
5.00523 20.4478 20.3408 28.7027448054
7.91557 21.0267 21.0025 29.1649914202
7.38906 22.397 17.1035 32.6473013751
5.67279 22.9782 19.3227 34.6576115736
9.74739 22.2472 18.2458 29.2247298076
9.51305 23.3808 20.7919 26.2578791733
3.68712 15.6106 21.2978 27.956742124
3.86133 15.2765 24.11 65.3791507053
3.18991 12.4295 24.2444 97.5765373249
5.97791 13.5133 22.0154 28.0635420309
6.77206 15.5535 24.0109 61.9685153874
9.82248 14.2747 21.4626 28.6984993513
10.0086 12.3007 24.3926 85.3983759398
9.59471 15.119 24.2998 64.6921367957
2.51142 19.1191 21.886 27.4970497985
2.78247 18.1246 24.4108 81.0271819657
0.961751 16.3521 22.1502 26.9344556903
7.99866 16.7739 21.6831 29.5367690774
5.81956 18.2956 24.4255 96.9576998265
11.6881 16.8239 24.6826 98.2641793234
10.9199 19.6449 24.1896 75.7579050181
8.21045 19.1112 23.0165 28.8970478053
0.263155 20.8224 21.7012 28.4746248027
2.67648 21.8839 23.9942 62.6485446853
7.59998 21.8926 24.386 105.4719449309
4.98285 20.9102 23.2583 31.2887433566
6.405 24.4421 23.6793 37.8854807789
9.90266 23.8277 23.7341 46.3060695246
11.6027 21.7912 22.1504 26.2938068149
0.882319 15.1703 35.6708 82.9655164481
3.55176 13.8632 35.7668 68.6775776269
1.36332 15.5251 38.4823 32.1111984804
5.79493 15.3356 38.7305 30.8318918358
5.6262 15.608 36.0471 47.6804467496
8.00763 13.0051 35.274 117.262723438
4.9672 12.4494 38.6803 30.2143009946
8.30298 16.333 35.6371 86.8046389628
10.1723 14.4746 37.0328 34.2524350491
3.84754 17.4403 38.7778 30.0730523866
1.99053 19.6326 35.6142 98.8950403346
7.25069 20.3916 38.7644 29.7127653836
6.41188 20.001 36.163 47.0019526226
4.35872 18.1128 36.0827 58.4988920322
9.53809 18.8334 35.8239 53.6688052323
9.14383 18.4501 38.4599 27.2603720188
11.9121 18.8921 38.5396 31.3074617574
4.09204 21.4523 36.2485 44.6593464658
3.90942 24.3717 35.88 46.8450493342
1.26124 24.1433 35.302 112.0100907423
0.120659 21.7834 36.2709 43.4958622189
6.69441 23.7497 35.8758 53.4145973575
7.76803 23.1518 38.4716 28.814696266
10.408 23.7241 38.5605 27.2578959397
8.64666 21.6696 35.3153 106.2087080681
10.9301 23.0136 35.9238 53.267716608
4.07135 15.0053 41.5984 30.1121668485
1.57763 14.3031 42.7292 28.5899087731
4.78541 12.3984 41.8672 29.966881482
12.1349 13.9248 41.9634 31.9695604075
8.39242 15.9595 39.046 27.621302784
9.75809 13.6729 40.0963 29.8135334407
2.09663 17.4132 41.2524 29.1953277051
2.70614 20.1171 42.2668 27.6009183633
5.86764 16.6795 42.9685 31.1818648475
5.73543 19.5216 41.9636 26.762182749
4.71115 19.9547 39.5896 26.1383652715
8.02704 20.3999 43.029 34.3175592736
8.57047 17.0453 41.7223 30.9640972775
10.367 19.3125 41.5295 30.6148161065
0.692918 22.0312 39.1123 31.3749843797
3.39572 22.3165 38.9795 29.1689814433
0.349289 22.5069 42.9323 32.2032496864
7.89345 23.1545 41.93 30.0237360825
4.6074 22.5554 41.9684 33.5810017545
10.6581 22.2838 40.8723 29.006839207
2.21789 14.1594 47.333 30.1963542803
3.04112 12.7453 44.8739 30.5778956423
5.9164 13.7726 46.7551 31.8112312451
7.26247 15.643 45.1153 31.0206526912
11.2937 15.4096 47.0212 28.3750958715
11.5377 12.6598 44.8027 31.4572443995
8.27658 12.4138 44.686 25.100666075
9.39742 14.8759 43.3582 26.6947399914
2.12131 17.0223 46.1299 30.9011482467
0.708351 16.7061 43.7195 29.4460342908
0.979746 20.2399 47.0728 27.8283135917
4.4364 18.7821 44.7268 32.2536657831
4.23721 18.2121 47.55 27.7677059779
7.89414 18.6149 45.3488 31.4994073455
10.6986 19.383 45.2411 33.0133412585
11.4972 16.686 44.1364 29.0758689784
2.30438 21.4339 44.9616 31.1327588158
4.57857 23.5872 44.7281 30.0486097252
5.38214 22.3144 47.0084 32.4896879285
7.39329 24.1433 46.7918 34.9232264326
2.29072 14.0889 51.8496 33.024316733
2.41249 12.6033 49.5485 30.2923994379
4.33068 15.7086 48.5775 28.5285487338
6.61943 13.0176 51.574 26.009355896
4.69627 15.5837 51.2842 29.6681686692
7.26024 15.7078 49.4807 30.2544429626
8.78424 14.0758 47.6971 25.6485484434
10.4182 13.3675 50.0245 35.4104843436
0.495749 17.2229 50.0298 31.8209051781
1.74654 20.2897 51.9189 29.8733259572
2.31251 19.3643 49.2009 29.1731679956
6.0941 20.0204 50.8513 30.7950604591
6.63365 19.8426 47.8452 33.6893397034
10.4017 17.9318 47.7083 30.9013029039
8.40612 18.1673 49.6385 32.1986799209
11.0617 20.2964 50.8636 29.5211245077
1.65745 22.753 50.7445 29.0414780369
3.76084 23.4752 49.1661 29.8981778852
0.156728 22.5481 48.1276 30.5059046368
5.56962 22.6639 51.2438 30.8071664787
8.10015 23.8784 50.9617 33.8444804653
9.77286 23.5096 48.5878 39.6545874583
8.67462 20.936 51.6713 30.9969289953
12.2586 22.1352 49.1114 27.0090725527
3.13635 12.8253 54.1758 31.453155652
0.215046 15.7596 55.0889 30.3721472853
8.01783 12.5423 56.0289 30.5843245031
7.60894 16.0932 52.6908 33.4284089268
5.74603 14.2157 54.5593 30.2155998723
8.8449 13.3016 53.1565 28.2482360376
11.7815 13.3925 52.9632 29.2353141334
10.3819 16.1074 53.528 32.9165421897
12.0222 12.9327 55.9168 34.675636554
1.8977 18.0431 55.3055 31.9476669999
0.389086 20.0246 54.3166 31.7487098843
4.25096 18.5398 52.048 32.6272596418
4.53595 18.8213 54.8439 33.6232737401
6.22368 16.8189 55.6491 29.9643242106
10.2835 18.3095 54.9236 31.8798904496
5.42879 23.8828 55.943 31.3500650245
4.3329 23.481 53.5469 34.6591985618
9.05103 20.9656 54.3935 37.1950026708
10.1965 23.352 55.0675 32.2184453611
2.92304 27.4695 5.69609 27.0938916217
1.12769 27.3744 7.4391 32.9862545202
4.40802 25.3192 5.75814 26.398890681
5.3733 28.5491 6.05186 33.4408769809
7.4181 24.6931 5.36751 29.1605929153
9.19233 26.0299 3.9365 26.0307421369
11.6147 28.3136 6.74606 25.5379278438
9.27078 28.2608 5.49998 30.883559171
0.551304 32.0482 7.88726 30.7624533238
3.4268 32.6781 7.28307 33.5603145917
3.48213 31.118 3.75487 29.0517314946
6.31893 30.8941 7.74205 33.0780944349
7.94274 30.6349 4.02708 29.680754881
5.55718 32.2553 5.14886 26.7670789007
10.9622 32.1202 6.28822 30.523230358
0.415565 34.5305 4.31926 34.3051575952
2.66437 36.0941 4.86028 27.6141324663
4.86929 34.7067 4.03179 27.9421587764
7.00981 35.3148 6.46172 29.3728670668
4.22675 35.3094 7.42736 29.2158661006
9.79943 35.2285 4.7591 29.9696217056
8.37647 33.0868 7.15791 31.2412039181
0.837294 25.9973 12.3885 28.0710884088
2.08016 27.2504 10.104 29.3216457052
6.1882 25.9378 8.20414 30.960243775
4.67437 26.4182 10.6527 33.489989795
8.83772 26.8659 8.16281 29.4256485267
9.32907 27.0967 11.7936 28.9292815175
12.2282 26.075 8.33769 30.6444020413
2.97814 29.7817 10.8362 33.8062821799
0.751749 31.3036 10.6025 28.0555665255
4.65362 31.8962 9.69183 27.9228699228
7.27371 30.285 10.8577 30.873487458
9.51037 29.0099 9.7068 31.2948331754
11.6445 30.5456 8.44437 26.7574105604
11.1672 32.4402 10.416 27.67880783
9.29776 32.3166 12.1543 29.1698129969
0.102489 35.119 9.3787 28.7135500184
1.80798 33.7991 11.3606 29.1749315289
7.42549 34.6477 11.0397 32.1711685632
4.34192 34.8375 10.1991 27.3722441296
9.65626 34.6227 9.30083 29.6397678286
2.63289 24.7563 14.4114 33.1648249514
5.36534 25.8035 14.444 31.2293625233
6.42434 27.6171 12.6038 29.2974958501
4.84022 27.292 16.6995 32.2436602063
9.25167 26.1878 16.3315 35.7355312367
9.84002 28.0608 14.2042 34.5099375434
3.47317 31.3967 16.7069 29.3217307105
0.236819 29.3923 14.1462 30.3387979335
2.89194 29.1737 15.0826 31.4829938529
4.97942 29.8091 13.0863 29.1553394912
8.03026 30.3657 14.1069 30.2169303432
12.1463 31.939 15.0644 30.2391856147
12.0537 29.3907 15.5537 29.5979521633
9.12981 31.5682 16.3968 30.8169854359
4.06714 33.2829 14.5802 30.790130084
2.22914 36.7541 13.1889 26.7536292052
1.50159 33.9354 14.2263 27.7882914675
7.74877 34.8353 14.8198 27.81456556
5.93389 32.7333 12.5459 28.0140087174
4.97947 35.1695 16.5195 29.3561343875
9.29063 36.6649 16.4285 26.7781552024
10.3468 34.1498 14.2823 26.1622596499
11.4232 35.9641 12.7876 29.3272412848
3.64189 27.1176 20.0783 32.0532432113
2.09245 28.3153 17.8598 28.2360104405
2.39789 25.5244 17.1072 29.1671684205
8.13233 27.317 20.8955 30.6281371826
6.95835 24.8143 21.2135 32.0752532496
8.40706 28.1371 18.2848 30.3365759005
11.6852 25.3299 20.2694 29.9520874305
11.2996 24.7128 17.4781 30.8240365967
0.196345 30.1412 19.0252 30.8033537927
4.82423 30.9568 19.0118 28.7323552986
6.30363 29.4611 17.1458 30.9651761043
10.3365 30.0161 18.4707 27.2994100916
10.0789 30.8455 20.8815 26.7979337327
1.82276 33.7691 17.5259 26.832412691
1.07824 36.3549 21.0903 26.0298572928
1.82586 33.9916 20.1292 26.576678613
0.151723 36.3564 17.8884 26.06273757
6.85693 33.4208 17.7777 31.2953911166
6.01858 33.1622 20.5907 26.8730678874
8.45152 36.3938 20.7935 28.2389229501
9.04201 35.0049 18.4039 28.1308073294
11.7107 35.1251 19.9741 29.8656536492
12.0276 33.8976 17.4552 29.1473534001
2.29668 24.9952 21.718 29.4200625509
1.08543 27.5699 21.6607 27.1399237846
2.56738 27.3788 24.6245 93.3268814233
3.48417 24.6167 24.1684 74.3420346553
7.91599 26.5763 24.2331 83.7320987627
5.16737 28.2211 24.1091 56.6999282855
11.0451 26.4781 24.1872 82.2442747125
10.971 27.8118 21.7135 26.3669004767
0.958804 29.9027 24.2294 57.4992219766
0.949047 30.8202 21.7259 26.8668936991
3.357 31.9381 22.1392 26.8217472804
3.66739 30.7002 24.2944 74.386809879
4.50667 29.1866 21.4137 27.1339770346
6.51218 32.1186 24.3181 77.0030727377
7.81805 29.7497 23.8616 50.889992625
7.20361 30.1697 21.2862 26.917527741
10.776 30.2177 23.7892 54.9520126855
11.9757 32.6099 21.5431 30.233422178
1.68187 35.7359 23.9165 61.167893402
4.24558 34.6051 24.1544 73.7553530575
4.36326 35.0056 21.3223 26.7866023715
8.8445 33.8956 24.4204 90.2865941532
8.25072 36.5284 23.9394 67.8669028018
8.44814 33.3033 21.8456 28.9793550986
11.5156 32.9071 24.2857 78.0557193178
0.345221 26.9385 38.5724 27.8204937014
3.35072 28.1792 38.2504 26.5017981355
0.434307 26.9516 35.8957 51.860979753
3.95281 25.2371 38.8267 29.0871547025
7.55037 26.4537 35.5835 63.5916663195
4.8997 27.0771 35.3377 89.7257833344
6.27804 27.4973 38.2381 28.0612940842
9.08969 28.1155 37.8808 28.2178168635
10.5284 25.7523 35.7315 62.0234182535
0.36701 29.5857 38.785 29.7347288775
2.37398 28.7698 35.6342 80.676316608
1.31162 32.1891 38.2723 30.3578827296
3.35247 32.5823 36.0869 51.4871227481
0.187875 32.468 35.5041 104.4891323592
5.39148 30.4355 35.9402 64.2786968015
7.59105 31.8228 38.3701 29.1124017502
4.89946 30.9889 38.6685 26.762489016
8.19015 32.1742 35.7616 62.5861290664
9.18878 29.1941 35.4607 82.6451048797
11.6394 30.24 35.6327 67.7099343725
0.0724167 35.3945 35.8055 62.5358949337
2.56942 36.523 35.5121 88.249927077
5.19393 35.438 38.3204 29.5066311947
4.7063 34.8965 35.682 78.460390246
7.49625 34.9974 35.8532 71.2312344969
7.97559 35.9799 38.8056 29.1668706901
11.0262 34.6957 37.9757 28.3943527192
12.0029 36.1167 35.6125 80.0722307523
10.8044 33.0307 35.5862 71.3707041966
2.01549 26.2781 40.9973 29.535323972
4.62788 27.0146 41.9191 31.3087300304
6.43999 24.9615 40.2301 31.3242390456
11.5605 25.2256 41.7388 30.1470005488
11.0802 26.1306 39.1847 30.309155634
9.48022 26.4177 43.1248 32.0669374605
1.4487 32.4473 42.7512 29.2408936937
4.03254 31.567 41.9821 29.5822070536
2.30855 29.3832 41.1428 30.3980622207
5.99432 29.1901 40.6587 29.461252748
9.68619 30.2365 39.5127 31.0974285315
8.57516 29.1048 41.978 32.5030580432
0.204724 34.0934 40.3315 29.8235710519
0.587949 35.3941 43.1016 29.0833677219
3.453 35.5459 42.0022 27.8935261647
3.64266 33.4818 39.8649 28.4137257479
5.99814 34.0031 42.2834 29.9191396618
8.2144 33.5879 40.3462 29.9497062714
10.8219 33.3148 41.003 30.2523386903
2.45851 25.4758 45.367 32.1021091982
3.67507 27.547 46.6813 30.9078273709
0.237108 26.4409 43.8791 28.5175771061
5.51005 27.0342 44.4675 29.9541003092
7.46046 24.8099 43.976 30.8089145779
11.9845 25.1491 47.5415 30.5586610097
10.6643 27.0676 45.6607 31.1921268923
8.54833 27.9687 46.9617 30.6608309698
1.87007 29.6898 46.6172 31.539153915
0.715398 32.386 45.6265 29.7280433924
4.14048 31.4756 46.5285 30.8262239612
6.0352 31.4325 44.306 31.120873618
7.38228 29.221 44.8109 29.7242890252
10.2049 30.3366 43.8826 31.4907326868
3.94513 33.8338 47.435 30.2642819893
1.87244 35.2965 45.5434 28.777402483
5.72466 36.49 47.1514 28.3667030847
7.23173 33.8813 45.1443 26.9282882108
6.80657 36.465 44.1467 29.1850174907
9.56712 33.0473 43.837 31.2763981957
11.4241 34.7093 45.2076 28.2633415335
2.26848 27.4362 51.5543 29.4915181134
3.65309 26.1731 49.4438 30.3997082035
1.11218 25.374 47.9227 34.4279028311
6.13488 26.3597 47.8887 30.6020544553
7.20304 26.9119 50.861 34.7657034847
12.2434 28.0281 49.5527 34.5981944221
0.534736 30.8057 48.6669 27.7775884236
1.95446 30.3051 51.3027 31.8499963135
7.86691 29.6863 50.2384 32.3473612234
5.93524 30.9847 48.863 35.0855161978
4.40268 32.0125 51.1523 31.4802912997
9.94916 29.6349 48.5641 31.0953538116
2.22661 32.9417 49.4526 28.9668506233
0.770821 34.674 50.9105 30.437396691
7.20926 33.1109 47.6907 28.1532362257
7.18056 35.2051 49.376 30.7041785822
5.67278 34.627 51.4317 30.3246223375
10.5764 32.8481 51.3174 33.0791152001
11.3369 35.4918 47.9388 32.6216972948
10.0344 32.6942 48.5007 32.6713553379
9.50714 36.6785 49.8008 30.9806956539
1.79072 24.954 53.1467 29.8206320455
0.362322 27.0633 55.085 27.9113347206
3.86216 28.57 53.9696 30.7567210294
2.411 25.0601 56.221 33.2272330688
2.07424 28.5528 56.2314 25.5354368096
6.75075 26.6111 55.162 30.1716179068
4.85883 26.267 52.7863 29.1663747407
10.0533 25.3748 52.8721 32.1051782169
8.7327 27.6055 53.2919 31.2126872583
11.5707 26.7713 55.5043 25.1740219533
0.25503 32.3025 52.6965 34.4857541228
1.08499 32.4894 55.3889 30.6910072862
4.79834 31.3522 54.0431 27.9751699511
7.37329 32.1388 54.4181 28.5743600319
5.83565 28.9672 56.2046 26.7409208734
10.667 30.8754 55.9748 27.3950917367
9.01538 30.9266 52.7423 31.9835784141
11.223 29.2081 54.0857 28.9907728072
3.58868 33.9223 54.5411 29.423119289
4.20062 36.4368 52.5359 28.9954618314
7.24269 34.7521 53.6888 27.4479230177
7.48195 36.1498 56.0496 30.6133535403
10.7206 33.7599 55.4624 31.4741568171
9.61105 35.3128 52.3987 31.8535639231
12.2105 35.9213 53.4834 28.0148988451
0.565301 40.0864 4.51577 28.2803574785
2.21414 38.346 6.00832 28.8129642714
4.38433 40.2043 6.71671 31.3828881331
7.88737 37.8144 7.34701 32.1109623759
6.25186 39.6609 4.84361 30.5858985845
10.6178 40.8293 4.73253 29.9084458726
9.52859 38.3319 5.05274 28.8992759074
3.56232 43.1544 6.83761 33.1277372426
0.896104 42.4331 5.99223 26.8154007641
5.57936 43.6255 5.06116 29.7811906887
7.80822 41.9682 5.55578 31.0112897618
10.1505 44.8772 7.61451 29.7549983445
9.48068 41.8815 7.87967 30.4591888383
11.3821 44.5271 5.29113 28.4493484975
3.49741 47.7382 6.00765 34.0616197447
1.49084 46.7496 4.38593 32.2650441258
1.65533 47.0705 7.85265 31.8364530936
6.21093 46.6279 5.4207 27.5753425616
7.42951 45.8214 7.83378 34.2275673987
12.2582 47.9857 7.1007 30.8290734064
9.98319 47.5122 5.96364 28.1633579454
3.65743 38.6948 9.91488 31.2948709503
2.04411 36.8903 8.38807 28.5488023424
0.800767 39.049 11.8851 26.9418437052
6.05181 39.6118 8.86386 32.3661792553
4.53062 36.9032 11.8096 30.0665968302
7.5316 40.4797 12.3194 30.1299048168
10.1889 37.8211 9.09202 30.6191779228
9.66664 37.8648 11.8519 29.1572325749
11.4929 40.0932 8.49449 29.502883701
0.894832 44.2792 8.46416 30.0200721894
3.21337 44.2677 11.9049 29.7355320956
3.16355 41.3196 11.8096 28.6450579062
0.18105 41.3513 10.5484 34.5668363552
0.677947 44.1163 11.3061 30.0897093971
4.67473 42.828 9.45201 32.6142192975
7.45802 41.8852 9.94508 29.281872016
8.7003 44.5606 11.8663 29.2739319824
10.3743 42.4067 11.5466 28.8577525327
2.33504 48.3925 10.0899 31.5688358471
6.20683 45.1137 10.5323 32.0164958822
5.17804 47.6386 10.8663 32.8276032944
7.27712 48.6904 8.77456 31.0757959291
12.2924 45.8474 9.32527 29.4242719357
10.7038 46.9736 11.4293 31.2349231463
3.41017 38.1594 15.294 29.9263019553
2.67857 40.6745 16.0898 30.1437898435
7.94273 40.7709 16.304 29.506380792
6.32005 39.0233 14.6994 25.7581227313
7.19271 36.8443 12.9938 28.3529524611
10.4584 39.85 13.3991 27.4534829162
10.5222 39.7206 16.1189 29.1267937994
2.78458 44.3336 14.5014 26.8259427321
0.997515 42.1202 13.8983 27.200741092
4.82735 41.394 13.9342 28.1072912214
7.89553 43.0113 14.0284 28.8736014921
5.31232 43.7424 15.4816 27.7962378028
10.1428 43.9683 15.9235 36.7623011612
12.1382 43.2062 13.8108 30.7451674757
2.19218 47.4293 13.4453 29.2571980616
1.44359 46.1452 15.9168 28.6331173096
4.98374 47.882 13.5978 31.1734371516
6.64101 46.3361 15.1399 29.4695890273
11.8259 46.7141 15.6691 26.3472529617
9.14279 46.6241 14.1319 30.6606052512
8.77259 48.4034 16.233 27.5621199935
0.263396 38.8503 18.9236 27.7196554415
4.04527 38.6814 19.5535 26.5822592694
3.01165 36.8651 17.8214 27.8948620674
6.64151 37.5284 16.8289 26.6393524466
6.82784 39.4043 18.6297 26.4957364316
9.43309 38.7874 19.8505 29.7811472952
11.7868 38.0641 17.9518 27.9482141186
2.04051 43.6427 19.4349 30.2952851295
3.73014 41.5446 18.63 27.4784219408
6.02471 42.5081 17.7997 30.4771509679
7.3714 42.67 20.2762 34.4847565767
9.74938 41.1172 21.1927 28.4508674755
12.238 42.1569 20.2547 30.4573796702
12.1578 43.2336 17.5997 33.6732756553
3.55185 46.0379 18.1528 32.8939458936
2.25271 48.6137 18.6952 29.3660979108
8.0006 46.9106 20.3393 27.8413299161
6.27192 47.0042 17.9674 33.1157332068
10.0786 48.0237 18.7143 28.1498349217
11.7828 48.758 21.0613 27.8416651801
2.29405 39.4378 21.4478 27.7430631914
1.99306 38.5516 24.2175 68.0689037786
5.75638 37.0788 21.5368 27.537350945
5.12218 37.2089 24.2518 75.0136736534
4.43935 40.0191 24.4228 83.8240032008
6.56413 40.2377 21.7122 26.9812403972
10.7533 37.5394 23.3176 48.3945854456
10.173 40.1759 23.9894 82.3621147191
3.85999 44.7724 21.3158 27.9732361313
0.829712 42.0238 21.6179 29.5438777524
2.52127 42.5769 24.2631 86.6405281502
4.27089 41.8071 21.6194 26.2883727218
6.61818 44.881 21.7349 28.9666117916
7.5995 41.1453 24.1167 67.2110478051
7.26142 43.8818 24.4256 95.0830109607
4.26375 44.623 24.1115 57.6649156968
10.1833 43.4596 23.1715 34.038891267
3.04516 47.4787 21.5889 31.1817744219
2.93705 47.0152 24.3514 78.2659190079
0.107945 48.0005 24.4106 90.7481470394
10.3461 46.2241 21.5918 27.3747056378
8.38191 46.6314 24.2454 63.3781421722
11.1924 46.7751 24.3577 82.3690884644
3.67817 37.9673 37.8539 28.3467479564
0.842242 38.9951 35.552 79.9572093923
8.08748 39.8889 35.8208 89.4209172351
5.3974 39.5939 36.5273 41.2518923477
9.97128 39.5223 38.3122 30.9682565974
9.39619 37.2897 36.0342 61.1351049488
1.89633 40.8543 37.8059 26.2088872661
1.28846 44.714 36.2228 46.4145900198
3.72747 41.5302 35.6787 86.2515580348
0.564105 42.0358 35.6975 90.0965308035
5.18012 43.6138 35.9281 67.5808661656
7.83812 42.6289 35.8684 74.4123895379
10.8712 42.4097 35.7164 82.0414680871
10.8876 44.8285 38.6748 31.7979875417
11.3634 41.722 38.5528 30.9422704156
3.75369 46.1591 36.5009 36.4065961597
0.392023 48.7932 35.7975 67.15580244
3.66429 48.9621 35.5578 100.0823871381
0.833663 48.1195 38.4494 27.3881959854
6.59411 46.8093 36.1087 55.1759594098
7.75841 45.5415 38.1537 28.4280811224
5.46442 48.9477 38.4362 26.8360380339
9.43809 47.3891 35.7647 78.0537236611
11.138 45.1041 35.8971 67.3663098284
3.48492 40.2486 40.7511 30.9684659985
1.44148 38.0969 42.2972 29.2175061964
1.00128 38.6524 39.4755 27.6432222217
5.7674 40.6656 39.0457 28.286547505
7.95577 39.6814 40.3163 29.8440614423
7.23567 37.2509 41.4167 26.2218468933
4.87338 37.5689 40.7909 28.0689827469
11.0238 37.2585 39.7258 28.4799607151
10.0158 37.328 42.2783 30.0846160011
3.10679 42.0622 42.9091 30.7223277624
1.11605 43.4896 39.1198 30.233483314
3.71547 44.349 40.4713 30.0081675101
5.94486 43.3074 38.8701 29.5534555504
7.22401 44.53 41.1302 28.4069797096
5.08963 43.6611 43.2145 27.9105456219
11.2363 42.7567 41.2825 33.6522946929
8.54667 41.6348 42.1323 30.6845281497
3.24953 47.0698 38.9132 26.1764301219
1.24325 48.7269 41.5661 29.3937967866
0.553961 45.7156 41.6734 29.1316781344
5.4407 46.9259 40.9235 27.7593874776
8.28977 48.1518 39.3624 27.2389384104
9.76876 45.2825 42.5499 30.3568086147
10.6468 47.2904 40.9543 30.3994976234
11.7481 48.9539 42.5944 29.3112087852
3.1918 39.485 44.1377 29.0593100402
3.93977 36.8547 44.6925 27.4290544659
0.360209 37.2208 47.1241 32.8186414536
1.21223 39.8077 46.2512 38.0844401024
5.51347 40.267 46.0143 32.032493263
7.54641 38.7069 47.2353 29.6827038942
9.37027 37.0377 45.5744 30.511255223
10.8022 39.5161 46.2706 32.2125552918
10.105 39.9889 43.5161 32.5560962303
0.0885909 43.9076 46.1413 30.1654796477
2.40767 44.6639 47.3112 29.6388458637
0.714911 43.5389 43.4018 29.2305294547
7.17353 42.0391 44.6258 32.5589087524
11.2131 44.7243 45.1484 33.6763628556
8.47515 43.75 46.294 28.1185452324
11.985 42.9228 46.9851 29.4016788645
3.88719 45.2486 44.9147 26.0825161144
1.96786 47.4856 47.4938 28.2344479861
1.01905 46.856 44.9463 29.5376518875
3.74388 47.4814 43.2742 27.3757465754
6.13657 45.7881 46.0219 27.7409045017
7.50931 46.8002 43.5969 28.7211522125
9.44213 47.0279 46.0926 33.4089274493
3.94749 40.1933 48.6675 27.6727394448
3.10055 37.7294 48.1332 30.9794487373
0.528162 39.604 51.3376 33.0517974044
2.1406 37.0475 50.9214 31.4308407528
5.7159 40.4501 51.0488 34.8448411379
8.21743 39.3265 50.1202 31.8799510706
10.9242 39.3791 51.6103 33.9443718725
1.57875 41.325 49.4084 28.4435162342
2.11402 43.1873 51.2916 32.5940119495
4.9004 42.7777 47.8883 31.2762698293
4.59359 44.5978 50.2125 30.1545106463
7.56817 43.5178 48.9442 27.6725389773
10.7894 42.0284 50.7174 30.1046215988
9.34498 41.3287 48.1735 28.9739587865
8.5875 43.758 51.7155 31.0875317577
2.22847 46.4149 50.1578 28.1300236732
0.00822123 45.2939 51.1451 35.9341589482
7.36439 48.2634 50.0179 34.2351483905
5.34941 46.7596 48.5259 27.8967961836
11.3127 45.6809 50.1619 29.6624686308
8.84775 46.2569 48.6293 30.7188271738
0.535204 40.1093 54.4647 30.9804557596
2.85401 36.8693 54.8618 30.8431435461
0.0898788 36.9932 53.6451 31.8445109857
6.22148 38.7239 52.9729 34.7095347613
7.96034 38.7218 55.2594 31.1020576698
4.61032 39.5699 55.4237 34.0712403859
10.3921 39.747 54.5703 29.2431856933
3.10288 41.6491 55.6348 31.9871512798
1.70358 43.6398 54.0088 29.2102968217
5.93713 42.9519 52.3591 33.6092615817
5.17745 43.688 55.2018 29.614307877
10.4871 42.7003 54.0581 28.1917851167
9.51155 43.4037 56.367 29.5813572602
1.49172 48.7412 55.0745 30.9370623362
2.56749 48.4423 52.1083 28.6091774491
3.23452 45.6118 55.1913 30.2146385484
7.04859 45.7095 53.6583 29.4911436269
7.75018 45.8799 56.2333 28.021867173
4.54244 47.4887 54.0065 30.2914599055
8.19715 48.1311 52.8713 28.8924553243
9.6366 48.059 55.9929 26.4695032006
10.7591 47.9233 52.9574 27.8410938316
11.9362 46.2893 55.6496 28.3281772117
11.4289 45.1972 53.3173 25.8126478764
14.9545 1.69125 6.39202 28.6439242049
12.5918 1.37547 4.87444 30.557567581
16.9838 3.05927 5.35256 32.6657734123
20.3332 3.22684 7.80527 30.8263643431
21.1756 3.24619 5.11201 32.0360429003
23.5888 2.07652 5.62709 28.4025024673
14.6227 6.55379 6.90413 30.9894200241
13.4681 4.09569 7.42102 27.6860400083
12.524 7.81875 5.21248 26.4050375734
16.1354 5.54261 4.75388 32.0143626804
18.6215 6.93335 5.5486 33.3480862389
22.2 6.17745 7.98092 33.8799922798
24.3163 6.69506 4.23474 29.1027663618
13.2062 10.4881 4.13181 29.4726476391
13.7086 10.669 7.10396 30.5647159799
17.4131 9.44333 5.80846 27.8132850393
20.1497 10.608 7.54184 28.8378393194
18.2893 11.9719 5.73828 28.7137890447
22.7294 9.01582 7.05026 31.9295338841
22.7158 8.75419 4.2534 26.571552768
20.9431 11.1345 4.34965 29.4405055549
15.3345 1.65017 9.31449 28.1709716607
12.9317 2.47558 10.1061 28.6876979383
18.8986 1.70885 11.884 29.156469036
20.411 1.28757 9.64792 27.7335531676
16.5291 3.06484 11.228 26.9630525851
22.6905 3.07249 10.9145 28.7460382449
22.9382 0.514754 8.37165 27.9280978802
23.4136 3.3572 8.31108 26.5799775343
15.3552 5.5164 11.5567 31.6053950131
12.8961 5.20429 10.0442 30.3134097777
17.7428 4.24355 8.14373 34.9399836002
19.4451 6.58991 8.43286 29.0388634734
18.4641 6.49222 11.2379 32.7666732675
22.6082 6.19575 10.8265 30.6251766128
15.8472 9.15754 8.12418 30.6632340341
14.787 10.1514 10.5665 32.3753413506
16.2009 12.1752 11.8902 29.7999974445
18.4299 9.14141 9.19759 29.9774782065
18.7107 10.7663 11.5243 30.6508275883
23.01 11.4604 8.83671 32.3429840358
23.3599 8.3749 12.4028 31.5059289804
24.219 10.6686 11.2851 29.0107154982
14.2843 0.544875 16.2911 26.2074696427
15.0466 1.21969 13.1456 29.2625261458
19.604 2.88195 14.3109 31.136090774
20.0385 0.372219 15.3388 29.22892277
16.639 3.53022 14.5097 30.6247343327
23.0659 3.97837 15.2314 30.8212026826
24.488 2.74738 13.0495 31.6936948033
21.7113 2.17749 16.8137 30.2391325198
13.6408 7.56847 15.9821 26.1488351274
14.5859 5.43234 14.2795 29.2935082862
18.4618 6.39672 14.5893 30.6680699612
20.8029 5.14591 12.5041 29.6351873724
21.5806 6.24025 15.2238 28.6429141505
16.0863 8.17241 12.5342 28.9197063585
12.5738 12.1322 15.2602 26.6946506759
13.5165 9.46964 13.5138 28.032005057
16.1791 8.26063 15.593 27.9882600617
17.683 11.1407 15.5805 33.2006505132
19.1091 9.15273 13.6921 28.8223374246
21.6025 8.8819 14.3263 28.8523494459
22.8396 10.4651 16.3438 32.7541748105
15.7792 2.71722 17.1791 30.4275475285
12.755 3.23807 17.3362 29.0210006874
17.618 1.51197 18.6482 29.2259286574
19.585 3.35075 18.5796 33.532715681
20.88 3.26703 20.9591 29.9571329308
23.2002 2.36219 19.5951 32.3517153465
23.7012 0.307666 17.6952 30.5698150578
12.5625 5.7524 18.127 28.4500131735
15.782 4.38954 21.1629 27.1469897919
15.3497 5.55228 18.6618 29.9172954037
20.1927 5.88218 21.0426 30.6554793788
19.5335 6.41677 17.769 32.9558829981
17.1583 7.82427 18.4063 27.2302420668
22.0027 8.15341 20.7411 27.886613536
22.4847 7.76011 17.6983 32.6241683431
13.903 8.17901 19.5805 27.1642126858
16.2966 10.8417 17.9924 27.3744138575
13.4478 10.6019 18.1985 26.5742972003
19.7244 9.18453 19.4261 27.8426107818
17.4641 10.7832 20.7497 29.1417982169
20.1821 11.0388 17.3944 30.3895429751
20.3038 12.1004 21.0233 28.55133766
22.8448 11.0851 20.3649 32.8287618013
24.4011 12.1205 18.4202 32.6813588189
14.9215 0.0533413 24.1426 63.80983088
19.2097 1.25322 21.7211 28.9065314281
16.6017 1.76083 21.4996 28.2338924708
16.7185 1.696 24.2215 65.9858931084
19.6448 1.49172 24.4971 96.3920074614
21.431 3.87589 24.0909 70.1798745907
24.0078 3.25396 24.2166 79.8904490554
12.6574 4.83689 24.0283 67.5512335498
15.7537 4.41366 24.1026 72.7286091638
13.1881 4.74791 21.2597 31.6019852727
17.4074 6.455 21.654 29.2825916291
17.5049 6.69329 24.4126 99.8951353334
20.1643 6.44909 23.9079 61.7047336669
15.7648 8.76517 21.4885 30.5093181146
13.2235 9.43173 24.5384 110.7965398305
16.0259 9.19125 24.2669 65.9201511489
12.4983 12.1121 23.6366 37.3259787121
17.4056 11.6309 24.1723 87.2612313462
19.9941 11.4895 23.707 51.9474421814
24.057 9.18538 24.6045 135.1818535154
21.5392 8.79509 23.5367 42.646022009
23.3815 11.6845 23.4058 36.0887322397
16.1367 1.34999 35.7325 74.4414412337
12.3849 3.2474 36.2551 43.5638962613
19.0473 3.65341 38.3114 28.9356178565
16.5518 0.376873 38.3288 32.8142591921
18.7761 0.23637 35.5856 82.7496879451
20.5909 2.52884 35.5883 99.2411944337
23.5805 2.22631 36.0477 57.6792693009
20.9915 1.34689 38.6855 28.7505189505
14.932 4.56522 38.5599 30.6082913932
15.7109 4.19014 36.0173 56.9974363748
14.8234 7.04792 35.7221 88.1179097899
14.5195 7.25411 38.7239 27.3744913464
18.3273 4.63985 35.9804 59.7905877884
19.6761 7.00607 35.8346 84.2713176497
20.3689 8.07767 38.3049 25.1422529176
23.0595 5.66089 38.5943 29.9159300167
22.5574 7.48799 36.0324 55.9180902561
14.1753 10.1431 37.6433 28.5754649598
15.754 10.0154 35.4423 93.962862258
12.3962 11.2997 35.777 87.8928875703
18.2961 9.60027 36.0686 49.6018283988
20.1327 11.7989 36.0231 59.0857812984
17.093 11.9346 38.3489 28.854666391
22.2199 10.2332 38.2743 28.1569710265
22.53 10.2348 35.5821 89.4406815152
13.6603 0.364705 38.9716 31.9523097404
15.4458 1.72894 42.9483 31.4640794609
12.4948 3.01469 39.0292 30.5968813766
16.8268 3.01182 39.8347 30.2577995711
18.0636 3.26584 42.217 28.2712334724
19.502 0.731144 42.0124 33.2961184638
23.288 2.8854 38.9892 28.0305034639
24.232 2.65205 42.0358 31.2540666006
22.434 0.95163 43.2358 30.2511390132
14.675 5.7961 42.7663 35.1701053735
15.9946 7.91545 40.6133 28.7677276253
20.2321 5.60421 39.6915 27.5092903573
18.1163 6.31493 41.7791 30.6954513661
24.34 6.07134 42.2313 27.6483881511
21.9865 4.6117 41.7253 29.9070679059
22.0098 7.91045 41.6137 25.6564367406
15.6451 10.5075 41.8368 29.386604768
12.5983 10.6757 42.6817 30.7817779052
20.0534 9.82297 41.1225 28.6287670057
17.906 9.28259 39.0547 30.0937377406
18.1243 10.5318 43.1512 29.3141692771
24.1071 8.67879 39.6841 30.3148049678
15.3018 0.950523 47.4296 29.0304229131
13.2542 3.25644 43.2689 30.4143320306
12.5701 2.41265 45.9309 34.2132342513
16.8106 0.405379 45.1436 26.9562791391
18.2003 3.20686 45.5636 31.9504415591
23.7765 0.908484 45.5833 31.0895500608
20.8883 0.869778 46.3251 31.0180129845
15.2741 6.30996 47.034 30.3005677226
20.25 4.69089 44.2794 29.8930345284
19.9141 7.3891 44.0242 29.3512172723
16.7899 5.62127 44.7037 29.9729834404
24.4845 5.2046 46.2338 28.1986217641
21.9108 7.8966 46.7639 27.6144115137
21.8742 5.27006 46.524 30.4913773044
13.5715 8.43451 46.8353 33.1866743209
14.9605 9.90114 44.8298 30.0876993702
17.6359 8.39429 45.2818 28.3513319844
18.9428 11.5677 45.4969 29.4319211256
23.236 9.45845 43.5556 26.919780629
21.4724 10.6683 45.6787 28.1096877183
23.2627 12.2314 47.2017 29.0964183075
15.7094 3.04396 49.3448 29.1982910927
14.4811 2.38877 51.8206 32.0666287168
15.9706 0.122288 51.8608 31.0913696488
18.2841 1.28303 50.4139 26.401565181
19.2465 2.64493 48.1566 31.1383122832
23.4963 3.17575 49.3855 30.2192830191
22.5446 1.02395 50.5491 31.5119374263
12.7302 6.83368 51.282 33.1475021928
13.8019 4.16713 47.7152 31.6948274944
17.758 4.84489 49.9868 30.0637808853
16.813 7.29408 49.1716 30.2953804686
21.0535 5.08361 49.1663 33.1319588187
21.1584 7.02218 51.6598 29.8189698958
16.1786 11.6519 48.3957 28.1617822557
15.0994 8.33479 51.0141 27.5728574957
13.6731 10.2325 49.415 27.4236463182
18.0471 9.28045 47.8223 28.7112927332
20.4293 8.31166 49.0183 27.3531488433
19.4747 9.91504 51.578 29.3598293275
16.9569 10.7801 50.909 26.1930199953
22.1323 10.4347 49.2324 28.123285851
12.9569 3.22884 55.2291 30.1330610536
15.4623 3.92279 53.9004 27.047407879
12.8913 0.10273 55.349 30.1996844905
15.51 0.193001 54.7971 31.0048681496
18.6253 2.3076 52.9833 28.665728713
20.0081 1.52099 56.0607 29.6713922709
17.1684 2.27025 55.4794 29.8608609088
23.0748 1.00143 55.2365 27.7105871199
23.0424 2.58848 52.9505 28.9457761897
14.7916 6.43569 55.1094 28.3744470003
18.9931 7.10853 53.7236 28.524632574
17.6331 4.94249 52.6208 28.2664233076
20.2382 7.64479 56.2383 29.5897127283
21.3154 5.06107 55.7047 31.2810845377
23.9037 5.07579 55.1506 25.5846645838
20.8127 4.35243 52.9531 29.8091234121
15.7608 9.20114 56.3594 31.4325608605
13.667 10.9428 52.3712 29.8852772432
19.2688 10.2342 54.4649 29.5706997981
16.4671 8.26231 53.6858 30.0349275144
16.9865 12.1875 55.6197 29.0565113003
23.2624 8.50372 52.1342 29.0591253129
21.3735 11.9631 53.9485 31.4178298196
23.2851 9.82548 54.4997 30.5584967076
15.2352 15.0368 6.07305 31.2685908202
13.4763 13.3268 7.8597 31.1175743637
18.0794 14.9814 5.29005 28.2087794866
20.8444 15.4171 7.3099 30.520124497
21.9959 13.682 5.18979 31.7452148046
12.7131 19.2183 3.66095 33.4242902564
14.5392 17.5859 5.83499 32.369320854
19.6981 17.5573 5.75203 30.4292618238
18.1653 19.2258 7.5318 30.4041663269
16.9297 19.0952 4.85445 28.8818004452
22.177 18.1431 4.30303 31.2529761881
24.0448 18.3106 6.56932 31.0269761537
14.6849 21.308 4.17623 28.5153072274
13.3138 21.7775 6.51122 28.3215422088
14.2525 24.0388 7.74565 30.0562063791
16.8151 23.2729 4.45438 30.94673693
20.3106 22.1524 4.91007 28.4122269989
18.1898 22.0806 6.52246 28.4855992395
22.6363 20.9362 4.89197 27.6406389232
22.8766 21.4739 7.42743 30.3067759817
22.7047 24.237 6.708 28.7401865405
16.2325 13.8991 9.18436 33.0059719706
14.0803 15.914 9.66441 28.0460337277
18.4147 14.309 11.5192 31.9464661318
18.8298 13.4049 8.28028 28.0081067085
20.434 12.3661 10.3419 29.668219494
24.5396 13.9384 8.31881 29.7797976751
22.893 13.2293 11.8727 29.702133093
12.4971 20.268 10.8719 28.6402754811
15.588 18.5714 8.39277 29.5765962717
14.8556 16.6208 12.2838 28.8954182834
16.8328 18.2918 11.1887 30.3529876424
18.7412 16.9961 9.91614 33.6904192918
19.2792 20.2968 11.5284 33.0120680848
23.0656 16.5028 8.51335 30.7128981509
21.7646 16.8065 10.9905 31.858292724
23.9796 18.8461 10.6607 33.7519746491
15.5268 22.5472 10.9846 28.9805338871
14.3541 20.8079 8.96198 29.2553598966
13.7097 24.3864 11.9723 32.0661926574
16.8338 23.5356 8.48981 30.8035928939
20.3199 21.3591 8.84149 36.1398154843
20.2629 23.3352 10.8251 30.2387229184
15.3932 14.8903 16.2935 30.714374893
15.3524 12.3736 14.502 29.4929366448
16.6644 15.0501 13.7751 29.8464899684
20.7765 15.0026 15.8353 30.0678998647
21.7274 12.7858 14.5583 36.3757075967
13.6414 18.1257 14.3582 29.7070866398
17.8736 17.7148 16.4696 31.0019601936
19.1868 16.5036 14.2106 30.3126966
23.6133 16.3757 13.4039 29.7627533032
23.036 16.5314 16.6211 31.3488783635
22.2865 19.3139 15.4004 27.6725915082
20.7458 18.4531 13.1207 29.3553705105
13.9266 20.9206 13.4659 32.7852401248
20.129 21.5583 15.501 29.0671388387
16.7239 20.658 13.156 29.5660738529
17.7011 20.7041 15.6309 31.0604983709
17.2295 24.1131 13.9757 33.7246253429
21.6997 22.3971 13.1981 32.7809442304
24.4087 21.261 16.5587 30.067080789
24.4004 21.2174 12.9548 31.5084177748
12.665 12.3349 20.4909 32.2306951112
15.5131 16.0512 20.5001 27.7782965224
13.069 13.5603 17.7188 25.9442320389
15.4781 13.1283 21.0805 30.2427473402
20.2694 14.993 20.9819 31.560891634
16.8346 13.6373 18.6617 29.4762959555
19.9028 13.7499 18.1639 32.5001748898
22.8524 15.572 20.9176 34.7533863609
12.7517 16.3498 18.6556 28.7346877686
14.6549 18.984 19.4939 27.898493411
14.8934 17.7222 16.9075 30.4365366116
17.3982 19.1367 20.7166 31.8157343035
18.2719 16.6679 19.2297 30.7823220677
23.2191 18.0553 19.397 30.2120847624
20.606 18.278 17.5885 29.7768340453
21.6661 20.1193 20.8286 30.4212333168
13.915 21.6285 18.6257 28.8667255758
14.0307 22.3415 21.1511 25.669220251
14.1768 24.2157 16.9813 29.7328541138
20.1629 23.1129 17.944 26.2381409444
19.3932 20.564 19.0111 28.1545170755
16.8009 22.4978 17.8423 31.8415937875
17.3012 23.3692 20.9675 29.1718370584
22.8782 23.0729 17.909 28.4884324846
23.6425 22.1485 20.5133 27.6642515545
12.7404 15.4364 21.5778 28.2471066426
16.1897 14.0608 23.8642 65.3258297075
13.5429 14.608 24.2288 74.2490110766
19.7293 16.1466 23.69 68.1893264959
21.7587 13.7458 24.3476 105.0339651929
23.0409 16.038 23.604 28.4172998222
12.747 18.6018 21.6585 28.8287311596
14.496 17.929 24.0738 76.522382224
16.8775 16.7294 23.0489 36.9366973151
20.4483 19.052 23.4274 37.2146376773
22.8143 18.4204 24.758 127.266955695
13.0645 23.8311 24.2556 96.2382152762
16.2578 21.2355 22.5012 29.5811219597
14.0402 20.817 24.2191 85.0668649816
19.8958 22.6842 21.4348 27.5333133082
18.4748 21.0205 24.2094 107.0048476578
20.3669 22.8627 24.2395 73.5066284988
23.0959 22.3835 23.6817 49.7313626829
13.1132 14.2478 35.9904 72.4334164641
15.7058 12.7407 35.8788 58.5484337392
18.1991 14.0391 35.6019 88.6143672701
18.8759 14.294 38.6402 30.6011886619
24.3947 12.3625 35.5999 78.3833080172
23.3524 15.1981 37.9408 33.5604470853
21.2688 13.2652 38.0051 29.4540691836
14.0873 16.7841 36.1599 57.5531859485
12.4014 18.888 35.6363 97.9885173355
13.8164 16.7614 38.8099 32.795857711
16.7163 18.2559 36.236 60.6486999088
17.6027 16.9828 38.6979 34.4203745282
19.0583 16.5839 35.496 113.0798344589
21.292 18.4168 35.973 47.9489745294
24.0013 18.098 35.5677 83.4447573296
21.94 18.9443 38.5324 32.158980301
15.3592 23.0428 35.6283 84.4964532539
13.1321 21.6374 36.0629 48.7210673341
17.4744 22.0602 38.5506 36.2795478725
17.7031 21.23 35.8469 68.7308260445
18.4364 23.994 35.8909 61.3576381323
23.3314 21.6507 38.5692 27.6841995952
20.7524 21.2262 35.4933 95.2321943508
23.5597 22.0696 35.7742 76.6621623886
20.9108 23.8153 36.6841 30.6183750995
16.323 14.0032 41.658 30.694909306
12.764 14.1025 38.9084 29.6786650297
14.7104 12.3094 39.7263 27.1392700216
13.9784 15.9589 43.0594 29.522415866
19.0027 13.7276 41.6077 27.8801019789
19.7759 16.3007 42.3697 30.0463846246
21.367 12.3104 40.7685 29.9478964515
15.4884 17.0444 41.0232 31.1634490408
14.5567 19.9288 41.1111 32.9996631304
12.7978 19.67 43.1765 28.2576389326
19.6027 18.2433 40.1558 32.788504633
24.1013 17.2088 39.8011 28.4300218183
22.4442 17.3503 42.1538 33.1601610493
15.2582 23.4036 39.2079 31.750033377
15.7877 23.6258 42.2345 29.8925745752
12.9496 21.5398 39.0441 30.0245725471
12.9676 22.8867 42.7085 29.8771162899
18.8934 24.3227 41.7108 32.0460687395
18.8969 20.9935 40.7693 30.7012371215
16.828 20.9358 42.6056 30.8459521853
22.5184 22.174 43.0801 27.4970946781
21.393 22.2909 40.4862 28.801931273
16.358 14.3091 44.4712 30.3005657748
14.64 12.349 45.926 30.7342066939
19.3399 14.854 47.6021 30.9706830213
19.1276 14.1383 44.8722 27.2189980805
22.2665 12.3857 43.4567 26.75831864
22.0247 15.0635 44.2099 30.4291807547
14.302 18.0021 45.4584 26.9481615248
16.6555 16.9594 45.0674 27.1807772249
20.278 19.9862 45.1779 32.2485255554
16.8915 19.8382 47.5009 28.4151792398
20.4193 18.1821 47.3733 30.949189601
18.4081 18.6095 43.5123 30.8221156967
24.3105 19.1966 46.3887 31.4353069464
22.677 16.8118 46.7254 27.2681065953
22.6517 19.5056 44.0639 29.715822475
15.5766 20.6377 45.3868 29.8635130668
15.7679 23.9122 46.1012 32.6874465499
12.7302 21.0865 46.6576 30.0861751719
13.0806 23.4709 45.2861 33.543007843
20.8524 22.8565 46.3608 30.1807846774
20.6926 24.3317 43.9441 30.4365959215
23.8435 23.1047 45.3089 27.6028373356
14.8378 14.2297 49.2039 29.4815308159
12.615 12.8209 47.8657 26.9376685732
14.0285 14.826 51.7482 27.32091756
17.3838 14.7682 51.6269 30.6112850314
18.7561 13.0927 49.552 30.950427507
19.8188 16.2325 52.0322 31.213217826
21.2114 12.3499 51.0238 27.874157469
22.0633 15.3738 51.0655 27.7934394732
22.156 14.5822 48.2734 27.9097636904
24.2785 12.6942 52.0157 30.8934095169
13.8622 16.3458 47.7595 29.0715095508
12.7173 18.3693 49.4407 26.524170829
16.1308 17.0939 50.2301 29.4497181805
14.6821 20.0583 49.2288 28.2357546855
17.6066 17.1786 47.6745 28.0043398348
18.6424 18.6454 51.3263 32.0280524454
23.4073 19.6643 49.401 28.5849006233
23.7235 17.1146 50.1592 27.1374536376
20.6539 19.8395 49.8523 29.0724497178
14.9246 21.5436 51.5594 27.8476627393
14.3971 23.8594 49.8625 27.5809244846
19.0815 21.511 48.0464 29.0864445697
17.837 23.8468 48.2218 30.6837680458
24.102 21.0672 51.6804 26.2298728135
20.9893 22.8115 50.6377 27.6559303118
23.2997 23.6565 51.9876 26.9452167988
22.8203 23.7243 48.6076 30.6770842581
15.9931 12.4513 52.9191 29.5641867121
15.4814 15.7 54.1636 32.3250604858
14.8234 13.9859 56.4243 34.1711447129
19.4269 13.6093 55.8675 28.9211872832
21.9804 15.4781 55.5139 30.6846520818
23.9463 15.0566 53.6613 29.2667744042
14.0435 18.5727 53.9244 28.5700120351
16.2092 19.63 52.6384 27.7916740198
12.3932 17.1824 52.0956 30.5957316216
20.1565 17.1496 54.6041 27.1744534022
19.4469 19.9323 56.3777 26.4263458447
17.6609 16.4715 55.7913 30.9085016855
20.6564 19.9429 53.6125 28.3852808167
23.3767 19.5878 53.625 28.7812903214
12.784 20.7049 53.1108 30.782717703
13.0073 23.299 55.1467 33.2871866939
16.439 23.9961 52.2249 32.6574477747
20.5067 22.5378 53.2622 30.0941642705
17.1053 20.6834 54.7967 28.6923743222
17.9754 23.1312 54.3022 29.4383435622
24.5952 23.7237 54.7714 28.9784357648
15.9171 25.7514 5.49626 29.1572529501
13.0257 25.2816 4.7872 29.2697704543
16.7494 27.2115 7.87727 30.233460226
19.2115 26.2854 8.00371 30.8118321783
20.8204 25.7058 5.57928 29.7130125247
15.9198 31.6392 6.06013 30.9021185807
15.0001 29.1765 6.84505 30.4075572723
13.9278 31.4218 4.30914 27.8643969551
12.7366 28.9057 4.42728 24.9854590109
19.3607 28.9287 5.77577 29.1076596862
18.5946 31.3957 5.40219 29.0004703099
19.7034 32.5141 7.58118 29.0395698823
23.5163 30.0746 5.96024 31.7402283628
21.6237 29.1619 4.08897 32.0641837958
15.3983 34.0635 7.49294 29.0994448135
12.9206 34.1136 5.97618 27.9227287877
17.7209 35.1288 6.57234 28.2160972736
20.9633 35.2409 5.18278 35.3852821644
24.2194 33.7338 7.00941 35.8949443026
23.2646 33.9181 4.23069 30.7145390493
12.3114 26.8371 11.1144 34.3937597806
16.7894 27.5342 10.7359 32.4908116244
17.8317 24.8417 11.2586 29.1884954446
22.1333 25.1618 9.28546 27.7841959484
21.7904 26.1274 11.8937 29.4553465597
22.8857 28.0247 8.6934 29.0544926082
14.2819 30.4441 8.921 28.3986331706
13.4017 31.4766 12.3329 32.4542834725
14.4379 29.0042 11.4515 30.9790649312
20.3441 28.8135 8.46811 28.7381902672
18.2266 32.2086 10.1501 31.5902250952
18.7008 29.6429 10.8967 29.1817117954
21.6622 29.3476 11.4568 28.0324560521
22.6144 31.7776 10.7104 31.0788454404
22.3115 31.885 8.13752 28.7420353062
15.7698 35.9912 11.274 26.8694270525
13.1762 34.6619 10.5694 26.8819916671
15.401 32.7928 9.81498 26.3782720429
12.3805 35.8081 8.39409 28.527805275
20.0962 35.3128 8.08562 25.8064190314
18.4126 35.6303 10.4378 29.1432048923
22.8193 35.614 8.52134 31.7385705313
23.5658 35.6383 11.1427 34.3677613267
14.658 25.2737 14.4314 33.1944242368
14.2243 27.8902 14.234 36.1141473763
19.2713 25.3828 15.4664 27.9012896454
19.302 27.1962 13.0163 31.3122221058
18.8289 28.1862 16.0979 30.0746279469
22.0192 24.6201 14.9624 30.711486746
24.0162 26.0363 13.8425 28.973329197
16.0465 28.9502 16.6124 32.1110797172
16.7915 31.6441 16.1259 28.4409717944
20.2242 29.803 14.3038 29.0055853815
17.9001 31.4216 13.4109 32.6003912777
21.5217 31.6842 16.2668 36.0206969264
23.2413 28.6483 14.5667 32.1629999107
15.1501 34.1252 15.6987 28.9768609181
12.3553 36.2211 16.0409 28.4155818544
15.5195 33.1672 13.0386 30.1113768782
14.0723 36.4885 13.5558 27.2658103687
20.2005 36.0014 14.6507 34.0934644043
19.3041 34.0043 12.5543 33.2720916359
22.5602 34.2186 15.4603 31.4440541746
