16.3113 9.65781 35.6879 83.7344290656
13.6506 9.95708 36.1556 52.4749493413
19.7103 9.80933 35.7699 75.8520759957
17.4576 9.58186 38.1723 28.6959734052
23.6317 8.70958 38.7829 29.0754186665
21.8416 11.5414 36.0738 45.5484305366
24.031 9.34977 35.803 58.9708772396
13.5869 2.05953 42.0315 29.2725904911
17.4294 0.400777 40.4691 31.8165555382
18.4113 2.64731 41.5696 27.5109487267
21.4417 3.79888 39.0453 30.7156506096
21.2495 2.38354 41.4841 27.9852606637
21.3526 0.497529 39.2895 32.0978790688
14.2227 4.48521 38.8421 28.4945660598
13.1419 6.79322 41.2325 26.4140251307
15.055 4.62418 41.9825 29.42985613
17.607 5.23305 40.8526 29.2313603298
19.2201 6.80992 42.4449 28.5387673821
23.2155 5.68476 40.9377 29.4273131655
14.8635 8.953 40.5691 31.9776788775
13.9221 11.0529 39.0205 28.1201809667
19.9301 9.13556 39.4052 31.4007466434
16.5691 12.2526 39.2125 28.3775148431
18.5381 9.39799 41.9777 26.5932064951
17.6557 11.992 41.5529 25.370582965
21.9959 12.0235 42.8414 30.23021526
24.1494 8.29123 42.1403 30.6978209551
21.8431 11.2842 39.1276 27.1746116126
23.8997 10.7938 41.1434 28.6904310781
14.7212 3.34017 45.9299 30.3962379474
14.6839 1.06397 44.3702 29.3173335677
19.6911 1.88237 44.3848 27.8999666007
17.2574 0.125438 43.6078 30.3239630802
19.9642 3.4578 46.8057 29.1680677573
16.9902 3.80768 44.0254 28.752892429
24.182 1.7063 46.702 28.8389218407
23.137 0.765481 43.2327 33.8599887607
12.9336 7.58579 43.9028 28.4089384833
14.6239 8.13254 46.1369 30.4228226935
12.3948 4.90048 44.333 29.4038763272
17.5871 6.31095 44.3903 26.6410574348
19.9833 6.276 45.7263 28.8074969288
23.4922 4.10626 45.0088 31.7333923448
24.1033 6.10399 47.0662 32.8868397608
21.5206 4.6702 43.2264 29.0514603144
15.6931 8.80437 43.3256 27.31231654
15.9962 11.3975 43.8052 28.9734572482
17.7351 8.9059 45.8627 26.3030548034
17.4173 11.6932 46.2242 29.8242865419
19.9996 10.2256 43.9934 27.1925545292
22.8793 8.77254 46.7763 30.2376083564
21.9058 8.21046 44.1773 31.422664701
24.5283 10.9549 45.943 31.6005633289
16.297 2.52739 48.3911 29.1802534982
12.8588 2.48697 49.8021 26.0688157729
15.1622 2.43152 51.1777 27.7881607409
18.7257 1.03339 47.9789 29.3466792098
22.2688 3.17338 48.4462 28.4211258509
22.3059 1.10859 50.7644 28.8928930926
20.533 3.51846 51.1733 29.2501716032
15.1767 5.7962 47.6483 28.9293621548
12.4404 6.2194 50.4019 29.4748332972
12.6294 4.74802 48.2441 27.761187917
17.8373 4.92565 48.507 28.1894747872
17.3662 4.11176 51.2432 28.3707611896
17.0796 8.06055 48.9571 26.8468929222
18.1954 7.23989 51.4789 26.5590401272
20.5844 6.11113 49.9812 30.6838032081
23.1702 6.80056 50.9891 28.1124096415
24.4737 4.96925 49.7204 26.8191128728
13.4486 9.82029 47.9151 33.3736293247
14.5154 8.2806 50.0228 28.5319720945
12.9199 11.4567 51.1248 29.3879183315
16.0643 11.9543 50.629 30.6082438423
18.2893 10.6599 49.7969 30.3426604394
19.9439 8.43161 47.7212 28.7519692223
21.1487 11.061 48.1361 32.8550036919
24.0724 10.91 48.9705 28.5694535319
24.5888 9.08063 50.7961 32.5427867564
12.9064 0.363839 55.1105 27.7330894755
14.3232 2.72376 54.0968 31.8099550009
18.468 3.09211 55.8885 31.2676240689
18.3873 2.12537 53.0113 31.1154625391
22.5137 1.53537 55.5433 30.798544018
21.965 3.3464 53.5077 29.3696782244
13.5367 5.57343 52.7577 29.4551554913
12.6826 5.62389 55.5242 30.8522266688
16.1843 6.28608 52.982 30.1428788524
20.1844 4.98727 54.9378 29.5278138389
17.6346 7.09587 55.2024 32.5018451783
24.0968 7.4218 55.0475 30.3717538748
24.1712 5.33672 53.2123 30.7536445368
21.0667 7.3079 53.2256 30.7673462139
12.8251 9.18916 54.5216 30.4142065483
14.9471 9.33304 52.521 28.7064516852
12.8711 11.751 54.1488 29.3874466226
19.1788 9.6083 52.5002 30.0890837896
16.9429 10.7587 54.0245 33.1025950406
21.8745 9.54831 54.996 27.7576177924
20.6131 11.8629 53.8692 28.3388065234
13.931 14.917 4.54616 33.0620625721
12.4498 15.2505 6.91915 30.7178438899
17.2866 13.0812 7.3493 30.8841460926
18.2756 12.4257 4.81799 28.533280323
20.639 14.2694 5.08064 30.5153873573
22.9266 12.7542 5.73465 30.7065778282
20.7613 15.7108 7.38897 32.3479238427
15.0927 17.5059 4.82801 32.1125757885
14.5727 20.1989 3.71552 32.5444877576
14.2072 18.6522 7.33126 29.3559228389
18.3876 17.2372 7.3487 26.2664276757
19.0872 19.2506 3.96224 33.1422842127
16.9848 19.6793 7.46524 26.771886512
17.6014 17.0138 4.8797 30.0397403718
23.4194 18.4952 5.30704 34.0559312966
22.1955 18.1477 7.83535 32.9352907261
14.0086 24.2223 5.55889 29.1534050194
14.1239 21.9133 7.71274 28.0481678296
15.8992 21.9067 5.24971 28.1842812194
18.7089 20.9916 5.99547 27.9594892247
20.9156 22.9987 6.22076 32.8081575315
23.9651 24.0038 6.51437 34.6702893288
14.2222 13.2303 10.2662 28.9618654337
14.3072 16.1657 8.7817 27.9467390302
16.3427 13.5476 11.9839 31.3294767145
16.9502 15.4551 8.7313 29.6151599326
17.7994 15.9029 11.4319 32.3146850762
20.4079 15.4843 11.943 31.0030030472
23.3613 12.905 8.51565 28.1195409098
21.175 13.9193 9.54952 28.7308019974
21.0479 12.3133 12.1057 30.6805212384
13.3474 16.806 11.2489 29.6775387238
14.2602 19.448 11.8734 30.6102069864
19.5779 19.2813 9.23954 29.8221470743
21.175 19.2862 11.7134 28.2124619277
22.9989 17.2792 12.091 32.4247071676
15.2056 24.3393 12.0742 29.9068483026
12.4069 21.3238 11.1916 32.4541548099
15.7412 23.8016 9.13753 31.7942053903
16.0827 20.9328 10.0047 30.3204293119
18.4474 21.4958 10.9278 26.6156778962
18.84 23.5223 8.30063 29.9532321669
21.5503 21.2633 8.63003 31.8091521095
24.5449 22.2231 9.45353 28.4983642572
21.8664 22.0923 11.304 30.9357404671
12.425 12.706 12.5199 27.34255966
13.6713 14.8934 13.4878 28.3553599006
15.5057 14.8584 15.7161 29.2292233898
20.1684 13.3225 16.0547 29.0981367262
20.3404 15.6973 14.6413 33.084324825
23.2839 14.1997 15.8407 29.4094766209
14.9082 19.2455 14.8283 30.6896288863
16.8165 18.1955 12.9575 29.3067583363
17.6443 16.6716 15.2045 30.7277205168
18.8759 19.9044 13.2115 29.2712166789
18.7449 18.6209 16.8041 32.2250180074
23.3786 16.8654 14.9039 29.5372900942
23.4534 20.1257 13.6335 25.3726996244
20.6181 20.1107 15.1818 27.3814869247
14.2771 21.8836 15.3849 31.3957050923
13.054 23.1203 13.1955 29.1004440576
19.0954 22.6901 15.2866 30.2193606744
17.9468 23.7652 12.7445 30.4438951459
16.4742 23.0582 16.6969 26.9287010945
22.9436 22.5373 14.9573 27.5735494446
14.0402 15.5328 17.8952 33.1736728082
16.0514 15.1644 19.9428 28.1789584985
12.4101 13.4163 16.9923 30.6858615551
17.7454 13.9497 17.791 29.991063313
20.0543 14.6519 19.2614 30.5670694471
22.3959 13.4166 18.7003 30.7229981886
16.3168 20.0598 17.4718 30.3334101056
13.7208 19.8064 21.0128 25.6484911171
16.0961 18.8247 20.0681 27.9843375961
13.461 18.3816 17.9287 28.6634637363
20.4553 16.7572 21.0289 28.3568704129
20.648 18.528 18.7742 30.5372930225
22.8556 19.0197 17.1221 27.8680431353
14.5095 21.9617 19.5203 27.1230698716
20.0951 20.8348 20.1629 29.5612416481
19.4053 22.9186 18.3858 28.8548076625
22.1013 22.0056 17.6597 26.3093810426
22.7897 21.0799 20.7954 31.508307524
24.5652 22.9576 18.9748 24.1217333734
12.325 12.455 24.4183 99.0104387593
12.9473 13.6166 21.7919 27.6851924918
16.2872 13.1706 24.112 67.0115160277
12.7019 15.3177 24.2637 74.5472593253
16.0346 12.8774 21.273 29.3209303819
19.9476 14.195 24.4421 77.7500046111
17.5727 15.7954 24.046 59.0309200216
19.9031 13.4442 21.6364 29.7422904034
22.8379 12.6261 21.3586 26.5856292598
23.629 13.028 23.7675 30.0015752212
23.5493 15.6735 24.5995 96.9444104869
14.4359 20.2678 23.824 47.2225013964
13.7858 16.5223 21.3411 28.969885687
14.8247 17.186 24.2499 81.5432539329
17.7699 16.8976 21.4803 30.1481917495
20.0284 19.3219 24.6264 117.1664378198
17.1775 20.0556 24.3451 74.5661956476
24.103 18.9128 23.7919 52.595550167
23.328 17.7866 21.3243 31.6680785232
21.2465 16.8957 23.9057 36.543266627
16.3965 23.1145 21.2982 26.8861352632
14.1135 23.1285 23.9717 59.3282082986
17.6392 20.5718 21.51 29.5949400992
17.1139 23.0908 24.2861 79.9234157278
19.9933 23.515 23.8969 62.6876667709
24.4199 22.7677 24.4926 112.5627960061
22.0955 21.3387 23.6669 38.4262723518
14.9224 13.9405 36.3126 57.1594574311
12.6714 12.7301 36.2823 52.6111468441
17.2848 14.9387 38.2607 29.5861331802
19.7572 13.5142 35.7648 86.6347259921
18.824 16.2995 36.0203 54.9829402551
17.2743 12.3977 36.2828 46.5202031439
20.7133 13.9891 38.5951 27.5118852641
23.5418 15.6413 35.7194 81.6627494636
23.3231 14.9242 38.5977 27.3519840586
24.4364 12.3673 38.2604 24.008572264
24.318 13.0948 35.7083 69.1874936274
16.0981 20.3086 35.9429 53.3742331361
14.4172 16.4582 36.0546 62.371814175
15.8671 20.1995 38.7555 29.6186140033
15.5146 17.2012 38.7179 28.5674669913
16.6536 17.8146 35.3492 117.614853997
18.973 20.2627 36.3335 43.6401798283
21.304 17.7152 36.301 43.1470451975
22.0587 20.356 35.6539 85.7484879252
13.8745 21.9192 35.5549 121.9523190969
20.2919 22.9394 35.5165 95.8836565065
18.5051 24.1048 38.28 29.0385610829
17.4893 24.479 35.8014 79.6748799607
23.8403 21.275 37.968 26.4049326842
14.0796 14.3964 41.644 29.3758178482
20.1379 13.3953 41.2858 28.5057106733
17.0317 14.5538 42.4722 27.0838868911
20.6823 15.9606 42.2823 30.8223300994
15.2063 17.2804 41.284 29.9013554255
14.0759 19.4621 42.9726 27.0050330062
12.6727 16.3923 39.4067 31.3322249916
18.3661 17.1098 41.2838 29.4241916814
18.6867 19.6347 42.173 28.0662623257
20.1063 16.8499 38.9956 30.5130083006
23.1648 19.4603 41.838 32.2309773639
23.2788 16.4742 41.1845 31.4061523951
22.3485 18.8866 38.8292 27.5148667838
13.5858 22.5204 42.3242 34.019446652
14.0089 21.6153 39.6074 29.0683091358
16.3097 21.0723 41.8663 31.1066483411
14.0035 24.3749 38.8788 32.5049252729
18.378 21.4999 38.8792 31.8201829069
20.1354 22.5472 43.0868 30.9547762885
22.7141 22.9481 39.8148 27.4247621913
23.9554 23.528 42.234 29.843070321
20.7286 20.9013 40.5693 28.8910429723
13.3275 12.5739 43.8953 35.1833159587
13.3271 14.3873 46.2601 27.9715411683
15.0055 15.6947 44.5707 28.7864467472
18.3812 14.1183 44.8032 26.9849134002
16.9777 15.6016 46.6489 32.6034641549
23.5908 13.2517 44.978 28.3887985198
21.8423 15.104 46.7506 31.3635150889
20.6755 12.5014 45.7566 28.4290380725
16.4007 19.7182 45.6759 29.578873793
13.5143 18.1645 45.4123 30.4458622744
20.0499 16.5717 45.0523 29.4413571684
18.2034 17.8542 47.5428 28.2236867132
19.2758 19.3197 44.8075 27.4703173603
22.38 19.349 44.8949 32.2589189851
23.5438 17.5286 47.0572 28.2391976936
14.0506 21.5019 45.2981 26.9342516065
14.5371 23.9477 46.3844 32.5245699004
17.4367 22.1643 44.3728 30.8585929695
17.5267 24.3351 46.2235 29.4021459222
21.4942 23.1704 45.4446 27.2953654936
20.8404 20.8663 47.1783 26.2430104235
23.7827 21.7003 44.3647 26.4217734408
13.2428 14.2389 50.5557 30.2308590017
15.1814 12.3381 47.7542 31.8274097397
14.8976 15.4052 48.7463 27.5089206923
17.0455 14.6741 50.9451 33.6357785741
19.6152 15.3395 51.3387 28.8674754919
20.3857 12.4918 51.1401 31.2696460666
21.8222 15.4122 49.546 29.4420803943
23.1822 13.0527 50.7652 29.2717258672
14.4659 17.9564 49.6406 29.9298362979
13.2152 19.8514 48.1335 25.637026227
20.0348 17.9535 51.1738 29.0147985166
17.0223 18.7596 49.7611 29.1485153732
20.8101 18.3034 48.4587 26.7621397814
23.5363 17.2276 50.5298 27.7381184675
23.5058 19.9045 48.8983 31.7669999384
13.7769 23.8491 49.0372 27.7228381867
16.1736 20.8716 48.3193 26.0260557863
15.8873 22.9291 50.1206 30.3774116439
18.6499 22.228 48.0472 30.032527073
21.2417 22.1187 50.0323 33.1949896089
23.3634 24.0486 50.6858 30.0834874676
14.8797 12.878 55.5818 29.7249527435
13.7383 15.5316 52.8761 30.6707671985
19.5798 14.3449 54.195 29.927231838
17.406 14.6348 55.8722 28.6021577421
16.5581 15.9761 53.3195 33.1811134629
24.1898 15.7748 53.3592 29.8570538071
21.5893 15.7774 55.4634 31.7911779289
23.1909 12.7035 53.599 27.6449194161
24.071 14.142 56.024 27.2201859513
15.15 19.979 53.6889 30.4812382476
13.3017 18.1842 52.1444 31.2602506228
17.3849 18.7618 52.5988 31.529647654
21.7501 18.6644 55.9333 31.4160408273
22.4776 18.3964 52.9389 36.5160817742
15.491 22.4424 52.8376 31.3026311483
12.8993 23.9512 52.8589 30.7159017037
18.5523 20.8243 54.3328 30.9963466184
17.7886 23.1297 56.1323 28.2977354923
22.4239 21.4272 54.6053 32.8547498032
20.6939 20.8914 52.6023 33.4700235551
20.6397 23.2435 56.0725 31.321303557
15.7195 26.4813 5.75492 32.9187998711
14.6892 27.84 7.95526 30.3889808998
19.7432 27.0451 4.8004 27.8975201339
18.292 25.0659 5.91872 32.6783467253
22.2554 26.8702 6.38852 29.4932657635
23.8147 26.0374 4.20331 28.3396988552
16.3764 31.6987 6.30354 32.8248802787
13.4401 31.3689 5.57521 31.6895564269
12.463 28.8369 6.84445 33.2731223451
17.6305 31.0887 3.80873 29.4584909036
19.7069 29.6656 5.81601 31.011402677
24.0138 28.7256 6.09836 30.2438834824
22.0169 30.7816 5.1501 28.9944329922
12.7282 34.9878 6.20187 28.5756473349
14.1899 33.3166 7.93892 30.192257028
15.7543 36.644 6.57864 28.7552898798
14.2066 35.9674 3.889 28.9431347012
19.8892 34.2517 6.09587 31.6653995565
17.0876 36.0568 3.80068 31.9096455713
22.2654 33.11 6.87599 33.435878458
23.7457 34.78 5.33633 28.4657959528
15.3964 27.243 11.3722 34.4823873679
13.5068 25.4736 8.74549 30.0059623175
19.7387 25.4488 10.2285 30.5392598836
18.0647 26.6717 11.8641 31.080919911
21.4664 27.3935 9.22008 28.7732904831
24.0584 26.6589 9.95403 29.2888359657
21.8066 24.9787 11.7997 29.4221890145
15.6766 30.4148 10.9518 34.8709150621
13.2866 31.7192 10.1624 31.579246242
16.7988 29.6653 8.22647 31.7114307806
18.2646 32.0156 10.7442 29.5844213617
19.4112 29.4295 8.66999 32.0188185185
24.5465 29.4412 8.88561 28.4070609306
20.7546 30.7379 10.7292 26.3508465657
22.8744 31.8449 9.21445 33.4828694089
21.4528 28.6995 12.0892 28.3228317338
15.9268 35.4974 11.306 28.8693243008
16.165 34.784 8.67779 28.7213721138
13.4199 35.9627 12.0654 29.5906643663
18.233 33.1148 8.15473 33.1737966408
19.2056 34.0729 12.2967 32.0583051298
23.9778 34.0613 10.4945 32.3930252616
14.4458 27.1978 14.2345 32.8240837372
16.2856 25.2467 15.2187 28.3888725311
19.0834 28.4319 13.8948 34.024421845
18.8952 25.9638 15.2032 24.7177363993
24.0632 26.4471 13.0459 28.0716727314
23.1453 26.6334 16.5401 27.0819458852
21.5111 25.1142 14.5713 28.9417960711
14.1867 29.8321 15.3209 26.7344621811
14.1239 31.834 13.3922 29.3522259532
20.1915 31.1299 15.8305 33.4206749851
17.2912 30.2686 15.5044 32.4774177854
23.1881 29.606 14.2717 28.5241797829
21.1438 32.2941 13.189 29.3704699203
12.8483 33.5143 15.6199 28.4130479613
16.4023 33.3507 13.2548 29.7202951272
12.759 36.2315 15.2315 29.3638740831
17.5409 35.8401 14.8771 29.0616835055
17.0233 33.1041 16.2419 30.3070251745
23.465 33.7208 13.5438 27.952941218
23.3638 36.4181 12.8627 28.3322132402
20.5364 35.7366 14.4677 26.106837284
20.797 33.7822 16.424 28.1857273907
23.81 33.412 16.3884 29.4759080199
14.8666 27.131 17.5071 32.1078144802
13.7871 25.0857 19.4319 29.8851491176
17.635 28.4961 17.7201 30.9010480324
16.9874 24.9419 18.9115 28.1251765962
19.442 26.2528 17.7822 27.0224518505
18.2996 27.572 21.2132 28.1128538874
19.3474 24.5429 21.1971 30.265016322
24.4668 25.1347 21.0728 31.0186287785
20.6053 28.5938 20.0269 30.3051338838
22.1575 25.0502 18.6136 29.240811325
14.309 28.9858 20.026 29.4649323943
13.6127 30.6267 17.9836 28.4128532999
16.9634 29.6088 20.1826 32.3895609318
21.1368 31.3406 20.9508 32.0085752749
23.5373 32.0191 19.8792 28.3601235375
21.8059 29.1468 17.5444 32.5214225155
24.1733 30.7991 17.3926 27.7059792231
14.87 33.6781 20.455 28.2037080671
14.6135 33.2378 17.671 28.0444185523
15.7995 36.4525 18.4641 28.312578302
12.8882 36.0489 18.4097 27.9159995721
18.2017 34.4077 18.5499 28.0798219951
18.3647 33.023 21.154 30.1632657875
19.4387 36.6689 17.3354 27.0808114139
24.3991 34.3734 20.9373 27.5670239055
20.9835 34.122 19.5625 29.0472927119
24.4431 35.3926 18.2486 27.1934061511
12.4012 27.3559 21.7074 29.7763604643
14.6181 27.7918 24.2083 95.7286173641
14.4148 25.3035 22.2968 29.1985604382
17.1821 26.0192 23.9927 65.6884172174
19.1713 28.0975 24.0049 67.7154321352
21.6644 26.3634 21.3291 31.0465042869
24.2611 25.2833 23.6927 33.2227139254
21.6977 26.1973 24.2064 75.132785136
15.1477 30.7302 23.5693 49.7580592185
13.5494 31.4182 21.4183 29.104426671
17.7764 30.2952 23.0393 30.8629389796
19.4828 32.2833 24.3172 95.8867446802
22.1018 29.1106 24.6083 106.5238753056
21.9937 31.7311 23.6443 40.3180492641
12.864 34.4898 24.1018 65.5323755602
12.7508 35.1024 21.2932 26.5623712291
15.3535 33.3847 24.3015 99.2421736586
18.0641 34.5325 24.2429 82.1623711172
17.1155 35.2965 21.7635 26.0011559361
19.8838 36.2002 21.295 27.0489544534
20.4211 36.5723 24.0896 72.6442390374
24.1695 33.6992 23.734 57.5482715427
23.4111 36.4363 24.2391 82.7980873819
13.5035 26.8521 35.7356 76.5188319979
13.6452 27.9018 38.2424 31.8088069118
14.7102 24.5353 36.0367 48.1084820728
17.5987 27.2324 36.1751 41.366785844
20.1656 27.5597 36.0694 56.5761155714
16.4774 28.1863 38.8015 29.038957247
21.8524 25.1994 35.8792 65.8552786141
21.077 24.8195 38.6267 28.9926531028
15.7035 28.9414 35.457 121.1618834828
14.6251 31.4281 36.5691 37.0655885684
20.4812 30.4353 35.4305 101.4493294557
19.3448 31.616 38.2621 30.5928929867
23.1758 29.7387 38.487 30.377688483
20.6089 29.0519 38.5653 29.0659899252
23.2389 30.3935 35.8348 74.376281688
16.0297 33.7115 35.9114 73.2748034708
14.8826 36.2378 35.5475 117.5611036888
18.9228 32.9512 35.6447 88.001570873
17.2887 34.1039 38.7582 31.9195760271
20.4725 35.2603 36.2192 40.5580297879
20.0658 35.3025 38.6411 26.7649919935
24.4327 36.496 36.9675 32.8555985772
23.0174 34.5105 35.7642 106.0562115384
19.7912 25.2362 43.0799 29.0336052664
18.5553 28.3378 40.9732 28.1323591505
16.546 25.6074 39.6162 33.8261638543
17.3939 26.3129 42.3284 32.4407264496
20.899 26.7216 40.4704 29.2923204989
23.4512 28.1619 41.2217 31.4832059598
22.555 25.8014 43.0523 28.9492252221
13.7942 31.5387 39.5064 29.6043669469
14.5596 29.5825 43.0228 27.9841605897
12.399 29.762 41.3241 28.801269992
16.6364 31.0948 39.0961 27.5956246197
16.4944 31.0675 41.9893 29.2989719589
21.2341 31.3217 42.5282 32.5661419065
23.9144 30.4828 43.0785 28.0466450341
14.4602 33.4496 41.8507 29.2869329098
12.8837 36.1085 38.959 30.4986521457
16.4498 35.3675 41.4125 31.2233648303
19.3991 34.685 42.0896 31.045570297
23.7019 32.7549 39.4629 28.1577633084
24.4569 35.2986 39.3882 27.4904766443
21.201 33.0553 40.0665 29.4800377577
22.0388 36.7589 40.2193 29.3182213764
15.143 27.1115 43.8009 34.0298657118
12.9604 26.1441 45.3932 30.1937640598
17.2405 27.1788 45.8553 30.5677143394
20.3477 25.7343 46.0397 26.8704593887
22.5069 28.4045 46.3862 28.525047813
24.2177 27.0758 44.8896 28.4051979287
23.7729 24.9767 46.6125 26.6826831008
13.4944 28.8607 46.4493 27.9561514313
12.8004 30.6906 44.545 27.1124883962
17.0132 31.8726 44.8155 29.8209787556
19.8193 28.6134 45.5886 30.2956370476
17.7595 30.6082 47.3825 29.857099975
19.0522 29.9876 43.2173 30.1373844921
23.0195 31.3597 46.2802 43.7106273919
14.3629 33.008 44.8225 27.4147586406
19.0405 33.6014 44.5643 31.5012303633
17.9758 36.1537 45.3578 29.3329450482
21.9335 33.5263 44.4829 31.3007946353
22.2095 35.2732 46.8806 33.6877883079
23.3033 35.9981 43.3058 32.1662638786
13.9464 28.1409 51.6921 32.7990181172
15.964 28.5614 47.7629 29.8364166836
15.9717 27.3547 50.0683 28.9178861773
12.7443 26.2856 49.7781 30.3627555699
17.6012 25.1198 49.9786 30.0601242034
20.3444 24.8813 48.8786 28.7356046006
23.21 26.5231 48.7176 26.8142141415
23.2378 28.2281 51.6585 30.8623376883
20.5177 27.509 50.1903 26.9143359436
12.9632 30.9215 48.52 32.5143300169
13.8789 30.8049 51.2053 30.1317598467
18.1155 28.8473 51.0149 28.4138707063
20.248 29.5567 48.591 31.7178207313
19.8461 32.0899 49.8721 30.2448178119
17.606 31.5632 51.7653 29.2946802512
13.2464 34.9505 51.7557 27.1726600582
14.4219 33.016 47.6524 28.1817047989
14.175 35.8233 47.938 30.4186922286
15.4289 32.9388 50.8017 27.4090453721
18.5834 36.1218 50.0456 26.8999294586
17.4524 33.1033 48.4531 28.5053725578
17.0891 35.8421 47.8704 27.5378065508
20.8073 34.9419 49.3046 32.9829408041
23.2023 34.1522 51.3013 36.3989165847
24.1925 36.748 48.2175 29.4301385011
12.8402 24.8084 55.5496 31.4651188721
15.4572 26.7826 55.71 29.7235563244
13.3822 28.1083 54.5872 29.3766872636
16.7799 24.714 54.1908 33.4416063707
18.7961 25.6068 52.3915 31.0452242573
19.0622 28.3463 53.4007 30.360725768
17.8259 28.2638 55.9005 31.0352198702
21.5007 25.6125 52.8127 34.7044893363
21.4017 25.8235 55.5884 30.6565281028
14.2298 30.7019 55.6498 33.9982099324
16.1177 32.2433 54.342 31.1407408576
21.3877 32.1013 55.6184 26.3260745247
24.0368 29.8468 55.7986 30.6319271897
21.7654 31.8379 51.9915 30.0100419285
21.5018 29.689 53.877 31.6748609372
14.9373 34.7625 54.1893 26.3263686408
19.7065 33.5511 53.2008 29.2545166657
17.4627 34.8977 52.1314 25.5562963534
18.9936 33.567 56.1929 31.072706922
23.4023 33.7617 55.6128 28.8864314606
22.4683 35.5866 53.8105 30.5439598392
13.6907 40.5477 4.37072 28.5545919562
13.9906 38.5886 6.81018 30.890958394
18.2276 38.0984 5.33248 29.5457272269
18.4253 39.7554 7.66618 30.1895902732
20.4694 36.8987 6.59416 31.9998289965
23.1103 37.2729 5.80492 27.4600435429
23.2977 39.3931 7.74789 27.8452455767
23.2707 38.9825 3.73611 30.7797377958
16.144 41.4906 4.70228 27.1137446818
12.7358 42.5519 6.19576 30.8675266859
15.074 44.7208 6.54373 30.2446377292
17.1409 42.0832 7.09476 32.1159307741
18.9419 43.8253 6.14834 29.1868007991
19.7956 42.5976 3.82156 32.0069931199
21.1897 42.0378 6.94924 30.5709036898
23.4123 41.4287 5.00653 29.9221558513
22.7075 44.2934 7.39735 34.0437365238
12.383 45.7421 7.58828 31.6335476876
13.2169 46.7633 3.88301 28.4696059672
13.0145 48.4775 6.14279 27.1128523694
17.1334 46.6803 6.0272 29.6821297902
20.6906 46.3208 6.73485 31.5072797877
22.775 48.6355 7.11248 33.9944448565
20.9828 46.9079 3.76295 31.4490703736
14.0429 39.3361 9.74652 32.3910627638
18.4111 36.9078 11.0879 27.7590500088
16.665 38.1895 9.20041 28.8208398839
16.6615 39.6814 12.056 35.4158076968
20.9197 40.1211 9.04276 27.1699913368
24.5815 40.4543 12.1555 28.239388178
20.5628 37.4135 9.25061 31.649017445
21.8147 39.5887 12.1695 29.6910656461
23.2247 36.8734 10.2146 28.7143806576
15.815 44.1362 9.29417 33.4673587278
12.9294 43.5579 10.6425 32.723162932
12.485 41.5303 8.76009 32.679205564
18.657 44.4125 10.525 32.8707568758
20.8268 42.515 10.6793 31.5251945614
22.9935 44.1724 10.0416 30.5826001986
12.7733 46.6298 10.29 30.5741893584
15.6776 46.1068 11.3576 31.7163184513
13.8113 48.8997 8.96402 28.6670271428
18.7445 46.6247 8.68287 29.7732901511
20.1705 47.8987 11.0142 30.2204562582
16.8535 48.8324 8.35527 31.0342896525
22.6494 46.5379 11.3779 34.9868277267
23.2838 48.8957 9.81606 31.7327793928
16.1635 40.7395 15.3109 30.0094115129
15.3686 37.453 15.8895 28.5654679325
13.1728 39.9441 15.0531 26.4658115824
14.1493 38.6716 12.6441 31.3013723004
19.1593 38.1754 13.3014 28.423427665
18.0879 39.1639 16.0986 28.8678051966
22.7227 37.5737 15.6544 27.1560260023
24.2996 40.201 15.2245 29.8667879754
21.0552 39.8879 15.0783 28.31513429
12.6634 42.5329 14.4419 30.5528318277
14.6726 43.8509 13.0127 27.9251047361
18.8585 43.5946 14.2619 29.6565659484
16.9872 42.6151 12.7112 31.0118403543
17.5765 42.9496 16.5106 28.2348812504
23.157 43.7332 14.4355 30.0685612655
21.1814 42.2572 13.3794 28.1147769213
15.2561 45.7278 14.9875 27.9889375222
12.8918 46.796 15.5254 27.4451395654
19.2184 46.3424 13.4346 29.3356815144
16.9733 47.6346 13.8693 27.0160010372
17.3389 48.9291 16.3311 30.4209664056
20.8799 47.619 15.0978 26.4622818783
23.07 46.5903 14.1612 32.3907209395
24.1586 48.7904 15.9268 26.7153139198
13.5943 39.706 17.7616 27.3793853697
15.5647 40.5238 19.2398 27.1488284233
17.2541 38.3307 19.9609 25.9632084179
20.0062 38.7524 19.8627 26.6411746184
22.2507 36.9232 18.3399 24.5750446446
23.0094 39.6335 18.8733 27.0882989277
14.8112 43.2909 19.1198 29.2868834907
19.1061 41.2187 18.5618 27.4594235503
18.9067 44.0011 19.343 27.3342117495
21.6635 44.1247 21.0921 33.0815529119
21.5236 41.5668 17.7467 28.7966490965
22.912 43.7303 17.1025 29.539179955
16.1575 44.9416 17.4802 31.1221019321
13.628 47.315 21.148 31.5480680575
17.9666 46.848 18.3852 32.6174672488
18.3385 47.634 21.0933 31.842433022
22.9242 46.1968 19.9812 28.1781729118
20.5292 45.5511 17.5129 29.6806031508
21.9384 47.8205 17.6936 29.9292297121
13.7708 37.7714 21.9433 29.6278107051
12.5479 40.183 23.927 63.1347910268
13.5695 40.7796 21.2575 28.331161378
12.6799 37.387 24.2855 103.6494806881
16.638 38.1869 22.5822 39.143061168
18.9044 39.4685 24.0529 72.6178920424
21.269 39.3609 22.531 28.0221576732
23.0386 39.7069 24.6578 114.0868720467
22.8655 36.8368 21.5321 26.839947757
14.9043 44.5174 21.6952 28.2891764244
14.0295 44.7287 24.8425 122.1969549764
14.8759 42.2042 23.6632 38.1632735524
17.6633 41.5837 21.7652 33.4771336075
17.8804 44.7857 21.8498 29.0592489061
17.7087 41.8953 24.6427 116.6246452391
19.718 44.1005 24.3811 88.3970895014
22.8898 41.6373 21.5508 31.4767425422
24.1818 42.2856 24.1924 67.9131623282
22.5016 44.424 23.8167 43.4781796401
15.9226 47.0687 24.2396 68.422576407
12.8503 47.0034 23.7508 35.2232718876
18.7927 46.8217 24.1278 58.5028119444
22.9352 48.1753 21.6498 30.4942752216
20.7169 48.6416 24.3666 77.5234903381
22.9963 47.1318 24.3624 74.992365273
12.3338 39.9046 38.6248 31.3567952932
14.9738 40.7552 38.2152 31.4181448464
16.7333 38.3469 36.0509 49.0655838628
19.55 37.961 35.6298 109.8824066943
17.6577 37.262 38.4851 27.4652814708
23.6302 39.3356 35.4875 110.7529230911
21.2344 40.046 36.5983 34.379494956
13.9451 41.5781 35.6843 72.7592402703
13.9403 44.3078 35.6811 83.8211406838
16.7649 40.976 35.8767 76.1092375701
18.9771 41.7247 37.5515 29.9384893296
19.3214 44.0349 35.745 90.8147122635
22.1116 42.9369 36.0389 68.2212108575
15.3018 46.281 36.6128 36.1494074985
13.4417 48.5576 35.7595 105.1389678018
19.0524 45.9064 38.6601 26.318719124
17.9217 46.7864 35.6938 106.7551677684
19.4397 48.5384 37.1474 27.9767720945
21.6639 45.0431 37.9335 30.9905921424
21.4955 46.7481 35.8025 74.6229708862
23.8611 48.0713 35.4718 108.7629683445
15.3121 37.8658 39.7445 31.3291175167
15.2784 39.1089 42.4494 30.7360530358
19.0583 39.0972 39.9021 28.5437648313
20.0744 37.527 42.2403 28.8416951162
17.7461 40.7343 41.7546 30.8909815032
21.6596 39.7119 39.4611 29.5734553657
24.4253 39.34 40.9767 31.264320314
13.9849 42.4748 42.4836 30.3029200293
13.9382 43.0025 39.5844 30.0397659611
18.6414 43.0414 39.8737 30.3152582467
24.3126 42.6351 40.2255 29.3651490261
24.2627 43.7932 42.7423 33.1442173816
21.444 42.2513 40.9168 32.5471689447
12.4134 45.2387 41.4301 27.479148256
14.9713 46.3666 41.2299 29.4264326322
16.061 44.9849 39.046 33.1382691893
14.2652 48.8178 40.8104 28.0028437838
19.5789 47.495 40.5952 27.1517386857
18.6443 45.3441 42.1133 30.8860119308
21.3564 46.9325 42.7765 29.8542865664
24.1029 46.507 42.3818 30.5341222141
23.8264 45.4733 39.7299 31.1261849002
15.6639 40.2288 46.3773 32.9749042239
15.7371 36.803 43.8754 31.5954282956
12.5805 39.9882 43.5363 27.037615192
13.3205 36.8142 45.4584 28.4743105693
19.5275 40.3339 43.9338 29.9680243736
17.4442 38.8634 47.521 29.4211189824
22.2465 38.8046 43.3764 28.0438891081
20.6532 37.0789 45.5502 29.8917375307
20.9967 39.4047 47.4624 28.4837903522
22.9572 40.5423 45.6732 25.8386496385
16.2323 41.818 44.0861 29.0183120043
12.744 43.8065 44.4595 26.426696874
18.2276 43.4855 44.9343 27.0404495025
18.8792 41.3142 46.79 29.8701622846
20.7462 44.7566 44.4143 28.669401239
23.3071 42.8509 47.3422 31.94772821
21.5273 42.2 43.6191 27.1513510943
14.5918 45.3433 45.7466 27.1946383452
13.3681 47.9166 45.4719 27.658032349
17.9646 45.6801 46.6902 26.1734032311
18.3925 48.211 46.0744 30.0664756877
16.4413 45.9597 43.5834 29.5330070274
24.0203 46.9608 46.8412 30.454423401
21.3643 44.9786 47.1828 28.3787184387
20.9834 48.6563 45.1111 27.2179869409
13.4897 40.1134 48.0728 28.8875973424
16.0113 39.2888 49.9342 27.818544465
12.7003 37.9584 49.7543 28.9976747639
14.8269 37.4722 51.7106 27.2450786811
20.4018 38.1585 50.8587 28.3386532821
18.4941 40.1286 51.1674 32.3204522701
22.6768 38.7353 49.694 30.0963533549
24.5675 39.0954 51.848 32.3749190409
15.9827 44.1315 51.1644 28.7459099357
14.7653 41.8108 50.2012 28.303811672
14.1385 43.6821 48.2312 29.7441003987
19.2285 43.6745 48.5117 31.6030726186
20.1536 42.4174 51.9713 30.5635211052
21.3432 41.5767 49.5742 27.5159111334
23.6513 42.9662 50.4325 30.7403674942
12.753 47.2479 50.8236 29.7848391325
13.8269 48.841 48.3566 29.8794496006
16.0944 45.8545 48.4787 27.3177577341
16.3059 48.5016 49.7233 27.8193171075
12.3097 45.9417 47.9663 26.082435549
18.2888 45.7568 50.6826 28.8923842287
19.6549 48.3348 50.2408 28.1617917199
21.6686 46.7102 49.4318 27.9287591116
24.016 48.0927 51.6778 28.6058367927
23.0061 45.5276 51.7594 29.8482863308
22.2321 48.8422 47.6036 26.4555186011
14.4613 39.3187 53.4519 25.7239598709
13.369 38.2174 55.5677 28.3385812051
17.1051 36.9917 53.7511 27.5592640816
20.2072 37.0174 53.3191 29.6425697398
17.0404 40.0523 53.9301 27.1380691809
18.1425 40.0927 56.2306 27.1404754877
20.8564 39.1142 54.8995 34.3531853697
24.4442 37.3831 54.2304 31.225297249
12.8002 41.2059 52.0031 27.7871045763
12.4332 41.6998 54.7846 26.245556318
13.4559 44.4259 55.0427 25.9119351368
15.8518 43.8726 55.932 26.8974404853
19.6126 44.8208 55.1886 27.3406794319
16.5718 42.795 53.5919 33.0690085235
24.5003 43.1686 55.6078 32.0442571321
21.8499 41.6858 53.9682 32.3281104964
15.3581 47.5214 54.4202 29.5649109116
14.1663 45.6803 52.6139 28.592400743
19.4706 48.0146 53.2615 31.0563303827
20.425 45.3571 52.5022 25.734339132
19.1838 48.978 55.7825 29.5392401836
17.2913 46.4228 55.8479 27.6410554496
16.605 48.9563 52.3422 29.1181196365
23.9652 48.299 54.5275 31.3038374521
22.926 45.5248 54.7851 31.9816090836
27.1421 2.05166 4.2335 29.1607848214
28.5779 0.224263 5.92689 31.7130896265
29.2534 2.37323 7.7188 31.5683767945
31.78 3.99074 7.65997 30.6365635642
32.4022 3.15257 4.99879 32.6150906055
33.321 0.563157 4.52517 30.9368334126
36.5042 2.77751 5.35764 30.224004529
28.0369 4.80996 5.34188 38.2755490196
24.6499 6.30975 7.47933 28.4229115324
27.457 6.45292 7.72621 32.3615263019
30.5382 6.44606 4.89937 28.7135493671
28.7156 8.14052 6.2554 28.7365087995
33.0252 6.32553 6.6392 25.1528022402
36.6096 5.88155 6.57244 29.1062719694
34.598 4.91809 4.79793 29.8004152261
27.2961 9.5909 4.4228 31.6108856485
27.5148 11.456 7.96419 29.2390675122
31.4678 10.8228 7.43453 29.3554591172
30.4913 12.1421 5.47438 31.770292542
36.0245 10.7776 5.69376 31.4550102906
35.1245 8.20119 7.97356 27.0844385147
33.2298 8.98051 5.98036 30.6106340409
27.5261 0.431221 12.2265 31.965599882
26.2111 0.498427 9.60063 31.078081376
26.8295 3.0418 8.54238 30.011655783
25.2534 2.39354 12.423 33.9952954743
30.8361 1.33063 10.0659 30.9608119484
31.3509 3.31262 11.6514 29.2104365196
36.5552 2.75226 10.0428 25.0258949264
34.0438 2.34432 8.9407 31.7261758148
33.3159 0.377705 10.9345 28.7527524623
25.6679 5.379 11.9967 39.3700945359
27.811 4.91773 10.2542 33.9266571548
31.5752 6.80596 9.09627 33.2315299829
30.215 5.82181 11.2088 32.5019786326
36.4683 5.52911 9.48444 29.9778489736
34.21 6.79042 10.4941 27.5978781023
33.8143 4.24701 11.3985 27.6956167314
24.8762 9.3573 10.6637 33.1648271142
25.0689 10.4972 8.17957 30.4079465005
26.5853 10.6335 12.2659 29.9499635164
29.3569 9.8808 11.535 34.8143789674
29.5702 9.59792 8.55551 29.7517564345
31.1921 12.0042 11.4586 34.5888753585
34.9425 10.0514 10.3328 32.4261077288
27.3963 3.16704 16.249 34.1593984071
31.4004 2.40272 14.3507 30.0144215591
28.9051 1.64043 14.641 33.7414813005
36.122 2.16698 12.8731 29.2814349212
24.8238 6.98474 14.7977 31.8962287444
26.5641 5.87404 16.71 30.3581696933
30.765 6.6739 16.2004 29.799812862
31.231 4.17311 16.3462 30.8490491398
29.8994 7.74216 13.2117 33.7718512769
36.7681 6.26014 14.5084 28.6853465816
34.5374 4.20099 14.128 33.7214604204
35.0579 7.84857 12.908 29.1509475219
26.8945 10.5093 16.4408 28.3740107085
27.2276 8.78913 14.331 32.472794787
31.7889 10.6446 15.5472 30.2523146967
32.4079 8.2828 14.3287 35.1832387883
33.6089 11.2249 12.7531 31.4004476134
36.4972 10.2196 14.1247 28.688648018
34.0963 11.6991 16.8025 30.5505352737
26.293 1.564 20.2327 29.0661011806
25.3508 1.69124 17.5822 30.6021606724
29.3206 3.50262 18.3548 28.6032572726
30.1506 0.646313 18.7367 30.7412350973
35.4775 3.76207 21.208 29.0010858514
33.1233 0.673587 17.7219 29.9732623652
33.6235 1.10164 20.5441 28.6477736453
36.4173 3.16314 18.5824 32.0066299623
34.0721 3.17844 17.0306 35.5166948905
26.9365 4.27148 21.1495 27.4330477775
28.4211 7.65904 17.5464 27.4098149918
24.6116 5.99754 18.5807 30.9518273127
32.7425 6.93202 18.3892 31.71471624
28.8212 5.84843 19.5529 26.43483042
31.4235 6.30112 20.8738 27.7890604364
35.4257 7.40875 18.5477 30.3342349634
26.0335 9.95701 19.1345 28.7150730493
27.737 8.18548 21.1588 30.0601829879
25.4607 12.2065 20.5237 29.3918496946
31.5903 9.55139 18.0396 27.7113439899
32.6425 8.97971 21.122 26.7679448128
29.0561 10.215 19.0899 28.4414429119
33.2373 11.5699 19.4863 30.4303424114
36.6281 8.42924 20.8368 27.0389316601
36.1708 9.91103 16.9809 31.6556507472
25.2494 2.24107 24.0049 62.9034473297
27.5126 0.2853 24.2575 64.2061795401
32.0162 3.33504 21.6122 30.6785567511
31.7609 0.883896 24.0982 58.9830482045
29.2936 2.3816 21.3038 27.6879553579
29.5171 2.72005 24.2965 66.806617921
36.4132 0.139082 21.6878 30.7113066591
34.4993 2.31082 23.6817 36.4885433591
27.5114 4.42787 24.0626 57.8434726605
27.6779 7.95997 24.0575 62.1448155908
24.9268 5.44075 24.3296 75.3127907479
30.0049 6.19585 23.443 36.7300971985
31.9864 4.42679 24.5285 93.7646412762
33.497 6.61487 24.4259 73.2639928016
36.6292 4.12186 24.3761 89.8008271037
34.4629 6.29647 21.6111 28.3840857224
36.2303 6.97355 24.349 81.9214645034
24.708 8.30638 24.2337 59.6149916647
24.7018 8.17 21.5103 28.2045517877
25.4813 11.1885 24.5502 91.8120016591
32.4289 9.2925 24.091 55.1047678135
30.0404 10.2116 21.5576 27.6164015035
29.7124 9.9236 24.3887 81.6665755171
35.2939 10.6337 21.4015 28.1073632868
34.8254 10.508 24.1985 79.3132349037
26.7656 3.54827 35.9192 84.4485185165
28.7435 2.8166 38.5425 26.6358005711
29.0584 1.7999 35.8738 71.8602612573
31.7419 3.10045 36.144 56.0774380201
32.6786 3.33088 38.7341 29.3983630661
35.658 3.39742 38.572 28.9105617496
36.9105 2.66031 35.9564 61.4093313018
35.6062 0.137991 36.0402 51.0198480834
33.0102 0.607543 35.6424 94.24757424
35.2252 0.1153 38.7492 30.1191998542
25.7215 6.32814 36.3132 37.476234519
28.4513 5.704 37.8734 29.0942434907
32.088 6.02814 35.7624 106.2004538012
30.305 7.85757 36.4701 37.0098235472
34.3432 7.4628 36.0802 50.9659268443
36.6262 5.81773 35.6075 89.449613026
36.6504 5.98124 38.61 29.2522556747
27.6599 8.50698 35.6369 102.7861215063
26.5645 11.0546 35.6441 72.5632734161
27.1535 11.0822 38.3662 30.9111464599
31.041 10.8092 36.4464 49.2102776908
34.1235 10.3801 35.955 70.7654151293
34.0816 9.6998 38.639 28.5580229885
36.8854 10.7399 35.8148 82.6457336619
27.1558 0.260686 40.523 29.6962664321
25.8844 2.45531 38.996 32.3008434906
28.9255 1.45463 42.5863 27.514940968
30.7744 1.60133 40.0671 28.112057154
33.2525 0.147088 41.443 28.7711747378
36.7154 2.52693 41.1116 30.504739713
34.2042 2.85678 42.1666 32.2242808669
25.4968 6.60208 39.1845 29.2448448085
28.3971 5.28554 41.1554 26.4468152091
25.6182 4.25829 41.2479 30.69263865
28.3466 7.85499 41.7074 35.8325145482
31.2548 8.15651 39.0058 27.4059164379
30.8926 5.38862 39.8815 27.5819765818
32.4961 5.34074 42.5479 31.6474284219
29.8116 4.18516 43.0959 30.9557436042
33.9973 6.46634 38.8752 27.307108436
34.3679 7.66698 41.5085 30.3447978785
28.3009 11.9908 42.5701 36.59661084
28.0257 8.33722 38.9037 27.7202922483
32.7935 9.60534 42.7906 31.8229139432
30.3812 10.0584 41.2039 32.3017038499
31.8235 11.6277 39.2086 29.7566758659
35.8785 11.269 40.4562 32.6246001531
34.3312 11.5888 42.6212 31.7745982406
27.7577 1.81516 45.1998 25.7658284441
25.6042 2.82567 43.6017 30.5514636074
29.656 0.0115544 45.8983 27.6448740442
31.8095 1.96747 46.1125 31.7658304269
33.9617 1.59301 44.7227 29.9360118731
36.0987 2.9051 46.1887 30.2084420295
26.3123 8.07052 43.6225 32.9009341081
28.5512 4.69316 45.5736 31.1071151764
26.6552 6.54197 46.1676 32.707495464
31.1771 4.64761 46.4583 29.2918860879
35.5482 5.49109 45.5689 27.854001764
36.6717 7.56815 47.0948 30.2762363279
36.4412 6.01386 43.2829 31.4832315215
33.0514 6.22461 44.9933 32.210921377
26.9803 10.4788 44.7221 35.130266275
28.0533 10.0967 47.2172 30.7817021433
30.7361 11.1208 46.7939 33.844873266
32.4501 9.15214 45.5292 37.5359863506
34.5768 9.65014 47.4268 27.4615377393
35.6884 11.5406 45.0616 33.0073233765
25.9763 1.06596 48.8488 30.5742586954
28.1246 2.94265 48.1728 29.0535244606
24.7843 2.52752 51.1027 28.4210513678
29.8773 2.01276 49.967 27.9692246536
32.4581 2.57152 48.9025 29.7382170833
33.865 0.222388 49.5959 34.0250248243
36.8699 3.7036 48.7488 27.5591789875
28.282 7.62764 48.2882 27.3893651821
27.337 5.09821 49.7474 28.5982867568
30.4826 6.20476 48.6224 29.9414975077
30.9392 4.64105 51.0754 31.3395545341
33.4344 6.58304 51.3064 24.980560614
34.4738 4.30867 49.9015 31.0226257596
36.2622 7.0427 49.8904 28.7464117218
27.3021 8.26571 50.6417 27.0291070545
28.3836 10.6395 50.7937 29.2181269391
26.6932 11.9884 48.8761 29.5518583259
30.8091 10.2452 49.7263 26.7939309589
32.6023 8.17699 49.0367 30.9654782397
35.5565 9.84317 50.3507 27.700311234
28.0278 3.16448 54.4824 32.4622439088
26.6391 0.628696 52.7489 29.2182463652
29.4629 1.23336 52.6751 34.0556934237
34.7785 3.65113 52.806 32.683271423
35.8038 1.21826 53.231 29.1561846136
27.9983 7.27964 53.0528 32.6699443074
26.8288 4.57279 52.5819 29.6436071032
30.534 4.10518 55.6816 34.1844895474
32.1544 4.74838 53.665 29.4292045
30.8299 7.48156 52.9707 29.4391305881
33.9575 6.4622 55.2008 32.5321363847
24.9066 10.5442 53.2737 29.6453042674
26.4061 8.65235 54.651 30.7036789477
29.7258 11.7799 53.4801 30.4680383402
31.671 10.1158 52.3303 28.7283830738
29.8181 10.603 56.0162 30.4161422426
31.2427 8.23665 55.7383 27.5588494184
35.2121 11.1314 53.1062 26.4908958645
34.9055 8.22144 52.8818 26.8257781342
33.765 9.52931 55.7431 32.7460788938
25.1914 16.0576 4.98509 32.292794377
27.0425 14.5373 6.64858 29.9969255513
27.6268 12.3195 5.22417 27.0110858836
31.2407 15.9618 5.63659 27.5956735976
29.432 15.8893 7.44542 33.1717378859
35.0815 16.0168 7.40199 30.3590868155
35.5416 13.1711 7.32743 29.0451278102
33.1682 13.6361 5.7735 28.8049232852
34.9057 15.5229 4.26189 28.1771175179
27.917 18.2524 7.1906 30.4667861031
26.8936 18.2957 4.2121 27.2373204618
29.9692 19.3811 5.60116 26.5262711942
32.7722 19.7384 7.64049 26.4334105135
36.5408 20.2863 4.43374 29.5063271166
33.2427 17.7494 5.98198 27.1312742595
27.5787 24.457 5.97945 26.6447884522
26.118 22.166 6.29295 25.9067699317
28.4075 21.6665 8.0375 26.2954477526
25.5734 20.4559 4.30379 30.5019375173
29.6993 21.982 5.0153 26.9663191728
32.585 21.3619 4.94525 26.370338264
30.5554 23.4293 7.63211 28.2151391237
32.8455 24.2505 4.71215 27.0787412425
34.9002 21.7958 6.51762 31.0999704714
25.5006 14.3047 9.14901 34.1219739427
27.415 12.8727 10.5303 30.6373255011
29.6265 14.5069 11.3668 34.0585921477
33.4161 15.1306 9.571 31.7327461852
35.015 15.5057 11.9773 33.021630085
33.2304 12.2627 9.11363 30.9892130769
25.6024 19.7152 8.13772 31.1845526312
25.7606 18.3427 11.7372 29.3962380858
24.749 17.2224 9.30665 34.1533345825
30.3888 19.5017 8.85612 29.0656766906
31.0552 16.3958 9.83252 30.7834460223
28.9409 19.1232 11.7356 30.8197746946
31.9847 18.6921 11.8122 30.5871201361
33.8664 19.504 10.0819 28.1199392501
36.6134 19.0815 9.94563 29.5257872027
25.5078 21.4566 11.849 29.9777003934
28.2659 21.8324 10.8243 31.2669128755
25.7172 24.3777 8.90483 29.1473414043
30.8335 22.7452 11.7661 33.9486749296
33.5157 22.0515 10.5032 29.3794120783
33.4519 23.3657 8.29012 26.0665069935
27.1874 13.2569 16.0482 28.398216892
25.7547 13.2307 13.544 32.2695178211
26.8242 15.899 13.2033 31.2469267795
31.332 15.0054 15.0364 27.5221517684
29.4994 16.2127 13.4624 27.9534067954
29.9694 12.826 16.0443 33.4792863589
33.713 16.2851 16.7922 33.746610558
35.4407 13.9808 15.7701 31.2933866398
33.5468 13.9006 13.7407 29.2324188792
27.3443 16.5507 16.0214 26.5480853666
25.9038 18.8546 14.8375 25.1044124871
28.5222 19.9003 14.3053 30.02810791
31.0781 18.9808 15.4243 33.094575887
33.2891 17.6602 14.0802 29.2753324338
34.915 19.968 13.9331 31.5694973036
28.675 22.4706 15.3759 27.7492123285
25.6986 22.9489 14.5486 26.3332174939
25.564 20.9086 16.6549 27.0892274618
32.7552 22.822 16.2346 30.4460243473
30.5907 24.2443 14.1046 28.6254569552
34.9356 22.6399 12.805 31.6699112558
34.7694 20.7848 16.6525 31.4324781563
27.8201 15.862 19.4387 28.2624773631
25.5651 14.0112 18.1255 28.4577607536
29.892 13.7563 18.779 28.7039739378
31.8266 15.5418 18.9182 30.5961261769
35.7744 15.3363 18.7778 38.1748081576
24.9601 19.4872 19.3268 27.6551640601
25.1813 16.9143 17.7013 30.5691811769
29.9158 18.0533 20.8849 31.4094276863
29.6874 16.8974 17.0133 32.1936660669
35.9436 18.1621 19.7484 31.3178561538
33.9044 19.9803 19.1883 31.5248720342
26.6614 21.6116 21.0645 33.197336014
27.7163 22.2417 18.1377 29.0132932686
29.5294 22.9615 21.0751 27.4768678971
30.6964 21.2275 17.3201 31.1212470725
30.92 20.5843 20.2251 29.2064332654
32.4581 23.5658 20.7412 29.2704213428
33.7086 24.1604 18.2374 25.7207638774
35.0392 22.1637 20.4997 28.0049399756
27.587 13.6471 21.568 28.5205385635
25.604 15.7057 21.3986 30.0563387232
26.3639 15.8352 24.3311 76.8038391477
27.4943 13.1454 24.2713 57.1108789358
31.8518 15.4247 24.2417 78.3919193049
30.2741 12.8708 24.5751 94.3425300008
30.3218 12.9634 21.519 27.6948648038
33.0974 13.6327 21.3402 29.704158319
34.0892 13.2027 24.0063 57.6383449669
36.7047 14.5164 24.0396 82.3121816114
27.1555 18.5633 21.2788 30.0525525547
26.9782 18.5786 24.0065 56.091243966
32.5464 16.4692 21.5263 29.374067626
30.0581 17.4612 23.7116 50.6899408381
30.479 20.2735 24.2542 94.6953377527
36.3919 19.4427 24.4126 100.0347767851
34.699 16.3852 24.138 75.763108803
34.6836 18.3822 22.3804 28.6103368022
26.875 21.224 24.1816 72.8999590853
32.1415 23.3534 24.735 125.4411858562
29.3002 22.8263 23.6383 36.1038388392
32.726 20.5802 22.4616 28.9857777705
34.6919 22.3636 23.5555 36.0861822974
26.9894 14.1696 36.2427 40.8497032753
29.8595 13.3144 35.6337 104.8042485705
32.0652 15.0312 36.237 53.3248790138
29.2016 13.1814 38.589 30.1135814589
34.1026 13.315 35.9168 63.6725806608
36.2928 14.9359 35.5346 115.3525198397
34.4615 13.0439 38.7006 32.3214886972
27.744 16.8637 35.9452 64.7078055851
28.1525 18.0896 38.7926 26.993520491
25.1861 17.6437 38.4832 27.5689182822
25.248 18.2639 35.7202 78.6145268313
30.0396 18.6932 35.6091 108.2198506615
32.9457 17.6987 36.5249 43.1028459729
35.751 17.5047 36.2994 54.2014838213
34.1681 20.0471 38.6044 29.2124178307
27.579 23.7663 38.3374 30.4550493834
26.8888 20.8424 35.8649 57.0895070553
24.6827 22.5741 35.7634 63.0739133109
26.5512 20.7734 38.5889 27.278532661
27.5911 23.7909 35.4577 87.0845102365
29.9442 21.5338 35.9834 57.6112199911
32.4916 22.9011 36.0968 53.1000141504
31.7658 24.0958 38.6603 27.9158699825
34.0643 20.7719 35.8929 78.8385380353
36.7209 21.2904 35.7481 83.4337784778
36.679 23.3076 38.2686 32.4781353204
26.5982 14.8973 39.029 27.0663075329
25.7799 12.7064 41.0265 28.4374813822
24.9983 14.6986 42.7336 31.9340772084
28.9833 15.5961 40.4748 30.4557000598
31.3861 16.0937 38.8925 29.1935892271
32.3368 13.7932 42.4032 36.0580096655
33.4724 15.088 40.2991 32.1407282509
27.0002 18.196 41.4775 27.672140953
29.3228 19.1552 42.8328 30.2426753237
31.8896 19.5641 42.0593 28.8874864238
31.6623 18.8792 39.2965 28.3177340978
36.2655 18.3566 39.0469 34.457294295
35.6387 16.722 41.2409 33.7101619267
34.2999 18.4274 42.9975 32.7281067088
25.821 20.6074 41.8553 29.3184574845
27.7026 22.6242 42.1845 27.6991318862
29.7339 20.6058 38.8477 28.1842267722
31.9865 22.3208 42.3306 28.5734703648
29.7304 22.7987 40.5513 25.8153851986
34.8724 22.6139 41.8108 32.8228113992
34.0527 22.6866 39.3505 26.733541922
25.2692 15.2442 46.1427 34.8606302006
30.5122 13.7056 45.9863 34.1797800544
29.3956 14.488 43.2687 28.40719955
33.0128 15.0227 45.2037 33.7271805703
35.1669 15.3519 46.705 32.2976491629
27.042 16.3664 43.5424 28.6603721687
26.2107 18.6063 45.6733 31.4647813237
28.8248 17.7431 46.715 29.8047466498
30.0399 16.9769 44.4819 27.2032329959
32.564 17.675 45.2961 25.5291941748
35.453 18.5502 46.9355 29.26078696
35.9595 19.7921 44.4885 31.2006641941
25.9035 21.374 45.7839 26.5255237042
28.6522 21.6004 44.517 28.6111447091
28.3546 23.0644 47.1002 28.3652482313
32.4803 20.5524 45.1656 29.4990570929
30.7965 23.2337 44.4994 25.0396693823
33.4198 24.3967 45.6569 27.8418242535
35.1343 22.5334 44.7052 25.8472477624
36.4072 22.4197 47.4289 26.6920149986
26.9847 14.4726 48.3236 30.390089535
25.7323 14.3635 51.2296 28.4416025779
32.3051 12.6662 49.2678 30.2197497996
31.9946 15.6927 49.7657 29.534452316
29.4226 15.3617 48.2145 34.3530136522
32.7807 12.8366 51.8918 29.4284895641
36.1773 13.0363 50.4537 26.2528466382
34.7512 15.346 49.3456 26.1658063749
34.8241 12.3416 48.0236 27.5510847642
28.686 20.1294 51.199 31.4412576486
26.549 19.539 48.7178 29.9570589135
26.3015 16.9926 50.0084 29.9862917585
32.5116 17.9452 48.2674 27.6322817811
30.0582 19.5033 48.6292 32.6423156189
35.9098 17.3818 50.4693 26.5427017627
33.8422 19.2653 50.6496 27.9126579168
25.4873 22.9374 51.8928 33.7225275091
24.7313 22.5993 48.1686 27.9067625278
27.2326 22.4058 49.6995 25.5037854056
31.7997 21.7677 47.7624 26.4372857059
29.2475 23.5681 51.6155 28.9276998155
32.167 22.7427 50.3418 31.0246766282
35.2211 22.0691 50.8726 28.9304121047
34.2495 20.921 48.1995 24.9010786328
26.9593 13.8168 55.5675 31.5695037198
26.9775 12.5418 52.8326 31.2646756621
29.597 15.6961 56.0557 32.0464365389
30.9224 14.4002 53.9647 30.514727993
35.775 14.4127 52.7122 26.1113398254
33.6566 14.5736 54.4684 28.7928418183
34.3535 12.3565 56.0517 29.3673085753
26.609 16.9284 54.5541 32.9230348761
28.1485 17.2414 52.1592 31.8703177361
30.8011 16.5421 52.3111 30.9452301342
28.861 19.3099 54.3122 29.4845743193
31.0169 18.3772 55.8666 28.1544488235
35.6428 17.5227 53.3941 28.5210614217
34.4713 18.6278 56.2405 27.6767768679
32.8468 18.2582 53.2102 26.2893537994
28.0443 21.727 55.3964 29.605631641
24.9725 22.2654 54.6694 34.9257631077
30.5737 23.1267 54.0663 29.283654815
31.2478 20.4682 52.2355 27.879453839
33.0467 20.8151 54.8834 27.5744605873
35.9474 23.6179 54.3359 27.5550813464
33.2585 24.4422 54.7095 31.4631131843
35.6785 21.0292 53.839 27.4309767748
26.6867 27.0627 5.11892 28.4889678896
27.3453 27.1325 7.84215 33.1763787355
30.5497 25.5509 5.65017 27.6538465831
31.5516 28.1857 6.06536 27.9003554565
35.1006 25.5681 5.57505 29.6252466382
34.3012 28.4874 5.02651 27.6901348923
35.3313 28.1081 7.68012 27.4023934928
27.7709 32.5866 6.31986 33.0790509125
27.1164 29.9433 7.97558 31.1679343931
27.1108 30.7058 4.00175 32.764563396
32.0287 31.7239 7.787 25.5156724702
29.8831 30.6706 6.09337 29.2270249212
34.546 31.3842 5.7489 30.9636279784
25.3316 35.8157 7.91129 30.0355113057
26.6814 34.9548 5.0567 30.5276647522
30.0453 34.8453 6.91013 28.7413761392
32.16 33.5608 4.95276 30.4156886528
34.4657 35.5734 4.33797 29.3906230507
36.1834 33.8114 6.01951 28.9489924985
35.3513 35.7518 7.71791 30.6398574893
27.8476 28.5798 12.4009 28.6887901674
27.6235 26.3389 10.5955 27.8438203604
32.2181 26.2934 8.82381 29.6169315627
29.9764 25.1325 10.2258 28.6761758065
30.7274 27.1705 11.8784 27.2991121588
35.4382 25.411 8.4558 28.329136028
36.0579 27.9053 12.4392 29.875070108
33.5606 26.88 11.617 33.2236275174
24.9654 28.9356 11.8193 27.6099124123
28.3309 30.5234 10.4678 28.8464290354
26.0936 32.177 11.0466 28.9998208783
32.4924 29.1323 8.59603 27.4090004747
31.0575 29.8929 11.0161 31.6505741275
35.3093 29.8334 10.2999 30.9730978543
36.6623 31.5713 8.31158 27.1796051571
35.7618 32.5181 11.0502 28.1949805188
27.566 34.8713 9.46739 30.7595739498
28.0158 34.2803 12.1911 31.3901965717
32.5292 36.7105 11.1218 27.9179012622
29.7356 32.8402 8.88568 25.359587704
30.9655 33.652 11.4476 25.6030105778
32.2903 35.5073 8.48441 27.9202761745
33.2637 33.0325 9.80132 30.3186078076
36.7201 35.4794 10.4467 29.858620128
25.2034 28.4127 16.1633 26.3455512779
26.4792 25.2928 13.2076 31.942808853
27.6274 26.2094 15.7643 26.8530070682
30.6493 27.0919 14.7971 28.7487480416
32.9307 28.0725 15.8179 32.7851011919
35.4572 26.7989 15.5294 31.1542097162
33.5868 24.7646 13.5559 31.9059392034
