2.03507 14.9679 15.643 30.4839781702
9.98601 13.3942 21.6589 27.7368736631
1.52115 8.2655 15.7501 29.4715715885
3.58084 12.4882 23.9981 65.9900223335
9.66916 2.23163 21.1444 36.0747476316
7.78106 12.3294 19.772 26.0005731271
11.5634 6.49873 24.263 65.6044757624
9.56864 10.2966 21.6745 31.6866221424
9.31396 7.7288 23.9608 41.536013985
11.5357 12.5858 24.0671 44.4757561645
4.10209 15.2114 21.845 26.8016972672
9.60545 4.95851 15.2474 26.7803979514
10.6239 1.07841 17.0027 26.9255988912
9.02413 14.4123 24.5152 86.7842239788
12.2502 14.5544 15.7078 27.8174997443
12.0406 6.22076 21.1192 29.8822182271
-0.129801 8.87599 24.5483 121.7262862617
0.525847 2.57611 15.1493 31.5440865773
11.9304 15.92 21.8673 29.9230401528
3.92833 13.6577 14.2492 26.3987669343
11.9553 3.34078 14.2119 27.7025265993
0.232243 15.3043 38.7777 26.8111534309
10.2105 9.74419 43.3929 34.5498019388
12.0302 11.8838 39.3946 28.2331493318
4.74024 3.23324 38.9791 30.0747106847
9.04551 4.26855 36.7171 36.8989787307
4.28189 3.01549 36.3173 39.6521098766
9.91971 7.10452 35.4523 104.9644937144
2.48152 0.962365 36.4732 47.4003302027
6.43345 5.08397 35.8491 76.1207688065
8.92989 9.52901 45.7727 29.4217337891
10.8696 15.8737 43.2109 32.3453150561
0.97407 16.4227 41.5836 28.157020699
1.71263 8.30551 38.5474 28.335699784
3.60033 5.88573 38.4161 28.3353122649
2.43882 1.79471 44.3189 24.9470117381
11.4013 -0.01643 39.7527 30.7181467739
8.98557 1.35515 39.3234 31.230363364
8.07465 8.23337 38.7469 29.0561332666
2.1562 12.2618 36.3108 64.4003764533
3.81299 13.5171 40.547 27.6964554957
12.0343 2.21109 36.0037 63.8099852877
4.69826 8.84793 38.5292 29.6803636464
10.9167 7.00375 43.4511 30.2167807571
8.76147 11.2226 36.3058 40.7545919942
4.89168 13.0784 36.5949 37.2172375103
2.8673 5.24268 35.6083 92.3633087059
11.2959 2.05708 42.3937 30.9335374555
11.0688 14.0302 38.3141 27.1639273028
2.19296 9.47953 40.9665 26.798919052
7.38324 14.6637 35.7679 78.2822198345
10.0737 13.6105 35.6615 76.6291166486
6.67039 12.575 38.8659 27.6720051746
2.09803 0.0270294 40.5054 33.5569988698
8.8055 3.22023 42.0549 29.1346350775
1.27795 7.51315 42.8451 31.2617738135
10.9839 9.41937 36.1711 43.8076549512
7.34448 6.51014 40.9174 29.6860894079
9.30491 5.55244 45.5003 32.8514418723
10.8061 8.02939 38.8579 31.0664036538
3.33371 11.3477 43.0767 29.9075164462
4.82144 7.52203 41.3557 27.6240393856
2.67642 14.4971 43.0692 31.835507412
5.07532 10.8799 40.6254 27.4301743677
7.96731 10.8928 41.89 31.3131515086
9.17361 10.8771 38.9068 26.4457703987
3.8109 4.71939 41.4076 29.3737366773
0.468079 5.38918 38.6662 27.3711129016
0.693585 3.48901 45.0232 31.4245861638
4.19467 15.3973 38.3341 27.1107517559
8.49725 14.3237 39.7177 28.0203391906
12.0824 2.2914 44.9576 31.4164875215
5.28967 3.24677 43.6613 31.6513032809
6.98254 1.12086 43.0979 31.5592510176
7.54646 4.00422 39.2302 30.8364878173
1.91665 9.4028 36.05 66.8841265198
7.4537 7.87429 36.1792 36.2817878052
9.05163 13.413 42.0118 30.4856379413
7.15334 5.45761 43.4635 29.7465513401
7.73436 14.7191 44.2772 29.2708307997
10.3455 5.52568 41.2437 28.6154783841
5.83164 10.5675 35.5183 110.6495611986
5.93729 10.6516 43.9715 30.436805032
5.32934 8.02361 44.1177 29.3241459898
1.34494 11.3487 45.287 31.3364822181
3.7021 13.6747 45.9573 28.38881616
4.51263 7.69851 35.6669 69.3055551607
2.95449 7.58333 45.2226 31.6569170023
9.21778 1.17506 36.4539 41.5321393214
2.09315 2.37068 41.8955 29.0275590648
1.68259 12.6137 38.874 29.1675180314
12.269 5.17046 35.6644 86.2794831479
11.6857 5.32285 38.4841 29.3153012699
0.994098 5.40427 41.4146 25.1694901608
5.64858 15.3505 42.6811 30.0446297623
6.5505 1.54898 35.9933 86.9338444929
0.273291 4.51426 36.0121 52.8880456148
6.43423 15.9187 40.0654 30.2975828094
12.1745 14.8017 45.4943 31.947146692
2.49788 5.13656 46.8193 28.1907914097
7.406 11.0332 53.9932 30.5034641168
3.47666 10.3698 56.2282 28.9659302828
6.16973 3.94922 48.4477 29.0933758011
8.55419 0.963478 50.7664 30.4717740478
0.631836 4.30907 53.1141 28.1528023281
1.51755 3.09435 51.0858 29.2533715666
9.48768 14.585 46.9323 34.893240297
0.353711 13.8236 53.1427 31.8828546242
10.2948 4.69831 49.9354 27.5352274848
4.5732 3.24846 46.4386 31.7081549684
3.28205 9.82171 51.0896 26.3518196528
3.28217 6.39705 49.1395 28.6672883595
6.5735 11.6893 48.5997 29.2562605152
10.2857 15.1336 54.2107 32.3212238823
8.13574 6.5217 50.6326 27.2240766254
9.14151 11.5606 47.4163 30.2062024115
8.92605 12.5836 52.1901 27.2718029319
1.21095 16.2069 51.7049 33.9680986668
7.19283 8.56565 52.5075 34.8201992129
1.94603 13.5256 48.0625 31.9174131259
2.92863 7.51246 52.5774 31.9655588568
1.91709 9.35598 46.9875 28.1882752329
11.9989 9.04543 52.658 28.8713591321
4.54554 14.9499 54.1666 32.7686750554
1.54849 0.466954 51.4084 26.3206009739
6.12465 0.260741 55.5536 29.6260844277
5.97462 1.63305 49.5162 28.3055224025
8.9049 3.25517 52.2445 28.1745936604
11.8916 12.9546 47.8497 29.5760364561
9.74042 0.934686 54.1634 28.5134430585
4.25248 1.89326 51.7848 27.2532051404
1.78085 1.04809 55.9622 27.2267191489
6.52051 4.60524 52.2451 29.8460427553
7.39188 4.46238 55.6388 27.5779700929
11.1873 4.6283 53.8964 30.6163222852
9.72783 9.00082 54.4942 30.085854046
2.37597 8.09194 55.2294 30.2215430926
1.68397 12.333 51.1116 29.7223248127
6.00097 7.07825 48.7527 30.2785809394
3.82807 5.07881 51.3554 28.6171432409
8.80023 6.17441 53.9955 27.9745775918
10.3239 8.29346 50.4984 31.3860752844
0.727565 11.5992 56.4313 27.6006513841
3.51117 11.3226 48.3712 30.9086421823
9.88018 1.29605 46.4863 32.3345733476
5.91813 9.46046 50.0391 30.9494873945
4.22746 13.6862 51.6666 28.4796945316
10.5125 10.9891 50.0791 29.5646744032
1.23095 8.35312 49.5827 27.5234247357
12.2255 10.6203 55.6117 29.8618516499
0.124137 7.00985 52.1206 27.094249589
4.47657 11.2288 53.4105 32.2137324013
11.1824 2.20261 49.6625 26.7245272632
8.60266 15.5948 49.4156 33.3260286216
4.74251 2.98917 54.4335 30.2281038707
10.559 15.0416 51.1751 29.3891409242
11.3879 12.149 53.2754 29.7596803482
9.66434 3.10788 56.353 25.904725942
7.37893 7.48059 46.1653 33.0212963428
3.02683 15.6841 49.6875 34.7970211205
6.82256 13.6222 50.42 34.6399618964
2.23225 13.153 54.7318 25.9774527372
4.18135 0.579762 47.4013 28.9542117156
12.1545 6.88497 48.8966 30.7694557618
7.44948 14.1405 54.6706 36.8461334466
2.24298 3.47129 54.9981 28.8498845308
8.91114 3.73029 47.759 30.606357092
11.7495 8.96329 46.8649 30.6842750644
0.641964 3.08698 48.2621 30.9512459718
6.21396 12.736 45.8466 31.6332281637
1.28687 19.0688 5.14353 29.7898291649
5.27586 18.4549 5.4194 29.4183678735
1.53308 23.1727 9.99364 34.0060347513
5.13964 32.0151 9.1327 28.0651890666
9.17684 18.8897 4.40913 28.5756315849
1.5557 20.1986 9.45861 30.2047220964
8.83122 32.0097 12.7296 31.7528254576
2.91339 30.0643 5.15795 27.7554419049
9.15492 21.0613 6.35146 31.8299669557
-0.294137 26.779 8.13604 26.7426326864
6.25208 21.3383 5.92369 34.5035602212
9.1077 19.895 9.33493 29.5842285068
8.05364 27.7295 13.5161 29.5428122533
9.35125 23.5386 4.97278 30.8086552581
1.31999 16.55 10.6818 27.2194679437
10.1666 25.4002 7.40269 40.8881930354
0.202834 27.535 10.5942 34.1349511262
4.69304 28.0008 6.39389 36.6967459609
7.90167 17.1931 8.85386 30.2253158141
10.5226 31.8114 6.6523 28.9858628998
3.63486 32.3977 6.51211 28.4313721555
9.41176 29.4599 6.46129 34.4492805274
5.57328 17.9593 9.87318 25.7198204627
0.404227 18.5207 12.6143 26.7721094365
3.2197 16.7921 6.65037 30.2466836618
4.45693 20.8936 12.7678 30.3119810134
3.02196 17.2875 13.7417 30.0275890246
9.20046 21.0711 13.1897 25.4127627763
0.875594 28.3191 5.93109 28.6221136262
5.93912 29.2942 13.8651 28.9280528919
3.44004 19.8555 7.26464 26.4134094547
5.16061 22.9448 10.8826 32.3291289307
3.77817 27.959 13.1934 29.5569405761
10.5582 28.8707 12.6976 28.7423779641
0.330972 26.465 3.97337 31.4502369749
3.68097 23.9325 8.37571 36.9036453965
9.86966 27.9591 8.76115 29.3995308664
8.51172 22.1508 10.8982 31.6764080167
3.52646 22.2522 5.91954 29.4960511512
10.5626 31.0141 10.4065 32.0048944373
2.16072 30.608 8.47146 27.6481795525
6.42945 30.7775 11.6518 29.8005489015
3.01632 26.3818 7.87947 31.1419623886
11.6968 21.6088 9.23747 29.0908249026
10.0367 23.8152 13.4479 27.1978499891
3.24924 19.0098 11.3739 25.2344083431
11.8989 19.4913 7.20258 32.0731287139
10.3713 17.5507 10.8182 32.4687266411
7.36244 28.646 10.0511 28.9937133565
3.82415 32.123 12.6393 32.145215502
2.87409 28.835 10.5022 30.5443349506
6.20431 29.9822 7.49537 31.49933053
10.847 27.711 5.06832 30.8751063253
6.19108 16.9689 12.3299 28.6848313005
11.2331 19.5519 12.8196 28.733508008
1.5148 21.7128 3.95251 26.5202479242
0.251778 24.0596 5.41308 32.4045700281
4.8989 27.3165 9.77613 31.9320504979
11.2214 21.1459 3.57619 30.1506223013
5.53894 25.3951 12.1442 30.5038149351
10.2882 24.1531 10.2852 28.3127715231
8.2832 26.0397 11.1906 32.9635097529
7.58665 17.3454 5.97858 31.5583210681
5.79472 20.6361 8.9832 32.2473758547
2.71622 22.5643 14.0555 30.5142813065
7.13136 24.2721 17.7321 30.9936152305
7.72796 30.3292 19.8239 37.8715563328
2.0591 32.5824 16.6562 30.1790398721
6.4612 19.0104 16.33 31.6528367535
11.8349 31.1167 21.1863 33.9463136761
2.23323 31.2665 21.8908 27.9174076642
3.46291 17.0284 18.7153 30.6925237134
9.93622 21.403 16.4635 30.0770039451
4.79677 22.7376 16.3387 28.724830408
3.10664 27.1276 23.7903 45.670669248
3.58249 25.3229 14.658 28.9872929329
2.30126 28.208 15.5538 26.9429392493
5.46927 30.5012 16.5502 29.7533264962
0.942937 25.3771 17.2082 28.9280224188
6.9961 20.6816 14.1549 29.3149959893
6.89536 26.7424 18.8266 28.9406937212
2.47062 29.9847 24.5401 84.0970779862
6.8774 23.62 14.4422 30.8020727213
10.2899 28.2189 15.9279 32.6655304162
3.71595 21.5972 18.5088 30.2843277595
9.16306 18.779 16.8066 27.376646397
9.44953 27.4621 24.0585 52.4439857316
5.32356 19.1303 18.8229 27.2627446634
7.82873 20.1977 19.5467 27.1412659254
1.65635 17.8343 24.0251 51.8769673159
2.24401 30.7737 14.6536 27.7535949986
6.75049 17.8755 24.092 53.2881165594
11.2675 23.7449 16.9789 30.1222178607
3.34328 24.4416 20.1625 30.2334929486
9.96467 18.1864 19.3381 28.606180707
11.8657 18.5394 23.0117 27.2474705185
8.91475 22.5496 19.0086 27.3153962687
11.0262 20.1848 21.0888 25.6607171665
6.21666 27.891 21.3173 28.805154695
7.93844 28.826 17.3346 34.3758534365
4.33655 27.7435 17.6274 29.0117752255
1.05498 20.2553 14.9443 30.676017112
3.60299 25.0735 17.4117 24.5667076143
7.97124 25.1309 24.312 76.6283497871
10.3051 20.7397 24.5426 113.2310404666
9.16145 25.5232 15.4371 29.969552332
3.8113 24.3392 24.3678 94.6148909399
3.78759 31.1654 18.7653 29.2438262739
5.05544 30.8389 21.5644 28.2696254238
11.8186 30.9716 14.1005 27.8321048466
0.779804 23.5323 21.2858 29.5747027155
1.75885 20.4198 20.9122 25.3811191079
0.491683 26.5938 21.7809 27.0402452391
8.13416 16.9289 20.9248 27.7955499559
4.53446 20.4809 21.6295 26.7847723727
2.21006 28.9665 19.2495 26.7754200269
9.53283 32.2253 21.083 32.0544653002
2.01223 17.8739 21.1953 28.5719127024
8.41159 30.059 24.2952 82.8683265504
5.70395 22.9576 20.856 29.406139831
0.888173 20.2688 18.2161 28.0587761578
8.36147 20.5507 22.5462 29.8003728695
6.14149 23.1013 23.6754 34.1475094149
5.49267 30.093 24.4247 73.386876418
1.74303 22.7596 23.9262 46.4323291368
11.8029 28.2143 20.2616 34.5528437161
5.66127 27.4049 24.2737 66.9040751107
8.38338 24.6643 21.4033 31.2486218469
1.83682 17.869 16.5672 30.3557960045
11.0525 23.0919 21.1422 28.8033758041
3.38718 27.2461 20.9551 27.3462641545
5.42354 16.6478 15.2097 29.8327985327
2.96842 20.286 24.4973 91.0564357773
10.4486 23.631 24.2611 69.935223239
5.41384 17.5671 21.6566 26.4916433983
9.1627 27.5565 21.0822 31.569917091
9.51307 17.3546 23.8526 44.2282187159
10.3566 16.8211 15.4184 29.8859732269
11.3691 30.543 23.7306 43.6533214021
0.502675 25.3705 14.2994 31.0659010177
5.80519 20.4297 24.4591 87.6840129008
0.832305 19.2724 42.0218 31.5504434814
1.84513 20.3274 35.6526 87.6914985349
6.46036 19.0432 36.1841 40.6457458205
10.1937 29.1978 42.9205 29.6240932197
2.62799 30.2467 44.0369 29.3853670964
9.23293 18.3051 39.9521 29.2063447345
6.14897 25.7361 38.4422 30.0542853028
2.69232 17.3941 39.5056 29.7104463859
8.25238 21.3112 35.7814 80.7509905388
4.70318 16.7812 35.8272 94.1448692666
2.28328 21.2669 38.61 31.3845928807
7.66101 24.2479 35.6606 92.7050197656
9.28154 24.8931 39.8103 29.9298417429
11.0848 20.6916 36.3922 46.2256613804
1.83586 28.3608 40.9161 28.4336967996
2.64348 27.8308 35.7348 77.5873197945
10.8009 31.1323 45.3123 30.0760951382
0.267915 26.4882 36.7159 29.7054966613
8.05167 31.0005 41.2504 27.9722484733
0.344172 22.0394 40.3975 30.5278220083
9.00602 32.1051 38.7274 27.1619958495
1.98823 30.5319 35.5105 87.70247361
10.7177 17.6693 37.7408 31.1831293313
4.41653 29.8222 37.834 27.8914002579
6.65705 31.5171 36.1865 41.7966577856
4.15503 23.7047 36.0561 49.5156670534
10.0384 28.1436 36.5669 33.7510498276
6.01912 32.3281 39.1505 27.635150083
4.37044 19.6692 40.2724 29.1000948025
4.95656 31.3704 42.2936 27.2912187773
5.60718 22.049 39.6387 31.9459956929
10.8947 20.6715 39.3454 28.9549729037
7.40619 28.7517 35.644 104.2375813523
9.94153 29.3957 38.8764 29.0427993041
3.06265 27.1641 38.4164 30.3920429419
0.836734 25.2598 39.2663 26.0542944443
3.62469 23.8364 38.5841 30.8852085472
6.85708 22.8611 42.2323 32.7738571413
2.25263 17.891 36.6641 31.3156697929
3.79018 27.6661 42.8723 33.2656779381
11.5367 27.2899 40.1509 30.1258527611
6.14169 28.619 41.7274 27.4691751921
6.85074 28.5332 38.7504 29.8292292574
11.5628 23.1148 40.8926 31.6316133083
7.28437 25.5335 41.513 33.9229280972
8.63056 17.4848 35.7906 96.0704067082
3.08318 30.9323 40.1098 26.7942342179
12.0881 32.0635 39.3059 31.3222265049
9.82388 25.5657 36.8867 33.1701203941
7.90517 27.6169 43.4948 26.4135478179
3.69632 19.2629 42.6749 33.044483587
6.81238 18.7843 38.9755 31.2920941914
8.29945 22.5487 38.372 30.7061659956
8.30541 17.4738 44.6203 29.7318054338
8.91428 18.9568 42.49 31.7766338756
1.36058 22.6083 45.1935 33.2915029474
5.50157 17.5795 44.1085 31.1261028741
3.78142 32.764 45.6187 27.5782691644
10.566 26.2861 45.2396 31.9989061443
5.35687 23.5562 44.289 30.6661307914
9.33313 21.6882 42.3708 30.3673311408
6.89296 30.009 44.9367 27.1866523461
2.92619 25.143 44.1212 33.6546914683
4.6657 21.1278 35.9482 65.1013542306
0.158567 16.4868 35.4355 110.9925097514
8.83363 32.1488 43.5565 26.3850424934
11.1889 22.0875 44.3835 31.2762618055
0.69497 25.4879 42.2709 29.0145497782
12.3502 26.7153 43.1181 29.3797156544
11.6745 18.5293 42.6274 30.6058184387
1.08345 17.0812 44.9064 31.333300819
5.49642 26.3734 35.704 71.7163499518
11.4279 23.3485 36.0532 77.0396778005
4.21834 32.4326 35.6582 81.3124969523
2.0827 32.8467 37.8691 27.7168187505
3.91041 21.0061 45.0335 33.0462781793
3.70568 16.4128 45.8398 27.92119321
6.77023 25.8277 45.4932 30.4120433362
1.39532 24.0591 35.8062 82.1369570064
11.5089 18.9126 49.5824 34.697720341
3.15892 19.8285 47.7214 33.6949266016
11.6081 29.4679 48.8616 33.7129398146
6.94033 27.0224 54.7531 33.9736321132
10.5549 31.0527 55.6016 29.8605213896
2.47503 21.2127 50.0506 34.7806250833
7.25969 23.071 55.8726 30.4131127497
6.51793 23.1007 48.7835 29.8822760748
6.95227 24.3895 53.2556 29.5468240207
6.46676 32.0776 55.6024 29.955567138
4.29607 29.3253 46.2178 29.2390692413
3.80731 26.3671 46.6612 31.0055274602
4.59375 24.868 48.9611 29.8139822064
7.91387 26.5296 49.7788 34.2374428274
9.03729 23.9794 50.0336 33.4192614719
1.86624 30.1775 54.9286 26.9707286628
4.68076 29.6791 55.8354 31.9994197921
3.52558 31.7975 48.2436 30.4980517324
1.54943 30.0017 48.899 28.9978611946
7.08454 27.8449 47.5371 27.7463683997
9.54042 28.8923 46.3398 27.7629678295
12.3071 18.0356 53.6873 27.2906267442
4.71124 17.3828 53.0677 34.9417919432
1.28799 20.8507 52.5858 28.0160900676
4.45811 17.3488 48.0457 30.751984321
8.9477 26.1303 56.4146 35.0952163019
6.91537 17.9086 48.86 33.1216173954
10.3364 17.8746 51.844 31.3193797142
10.2052 24.9089 53.9695 31.2610931337
2.09448 23.903 49.4879 31.7863468224
0.840976 19.3846 46.1823 29.2926367736
5.174 21.6389 50.6832 31.8116687984
6.23357 19.0671 51.2745 35.0032387722
10.4746 22.895 47.9182 33.0608554891
8.51289 20.0215 52.8048 33.1111718577
9.39084 22.6288 52.4381 33.3790213136
8.94628 23.6146 45.5917 31.9709595047
1.63151 17.0764 56.0084 30.3798566811
5.38057 26.3586 51.3975 31.3983008964
9.99006 28.3182 51.1633 35.8681090672
1.57599 29.7911 51.8365 30.1258135101
1.45844 26.8834 51.1701 28.1097967302
5.87456 30.8884 51.4431 31.673177285
4.17189 28.9373 52.158 31.4909569457
8.43282 30.4849 51.9162 30.8221818285
6.00936 30.1377 48.4845 30.692851312
4.90172 19.1578 55.391 31.0625945903
2.1135 18.2685 53.541 29.8806776154
4.43495 23.717 56.1903 31.9388889033
2.47787 27.4021 54.4918 30.4366919054
8.06307 19.234 46.7462 33.6634641243
11.7264 20.6094 53.596 28.4920440565
4.40004 23.0288 53.1944 28.06667328
0.670713 23.4578 53.9463 32.9566694166
1.56002 27.1864 48.3788 31.0489857091
3.20325 21.1496 54.8899 25.4260202292
7.50943 20.0842 55.3349 31.812059289
8.35305 29.8094 54.5853 34.875433805
0.515801 32.6885 50.2245 29.3230335161
10.5714 20.201 47.1632 33.3040027078
6.49507 21.8179 46.5791 32.764947969
2.9646 25.2689 52.6996 26.5278723764
9.85153 31.7651 48.1337 28.8628783243
7.30797 32.0523 46.9442 26.1434607535
0.127413 24.1336 47.2859 32.9483530046
12.1397 23.7806 55.8186 29.5016392942
11.6446 26.7146 52.4912 31.1119409488
4.49554 26.5009 56.516 34.8245924638
11.1019 17.2083 56.0634 30.8147735759
10.1241 33.4847 8.8307 30.2842422118
5.29384 36.721 4.45022 31.3873919093
12.1556 40.6086 12.8465 30.8938464181
4.94997 42.8783 5.95094 28.4984423354
6.67174 32.6629 6.36022 29.8565563856
7.59471 35.8511 12.0048 31.0440262485
0.367967 38.5097 13.6509 32.2813226249
4.569 44.8222 9.9729 30.6757088881
11.9171 39.1317 8.49171 32.3713005519
7.43875 37.2188 6.21213 27.9084693811
9.97966 35.1949 5.64326 31.3433765261
2.91452 38.7006 6.70799 29.1517893052
8.8265 42.3726 6.17523 30.4082990796
9.43075 39.0578 5.29471 34.2751146585
7.45582 40.1786 7.34934 24.7143338027
2.34747 34.4174 8.27495 31.0683969121
2.92676 36.4769 13.1232 32.750519279
2.23582 37.5621 4.22988 31.5504656303
7.61126 45.5838 8.3307 29.8424731055
10.0774 47.1197 7.44985 31.1742810606
4.89029 34.0462 4.26668 30.3356312805
11.7272 42.9024 6.11167 31.9602648664
1.93927 32.6304 10.5783 26.7000995085
0.202791 46.3724 13.9569 27.2137795888
7.0295 39.963 13.8491 32.4300458355
5.18405 39.809 5.61719 27.9702921547
4.34705 44.269 12.8131 29.8596779779
4.34499 41.6219 13.6662 31.3929957253
1.42026 44.9452 12.0702 33.9444354787
5.57296 37.543 8.48047 29.6307817992
2.46299 37.282 9.02895 27.7737165771
0.955802 34.7561 12.3426 31.8832036539
5.27089 34.6819 9.68751 29.9244264355
10.9351 47.0395 11.9465 26.9615713449
7.88917 34.8515 8.11163 32.721428836
1.4379 41.0478 13.6929 29.0988009319
3.15956 46.526 7.9963 29.1985348227
2.79883 43.6114 7.45773 33.2518591518
5.08467 41.4446 8.84374 27.9992487404
9.84888 42.0536 10.3303 32.945480722
11.1862 37.928 14.0709 33.4022577922
11.6231 44.6106 10.6158 30.4656675494
7.48855 43.3522 10.0798 30.9946739176
11.2303 44.7771 3.97406 33.9473992782
9.12189 41.5133 13.2707 32.9960098577
6.94562 44.5716 5.7371 26.3126142244
8.46935 47.1563 11.3226 26.5943562997
5.02059 34.7865 12.5022 30.4647189906
6.98297 44.9437 12.4974 29.1824058045
1.18553 49.0325 11.4033 32.1183909305
10.0232 34.337 11.6707 31.6326381997
0.291171 42.6499 6.5981 32.1759624687
0.587026 42.0747 11.346 31.8354908484
7.06276 38.3171 10.6212 30.1739524616
5.25666 40.2071 11.2914 29.1338305646
5.81802 47.4652 9.8791 30.28679158
0.866064 46.9344 9.56879 30.9357149993
9.27542 39.4771 9.16661 34.5682552564
6.46403 47.5831 5.8729 29.6717111571
1.42138 47.7035 5.92431 31.8713804552
2.37315 40.8818 9.36172 28.3707984291
2.52166 38.9447 11.3361 29.6430566889
4.58415 48.9116 7.50799 28.5216817709
0.227981 39.8179 7.48469 27.7171277487
11.9928 44.9703 7.85625 30.3175880787
8.81849 32.5854 4.38304 30.176721679
8.50692 37.5297 13.8431 31.7806196495
1.22103 34.8762 3.99819 31.6542862622
12.1648 47.0031 5.26958 28.8558342821
5.20232 48.5379 14.1638 31.0589940029
7.853 48.1601 13.8863 27.416026315
2.2062 46.2904 3.35242 33.5045265888
0.566044 41.6299 3.83199 28.0928959147
3.79468 34.4898 18.3083 30.8232581073
7.75569 46.6844 24.0069 89.2240711233
8.7937 41.5462 16.3487 33.0919683
7.82652 35.9591 16.1867 32.7993750329
10.1044 32.8029 15.2079 36.0481189224
10.3034 34.7994 17.1767 36.6537786741
1.88995 40.2073 23.717 46.8059193997
3.38294 37.5226 15.9975 34.4314883198
5.22296 35.1763 15.791 32.0028371906
1.92701 36.4022 18.0221 28.4935199257
5.81438 41.707 16.1584 31.8018337997
4.76156 33.6836 21.0669 28.5515047051
5.45991 36.6793 22.8641 29.519536958
10.1245 44.1974 24.0877 89.6167890123
2.56706 41.6571 17.2364 32.8429963007
12.1031 35.2248 21.2581 34.265481334
4.54263 45.7589 15.1895 29.5124710942
7.37997 43.4681 18.0762 29.7733606883
7.27745 45.2945 16.264 29.6335083644
4.25476 47.6346 20.8402 32.109471859
3.01014 44.479 17.3707 33.8285854245
12.0736 45.7536 22.2375 28.9205876162
8.92645 44.2864 14.4898 31.2762002741
5.69024 44.2873 23.6202 50.8015088314
8.73372 47.5835 16.744 28.3925504661
6.57639 41.3184 24.1815 74.5574296149
1.98995 37.1145 20.7625 28.3352352036
9.53478 34.8112 19.8723 32.5566520752
2.68347 47.3751 24.2989 88.1988292374
3.68518 32.732 24.2124 65.1607716242
10.1487 35.1293 24.6135 107.1795525556
6.91535 35.789 20.5205 32.3089671432
11.8928 47.3237 24.3054 95.8343354862
11.8892 47.5143 20.0284 28.4743619185
6.70941 37.7375 18.441 32.8553991727
4.45541 39.3178 17.513 30.4721474206
11.26 39.9623 21.445 28.9603626855
10.1288 44.0105 18.8909 32.4866374508
0.452414 41.0174 18.8711 33.2051312501
6.82585 44.0341 20.8673 31.4681098582
10.5971 40.2813 17.9478 33.5092600047
2.03466 46.9353 15.9886 30.401213979
4.07895 45.1315 19.9151 35.4903216416
-0.0993193 44.1551 21.4542 32.737951884
5.23698 48.0026 23.4024 38.1033232799
11.149 39.9496 24.5492 102.6583684328
2.98001 37.4554 23.8126 66.3032627323
10.9548 46.1923 14.567 25.9327973448
10.977 46.4549 17.6982 27.6816238696
1.74156 44.7191 24.499 94.2874162497
9.56525 37.2791 21.7723 32.7490403054
3.5703 42.6162 24.3848 90.0711718014
9.09953 48.4278 20.8911 31.7135060253
8.63818 32.7814 23.6721 41.6804120274
4.66157 39.2341 20.5089 31.3146134122
6.88611 38.5806 24.5628 106.7549474423
6.66085 41.2017 21.2697 32.905470893
9.59309 37.7486 24.6707 75.9719848374
1.91588 34.7856 24.0466 60.8570622606
9.34976 45.624 21.3095 28.7189628745
2.69065 43.2796 21.5813 32.582119224
9.3331 41.8821 23.3451 35.0338288564
2.39904 40.3357 21.0716 29.1578615408
2.1221 34.3765 21.2135 26.5066627157
5.95317 34.1769 23.8072 64.4102349296
8.51349 39.506 19.7838 33.0148352402
0.715357 49.4075 23.8379 60.3354282571
1.57651 48.6006 21.1097 33.1995217462
11.942 42.1846 19.3613 31.2820691356
9.71006 48.5509 23.6859 45.7419900298
7.11818 32.8691 15.9767 40.0424991398
-0.230978 47.768 17.7267 29.6679128566
11.8142 48.9739 14.7391 27.1121960826
11.9223 47.9334 42.4152 33.1297838814
3.23798 37.8938 35.6645 81.8619325777
6.5116 38.509 37.8004 28.022409958
0.235521 42.7006 39.0318 26.6502076252
10.3674 34.36 40.0591 27.1130429511
-0.244872 33.7218 36.0931 54.5253491502
10.8899 46.6387 38.272 29.4792071078
9.59103 37.4629 45.1289 26.5299945197
3.92719 38.7918 38.236 30.9608360907
2.79366 41.0865 35.7737 80.5059864441
4.64627 42.65 40.0244 27.6582391892
7.26152 35.9866 36.0497 60.7500046661
9.01786 43.3311 38.7507 29.5977762588
6.8429 41.3795 38.4799 30.3243182066
0.393161 37.3072 35.8462 68.920244447
5.36576 44.5249 36.097 61.6356595705
11.9802 44.3399 43.1206 30.9110687085
2.2327 44.2054 40.8892 27.7799519745
8.73018 33.3005 35.9168 82.3561312198
9.58122 42.2171 36.1667 50.5269278494
3.99527 34.7138 38.0634 25.4533821251
8.03766 46.127 38.5313 29.3093485683
-0.00412712 36.0557 38.1879 26.9703920766
9.77591 47.4662 35.6769 104.3172296824
7.45664 35.0743 41.889 27.9613858207
5.51661 41.7103 35.6838 85.8755213735
4.5041 35.5137 35.6047 89.0741066707
10.2146 34.2674 42.7639 34.1892794768
7.97158 39.8743 35.7525 78.2658627413
6.87277 48.7676 40.6069 31.4177813353
10.9883 39.0818 35.5089 98.174193941
11.13 35.4706 45.2251 32.151010899
3.41189 47.2029 35.816 115.4555809194
2.40539 36.593 39.4043 31.0877012636
0.494255 48.5571 44.7086 29.3007596794
4.14438 45.5351 42.8371 28.9662895728
7.0226 35.3376 38.996 29.5121240537
12.2871 44.1783 39.2394 29.0828499143
7.8708 37.7273 42.7445 34.7226488928
2.65196 45.7229 37.8521 27.7097996323
2.57012 41.1716 38.7173 30.575165887
2.53 36.4021 42.1697 26.2815978817
8.35014 39.1445 40.1321 32.0144011102
4.79955 42.0051 42.6156 32.9128236743
10.5114 40.2055 41.6244 28.7721009459
9.61878 36.8841 38.8246 27.1311851351
4.8417 45.037 38.995 27.2604224118
6.94976 42.6568 44.7369 31.1393741266
10.36 42.6922 41.3978 28.865464645
1.1035 40.985 41.7765 28.1408643441
6.04992 33.8201 44.1473 26.6814332886
6.60069 46.1424 41.175 30.0381087708
8.16627 44.1534 42.5061 33.5133678815
10.1627 36.4653 36.2337 45.7721198937
2.11832 33.1176 41.5835 26.538048705
4.53091 34.4899 41.1551 27.628153541
5.90754 47.8722 36.5563 39.9497832216
2.23517 40.5398 44.9828 28.989217202
10.585 40.1084 38.2623 28.4725143077
5.26305 37.6736 43.5747 29.1120556065
3.48702 36.0431 44.9934 27.3956140266
1.86177 46.9525 42.3128 30.4583197133
4.3038 48.5332 44.1129 29.5321755884
1.27817 43.6863 36.4975 45.9822634362
3.25212 39.3207 42.4367 31.4188492458
9.63606 46.3774 43.4968 32.4759227706
11.3155 39.4937 44.2087 27.5728085979
5.44444 44.8192 45.6583 29.1723297793
2.22219 43.1245 43.9798 28.1974353159
1.30077 33.405 44.3411 30.3699579223
11.8525 42.1076 45.0934 29.91980813
12.0796 43.6296 35.9803 79.1805084676
8.45231 48.5318 44.8807 30.924964867
4.65361 49.3166 39.0275 31.2511411274
11.37 46.4533 45.8497 27.0918866232
4.93304 40.544 45.6222 32.9315579749
8.20743 45.1071 35.896 78.2279243074
11.5551 33.5658 35.9161 80.7515402087
3.15489 48.2765 49.5603 28.1206183583
9.68071 32.7157 50.7087 29.9044522286
3.79137 34.9582 48.986 29.4798620372
6.32583 34.3903 48.3512 29.363424972
9.51472 36.9115 56.1027 26.5924771334
-0.174364 43.8283 49.8295 32.1471826091
1.23483 40.7649 52.7503 28.6066124292
4.66401 48.4763 53.1387 28.1467786627
3.51474 41.3057 50.7666 32.7281498525
6.68743 39.0655 49.5085 31.5250349224
0.362107 46.4591 52.0834 31.2947863801
7.03575 34.6215 53.047 35.6579643185
8.34161 48.2319 55.7484 26.1968567018
1.77572 34.9527 47.0393 28.5303276735
11.3044 38.7534 47.9468 30.0797360614
3.97015 45.0263 49.6301 32.0366573847
11.4138 47.9595 52.9053 31.4486407077
10.8401 44.0733 46.9631 28.9979134273
7.1402 36.5845 55.0589 29.1591488832
2.58461 44.4562 46.6027 30.5505424745
12.2836 48.5364 50.0318 28.8343638711
7.34485 47.5912 48.5155 28.5187009038
1.12078 46.013 48.8068 27.4881574483
4.17134 37.6338 48.3183 32.5080172059
7.22072 46.447 53.3388 33.0525618657
2.22493 39.8561 48.4171 31.7337202537
2.80513 32.9845 55.415 34.045615425
8.56353 39.029 47.3447 29.4187954558
4.92302 33.0458 52.983 33.0311653596
8.05151 35.028 50.5755 30.1819471214
6.4755 41.4932 50.4218 31.7919191718
7.92167 37.8751 51.5812 32.4241124257
9.82791 39.6766 52.1994 34.040927443
10.318 47.8696 48.0664 28.4121742527
8.64795 42.2732 51.6377 36.1613544982
8.22983 43.2417 54.335 34.984062648
3.8964 43.7974 52.3222 34.0162684767
11.6331 43.5869 49.7218 36.8619611015
9.29584 44.8296 50.1813 31.799851432
0.601458 43.9084 55.1385 27.5788328214
5.40133 47.413 50.722 28.5577131193
10.5821 36.2504 49.3828 35.0596836362
1.06131 44.0086 52.5316 27.4055079995
12.3213 39.3848 50.801 33.6130155056
8.14296 44.9281 47.8063 29.9349812193
1.43199 37.8371 46.1828 30.3063039416
2.59137 40.0206 55.3177 30.7726077803
1.57361 36.5575 52.5461 33.9866750587
5.02177 46.3693 56.3012 30.1552568491
0.774101 42.354 47.5406 32.184164936
9.94881 39.6234 54.92 30.3475015641
8.46879 41.4533 56.3653 26.9472681732
5.93231 38.453 53.8488 33.5100163044
3.26474 38.6004 52.5418 34.8921391941
2.10746 47.8177 53.8957 26.8846898906
11.0057 33.0258 53.8785 34.6064968639
6.00428 40.7259 55.5575 31.5894652992
-0.133272 39.4196 50.3806 34.548584085
9.434 47.3424 51.3926 27.4059673676
9.61109 34.3636 47.3823 29.7881185863
11.5679 35.6737 55.023 34.2778298637
5.58683 44.3095 54.4742 27.6214839389
7.13321 35.4804 46.0733 27.364455684
2.55252 34.2378 51.323 33.1738591758
5.75701 43.2017 48.3091 33.0316821264
6.14131 38.1365 46.2404 25.1351921258
2.53981 47.4697 46.2014 29.5961999132
6.00639 47.5828 46.0192 27.8585918547
9.1796 41.4549 46.0509 35.5704324693
3.80599 42.6918 56.1403 30.6340302075
8.65734 45.3625 56.4857 28.9646391923
15.2857 9.37272 6.29619 31.6479009988
23.486 8.41865 9.71906 28.7976747205
22.095 4.3866 6.23563 30.3976837224
18.9787 1.491 4.81059 33.3186137314
17.4113 5.19044 5.96886 33.5671956908
18.8956 7.61362 6.70628 28.6698529261
18.6538 8.76612 3.87487 29.0081918955
13.2208 16.3005 4.88621 28.5576582298
22.6537 6.65658 7.27959 26.7522367316
24.3035 12.7205 6.88374 29.9015502704
19.1482 15.1619 7.11811 26.9871008758
20.4995 -0.314613 6.62024 29.5910917148
17.4391 0.352803 10.5776 28.6620424121
19.2691 11.0494 5.90388 30.3687914969
21.3474 8.64194 5.41851 28.6230000526
24.1162 10.2389 5.52219 27.5151467023
14.2413 2.33114 10.2129 27.0018231332
14.5758 8.30874 10.6558 33.2772298462
12.6848 1.44012 7.66045 30.2309013792
22.4301 14.7913 4.63669 29.1729282939
15.8276 8.81146 3.6962 31.4054351029
18.0706 13.833 5.22459 31.3839616595
24.2109 2.33588 7.11931 28.1566534902
13.1299 13.3329 9.48119 31.4756215309
15.1411 5.017 7.79283 31.8233419686
16.0315 4.61299 10.3446 30.9651636582
22.0398 14.2702 7.58651 28.2209837462
18.7509 13.3064 9.30976 30.089511261
19.2359 1.91126 8.98786 32.3331729349
22.4928 0.61852 8.67755 32.2371853573
21.5135 1.86553 11.0148 28.2782105228
14.0521 7.491 7.92654 30.8989975943
19.0485 10.1092 11.9909 33.0663766977
20.282 7.27039 9.05848 28.8616362285
22.2138 4.87192 9.63987 32.846195044
21.9197 11.6723 4.23613 30.2805968749
16.709 10.0892 10.512 31.963369877
17.4562 9.57596 7.74859 30.3052787993
20.9242 11.8302 8.25624 30.9235502644
21.1171 9.87339 10.0523 28.206194421
16.1198 1.73123 5.73414 31.2880887728
12.4212 4.21919 7.37599 26.4579889239
15.8517 13.3059 7.75859 30.1296736278
15.3383 12.9739 13.7527 28.0182152295
20.4314 14.803 11.4668 33.093994779
15.7648 15.8626 7.17308 30.2316971531
16.9247 2.28534 12.4434 28.3090791477
22.8453 15.3887 10.1331 29.9845693164
21.4504 2.53196 13.4617 29.4152994648
14.7676 6.12768 12.3959 32.3147421663
12.6964 4.09291 11.6195 27.7303599731
20.2546 7.13756 12.2042 31.0128604505
21.6884 12.8889 13.3064 28.3781821058
18.9943 4.60892 10.1674 29.9736947043
19.2698 4.35325 12.8611 26.9883239575
23.2578 6.4091 12.0116 27.1781069743
16.1794 15.6084 4.02785 29.6684105258
12.1262 3.99397 4.69013 33.5704805638
15.6566 12.5238 10.9515 27.8107610847
17.0762 14.8109 11.3416 32.9478612244
12.7207 13.9302 12.9202 32.5511459216
21.3847 9.65888 13.9607 28.5127458442
15.325 0.130678 8.08139 28.5386731181
13.7203 12.0185 6.35652 30.5920726039
19.5341 3.58821 6.57947 30.411276911
12.9909 16.1293 10.6586 33.1213947697
23.5546 10.7663 12.0919 29.3459047376
13.3751 13.4502 3.81637 30.7553820793
13.1342 9.87082 12.4249 30.1022708574
24.444 4.04532 13.4857 27.395741894
24.0998 1.82958 24.7386 130.4683713707
14.1844 8.05587 21.1038 32.4781394932
18.9547 4.24184 17.0119 31.0237559291
22.1566 7.78296 17.6613 29.624155076
21.5197 5.60526 15.0138 28.0269705718
20.0857 3.29447 24.328 76.5284497048
14.7105 2.12732 14.2403 29.4950684612
15.7259 6.31718 16.6994 29.3669388368
16.5958 14.3426 18.9188 24.7985408794
17.2089 5.36538 18.8932 27.4744389826
19.8915 12.4091 24.3255 101.3765281628
23.3385 4.75404 17.5655 31.4113849994
16.9666 0.404362 23.7035 49.0073756625
16.6873 9.3073 17.5211 28.31433482
22.8098 12.5807 24.154 65.8124766338
19.7629 7.36267 21.4932 27.9252017287
19.0887 6.96829 15.3275 27.1972169192
18.0469 11.8559 18.2463 26.6974566096
22.9516 1.17858 21.0373 29.5827388346
15.6727 12.7741 16.7704 30.4196235709
14.1274 2.75038 24.0071 54.5940039092
23.63 15.4577 23.2208 32.4886253932
19.3122 7.69349 18.1359 26.6209661201
17.7997 14.9738 14.3702 29.9741483887
17.5448 2.27553 15.4689 29.1035159171
23.3732 7.5766 24.0282 55.8374702477
24.1093 1.85497 15.2245 29.6536231044
20.628 15.3597 18.7396 31.2995171811
12.1377 4.33148 19.2905 29.5216800363
15.6023 3.75612 19.9663 28.3751741809
20.2996 2.83767 19.0295 29.774963597
14.6397 4.83064 22.1897 29.0820911031
22.8906 1.7206 17.8017 29.4114653983
16.9924 8.02712 20.5347 29.8494736507
17.7423 10.7236 21.2116 26.6954566151
24.1704 7.72389 19.8742 28.9068719524
22.2722 8.45515 21.7024 29.4836685789
22.0576 11.3414 21.736 30.6097416293
19.2794 0.428517 19.106 29.8483509386
18.5309 9.72245 15.2879 29.0959051043
20.7731 12.6116 17.1984 30.7299554665
20.2297 9.82116 19.4751 27.5313676944
22.8144 10.5343 17.0913 28.2406908029
18.5289 15.474 20.9879 27.5451992996
13.8876 8.13285 24.0385 54.70626018
16.7126 5.14439 14.249 29.8932610519
18.3857 16.0161 17.3178 31.0187102902
22.911 3.94125 21.4491 28.2405058394
17.8532 3.10551 21.5928 28.4843480395
21.664 0.782594 23.4984 44.0370744879
23.2877 14.0403 15.033 25.9870771737
14.8451 15.5456 21.4795 27.7283797882
17.0767 3.4253 24.438 88.3573761328
19.1932 12.5482 14.7072 30.1630630687
17.0256 0.636865 20.9652 28.6864531646
13.6182 10.5709 20.1369 35.0578912182
16.1454 6.23219 24.2953 79.5388397496
20.2221 4.61952 21.5083 28.9943423781
13.7751 10.2583 17.1793 28.1324035843
19.0747 15.1 23.6674 38.0152751926
24.1241 11.712 19.5871 30.9023780344
23.7236 4.44942 23.9087 41.6594745024
14.8331 15.5124 15.8199 26.5040209875
13.3379 10.8443 24.5793 100.9261095948
20.9924 5.89517 24.6794 105.9415708627
19.6891 12.8857 21.0607 30.500955142
18.5711 7.56747 24.1711 70.082354426
15.4459 12.0698 24.0965 59.0621923314
14.4247 1.68067 18.1416 27.4549700788
13.3149 7.7317 16.2895 30.5438928538
13.7358 4.1955 17.0234 31.0222825369
15.0264 14.8443 24.2029 51.5222359843
21.864 15.8006 16.1927 28.0362575551
15.5611 12.6119 20.9902 32.3413466755
17.9663 10.515 23.9196 58.7434259966
23.4239 7.60628 14.768 24.3965809959
15.3798 10.1959 14.4454 34.5543634209
19.5464 0.414092 14.4485 30.8718722317
16.5421 0.960205 36.0863 54.0736418414
23.802 10.8997 39.0245 26.8012140739
16.7257 14.1878 35.6988 69.3311559098
15.7803 0.67916 39.0843 28.8795338913
12.1193 13.7237 41.5005 29.5837445665
24.3492 1.92799 38.5715 29.687224082
20.879 0.959138 40.1825 28.5871257097
21.9952 7.48011 45.3293 28.3653699385
14.9318 5.8627 36.0491 53.4364397064
23.3747 16.5141 35.7495 90.0623542746
22.7832 6.3756 35.9642 56.1442908502
21.3292 9.06841 35.679 70.0145196794
23.7442 14.9129 44.7016 30.3294130057
20.4655 12.0915 35.6504 71.3190040782
18.4462 7.6775 38.554 26.1902061393
13.6386 10.3384 44.194 29.2746743859
15.9064 8.72442 35.6332 79.2757689043
21.2452 9.19638 38.4706 26.9641532132
23.3531 11.2179 35.7634 62.9423282215
20.1784 4.27003 43.6288 30.0536325792
12.7309 13.0459 35.3301 91.7078367112
22.3302 5.82949 43.0126 31.2147369762
24.6669 12.8578 40.9339 26.9927309053
20.7268 15.0131 38.3302 31.1740238583
16.7447 1.09211 42.0078 31.5339933747
17.1337 11.3303 35.7349 70.9355855896
18.937 12.8073 44.7035 32.660418828
16.4364 14.3736 44.5856 28.5009274619
19.2109 4.79749 36.733 34.9056990435
22.5942 2.56657 44.2833 32.6471560006
16.8706 3.68366 35.7418 100.0060145257
17.0117 6.21819 41.4762 26.4181784823
19.1599 2.93977 41.3006 30.3047158854
22.3968 7.72355 41.0354 25.8854476766
13.164 15.8896 38.1088 28.7113274241
19.0305 6.68895 43.6244 27.5822459307
14.5418 6.12135 38.8699 25.8023966615
21.9125 3.3834 38.8129 34.1041401325
15.9866 3.80318 39.0536 28.163307064
22.5284 6.23536 38.7513 29.9359185379
19.4562 8.23324 41.2546 29.1719900815
20.7631 14.9825 35.5005 86.1407322927
18.4155 4.86201 39.4391 27.467698226
15.8662 8.41442 38.658 29.6331522122
18.0791 10.3361 42.7072 28.4199004246
12.4391 9.40331 41.285 29.1916796396
22.7062 9.98752 43.0692 30.6778923278
14.3523 15.2535 40.9378 31.4626886989
14.6378 11.66 37.7624 26.4114401332
15.7409 8.72228 42.5624 26.7155703669
24.303 1.46609 35.9288 58.7407020691
19.2357 11.0314 37.9035 27.8390643719
16.9917 14.2365 41.678 28.9516917108
15.3768 4.68075 45.05 32.0194335489
20.7604 11.9257 42.2627 28.0970957056
22.0971 0.127551 42.4625 31.1502779139
16.4383 2.07158 45.7829 27.1596696465
15.7476 3.70566 42.3237 29.2637957034
21.2691 12.4384 39.5267 29.5822138009
22.3673 14.0308 42.2939 28.2923649593
21.5769 3.33396 35.9104 69.5242898177
14.175 15.4839 35.629 85.2175996196
13.7261 6.9385 41.5598 28.0550273155
18.7167 7.70035 35.7888 79.679597117
24.7792 8.56346 35.5608 83.7785371265
13.1447 3.80467 41.2041 29.3490063889
18.8762 1.53786 44.7135 30.1097971945
13.9585 13.1518 43.7964 31.3888422953
17.917 15.7237 38.5702 30.8047391998
15.0743 10.6924 40.481 28.6293632858
17.6387 11.9237 40.2919 29.4567675982
20.0244 9.59199 44.9933 27.7649680154
21.4003 0.519463 35.5236 100.421717203
13.3576 7.26854 45.3039 30.2443634514
15.5712 14.1459 38.5295 26.3647394813
13.4275 10.4202 35.7535 64.6064591586
13.2391 1.96219 38.8829 31.4619016739
16.1762 8.81164 45.8064 28.6748041933
24.3299 9.37899 45.3193 29.5115824074
17.2248 3.55472 48.1699 26.7752884924
20.0388 1.54561 54.7879 44.4469447118
15.5566 14.4847 54.441 32.321090232
14.6762 1.18486 47.6391 28.3860710007
21.0374 8.70845 53.7072 29.5381458728
12.3694 1.97187 54.5599 23.2178528925
15.6842 4.98358 50.2033 26.445020548
14.7332 7.46848 50.2316 29.6568997681
22.9415 10.8555 54.2861 29.6791098798
15.7412 0.922102 53.7761 25.8905477687
21.4711 8.20808 49.1104 30.8142536388
20.2089 3.96448 47.845 30.8517145968
22.7915 5.74792 47.5182 28.9220661338
15.7344 9.51576 48.8452 31.096872537
13.6439 10.9627 46.8183 26.720863278
19.9174 13.881 55.7101 27.2378809116
23.6318 12.5449 48.9573 27.3492943665
21.1822 13.364 49.73 26.3861991793
21.5977 10.4388 47.2436 26.8562271691
13.0385 11.4151 51.0483 33.721419923
23.7681 3.00945 48.074 33.4676639592
17.3138 6.30501 45.9988 30.4864165211
20.1715 14.7023 47.4495 33.9922036507
22.0398 13.9952 53.6429 28.9840209702
13.2414 1.7358 51.996 29.7231714247
15.8089 14.0539 49.1569 30.8519154164
13.7553 4.4138 52.2317 26.5547983932
23.6036 10.0392 50.2848 32.9187023207
19.8314 12.7159 52.0769 30.7097490679
21.7187 1.60367 46.7052 27.1281750821
14.8628 8.41661 52.8839 27.5615282102
13.7888 6.27161 54.2741 33.9125716183
18.5671 6.39888 48.4451 30.8199586003
17.9142 8.60006 53.1241 26.4792524268
18.5808 8.91575 50.1671 30.4566049172
24.8339 9.0811 53.0016 25.0918481124
22.3553 7.43786 51.7935 28.3798195063
17.8482 1.24318 49.6927 27.0730321026
17.0411 11.9456 50.51 30.2478504012
19.4433 11.2072 48.8178 26.2709111315
13.2672 14.545 50.0427 26.9309808003
24.6436 5.93589 50.0636 27.9426950373
18.6273 15.0889 53.3794 29.5488137886
21.8291 15.6315 51.0052 26.7356364024
15.8962 12.6888 46.72 29.1659441547
20.5997 4.21995 54.3714 31.2257179324
18.9264 10.8905 54.3622 30.0815669389
13.6969 3.51947 48.8628 27.7681611438
17.7828 5.77572 51.853 26.9720608413
16.5212 12.0895 53.2034 30.1807094336
12.3998 4.68414 46.6766 29.6740192774
18.3192 2.26631 52.4062 28.4217294857
14.7305 10.5098 54.8769 29.3555118496
20.7003 1.12191 49.8455 27.7846210693
18.3136 6.28728 54.6178 31.0388039009
22.1431 4.78064 52.3246 29.6924187773
23.1614 2.71501 50.619 29.3177271244
19.6664 4.27139 50.7838 27.4260905536
18.0074 10.8097 46.6002 25.4220045119
14.3405 15.9691 52.3798 32.4234816481
16.0843 3.70252 53.5949 27.5608751645
22.5596 4.94768 56.173 32.5449639063
22.6288 7.69645 55.8453 29.1213712086
14.6934 2.84499 56.239 28.9832150922
15.841 5.72376 56.13 31.3892486525
22.0126 13.1748 45.851 29.5217092799
17.8174 17.4154 8.58347 35.2833526304
13.4062 19.2172 4.30273 28.1212837918
23.9201 30.0092 8.52001 29.8336079352
12.9497 21.2342 11.606 29.3023601924
16.3398 30.1367 3.74373 33.2090864318
21.6284 32.5148 8.09998 31.1592251538
23.4216 30.791 5.99142 32.8315203081
17.2563 32.4155 13.259 29.235793348
17.0666 22.1461 5.89813 31.2844599419
21.3522 23.3766 5.18199 32.095420836
22.4688 19.7183 13.897 27.049487236
20.3572 16.5384 4.92509 26.3340626492
23.0113 21.228 5.70099 27.6572709276
14.652 27.0836 8.2358 27.0226984255
16.5357 24.7754 6.9797 32.0507000462
19.6647 28.9233 12.1229 27.606808536
21.5217 28.5658 9.60993 29.2517980391
17.5786 26.929 11.6536 34.3577086581
21.3423 29.7449 4.0637 31.2052005287
17.2374 30.6744 6.42996 29.7974621242
19.1362 31.1764 8.95296 27.4215125134
14.7085 30.153 7.76697 28.4838149349
13.4003 30.6546 10.512 29.9032092986
12.4711 27.8106 9.81424 30.2329483116
22.7409 26.0426 8.81911 31.0830866647
13.8766 26.9327 5.55061 31.1777093486
15.53 19.1017 8.35881 33.1273698952
15.3228 20.0019 11.0239 33.8054674235
19.8713 19.0346 8.15869 33.7818643
20.9958 19.603 10.7082 33.6012164607
22.44 17.6091 12.244 27.8164707265
21.7701 18.5653 6.22792 29.355688357
21.1466 24.5489 10.9475 34.0959332285
13.188 31.5096 5.95295 30.6346714986
20.1915 16.6958 13.8588 30.1836587835
17.3059 24.2356 10.8343 34.0068974135
13.6059 23.1175 7.70943 30.9874817673
19.6387 21.6558 6.99093 36.9947711265
19.1141 24.3375 8.50532 38.1673713946
13.0223 29.5292 4.01291 27.7031947048
23.0599 21.642 10.1655 31.9302101555
14.9103 24.487 9.35671 29.0540180733
20.3998 27.7639 5.59602 32.0819926041
16.874 28.2902 9.46174 28.6308663542
22.8313 30.1212 12.543 35.1796076594
22.346 25.9118 5.96335 32.6397493355
22.0106 26.8785 12.2655 28.6329501745
14.0318 32.1224 12.7551 28.6936529496
23.9026 17.4769 7.94789 31.1782816299
19.318 28.6814 8.13194 29.8855706307
16.4425 25.9603 4.20026 28.8046446066
23.4987 32.1587 10.4563 29.2334045324
19.4479 31.6917 4.4891 31.1122562986
15.1803 17.4168 11.7026 33.938454312
19.48 31.5998 11.8685 28.6636966303
16.5408 30.9163 10.4836 28.095178657
15.4091 27.5918 13.5819 32.619098719
16.9904 21.9652 12.2456 32.0733714553
13.1263 17.1574 7.73826 29.8426306408
14.6823 20.6176 6.39887 28.85917934
19.546 20.9464 12.498 33.581286588
22.0046 22.5112 12.7858 28.8007926851
23.4542 23.1768 8.00492 29.2711572627
12.252 24.7382 5.64848 28.5037610552
16.8633 20.029 3.7023 32.0008633465
12.7691 24.6643 11.6119 28.3289157845
12.8842 23.0814 13.8959 25.2228054988
24.6685 26.6622 4.29039 35.4319948619
12.8453 27.1041 12.4247 28.1339214461
24.5168 25.6219 13.0955 29.688765001
16.4585 19.9188 15.3653 30.3835053698
24.389 23.2445 14.6947 31.5423830147
14.9039 17.878 14.5014 31.9621678513
15.2233 28.4088 24.2273 85.9598121574
24.1089 31.1912 16.7981 23.942794749
15.8996 22.4441 17.4469 30.8567669914
20.2357 24.2584 15.4703 37.1723399464
21.3842 19.965 16.6449 28.3967748842
23.0103 26.5028 17.1451 31.4875124381
23.3443 29.0631 18.3681 24.5837421494
17.9458 26.5598 16.6782 34.5073509413
24.0146 20.0056 24.1309 66.2307842961
23.0715 24.2272 18.7714 28.7024886488
13.3171 30.4723 16.3052 35.197224036
21.5171 21.2991 23.8273 57.6433822204
12.4156 27.7608 24.4728 93.4803501218
19.2367 19.114 14.5921 31.3885008741
15.6665 30.1865 14.582 31.7724807674
20.6612 29.6532 17.1754 32.0062205843
14.2974 22.5989 21.2761 26.2479144153
16.033 17.9699 21.8417 26.7799834954
21.2111 32.5728 15.6762 30.7250140143
12.2903 18.9648 15.2722 31.4777948475
17.9535 27.4807 23.4349 35.4403914493
18.0394 18.9562 17.6306 27.5982827135
14.5026 16.4121 18.4856 29.3755936124
19.0209 18.1429 21.511 27.3269984331
14.9142 26.6408 18.2446 29.3675576983
12.9102 25.0124 24.0034 51.4043176797
21.0369 18.1 19.1031 27.1234647341
19.0188 20.6649 19.4774 25.9015602102
18.697 22.8161 17.5929 31.6265375244
21.2005 16.9692 24.2091 87.043387746
12.8731 21.4829 23.6844 34.567839777
22.2946 22.8112 16.6943 28.1736200725
15.4423 25.5917 15.4574 29.8861222656
17.6323 30.4771 16.9923 32.2541674157
18.8303 24.9986 19.4812 31.4349689432
19.3374 28.5124 14.9441 30.5535268435
16.3027 29.2151 19.4103 32.2690523024
13.4389 24.2327 18.7805 27.9363278412
23.6673 17.9057 16.8174 28.7452648436
20.3573 27.7393 19.4768 31.3547014961
18.5731 28.7726 21.1378 27.3611921973
22.2085 31.8366 20.0127 27.4855763367
14.5406 18.8718 23.9925 62.2491415026
15.1388 23.0886 24.3711 95.4058188049
21.4492 30.7934 23.5834 35.9640990286
16.7997 20.7949 24.272 73.6672538641
19.3528 19.3628 24.3785 86.1752602164
23.1214 26.0951 21.898 30.8713818378
22.1978 18.3247 21.8339 29.0172821861
16.7744 16.5874 24.5683 100.2161640898
15.4612 18.9889 19.0595 29.4346278282
17.0305 21.0233 21.4744 30.9402600853
12.626 28.0743 17.5176 31.2345405357
20.4247 23.6384 23.6621 45.0255381897
23.4039 20.497 18.8318 27.3141017506
21.4423 21.0921 20.8845 28.4205099497
16.2823 30.986 24.1086 76.4576822179
15.5646 22.671 14.5243 30.5653513936
16.6824 24.3731 21.1736 29.5185048788
15.2994 27.0178 21.4306 30.0018716144
12.865 25.7921 21.0651 27.8753477727
21.6743 26.0011 24.6983 108.5598960546
21.0528 23.8586 20.8399 30.4586008647
22.648 28.7445 21.1569 27.7084333099
16.0448 31.1403 21.2935 27.4815316776
19.6564 31.2371 21.5049 26.2092466531
21.2881 26.6022 15.0238 28.9422959257
13.4538 20.6131 19.3807 31.3033935966
17.8629 24.6781 23.6979 59.138352858
24.2229 31.0914 23.1917 32.8568786187
12.7225 25.6595 15.0531 27.634371465
13.1821 21.3711 16.6083 27.4480182401
14.0954 33.082 17.7403 32.5185588633
20.4105 28.2726 24.4148 100.1306000136
13.5439 32.0255 24.0961 72.8585408117
24.1835 26.9529 41.3203 30.7353738159
15.3183 21.1077 35.6614 87.1710049046
22.5176 27.3898 35.7411 74.7086022731
16.0796 25.3268 45.0682 29.8306137832
18.643 16.3855 41.5284 31.2027867908
20.441 25.4497 36.1665 45.2433117689
22.6949 27.5057 38.4886 27.0857765755
14.8713 20.5758 44.4561 31.3399337954
14.5448 23.7813 35.879 67.3131044627
19.3413 32.1851 45.6478 32.5523991613
18.0675 29.6837 45.4256 34.3869813467
20.1441 19.7919 35.7942 79.577902219
17.9563 22.7696 35.44 93.8192257928
24.0625 29.922 40.5788 25.2098977664
20.908 22.6023 35.7123 74.3188462894
20.5159 24.0393 45.23 27.1123395457
13.9188 29.4834 38.6746 27.4125631283
17.5164 24.6841 38.6101 29.8969778284
18.7636 28.2996 35.823 72.7340094056
12.795 23.8842 38.3929 27.4807753784
18.5331 16.5848 35.7203 80.1296765752
21.1098 29.8638 35.6875 89.8500571853
14.9021 27.2207 35.7208 77.6461396194
23.669 22.8667 39.0275 31.4028128072
12.433 28.8225 35.3684 128.7675301883
16.1567 28.1949 42.1628 31.2167455229
16.4528 29.9807 38.7739 27.7600995037
21.8075 30.1912 38.6043 28.7303013036
16.6347 29.6499 36.1017 52.5774871691
22.0466 28.7515 42.2003 31.6034786286
17.6177 19.4973 36.7227 34.7484225396
14.7096 30.9193 42.858 33.478931909
23.5329 19.2605 38.9121 28.55121207
17.5374 18.6325 39.5698 31.68972287
22.4547 18.976 42.2556 25.7717587086
22.8968 31.6877 42.9963 30.8392211947
13.3619 26.5672 38.1545 27.1867186347
13.528 31.7153 45.4597 37.2158182712
15.5138 32.4524 35.6388 99.418404218
18.1917 21.6312 38.9199 27.070406669
14.8824 21.9227 38.4137 29.8292605864
21.143 21.1908 38.681 28.5381051654
19.884 19.6584 41.1666 31.1529396413
23.6037 23.4554 36.0292 59.2274978974
18.6005 27.6885 38.5977 27.2978220114
20.5379 25.5773 38.7705 29.947572578
16.0662 16.7683 45.6254 27.1573131058
22.9893 19.094 36.2283 44.3237123128
23.572 28.368 44.9474 30.8038526016
17.3837 25.3203 36.0271 47.1642782686
22.59 23.8416 43.2208 31.985907752
19.9294 29.1846 40.3592 27.4684617511
12.5626 29.8064 41.2134 29.6922981967
18.9049 28.2883 43.0789 35.1854169584
15.8418 26.6992 39.8146 28.2321349404
24.2497 25.8397 44.0883 29.5993788461
15.8937 19.7208 41.887 28.5451742689
17.4417 18.1936 43.547 32.5028719266
13.8439 18.1475 40.7355 30.8892955579
13.5813 19.5667 38.6349 27.1342061725
15.6314 24.7818 41.8162 30.1594882057
18.4499 31.7754 40.1343 29.92285051
16.802 22.2635 41.2576 27.7270612679
19.0262 22.5476 42.5362 28.8830228979
21.0186 23.4967 40.5396 30.2531328176
22.7318 21.7312 45.7836 29.4587295495
14.4982 27.5962 44.5276 28.0307231879
13.0879 31.3049 36.1945 37.1694298453
19.1296 20.3858 44.5979 28.5943397292
18.4722 25.239 43.6532 33.7589339135
23.4717 21.6118 41.7059 31.0875585209
21.7592 19.2763 44.8303 30.604437986
23.6064 17.3733 45.741 27.915183009
13.4337 18.8336 36.003 77.6632034438
13.1529 24.1082 42.9064 28.7613289595
22.9961 16.3068 38.9424 28.9087518287
21.385 16.3361 41.519 31.3703985034
12.6609 19.2281 45.0305 29.9152567713
24.1912 21.4068 48.8627 32.3660763297
13.3998 17.2322 48.9735 29.2739778811
