9.24974 46.7743 21.4066 29.1386722149
6.08572 38.8177 35.6951 85.7520362959
5.97513 39.9034 38.3689 33.6278248603
11.7398 40.2316 37.9869 27.7368160268
8.77275 38.5379 36.0969 44.9903498677
10.9128 40.1058 35.4065 93.5936951302
2.4482 42.4851 36.1836 42.4967877461
0.0393486 40.9873 35.9442 85.0911574587
4.79755 41.3336 35.5333 107.3874013332
7.05166 42.9426 35.9503 53.3699462795
5.56088 44.0567 38.1694 27.7342061599
12.0269 44.467 38.6759 28.8354710312
9.73777 42.5959 35.7745 66.3855119138
9.75999 42.6901 38.6441 29.3669901067
11.7045 44.7403 35.7989 79.5162393073
1.93519 45.1608 35.6944 83.4722416061
1.93759 45.528 38.4007 28.4931988386
3.87003 47.2145 35.9829 56.3974532922
8.19012 48.3462 35.4851 97.171905722
6.29984 45.9264 35.5198 95.8481130613
7.35734 47.4687 37.9907 28.3337190146
10.581 47.6454 35.8912 53.4723543547
10.2332 48.4466 38.5092 32.5758859234
2.71576 37.8873 40.274 37.6299702012
5.09673 37.1517 38.867 31.8097212442
9.53661 40.7714 42.446 31.9617971435
8.84275 39.704 38.8078 32.1479221
8.24364 36.9545 42.5184 30.5804993911
9.91286 38.557 41.0494 29.024845275
11.9055 36.8471 41.3666 30.9132149219
2.26793 42.6741 38.8904 31.2898161106
1.9583 44.3022 41.3461 28.2580498643
4.85602 42.0355 39.6653 31.1634190955
4.62634 41.6984 42.3465 34.3282262569
6.44609 43.9318 42.9086 31.106412723
10.5782 43.2867 41.7831 30.6596296659
2.52613 46.6464 42.7737 27.8872920092
2.02101 48.9225 41.3116 29.1317902592
4.59163 46.6866 38.8668 27.3837936547
8.05572 45.0336 38.9415 30.1333859786
5.23811 46.7343 41.819 30.6389851835
8.06855 48.6636 41.8245 29.8804749491
11.3107 46.6898 40.6039 28.4830611071
8.22848 45.9412 41.5201 27.122612803
3.75628 39.0154 43.2407 32.370322782
2.42035 38.5405 45.6385 31.6833034374
6.68167 37.6921 46.5683 30.2387687454
6.52127 38.6146 44.0199 31.8173972719
11.4863 37.6284 45.9412 31.7803925063
11.4368 40.0644 44.5232 34.4369775186
1.41898 43.8385 45.905 28.1748953613
1.74908 42.5 43.4424 35.5428670597
0.172678 41.2623 47.1859 28.9788240955
7.16803 41.761 47.0725 31.9956014958
7.24571 41.2579 44.2319 31.3334457975
9.46634 42.9612 47.2854 28.0449972407
8.88462 44.152 44.2078 30.1618094026
11.6563 41.4649 46.9234 34.3919724293
3.02374 45.9599 45.5087 29.9733261676
0.536366 48.607 44.9985 26.8729046061
2.6815 48.1802 47.2267 30.9758224076
6.94326 47.7057 45.4993 30.613343766
5.62818 45.2672 45.4876 30.1722192619
11.617 45.9037 43.5656 31.5982377226
10.0985 45.5272 47.3724 30.6580030654
9.74176 47.0883 45.3167 27.4797799374
1.84869 39.1847 50.4396 28.8021075889
3.15052 40.1362 47.9382 33.3154955434
3.81506 37.066 50.3179 30.4337369653
5.63299 39.1036 48.5848 30.2471348653
7.72181 40.6213 50.0203 30.8197069605
6.37152 37.7974 51.4025 26.5950630155
9.88342 39.5228 50.6723 34.22138647
9.28089 36.7792 49.8449 28.6549859308
2.91247 43.1278 48.084 30.0563654966
3.07062 43.8349 51.0019 30.1921309112
0.428901 44.5205 49.4338 30.2410089728
0.197196 41.8347 50.1275 28.0656454939
5.68147 43.8639 47.8007 30.5878252894
5.68053 44.6811 51.0572 30.770038684
11.5182 42.935 51.7635 31.1857517119
9.0931 43.3768 50.3549 28.4496689445
0.220065 47.8596 50.7644 27.814141244
3.35033 48.3512 50.1908 31.5858297755
7.29401 45.9518 49.1412 30.3662269239
5.77285 48.2728 48.0643 28.3080522441
9.84442 46.5476 50.4546 33.7460884556
1.19252 37.6308 52.7164 29.2443999364
3.15629 37.9315 54.3766 27.7459114172
4.5525 40.3348 53.9541 26.8133426284
6.99013 40.0431 53.325 27.1439589853
7.32233 36.8636 56.2598 28.3016174939
9.37954 37.9476 53.0192 29.3377445781
8.60594 39.6033 55.7475 29.2658688967
11.4618 38.1739 55.0073 29.5833492376
2.84687 41.5136 52.2865 33.8674831174
0.601702 42.1273 54.2775 32.3298376173
6.48605 42.8644 55.4342 28.1002825077
7.36329 42.8847 52.3403 27.9638453789
4.20592 41.3818 56.3263 27.6856727235
9.61624 43.6929 54.0976 31.9678544173
0.436748 45.1389 54.1279 31.3255339787
2.28555 46.4768 52.1559 30.0157416322
3.25247 47.1456 54.8539 30.0134211132
5.88743 45.6638 53.8396 31.7247709322
7.61051 47.9409 53.5978 29.4338332568
12.1803 47.0608 53.3169 29.260179261
9.81437 46.4287 54.4359 29.5436007961
15.2573 1.92358 3.98957 31.8246281956
15.5479 1.97217 6.9647 29.6209931428
18.9426 2.54033 6.41853 28.8825815229
20.3602 0.574846 5.39383 29.9675330458
22.6694 2.33681 6.05857 33.943280859
13.1576 4.08529 4.55541 27.4616458809
14.7881 5.90644 5.97885 26.9138079373
17.3723 4.6177 4.8145 27.0779360928
17.0533 7.12211 7.23767 29.877753107
20.1947 5.26769 5.60985 28.9923634183
17.9559 7.0691 3.73986 27.4724134761
22.1303 4.21581 4.03588 28.2063138757
20.5352 7.86776 6.58447 26.9832952722
13.5085 8.19289 7.10962 27.2810835521
15.9218 9.92508 3.93466 30.2325175388
13.5916 10.3511 5.51631 31.7408427227
14.5036 11.7149 7.79955 30.7521424489
18.45 9.17635 5.58864 28.6640805575
19.7095 11.4822 4.37561 29.1103241858
22.8307 8.53445 4.84778 28.8503311977
24.1741 11.0052 5.83697 31.0224215035
13.1684 1.85874 10.5727 29.4467613585
15.2084 3.62788 9.17982 29.768838448
19.1296 2.83005 9.31153 30.7795452044
16.9567 2.78474 11.2933 33.0892407123
22.19 2.77805 8.85567 31.3817938315
23.697 0.885394 10.2821 32.9530718169
13.046 5.15684 8.64812 30.7460133817
16.6552 5.97058 11.6747 31.0116456826
18.2587 5.49392 9.39929 29.9972138517
20.4639 6.92365 10.2298 31.5295442851
22.624 5.66506 8.96386 33.7516041544
22.9259 4.26052 11.5876 30.6232755894
24.3107 7.79608 11.4063 36.915537925
24.5939 7.53666 8.80414 29.5105263503
15.6352 9.0981 8.76642 29.9334448897
15.428 8.50463 11.3602 31.1637411289
18.2196 10.6676 9.20372 35.9378215546
20.1093 10.7197 11.6148 30.4835132057
20.8775 9.20483 8.77936 28.7650666253
23.6112 9.86189 8.2731 30.8613096735
23.636 12.2244 10.117 31.415286079
13.0712 1.95042 13.7059 28.6881275251
15.0939 4.04837 13.7765 37.3873423054
17.0914 0.414897 13.8154 29.246755212
20.1128 3.17161 14.3313 31.6478247523
17.5539 2.94422 15.0147 30.3810108446
22.1522 2.12355 16.5196 29.5985210317
23.8294 1.20837 14.6258 30.8802186548
21.4554 1.5032 12.598 28.9434135366
12.3062 5.12795 12.9456 29.6800337783
13.0059 7.82689 12.9098 29.0243358543
18.4747 6.96916 13.4209 31.7253538589
17.2526 7.55295 16.0126 34.4986250263
22.0602 6.45152 15.8035 32.6204896743
21.001 5.64203 13.2374 31.4365868635
24.5827 5.29843 16.4071 29.1542517487
14.7937 11.1005 12.7576 32.9916354828
15.9277 10.1733 15.3688 29.8890242928
12.6484 8.27671 15.5108 31.6349095833
17.7715 9.78147 13.09 30.6131567481
19.2659 9.99987 15.8286 32.6104835443
21.6778 9.18574 15.2178 29.4153827554
22.6112 10.1409 12.7115 29.2241371473
23.9572 11.9299 14.4511 30.7990916163
14.007 2.15879 18.9251 27.1043441766
16.0117 1.05514 17.0864 28.8759332039
18.433 0.793232 18.8685 26.8221947964
17.9078 3.39888 20.9638 26.7583998299
19.1967 3.37771 17.6506 29.4001685399
16.572 3.65788 18.5517 25.0268945372
23.8488 3.2667 20.4023 29.6036999114
21.1953 0.0249089 18.2079 30.7802974786
21.1283 3.74103 21.0338 30.9685175539
24.3501 2.86526 17.9013 29.0007891827
15.1055 5.85234 18.5972 30.6350794622
14.5687 4.66055 21.2555 27.0674540548
12.3285 4.17605 17.2613 33.3866518878
18.5562 6.51765 18.2097 32.0568392252
17.2422 6.57697 20.8867 26.4050396215
21.32 5.76789 18.3656 29.9085186177
21.8442 8.15588 19.3385 33.2377059727
15.3371 8.58283 20.4219 30.6705254823
14.5353 8.77383 17.3007 31.5321861686
12.4928 9.03789 19.376 28.5144010113
18.4603 11.6231 17.8173 30.739007158
18.3072 10.7472 20.6118 32.5396001341
19.5976 8.48473 21.016 31.5653772841
22.7225 10.3419 17.6361 29.4067960711
23.8474 12.1058 20.3348 30.1172617222
15.6289 1.40181 21.4088 27.6442992575
15.8988 1.91454 24.1645 83.0598923399
12.9089 0.245792 21.8296 26.8138322154
20.2898 0.907067 21.2964 26.439626271
20.0808 1.54947 24.1155 59.3811176635
18.0252 3.85117 23.7864 61.6590647599
23.8314 3.33644 23.9992 63.5836066756
24.4327 0.667406 21.2673 28.8433395218
24.4591 0.6398 24.0706 51.6249630073
14.1891 4.4084 24.1244 63.1717479214
14.9888 7.39823 24.6877 99.770226087
13.3655 6.97808 21.7776 26.8038409602
17.5368 6.52886 23.664 42.7761662541
23.5541 7.32098 21.6542 33.5048965845
21.5736 4.32974 23.4954 38.5306408003
21.9743 6.90997 24.0444 90.1262245007
12.6703 10.4561 24.2784 58.157948921
15.7001 11.1648 22.1493 29.338310106
12.9307 10.9951 21.5808 30.1003845635
15.7756 10.2124 24.6383 77.8836165219
18.6295 10.7945 24.3764 89.5001949845
19.5887 8.25599 23.8633 56.1134644616
24.3553 10.4957 24.5072 98.1457797851
22.1944 11.4838 22.9338 37.8776098327
15.2033 3.62416 35.7422 84.2599506515
15.3018 3.76122 38.6886 29.4876650479
12.4169 3.27624 35.7468 66.6415304175
12.7353 0.181294 35.665 84.9937349632
12.4878 3.84195 38.6378 30.7817071822
16.853 1.43809 35.9122 50.4203533191
19.373 2.3881 38.254 25.5441025472
19.5734 1.83625 35.5493 89.3555286506
23.9627 2.84215 35.5513 85.1556214463
23.0105 2.96396 38.2968 27.8148621565
21.1427 0.275709 38.4137 29.2021888413
16.4698 6.40327 36.2258 53.8612345679
18.8903 7.33222 38.473 28.1180913366
19.5355 7.22517 35.7101 82.9147845178
20.3437 4.75787 38.2321 28.2177158563
21.3327 4.25874 35.6646 73.211253127
24.4252 5.63637 38.7346 25.4969853499
22.3923 7.24632 35.8374 63.653777788
12.4508 10.9209 38.1814 26.9535329785
13.0925 11.0543 35.5842 74.4086790458
15.7114 12.093 35.9932 52.8592942358
14.338 8.4003 35.9557 50.8802947198
13.756 8.44542 38.6391 30.4543884366
15.2759 12.0202 38.6481 26.107630022
17.5227 9.47661 35.6826 81.4071847369
19.8896 10.8461 36.1761 38.3002889225
23.6081 8.6504 38.3134 30.6198180797
21.1001 11.5719 38.5378 33.7390635134
22.4549 10.1611 35.6627 80.1856358071
14.9274 2.47191 41.8812 32.0142480156
13.112 1.38031 40.0284 29.7849668739
16.7977 1.32866 38.9031 25.7035216554
19.6833 2.28584 41.2591 29.0814757031
17.1776 1.07235 42.0926 27.9439993006
20.4208 0.0732894 42.7538 28.8471637529
23.1293 0.172837 40.3229 30.3797567784
22.6004 2.95498 41.8182 28.0106767573
14.094 6.69355 41.6116 30.6426976891
19.1595 5.14324 42.3913 33.9152876067
16.5164 6.15331 39.4603 29.579623856
16.9326 6.82512 42.2104 29.2597979044
22.0224 5.44081 40.4259 27.1707742806
12.3207 8.72335 42.9699 30.4062368609
14.6318 10.3306 42.7733 33.1684911934
20.125 9.33796 40.2256 29.6827397655
17.5491 9.39733 41.4005 31.528302283
16.7436 9.34373 38.9027 28.0761603761
22.7397 8.25024 40.9899 27.4553467305
20.5729 10.7811 42.9268 30.4644899121
15.5323 0.618098 45.7468 29.5377160967
13.7774 2.73679 45.9629 33.533567178
12.8767 0.0979477 47.2955 32.5384877346
18.7381 3.97369 44.9829 34.2442076208
18.3745 1.32152 44.9433 30.7911058101
20.558 0.07738 46.2063 27.9330546702
22.169 1.81951 44.3691 29.2819034619
15.407 6.2615 45.6933 29.4941974131
13.0685 5.12426 47.1752 28.9225967835
14.1288 4.49418 43.3903 30.788501373
17.5497 5.32764 47.2008 32.2152647096
21.783 6.61931 43.561 27.8780007616
24.4209 7.78632 44.5488 28.5947528969
21.6133 7.29148 46.932 28.3400316752
21.7605 4.4073 45.61 32.6907718112
14.7424 11.259 45.7412 28.4335515481
13.7475 8.76989 46.0872 28.6413875635
20.2393 8.56273 44.5539 27.6226860469
17.6205 8.27874 45.2639 30.5345665231
17.2638 10.7037 46.6841 27.7622951177
20.4951 11.5817 45.9986 26.0701423279
23.137 9.85991 46.2862 32.5002130553
23.6439 11.1855 43.2853 34.1559163216
13.1734 1.00413 50.5383 30.0576518805
14.2265 3.78626 50.369 27.9689228248
16.7068 3.47295 49.1657 32.3910623665
17.951 0.860219 49.2889 33.1320722461
20.6368 1.26112 48.7074 35.8766936927
22.5406 3.64094 48.5534 31.0128583467
23.8323 0.932506 51.4436 31.8840261851
23.1259 3.5307 51.4569 32.6918205576
14.8257 6.56768 49.0456 33.9691816517
18.4227 4.7997 51.0258 35.1714033655
18.944 7.51984 50.4931 29.9151000969
19.1242 7.928 47.8554 26.9561183199
22.9096 6.47965 49.1658 31.3225264897
21.5396 7.72174 51.3867 31.3186252676
16.3888 10.4342 49.3164 28.0733282403
14.0861 9.2448 48.8997 27.5970292288
12.4309 10.7893 50.6375 31.4654694318
17.4779 9.35161 51.9351 31.8362008346
20.1863 10.5461 48.4288 27.5379452293
22.2928 10.6653 51.8623 28.1456677946
22.8782 10.8301 49.0426 29.2537548275
15.4032 1.77526 53.7268 28.6848005222
12.9904 0.543296 53.2321 28.5614002065
16.8767 0.286735 51.9921 35.1289954306
20.4538 2.66035 55.1179 31.5585101411
17.8734 3.16534 55.203 31.1052271861
20.6157 4.04948 52.5504 33.48582991
13.7835 7.55167 56.2959 27.2970740357
12.6707 4.51433 54.6769 29.1597899697
14.7211 4.2932 52.834 30.3881754757
16.2192 8.05925 54.1146 30.1757810282
17.0311 5.45159 53.7391 31.031517796
20.8828 6.90561 55.6885 28.9046677018
22.0627 5.98222 53.4064 27.1086249414
15.0193 11.044 53.5097 30.1563959517
12.6048 10.6457 55.2918 28.2199885014
12.712 8.49376 53.2487 32.2457056638
19.5242 11.1593 52.4816 27.7876390673
23.3029 10.3053 54.847 29.4415651633
20.656 9.82206 54.9062 30.6253751444
14.4137 14.16 6.34763 28.4865900888
17.5085 13.3442 5.48582 30.7979055073
18.1464 15.9347 5.01995 32.3533189641
21.9075 12.7709 5.38775 32.5731544589
22.8959 15.2261 4.17805 28.8586776665
15.1329 18.5112 6.64766 28.0565996896
14.2476 17.6741 4.13614 29.4319044922
12.6948 19.1244 7.40564 30.0856449875
18.9091 20.3151 5.01672 35.3282561951
20.1752 18.4546 6.41005 34.8290136608
18.3305 16.7211 7.88926 29.3628917425
20.473 16.6093 3.74869 29.722035405
24.5243 19.6058 5.03946 31.0811643727
16.2651 20.7811 5.65552 29.647918542
13.9951 21.0274 4.00291 29.8025552199
14.8781 23.6874 3.73975 34.6773430216
16.4596 23.9831 5.86608 31.8996061856
23.6429 21.4034 6.8957 28.6049101866
21.3609 21.987 5.28435 34.3089884388
20.7257 24.5051 6.05482 31.8438248452
12.3605 15.4484 10.3738 29.5857273588
12.439 12.7835 9.38909 30.5057015791
15.6655 15.892 8.22613 29.3603655187
14.8522 15.8328 10.9996 32.846080962
17.2201 13.2778 8.34285 30.7071292563
19.0985 13.6217 11.8196 36.3431865675
19.6935 14.6505 9.30777 29.1410692618
21.6862 13.1002 8.25664 31.6669537945
23.949 14.5431 12.1007 31.1771657058
23.6015 15.0042 8.53471 33.1046186536
15.7248 18.3523 11.8412 37.1390411147
13.1824 19.7755 11.9024 35.287419575
17.1132 19.2089 9.2321 32.5078899441
19.2843 19.2657 11.4136 32.7821784091
21.9846 19.4383 8.22887 32.230163767
20.5593 16.7001 11.0581 31.6425644543
23.0899 17.3919 9.90934 33.029759624
16.0753 22.3707 8.29149 30.0667315404
13.5311 20.9429 9.22093 34.4224209927
14.628 24.2846 9.81274 32.7529598128
18.2577 21.853 10.1957 37.675791814
19.6483 23.609 8.70609 30.036874128
21.2998 21.1236 10.1268 28.5776689297
22.7972 23.3263 8.67242 30.4583454906
22.7796 22.0951 12.3473 31.39801103
16.018 12.9102 16.6833 38.6080143151
16.0207 13.8417 12.5842 37.4729842856
15.9257 15.3965 14.9838 34.075402534
18.4978 16.2112 16.5774 29.3387233603
20.5993 14.4401 15.9813 30.8031097993
21.4799 13.3415 13.4348 30.5811292259
13.5529 16.8866 16.7148 34.3690483152
16.7594 18.1844 14.6227 32.3760104002
19.3508 18.5505 14.3814 29.3132689456
24.1585 19.3946 15.589 35.6945990822
24.127 16.6228 14.3479 29.5193530086
21.3037 16.6492 13.8108 32.2551091355
15.994 20.5405 16.4948 31.4814908054
13.4526 22.234 13.4272 36.344110509
15.4417 23.297 14.8716 37.2042759076
18.8112 21.3247 16.7577 31.5080332741
20.1321 21.6383 14.5064 33.3288059209
19.8141 24.3312 13.7904 32.2621536926
23.0863 21.8757 15.0656 30.535262025
16.0807 16.3311 20.437 30.7983561428
13.3811 14.1517 17.1037 36.9584508568
20.2793 14.6837 20.2865 28.7386444425
17.9143 14.6231 18.9009 30.7535817728
20.9522 12.7369 17.9799 29.6960105309
23.2283 14.5378 19.6421 26.8336470863
23.1259 15.6878 16.9682 28.2607799992
15.3083 20.1216 19.8905 27.6098605275
15.6875 18.1619 17.7894 29.4692137894
12.4277 16.9706 19.9112 28.2366540747
19.9552 18.6492 17.4991 31.9001287444
19.3099 19.687 19.9648 30.3429535517
22.7864 18.4174 17.8167 33.2988947018
22.0484 20.1953 21.1203 29.0971331818
14.3135 24.0981 17.406 31.8284147036
13.506 21.654 17.735 26.2055968816
14.4518 22.9352 20.7671 27.4530581207
16.4157 24.4121 19.3958 29.4093098747
18.8207 23.5155 18.6004 29.6882974203
17.4526 21.5109 21.0855 28.5444681051
23.4601 23.6858 18.0436 27.9249180579
21.5373 22.5848 20.0758 29.4106710923
13.9516 15.4746 22.286 27.6422206703
14.5342 13.1523 24.4708 73.3951532117
16.9399 13.822 22.122 27.8925892889
16.8691 15.2754 24.4417 81.4750879368
19.7598 16.0116 24.0179 48.7783028958
19.3813 12.9726 22.3501 25.5280106011
21.2846 13.7562 24.4949 94.4963580469
23.3193 15.3337 24.1883 56.8635859734
13.3199 18.9221 21.4509 25.2469553119
13.2344 18.1033 24.2001 67.8909402112
16.1756 18.0212 24.4867 87.4728289947
17.8372 17.7855 21.8861 28.8792271039
19.3338 19.0821 24.4408 97.4675328882
24.0786 18.3525 24.1042 90.0189750257
20.7692 16.9165 21.6072 27.5828073531
22.0612 20.0612 23.8028 38.4321627778
23.3713 16.4379 21.6985 27.866250441
13.8558 23.8438 24.1632 65.2757875443
14.5739 21.3642 23.0096 29.5404575171
18.6444 23.6722 24.2877 80.8191036191
19.1341 24.2721 21.5254 28.2341241479
17.2263 21.1043 23.8997 54.0897389345
22.8105 23.8514 21.9744 26.4971612714
22.9978 22.3987 24.5164 102.6689915908
14.3083 16.259 36.6469 37.6616182627
12.3786 14.1092 38.5702 30.5806433914
15.5558 14.8646 38.7316 25.3259918049
12.7291 13.8066 35.7835 73.3078685458
16.8521 14.8916 35.7337 71.8201220223
19.3646 13.5868 35.531 94.6698670736
18.4559 15.7512 38.3418 27.0041207431
21.6198 15.2376 36.1053 55.0738344331
23.2429 13.3141 37.2644 31.6523912365
13.5632 19.9486 35.7157 79.9648158371
12.6404 18.4321 37.7365 24.0036010275
16.4848 18.4709 36.064 55.0988407934
18.6814 16.9054 35.7532 63.6654681729
20.4481 19.2633 35.6516 81.1682735672
23.8686 19.4339 38.5877 28.5924660697
23.3277 17.554 35.7703 80.7355603362
21.5831 18.4305 38.2933 27.2142197439
24.4575 20.4052 35.8577 81.6156240376
14.7728 21.3189 38.2519 28.6432632661
16.1855 21.5843 35.6382 88.2061409376
15.3466 24.3042 35.8743 51.0587299045
18.4111 20.6864 37.2195 29.6400387268
18.6135 24.3988 35.9659 57.7577780101
23.9532 24.3075 38.6515 32.1024004212
20.5884 22.1657 35.708 84.1072783821
23.3368 23.1751 36.0573 48.598098064
13.9681 12.4063 41.3812 27.9250223014
15.191 15.125 41.4763 29.4607973768
18.2502 12.9842 39.1887 32.2791767939
19.3584 13.0171 41.7238 29.6020837991
21.9971 15.9445 38.9771 28.704355396
21.2566 15.0065 41.6512 30.3135164728
24.3916 16.1722 40.4984 29.8550065053
15.843 18.8777 39.2403 27.3573624589
13.6032 19.4434 43.1019 28.7274528244
13.917 17.5017 40.7198 29.5637226823
18.1087 17.3623 40.2478 27.5506276935
19.922 19.3418 40.4895 28.9663644389
18.1115 16.3605 42.7825 27.3381820699
20.7882 19.4565 43.0796 27.0290105586
23.4015 19.4643 41.5307 30.3542914029
14.3485 23.1869 40.7173 28.6141498573
18.4694 21.704 39.9973 25.9261557631
16.4309 20.9827 41.3834 29.0389346668
17.9732 24.2171 38.9109 29.5753539289
22.7858 22.3013 42.6759 29.9905178254
20.5883 22.869 41.2907 30.7424076409
14.6184 16.2143 45.6061 30.5749893525
14.176 13.7041 44.0365 28.998569231
20.322 15.2042 45.8846 28.1904593691
17.1463 13.7041 43.4004 31.5269968886
18.2236 13.3919 46.0782 29.3046181753
22.4293 13.3481 45.5846 26.2609549812
24.4666 16.2476 46.2549 29.5560177563
23.3855 13.9732 43.1857 28.2959360452
16.3297 18.2777 44.0471 29.6858102093
13.565 19.9414 46.8522 33.639218748
12.4521 17.6636 45.1195 35.4106773947
17.3374 17.7472 46.7736 27.4564400673
20.4997 16.7317 43.7271 27.5322451237
23.1052 18.2864 44.9761 28.4359096118
22.648 20.3487 46.3585 31.3910494373
16.12 21.9263 46.8134 27.4864982697
13.6865 21.8252 44.4177 29.7756701479
16.2778 23.3656 43.3818 29.2708833342
17.2941 20.7984 44.5678 27.5021858945
20.0008 23.6812 44.9254 26.9250673181
19.9514 20.9143 45.1294 26.1555433421
14.0557 15.1912 48.1779 30.8748798872
15.7695 12.994 49.7344 27.1978402274
14.0395 12.9997 51.8078 27.3971318601
13.3214 12.4053 47.9205 29.2291889446
17.8044 15.192 48.2792 29.0089255583
17.3416 15.1948 51.2664 27.4301122009
19.1648 12.8221 50.0126 30.8531431273
24.2128 13.2427 47.6709 30.7571201806
21.2033 15.0272 49.9353 31.081565694
24.0106 15.1912 49.6469 32.0134241756
15.3945 17.088 50.0237 26.8215858681
15.7682 19.0455 48.4011 25.1550597756
19.2205 19.2587 47.5665 27.6420203199
19.6668 16.6105 51.8238 28.9517065631
19.3823 19.0346 50.8871 30.7727373336
20.939 16.9911 47.9439 27.9140636738
22.5335 19.1189 48.7945 30.9210985823
13.8427 21.7406 49.2555 30.6011854004
14.7857 24.4976 47.696 26.3930867764
17.242 23.6701 51.507 32.8970502173
18.4954 22.1838 48.2238 29.3701084138
16.8835 20.6721 50.3338 28.5941189434
19.958 23.2194 50.6514 30.602173298
24.0022 21.0888 50.6226 30.2470116007
24.211 23.7649 49.8234 30.8410901046
21.5409 20.9315 51.8183 33.6477960155
16.2485 12.7858 55.4811 28.2181646964
14.4228 14.9051 56.1081 28.8524035188
15.4349 15.4737 53.2175 28.0055790832
18.8752 12.7559 54.5707 30.4888871478
20.5056 14.921 54.078 30.5667247573
24.0051 13.0885 55.0572 30.8300465625
22.4739 13.5127 52.7208 31.7717330594
13.2322 16.8428 51.98 28.6563713417
14.8384 19.8922 53.9493 29.0187486389
12.3236 19.2005 52.9542 31.226971421
16.5563 17.4232 55.3202 29.3455070287
16.6107 18.3439 52.4083 26.5058105312
18.4294 19.5993 54.9209 41.0974278075
24.5298 16.5835 54.9012 31.5491660485
20.8384 18.4447 54.1582 32.6533682914
23.5148 19.2925 55.0475 29.4487045302
14.8406 22.2698 52.3911 29.702230147
21.2996 24.0177 53.0483 34.5350540286
22.6691 22.5112 55.1568 38.2613047907
14.4074 25.6615 7.33322 31.2398624642
14.1708 28.0048 5.07721 28.4564771
12.7036 25.6455 4.30521 29.253154897
15.86 28.1037 7.58087 33.5932153898
18.8118 27.8586 6.94968 31.3665650205
18.1198 26.0026 5.09362 30.3482571859
22.9619 26.3924 6.3681 33.5798806798
22.085 28.2312 4.13434 27.1268296959
15.1252 30.8819 5.35011 30.3285899454
14.6467 31.4525 8.01484 30.2690579099
19.3742 29.9329 4.92762 31.6488029358
17.6388 32.1368 4.34957 31.6747756062
21.7483 31.2927 4.35284 30.2001342413
22.2469 30.5103 6.86143 29.6696279381
16.0945 34.9573 4.06538 29.5430912194
13.8831 33.8664 4.88474 28.2601092099
12.4504 33.198 7.22571 28.9908316015
17.3667 34.7568 6.83716 29.6851950781
20.2335 34.6239 7.52165 28.5625786804
20.6662 34.001 4.77477 31.2477971087
22.6336 36.0322 7.89662 33.4243223059
23.3502 34.5413 3.74408 31.221402077
16.1891 28.5479 11.3204 31.9408081387
16.6888 25.9426 10.8683 31.9119263249
19.0271 26.3336 9.45836 31.5553483251
22.1546 27.0459 11.5492 30.54991172
23.2906 27.9511 8.80644 28.5121371218
24.4274 24.7675 12.2354 26.5007528624
21.0828 24.5259 11.1823 28.0515478507
13.7612 29.5468 9.61196 30.8618996844
20.5066 28.8201 9.29919 33.3110380859
20.3356 31.3854 11.0425 29.0934224274
18.2523 29.8793 12.4936 32.5063787659
24.3887 30.6992 9.78379 29.3687392415
21.5862 32.2137 8.80848 28.6830489451
22.8549 31.6047 12.0575 28.35918595
12.3882 34.0985 10.0697 26.5226878862
15.0349 34.7428 10.2237 29.174375723
16.7972 33.2401 8.92796 37.4373813684
19.1266 33.9794 10.6016 30.7469142212
20.9832 35.8893 11.2451 28.4527578652
23.9934 33.7048 9.02866 31.4469395774
23.5378 34.945 11.6295 30.4245607327
12.3679 27.1475 13.8559 32.6796035893
14.87 28.5603 13.4618 27.3629005999
16.2376 27.2588 15.1997 30.2278734602
17.2054 25.0592 13.5935 35.1060835862
20.7628 27.9425 13.9 28.9600165734
24.2965 26.9972 14.1938 29.2236915434
22.2931 27.3081 15.9706 25.0581680862
21.3016 24.5353 16.3281 30.199158359
12.983 32.0756 13.6067 30.2881914645
15.6878 31.1786 14.1884 29.1563839934
14.8219 31.3985 16.8688 34.7482785968
18.56 31.8912 15.2283 30.7302320088
18.3392 28.6961 15.3926 29.6230179198
21.9465 31.33 16.7323 24.61605666
21.3102 30.5362 14.3175 25.9138055669
24.2784 30.4076 14.7414 26.0388314343
14.7549 34.2892 12.9252 32.5161505424
17.9134 35.8815 14.8001 31.6268705082
17.5763 33.7132 13.1016 31.7504037777
23.867 33.6105 14.0219 29.2223517114
21.2959 34.4789 15.1821 30.8715881685
14.0134 26.8144 19.2107 27.5805513457
14.7709 28.4001 17.0485 32.9043274183
20.0382 26.2979 18.3244 31.6934087089
19.1361 27.3291 21.2353 25.8630266316
22.0453 26.2926 20.4948 27.894948028
24.5618 26.2863 18.5758 27.5737337104
16.3555 31.8404 19.1624 28.7136511604
14.5811 31.5406 21.1726 27.5694087931
18.7042 29.2479 18.3522 31.2152766945
19.5147 31.8915 18.2832 25.6598154316
17.5973 29.7506 21.0562 25.2715023948
21.9533 29.0112 18.0261 28.3651522718
23.651 31.1657 21.2582 27.9536415199
14.7166 34.6359 21.221 27.3690777913
16.362 36.0656 17.5807 35.3521412545
12.4495 36.0426 21.2545 27.8658086221
16.8318 34.4855 19.7578 25.5029641721
19.1697 34.5904 17.3055 28.5194169449
22.6655 35.0112 21.0994 29.5991379919
22.3221 32.813 19.6029 26.9503846506
23.9149 34.0104 17.5873 27.5855524773
22.7831 36.6835 17.1961 28.2881565868
13.042 25.5065 21.5406 25.1634531599
16.3526 26.1785 21.463 26.7117903473
16.247 25.2188 24.3824 75.7704770696
14.9581 27.8846 24.1672 57.2386223981
18.5426 27.4586 24.1699 55.6747385585
21.3675 24.8962 24.074 45.2178476055
21.4729 27.4567 24.7825 100.9371015683
24.4323 27.9311 21.8464 28.701879882
12.5554 29.863 24.4968 74.1478275007
15.0298 28.6953 21.3916 25.2214747412
14.8817 31.4956 24.0035 47.2394270501
19.638 31.5727 21.3929 28.0981724589
17.4854 30.0192 24.1865 64.8950535842
19.5448 31.707 24.2491 63.5947170888
21.5092 29.2353 21.5636 27.1057669285
24.2706 31.8911 24.1454 72.2833415125
21.9204 30.2979 24.2417 58.4790779993
12.3559 33.3681 24.3802 90.2820841943
15.6883 34.306 24.3933 74.7361480714
18.9737 34.5013 21.4182 31.5615139754
18.3948 34.2746 24.3184 61.4705405915
24.4438 34.5309 23.517 45.545680094
21.4343 34.9121 24.2922 90.572357713
13.1577 28.2906 35.7601 58.9801533959
13.0703 28.2483 38.4811 32.7156082859
15.664 27.2156 35.3702 97.6354899622
15.4155 24.7966 38.5625 27.6718616631
12.702 24.73 35.8322 65.8358808059
20.6417 26.1991 35.6035 72.2289571073
23.5155 25.702 35.4136 99.4193032183
22.156 26.8501 37.9631 26.4150397426
24.516 28.2394 38.3942 28.3649417901
13.5029 31.0032 38.7336 28.1852933049
13.2404 31.0306 35.8486 72.5983706388
15.8506 31.9229 35.8893 54.4862976298
17.2706 29.5818 35.6117 65.1000022303
19.8701 28.88 35.6443 65.0843649622
19.4478 32.2092 35.7986 59.1781029954
18.4 31.6994 38.2101 27.6069670845
17.3269 28.9531 38.5478 28.36557602
20.322 29.0115 38.3317 26.3688497393
22.2122 30.6201 35.8111 72.6117113535
16.1795 34.7669 35.6221 92.4470870262
15.2914 33.4135 38.4142 26.7051144797
13.5283 36.0311 36.1551 38.9563196469
16.6916 36.2676 38.3532 29.4286674023
18.5481 36.3372 36.0977 43.2192119599
20.7582 34.4781 35.4266 117.9476118988
23.2833 33.2219 36.4626 44.9181760753
20.9124 36.038 38.0556 29.565515954
15.3747 27.3692 39.5906 29.4154484942
15.4374 27.7417 42.5432 31.2972921351
19.0262 26.4207 39.8068 28.6398220256
18.2226 27.632 42.3687 29.3511809144
18.8463 24.547 42.8546 30.2043095941
22.902 26.5862 42.6151 31.5762139003
21.5699 25.2667 40.1564 30.0835463757
14.1827 31.4342 41.3577 27.4155864348
16.9193 30.3414 41.0674 27.0723427551
19.929 32.5537 40.598 26.2422242106
20.0421 29.8318 41.7382 29.2153724342
22.6718 30.7942 39.1134 28.1847684443
22.7561 29.4362 41.9377 27.1004651276
15.7929 36.3665 42.4756 30.4583217617
13.0552 35.2857 39.1779 27.0418545312
14.1632 34.0785 41.7675 29.5550871502
17.2282 33.3115 40.3437 27.4424892696
19.5823 35.669 42.2199 25.5806278193
21.8641 33.6129 38.8721 29.5591688668
24.2473 32.9243 41.0812 29.7537435501
22.6993 35.4063 42.3142 33.9114092535
15.1541 25.6888 44.5052 33.4103406402
12.8546 26.651 47.0664 31.1737611778
16.9304 26.5605 47.3003 31.0375762398
19.174 24.7047 47.2553 30.3171139347
19.3591 27.4849 45.2678 34.298502897
22.3302 28.4037 44.9894 27.6167444098
22.5918 24.6012 44.6808 29.6822478944
22.9888 26.1855 46.9728 32.2322813292
15.6354 31.1957 45.1695 29.7921670968
16.237 29.5417 47.218 34.5367517485
13.6753 29.6491 43.4387 31.1484840296
19.4016 30.0404 45.9012 32.4217817587
18.0907 31.6874 43.7311 27.8239616915
22.2894 30.8139 46.3541 28.9151863516
23.3156 31.3651 43.6785 26.9903899776
12.3815 34.902 44.0409 31.7806858965
14.0775 33.025 45.9372 33.0065733951
16.2333 35.0842 46.0779 29.2386819547
19.9268 34.3599 45.7987 28.8507846295
17.4815 34.432 43.4819 25.9911891786
22.8356 34.6861 45.5345 27.9756936305
20.761 32.9844 43.3928 26.3139167488
24.2513 33.009 47.1068 30.7531765255
15.2669 24.9222 50.2331 27.4597043389
16.7074 27.4078 50.0687 31.7696017675
18.926 27.7842 51.4686 32.2512809537
21.4103 25.0192 48.9655 30.4533344533
21.5243 27.4175 50.3273 32.0436879981
13.3676 29.0297 48.4004 31.3418267566
14.4172 28.6881 50.8967 28.8396587421
15.3789 31.6769 49.496 31.6899283717
13.0312 32.6679 48.6195 31.5719802002
19.6782 32.3558 47.8239 32.8821092341
20.668 32.0316 50.6078 31.1644817653
22.1119 30.0652 49.4127 33.5129998869
12.3425 36.6141 48.4184 31.8207186127
14.9996 36.3936 49.4313 30.4177522107
18.5897 34.4027 50.5361 31.4687384732
17.119 33.4337 48.0504 28.5022472886
17.9036 36.6994 48.996 30.0086334743
24.1493 34.4435 49.5213 31.8538585179
22.4026 34.0277 51.6599 32.1459700565
13.3663 25.3703 52.3033 31.3342691331
13.0207 27.8843 53.5221 28.4262368562
15.6913 25.3904 53.9184 31.7558527409
18.9833 25.8221 53.5355 32.5243742377
16.6093 27.4537 55.454 28.6996549048
20.3175 26.4035 55.8536 31.3822251795
22.8461 26.4931 52.5686 31.8803062096
23.8348 28.2929 54.4951 30.6793930245
12.5342 32.5955 53.406 31.5700812402
14.7222 31.2092 52.0413 30.0572007926
12.85 31.604 56.02 29.6489023617
14.8139 29.2871 54.8926 27.9266849285
19.007 28.9574 54.9112 31.4241436036
16.8678 31.6553 54.0059 30.5727525638
19.0182 30.357 52.2946 40.1344960319
23.6972 31.0459 54.9142 32.5733162957
24.2945 32.0594 52.3782 29.7250056795
12.5371 35.5367 52.8557 32.2696265353
15.1477 36.1873 52.3249 31.3479464105
16.9226 34.1835 52.7721 30.7496409944
18.6435 34.4984 55.1394 31.6678396588
19.9443 35.6428 52.7548 36.3562288656
24.1077 35.2803 53.7246 30.9608858248
16.1607 37.5363 7.72884 27.345062295
14.7053 40.7017 4.26782 28.9988385404
14.3043 38.1279 5.88775 30.4170696028
18.8327 37.3786 7.02976 26.805069474
18.3316 40.4912 6.0582 27.7861038448
18.9729 36.8085 4.3521 28.9569597344
17.2136 39.0317 3.81996 27.2927093657
21.1613 40.515 5.80355 33.3816369424
21.5431 38.3017 4.23196 29.3852151439
23.4987 36.8446 5.23549 30.3724810583
13.4697 44.4373 7.06064 32.2311624551
12.3168 40.9685 5.74169 29.4935399941
17.0648 42.5461 4.34045 28.7788891555
18.3265 44.7043 7.84855 30.4490040983
16.4241 44.3465 6.09735 32.3106679001
22.3117 43.084 5.06353 33.1308318353
14.1093 48.1877 4.54574 30.0625763284
13.8094 48.9044 7.50759 30.5204969745
17.5509 48.8297 7.46983 28.0996397585
20.381 45.5865 6.45411 30.405095377
20.1789 46.149 3.73445 30.015605609
16.8844 47.2241 5.37786 31.8344781656
23.08 45.2138 6.74555 30.7967158074
20.7313 48.0418 7.72333 29.2897492538
24.5824 46.2441 4.3856 31.6345624748
16.2611 40.309 8.24297 29.5725287029
15.0724 37.2862 10.171 29.9316269768
17.1349 39.175 10.8813 29.3990511113
19.3774 38.1124 9.79843 29.6660240558
22.8422 38.0731 9.97222 27.5122849209
20.7594 40.2575 8.58564 31.0797682475
21.2593 39.345 12.1478 30.0578850605
13.5686 41.6198 8.14742 32.5364009383
14.4054 42.9095 11.2025 34.6477448139
17.243 42.1921 11.2468 28.194795993
18.4367 42.1568 8.85283 30.6699890368
20.8445 43.6956 12.437 31.5532337071
21.9313 41.8092 10.7492 35.2561445065
24.6049 42.1229 9.84968 33.0245777139
15.2289 47.3444 9.36696 28.6099254643
13.6834 45.2644 9.93798 30.1390063389
15.1441 48.9203 11.7948 29.9535651012
18.0347 45.025 11.8576 33.7647897319
17.8221 46.8576 9.46633 27.8901788615
20.057 48.9622 10.2132 30.993821163
23.656 47.9183 8.46893 31.7934396679
22.3795 45.9685 12.1577 35.459392645
24.3763 45.1909 9.88248 34.7880524091
14.1463 37.1093 13.5753 29.6300792881
13.6654 36.9816 16.3501 40.2650194658
16.6595 40.8067 14.8564 34.3424111074
16.5727 38.1984 13.5643 34.3092881824
22.3221 38.6724 15.0825 31.1327604327
20.5299 36.7855 14.0288 31.0724011035
14.6987 42.798 14.2777 33.7914324359
16.9331 44.6838 14.6645 32.3731539666
18.765 43.0218 16.3555 28.3009628551
19.224 41.1885 13.2549 29.5680746064
20.817 41.227 15.7395 30.4268497885
22.1793 43.5621 15.0469 33.0202308087
14.1257 48.4837 15.129 28.0903465747
13.4677 46.7611 12.6187 34.7097396637
13.8106 45.7107 15.4443 28.0559936479
19.2106 47.6763 12.8099 30.3748668749
17.2261 47.2335 15.9165 28.7887037972
20.1225 47.7219 16.1987 29.1478605306
21.6999 48.0935 13.9585 30.9415632796
12.9605 39.0356 18.3085 32.3530370803
13.4198 38.6407 20.9501 30.5948815399
15.736 40.189 17.758 34.8491297109
17.138 38.2344 19.1184 29.0608951525
20.3084 37.0275 18.2786 30.2163872154
20.1265 40.0759 18.2812 30.6966401676
22.6597 39.9807 18.9051 30.9036968617
22.5695 38.7029 21.2513 28.1924267061
20.5365 37.1294 21.0729 25.220177837
13.4843 43.3921 20.5726 28.3595407025
18.5958 41.5489 20.0959 29.3277943164
18.5637 44.9259 19.2536 30.3437303621
16.6398 42.7011 18.3041 28.4265584602
23.0427 44.8381 18.1551 31.1222247895
22.9891 42.6218 19.6726 29.6622336096
14.6106 45.098 18.3672 31.734384247
13.2576 47.2574 19.9983 29.2173525278
12.8897 48.8436 17.6656 29.4118705593
16.6912 47.0478 18.9018 27.2669094402
20.5415 45.2569 17.0152 29.739214601
23.2292 47.5214 19.522 34.8864607583
13.9031 40.7716 24.4456 87.0417014053
14.6328 36.9392 24.1355 63.1885266912
15.865 37.289 21.5121 26.8345563308
16.5783 40.2065 24.0898 49.186542267
18.21 39.036 21.7181 26.983259595
17.7743 37.2879 24.4662 83.5388051206
20.6671 37.6721 24.1605 60.9466767215
20.6509 40.5481 22.6984 26.8921565495
23.1315 39.4315 24.3894 80.9120123472
16.2342 43.6654 21.4818 31.4711971191
12.8383 41.1041 21.9902 29.7115475904
16.7061 43.9583 24.327 63.1933464905
18.6057 41.9574 24.5901 93.4239038291
20.9709 42.9907 21.375 29.9637564199
20.6674 44.0123 24.2502 53.1847179101
22.9478 42.1487 24.3684 72.8622974319
12.3563 48.275 24.1106 80.6647307104
15.5146 46.3304 21.5787 26.0130876601
14.618 46.0928 24.1343 74.8418984063
19.4689 45.6301 21.9525 28.2866959419
18.0693 46.1407 24.5038 82.811915775
17.7154 48.3421 21.4365 25.4956588997
17.9594 48.9639 24.2342 64.970490829
21.5469 47.6429 21.9035 28.9058010778
22.6822 46.0359 24.3531 71.8255619401
21.8948 48.7886 24.6072 93.0319944202
15.8715 38.5526 37.0638 25.7890526507
13.2799 38.2198 38.6994 27.8419100926
13.7561 38.8535 35.3288 101.2678177559
18.6101 39.2943 35.4971 103.3314931742
21.3158 39.6755 36.2763 61.6149330652
22.7803 37.9429 37.7157 30.5231437867
15.1713 44.6913 38.5874 26.5668673643
14.2701 42.0451 38.4571 25.1091906117
14.7725 41.9995 35.6574 73.1117010586
17.1109 41.3995 35.7154 54.8386351482
19.2328 43.7649 35.6184 107.4954523358
18.4839 42.1535 38.2371 27.6785004502
21.0207 41.164 38.6353 27.8371745733
21.7718 44.5475 36.5287 35.1765276073
23.3658 42.2756 36.2068 65.3817695085
14.5482 45.0368 35.9772 60.3796814368
15.7655 47.8311 35.5317 96.6212912044
14.4115 48.9054 38.0161 27.2833065126
17.8752 44.9753 38.6861 27.4643653941
18.4524 46.4892 36.2447 39.8963666281
20.4978 48.239 35.7429 73.0930001401
23.1482 47.0508 35.7329 70.9330419024
16.3739 40.3835 38.821 27.7002722992
14.1634 39.191 41.0556 28.1959142399
19.104 37.0874 39.9093 27.9734766291
18.8779 40.1493 42.8904 26.6746862401
17.2347 38.7344 41.1617 29.1466569641
23.0037 38.4782 42.2 30.1746590517
20.7043 39.3314 40.6609 29.351634017
23.939 39.5537 39.4116 28.4706765895
14.8472 42.7714 42.7485 31.3786623047
12.9312 41.9991 40.8027 28.9900424549
19.7331 42.619 41.7343 29.5429773053
17.1565 43.9933 41.5582 30.7596447077
21.051 44.1025 39.4011 27.6929949634
23.6803 44.3162 40.0424 32.6863578734
22.2355 43.9119 42.8583 30.1006575634
14.0896 46.9214 39.6717 28.9870225833
16.1103 47.5828 41.6839 30.0163502942
12.7698 48.8049 42.4827 30.0330456388
18.8901 45.8336 42.9373 29.8540915258
18.5544 47.9681 38.992 30.4555987634
23.2761 46.7852 41.8679 28.7754618404
20.5791 46.8254 41.0395 27.5450302272
16.1669 37.9718 46.7197 32.461605681
14.4578 40.4072 44.0612 32.1709905872
13.6721 37.4241 43.6719 26.9328288691
17.1012 40.3753 45.0408 30.1321612068
20.2868 37.5202 43.8482 28.2871705006
19.0664 36.8651 46.1853 28.2110456295
23.3114 40.0015 44.5008 28.455412458
20.8829 40.5509 45.3877 28.2783707408
23.0488 37.2451 46.657 30.2132640895
20.9912 38.9183 47.3861 32.3740098964
13.9413 44.6611 44.5298 35.3740048618
18.0135 43.2384 44.5999 30.0945891768
20.9164 44.7474 45.03 26.7228523317
24.3006 42.3528 43.8438 32.925733253
20.834 42.6854 47.0968 31.1260564348
15.1548 47.3729 44.1191 29.917691866
16.6931 45.3073 45.6881 27.2169161321
18.8721 46.7982 46.7739 29.4983267413
24.0442 47.8373 44.4494 28.5075268293
22.1815 46.7011 46.0619 29.1037678909
15.2271 39.1474 49.7295 28.4623905158
12.3872 39.4461 48.8549 32.0214296167
19.2565 39.0347 49.6303 30.9099586824
23.6895 37.1532 49.2074 32.9803398958
22.8663 38.6989 51.1948 31.2651068617
14.0253 42.66 48.1525 35.2187743341
15.7197 43.3943 51.729 29.5424935303
13.7763 41.3425 51.0597 29.2997967495
16.7046 41.0357 47.9693 34.1873356751
19.0133 42.3019 49.3536 29.5775196759
20.1946 41.6321 51.5068 28.250838225
23.4223 43.3807 48.0985 33.0086721314
24.2131 44.0484 51.1141 28.4528352775
12.3851 46.5006 48.7393 30.455183251
15.0327 47.928 50.3471 28.1835425438
14.9781 45.3103 47.85 28.1675653297
13.2581 45.2499 51.3149 29.4756867018
16.5366 48.0774 47.7596 26.4807364823
16.6546 45.4261 50.3032 31.1730538265
19.0241 45.1171 49.1954 30.554026288
20.3472 46.248 51.2776 32.4384564926
22.0633 48.1862 50.1991 34.6614917367
23.4452 46.2315 48.7135 32.8414868995
14.8264 37.4274 55.6622 28.9238449251
15.3416 38.9638 52.7183 30.0261456807
13.5164 40.1828 54.5709 30.802174725
20.4937 38.2968 51.9729 27.821453285
17.746 39.5816 53.7517 32.1054479112
23.8226 38.0027 53.7484 27.4410824748
20.9103 39.8842 54.4652 27.5034109462
15.6828 44.1273 54.505 30.2341169233
12.7935 43.0439 54.388 29.8346149598
18.1429 42.2313 53.2155 31.0635705334
19.6612 42.3228 55.5659 28.9924213111
21.4475 44.0825 52.1166 29.3787341837
21.5267 44.286 54.9041 30.6452666545
23.4501 40.8924 55.4057 27.9514090138
23.458 41.314 52.6204 28.5528146733
14.0101 46.0974 55.2566 29.7474897686
17.4805 46.3806 55.3825 35.0925678309
18.9943 47.9133 53.4239 37.361781729
23.8374 48.6074 55.613 34.9843360697
20.9829 48.8586 55.3558 32.1670583564
28.016 2.98866 6.91665 34.8813281614
26.596 3.52695 4.37751 30.4950320952
25.0348 1.32433 4.82345 32.9158972157
30.6558 2.86497 5.72991 34.9751453742
35.3301 1.88397 5.98106 32.7828166081
34.5254 3.51319 8.10669 29.3729383178
36.7926 3.62974 4.53189 31.1188327384
33.1486 1.17713 4.29687 32.3164143184
28.1209 6.28678 5.03775 31.0939153672
27.3252 7.09209 7.75093 33.1174358002
24.8018 6.78691 5.61788 32.3389920767
30.4908 7.19099 6.42117 28.7959200859
32.1841 4.88957 6.97508 31.2022181944
34.8702 5.78616 5.70209 30.0730084194
26.7427 10.622 4.63677 31.1580265081
29.0576 11.0651 6.23215 31.1100205825
32.0947 9.3086 6.42338 28.6978185073
30.917 10.3789 3.85778 28.9334469558
34.3689 8.52164 5.46413 29.9226382574
35.5911 10.9338 6.00332 27.3754932788
27.9083 0.694869 8.51248 28.2039410878
26.3793 1.65751 10.6231 31.9035786078
27.4628 0.117431 12.381 29.3473543461
30.7402 0.835846 8.29933 33.123786511
30.5667 1.95101 10.9902 29.47854772
34.2734 1.33322 9.96027 28.3301138929
36.4094 3.32923 11.8447 29.0075506143
27.7596 4.15741 11.0494 33.0448619694
25.4023 4.99048 12.1961 29.4319529469
28.9102 4.89308 8.63701 30.502682661
31.6206 4.36416 9.69882 31.4624815358
32.0537 5.87276 12.1029 30.9640024429
36.3385 5.10922 9.55802 29.4883669914
34.7094 6.9273 10.5178 35.1300363564
28.4107 11.7899 10.4758 31.6297141918
30.8952 9.74197 10.6166 39.900237807
29.0138 9.07445 8.38033 36.7538562945
32.2235 11.2142 8.53448 26.2895138174
34.82 11.8148 12.3055 28.5377365283
34.5742 9.8711 10.0204 32.367794649
36.8203 10.2637 8.32552 32.4465653904
25.605 3.33012 14.8021 28.8389951695
27.9925 2.14362 14.103 29.813557985
28.5383 0.70805 16.3586 31.9681562186
31.9396 3.06928 14.6266 30.5524491152
31.279 0.83556 16.2397 28.5214990402
33.0477 1.638 12.5448 26.9664065963
35.2955 1.90857 14.2454 26.8235879465
28.7034 6.50502 14.5997 34.1418501076
26.1753 6.73231 14.2153 28.4095937377
29.8525 4.40358 13.0277 27.3637657874
34.4508 5.24813 13.587 27.2021211586
36.1561 7.76865 13.0012 27.0531796938
34.3022 5.31029 16.0775 26.610860373
25.7863 9.3827 13.735 33.2852720781
27.5788 11.5367 13.1565 33.2935280968
25.0748 9.77307 16.4621 29.2174685884
29.5607 11.0142 15.2315 34.0380944139
30.5005 8.65204 15.0437 33.7854743303
32.2795 8.49108 12.5687 29.639596734
34.474 9.66245 13.9691 26.7021839957
33.7237 10.9781 16.7003 29.9879396995
27.0774 2.28408 18.071 32.7112217144
26.9739 0.663108 20.263 30.8077908472
32.7219 2.45823 18.0094 28.7240676501
31.6608 2.02996 21.2393 29.4387572787
33.8097 0.377963 19.8319 26.313384364
35.2811 2.67984 16.9994 27.1500891042
36.011 1.75469 20.4951 25.8424996674
36.906 0.527386 18.119 25.4250115314
28.703 5.5529 17.2828 35.0515960366
26.0052 7.49279 17.5631 34.2702014887
28.1968 4.83973 19.8674 29.4704242467
31.6048 4.90974 17.8527 30.6156797158
30.8262 4.9401 20.8106 24.2290968989
32.3314 7.87612 17.1335 29.7185754614
35.1932 6.18005 18.9936 33.8184670035
32.8515 6.68002 20.4939 27.0854091683
27.2278 8.33932 19.9203 30.4908762574
28.2397 11.0452 19.8819 28.2378383355
25.7696 12.1309 18.1001 33.0694176785
31.9073 11.8764 18.8135 29.8308870295
30.9746 9.11218 19.4007 31.289258597
29.5998 12.218 17.5572 30.2266429076
35.0021 11.4 21.1368 31.709102062
36.1768 10.4244 18.5869 28.106996939
35.1632 8.26608 17.1072 26.1053316664
27.5526 1.16891 24.2805 87.1416329624
28.6679 2.40849 21.8009 29.7430559312
28.3606 3.88822 24.4376 89.9933634786
32.069 0.0911153 23.971 84.3356866777
32.934 2.81157 23.9785 75.6849916857
26.0735 5.31057 24.4585 82.2629396972
25.6574 5.24285 21.6617 32.9916588192
29.5204 7.52637 21.2953 30.4531724798
31.0145 4.80546 23.6289 34.2182323487
31.8018 7.20949 24.6479 115.2540122422
34.599 4.19002 21.4875 30.2588044702
35.2512 5.10475 24.2464 72.4794848494
33.7508 7.74308 22.8454 28.8763809827
35.763 7.93627 24.463 75.8540663492
26.4523 11.8362 24.0871 37.1199992291
26.6733 8.21619 24.5538 94.5680421963
25.5036 9.20272 22.0302 29.2511801827
29.467 8.99601 23.8937 41.2574988545
29.0874 11.5952 24.4186 81.4906168377
32.4688 10.6141 21.7711 28.6130305076
32.5651 11.5924 24.3011 76.3458561115
29.9281 12.1618 21.8043 26.8414686697
35.549 10.753 24.1825 62.9890093353
27.0318 3.26094 36.0209 63.4377495498
25.4777 0.597318 38.3947 28.7815115817
24.8285 0.167079 35.728 76.0923666461
29.1593 1.47078 36.4592 37.5324534379
31.6583 3.01904 35.3632 92.6761531039
34.5162 2.78007 35.6175 75.1707917608
36.2406 2.62859 37.776 27.3986159056
33.4752 0.0477815 38.3901 26.1477286855
26.7883 7.88843 35.9262 70.8278927082
28.498 5.56288 36.0284 48.4661327164
24.8931 5.76688 36.0055 54.9848176494
29.1513 4.74553 38.5226 28.6965799424
32.7955 7.83353 35.7854 58.5364534286
31.1511 5.53196 35.3482 89.6394620989
34.7313 5.71234 36.0131 55.3532720962
33.9945 4.57428 38.729 27.7672993509
25.09 11.2598 35.4728 101.7642874341
28.2057 10.5255 38.2449 27.9618569663
26.5758 8.28144 38.7319 27.3299465801
29.4728 9.06006 36.1889 62.5054599295
31.4805 8.4678 38.5978 29.8538636074
31.0078 11.7139 36.3142 35.8443837959
33.3318 10.9809 35.397 115.5519132894
35.6249 8.99807 36.0421 58.8276894585
34.4438 9.00029 38.693 29.8313856226
26.2343 3.34495 39.3033 28.4385072791
26.7461 1.42017 42.7901 27.4070167053
25.2669 3.84466 42.0369 27.5383700923
29.3316 1.81667 39.2597 25.9493402872
32.1363 2.42426 38.8555 30.066418029
29.2606 2.14756 42.1307 30.342488491
31.5928 3.55596 42.4756 29.1107430388
33.8391 1.26278 42.549 32.0357162551
35.3757 0.965343 40.2075 26.7753451367
36.6226 3.44793 40.7321 30.0014063342
27.2316 6.2502 40.1944 28.0219020416
24.9238 6.65744 41.9793 26.3695642494
31.554 5.85826 39.1131 27.6971580659
28.9945 7.26688 42.3531 27.4519860467
31.6564 6.21244 41.9915 28.2986704105
34.6478 4.94443 41.4558 27.1163310765
33.8682 8.11579 42.3422 28.7755285557
35.9616 7.50301 40.4163 28.5598800275
25.1789 10.5618 40.44 29.4584654696
27.7937 11.209 41.1185 25.9233145288
26.576 9.18833 42.9791 28.111101972
30.2202 9.72785 41.0171 29.0547139456
31.7288 12.1705 38.8827 27.9723724898
32.0275 10.3034 42.9145 24.6947270768
34.3315 11.449 39.999 26.7152530519
35.1207 11.2589 42.8018 28.5256765797
25.2698 1.12721 45.2404 25.7154844249
28.125 2.9002 44.9057 27.7646426403
30.0168 1.98131 46.8661 26.9323746557
31.8517 3.2148 45.2899 31.0342803687
34.0405 2.12987 47.1409 31.3664412498
35.6744 1.22928 44.9107 26.9236369997
25.5583 4.08847 44.8579 28.563040315
26.5092 6.56109 46.0211 28.0384062507
31.1405 6.15573 46.3001 28.9318645762
28.7528 5.73042 44.6476 30.025203317
33.8745 6.82736 45.4985 29.134141649
34.6953 4.27807 44.3125 28.7652525875
27.9096 9.9563 45.3415 30.4466762048
30.3797 8.75265 44.5403 26.4829921008
30.3745 9.44194 47.3579 28.3626288553
30.3499 12.1947 47.4355 24.4504924994
33.0815 10.5416 45.8801 26.4503932996
35.2738 9.01466 45.0043 24.2809291795
36.4889 9.62406 47.3168 30.0810483151
24.8194 2.6465 47.7984 28.8712918366
26.0678 1.15352 49.7428 27.6565711567
28.846 3.5694 48.7834 28.7266407855
28.7591 1.68828 50.6694 28.1238173303
32.3414 2.20214 51.4307 29.2297171351
31.7842 1.01438 48.9768 28.8180023989
35.0526 3.46734 50.8877 30.2981702118
26.3152 4.79859 48.3497 27.2408898223
26.1753 4.52207 51.3912 30.9366687021
25.4915 6.83608 50.0639 27.8065847976
30.7974 5.70502 49.034 27.9473213212
29.3223 7.98714 49.7223 33.9982489845
30.8912 4.61926 51.6044 25.8998142257
33.6062 6.37977 51.6809 29.5847673306
34.9313 4.38002 48.4487 27.9511580434
33.475 6.71455 48.5565 29.714644473
27.6624 11.8177 47.9172 30.5735477846
27.6418 11.5646 50.6713 32.3387761954
27.0887 8.49567 48.0786 29.0872669102
25.3146 9.90861 50.0846 30.4564048083
32.3459 11.9881 49.3906 27.6807210906
33.7981 9.74234 48.5792 29.6327329311
36.7774 8.87313 50.1958 32.9346693626
28.4089 2.82489 54.8639 32.6824666579
27.7146 0.908692 53.1813 30.646954052
30.9538 3.29889 55.3257 30.1217483467
31.8619 1.21558 53.7564 30.0137520484
34.7845 0.505521 54.829 30.5111281584
36.6105 2.46322 54.2595 32.7907767153
24.9891 6.46038 53.3914 29.7018020764
26.3476 8.11187 56.0771 27.877911597
28.6329 7.39902 54.2529 29.359030807
28.5274 4.8019 52.9346 28.952655907
24.6907 5.29418 55.9643 31.0945990314
30.6802 7.55292 52.0592 26.4925306503
31.9461 5.71222 54.5798 29.483368243
30.7289 7.7274 56.0333 28.4543928587
34.5265 6.18174 55.4406 29.1478840203
35.9263 5.10977 53.071 31.8824331673
27.8182 10.5462 53.4121 29.3514312438
25.2942 9.27505 52.9435 30.2711917134
30.6485 10.1732 53.3743 27.5199861201
36.0298 10.9519 52.3252 29.2968999101
33.5248 9.17835 52.0418 30.7054187836
34.3749 9.02826 55.1544 28.2704196927
33.4967 11.484 56.2848 28.9723260794
24.9729 15.5279 5.98439 31.3319318148
28.3079 14.5511 4.2291 27.9003361961
26.8722 13.5778 6.4482 29.5854716502
30.581 15.6201 6.55635 26.8266972904
29.923 13.2236 8.02458 29.4118135971
32.5927 14.178 5.12035 29.0120674595
34.3005 13.0064 7.09371 29.8399984658
36.6133 15.9976 4.87321 29.8031650498
26.4031 17.9004 5.94337 28.3460515614
29.4748 17.8395 4.87508 31.8985652451
32.6944 17.3012 7.21431 29.3698377101
33.041 19.9856 7.76363 30.0300531418
35.6518 19.47 7.83724 29.5176029093
36.3554 20.1485 5.21727 34.2177434175
33.8693 20.3315 4.22291 30.390418638
33.9236 16.8404 4.7113 27.6502799858
26.2703 21.6711 4.27211 33.1230356397
29.7123 23.1492 6.49503 31.0822744272
32.5813 21.7803 5.83212 31.8693783832
28.8571 20.7996 5.22753 32.5620132079
34.7244 23.8972 5.33325 32.3198308673
26.1576 13.1295 9.23905 31.7064885491
27.7547 14.7834 10.9723 28.9506005214
30.5954 13.7935 11.1828 30.8867643591
34.0976 15.8962 9.04688 32.2459142723
33.4242 13.2265 10.1366 33.6838775442
25.5455 18.5681 10.8977 33.592370612
26.9767 18.7983 8.5616 29.4685272099
30.475 17.4225 10.783 29.5678052617
28.7619 16.4059 8.75748 32.079550522
31.8831 20.3576 10.1928 30.1557838213
29.1299 19.93 10.0972 30.5655825576
33.3267 17.8387 10.9931 38.8099953072
36.8787 17.2965 8.80314 31.3929991998
25.5547 21.5523 11.2809 32.3645468475
28.1247 23.5504 8.80335 29.4445311201
26.2491 21.5869 8.41719 32.3359080457
29.2766 23.3589 11.2163 29.0725429319
31.3938 24.3032 8.79998 29.2271825989
36.6671 21.3209 9.6803 32.1121037692
35.1769 23.7109 9.38228 30.6743992411
33.01 23.0534 11.0111 29.8713992045
25.7962 14.5535 16.4878 28.43929984
28.6207 14.9301 16.8119 31.5106675384
26.2609 13.8135 13.7616 29.643294502
30.8857 15.7648 15.122 30.493827322
31.3341 13.3355 13.8545 36.9145704716
34.3269 13.0519 14.7933 30.9413251605
33.6848 15.7462 16.2755 32.1351360757
