2.63941 3.36968 15.8314 28.1264362321
10.0229 9.06334 6.80458 28.2432033452
6.34808 1.03349 9.31605 29.6640609102
9.19933 0.370995 4.75765 31.6848185855
1.69587 1.66525 7.80667 28.9670955856
7.62018 11.6338 6.62623 28.4858496064
4.201 2.96719 9.45809 30.5521895938
2.10165 3.18431 3.99308 27.6952030618
4.11672 5.11934 11.5306 27.2588488245
6.39668 5.38938 9.60647 30.4344756285
4.4126 5.44133 7.3887 28.7160191537
2.39154 8.85178 13.9696 27.4467756507
0.739596 3.70166 6.74226 28.4528820702
8.02439 5.04451 12.1519 26.5074659704
4.64869 7.37498 13.5366 30.403093897
1.90961 1.98092 11.0648 28.7049312331
11.9471 0.428831 5.39733 27.0376702682
7.80139 7.92223 10.0525 33.3110536521
2.25958 9.02928 11.1187 28.2622194977
3.939 -0.0163384 12.7109 29.700137122
7.91507 6.87257 14.8058 28.1518520178
3.68457 10.8651 14.9812 30.7682389056
10.0577 11.1165 14.4833 28.4749622856
11.8898 9.56287 10.1741 32.4041815643
6.97365 8.67992 12.4657 29.1595761681
9.17387 0.429004 14.4095 29.5587488188
6.4514 3.18198 13.4093 28.4553474945
4.70381 3.65092 5.11193 31.468669376
8.25463 3.27658 8.81046 30.5680844342
10.4133 7.11987 11.2218 29.9760879801
7.81259 10.3918 4.19619 30.1625803256
2.87299 9.8061 7.0758 30.2542765985
10.1076 3.31335 11.3377 26.7853923576
9.59993 3.45013 14.86 27.6314213218
0.74166 11.1597 8.01024 25.3836322099
0.432944 4.21086 12.3056 29.4003401357
9.26865 12.2873 10.7461 33.9007754329
10.7524 1.24558 8.60331 29.2857744428
4.79145 10.2457 11.1229 32.4930677006
4.07351 6.12309 16.225 30.5063405731
6.579 0.528221 12.0217 28.9674282004
10.5885 11.4197 8.1269 27.6529019707
1.92349 9.72488 4.39695 29.3585370735
1.26975 5.47788 14.5685 29.2526998896
11.3509 3.76413 7.2514 26.1630019665
11.6022 2.64001 16.558 30.5478345626
8.43192 9.74344 16.2422 28.0589038847
12.0326 9.38442 13.0852 31.0425376931
7.95973 11.3779 13.0543 28.6238112409
11.987 11.6037 5.35533 30.9881019672
-0.0690235 5.35637 9.01729 30.0984731189
6.05322 1.4661 17.2837 30.652634014
2.13384 0.709053 24.2004 55.9019622024
11.4026 4.37617 19.1024 29.9477342192
6.71625 5.97953 20.2513 29.9892075552
10.0278 7.06149 17.0441 28.4431309446
8.69377 4.49201 17.7429 29.4412400112
2.60146 7.64112 18.1145 28.2500425546
1.34665 7.12485 22.3674 28.9785378583
7.76967 3.51233 20.7511 28.7732793612
6.71969 9.97168 21.3983 28.7757803599
6.63647 6.87638 17.5665 28.7192423547
1.05745 0.619747 21.3683 25.9823191589
4.75125 8.99328 19.0674 27.8200204532
12.0554 8.10354 24.4108 81.8401395651
1.95936 0.261639 18.5756 25.9709642333
10.3507 7.88519 19.9105 32.6699400613
4.82833 2.37445 24.3843 79.4982131327
3.98348 1.91254 21.5195 28.680817668
9.34005 9.00309 24.5176 91.1957287554
7.32295 3.48592 23.5501 41.9406654416
10.0619 2.43129 23.6952 41.687096948
0.23949 9.59071 18.7325 29.4115394936
10.5058 2.389 20.9073 27.9368799601
8.37423 6.25314 24.1577 63.227014913
5.67679 7.17206 24.5452 100.5515843026
7.94019 11.2627 24.1424 56.8767403327
4.8498 9.85289 24.1941 74.9565058498
8.2544 7.85474 21.7172 29.0076122412
5.84918 10.3821 16.8656 31.9406837172
2.06371 10.0702 23.1334 37.0345158389
6.42413 1.35132 20.0608 30.7512478095
1.88042 6.00819 20.0959 28.7300406125
3.83545 4.98598 24.125 54.0199671593
4.18973 7.91175 21.9441 25.843916142
10.2295 10.2661 18.4373 31.3055656614
4.18372 5.0298 21.5052 28.6264723429
2.62276 2.75654 18.8818 32.4689063878
2.72916 10.6924 20.3796 30.6642286311
10.0301 0.246437 19.2029 30.0257767828
8.36112 11.9473 19.8079 31.8265379102
0.921882 4.83706 24.3169 94.1670928084
11.5323 5.36283 24.3351 81.4621757558
9.22446 -0.0880379 24.561 106.2688955386
4.64016 6.31204 36.081 57.5658926568
4.5597 11.538 41.6754 28.2532969008
2.18351 5.86418 38.6178 26.9207539636
9.29412 10.8108 42.0748 30.2735185954
8.27025 4.93922 35.9616 66.0286294267
9.45337 1.75464 39.7186 27.7948979883
11.6185 0.710907 35.7532 69.3993515766
11.7953 2.22826 38.3361 27.3760197815
2.93691 0.762684 38.2724 30.1289199514
2.98907 8.8252 39.1098 26.6440568588
9.91429 10.6944 36.4239 49.3203401516
9.13266 10.0661 39.2253 28.5051888755
6.06654 3.09892 35.7446 77.6550413593
11.1603 7.00539 37.958 25.5516069787
3.24184 9.16563 36.1951 43.0526456129
0.886796 10.7439 35.4025 116.1830481182
8.85048 8.10077 35.8944 78.3995694581
7.54198 3.33087 42.2591 27.6398547628
1.68449 6.84001 41.6517 26.5316338618
1.67208 6.04093 35.6941 82.9950108354
4.9496 11.0479 39.0093 24.6067328156
6.23706 8.76155 35.9434 63.5521172746
5.21453 11.4972 35.7486 86.5571994682
3.1064 3.38207 35.7343 70.2348911463
3.75381 3.29994 38.6516 28.2765834755
12.0701 2.96754 43.0048 28.3170685346
1.98602 0.910094 35.7758 68.6768567382
2.54083 3.74173 41.5245 29.6297907474
10.6118 4.46554 40.5213 28.496922336
8.8047 5.92859 38.6629 27.264021546
10.8306 3.58963 35.7432 81.5414043196
6.68304 3.81449 38.7929 30.4811215205
1.248 1.38161 40.5391 29.7043967372
5.19841 6.53907 39.3087 27.7964473349
4.48661 6.45283 41.989 29.6708279662
8.66436 6.65849 41.7262 32.69785423
10.7942 8.44118 42.2194 34.3398672548
6.79384 10.4264 42.9745 29.2694335499
6.731 0.318429 35.7568 78.6359709484
0.807997 10.7168 38.6158 26.7611858151
6.67637 8.85767 38.6289 28.6245751929
2.64101 9.54903 42.1518 26.1144231679
6.71803 0.995291 40.2851 31.7721983715
10.6823 0.812109 41.8663 26.2591346911
11.6448 9.04823 39.7467 32.3128154089
0.0378567 8.311 36.5505 33.2625040395
4.95023 3.72501 43.0525 28.1769187788
4.46739 1.04064 48.2647 32.0842628998
1.62462 3.24552 49.7867 34.1039040084
9.08172 0.655635 48.4623 29.2987012351
7.07617 3.53416 47.4046 28.7517113794
9.80559 4.34102 46.4973 26.6177968394
3.86327 1.46496 44.5057 33.905229575
10.7063 1.43662 46.162 27.6574385895
1.64171 8.33534 51.7604 35.112293474
2.14263 9.63017 47.8639 30.3387368087
2.07897 2.17829 46.8375 28.8482656267
8.6918 7.21534 46.0871 32.8966918104
11.7208 10.6218 47.2228 29.8605702063
5.88954 4.87745 45.3113 31.0306105365
8.96602 10.2438 46.496 30.2504864703
9.63417 4.54974 43.5692 28.1291095964
11.2936 7.71904 47.6193 31.1079083315
4.93997 10.7266 46.3661 31.4389371192
4.07029 8.58314 44.8355 25.791142596
7.73464 9.547 49.0856 29.3200599207
7.25558 11.7351 45.042 27.5231662796
8.55659 1.3716 43.9518 28.1487307338
11.1811 9.97639 53.9784 30.6828056193
4.86747 6.6133 49.0 30.4029159981
7.55526 6.501 48.8218 27.6315551903
4.03699 4.81284 51.1755 30.4881006956
5.61527 1.3426 52.4772 30.1817268214
8.51234 2.54074 50.9279 28.0307339507
3.72819 6.49694 46.5461 30.0543260034
4.36017 8.53253 51.2293 29.2254189238
6.35853 9.92328 52.5994 35.2860671774
9.09345 9.60537 52.1507 31.0221072725
1.68979 11.7264 54.7058 29.527480991
5.88855 2.97557 49.9815 28.3676930576
0.831065 5.01789 54.5079 30.1555957715
5.5355 9.8714 55.3231 33.1117557347
0.789716 10.9249 52.2319 31.0134983251
2.81023 0.590088 54.9366 28.0481697395
5.19321 10.2631 49.1399 28.3320617402
8.8548 11.9016 54.541 32.3465544689
10.1946 7.41258 50.5116 27.0738874163
0.22366 5.19335 48.1033 30.1725982126
0.633467 12.0796 48.4586 31.3308122256
0.831114 2.52023 52.5642 28.3888758122
10.5934 4.60948 49.2704 27.9078143664
6.47889 0.860214 46.0759 30.1289431462
3.65034 2.89732 53.4618 27.6028552554
1.33915 11.7287 43.4628 29.7220429871
8.02155 2.28639 53.8506 30.8710259405
0.626646 0.969454 44.4542 29.5528178713
1.6291 4.88394 45.8036 30.7497771111
5.64196 6.42704 52.6099 30.2968662927
11.7999 1.53461 49.4073 29.4246998797
0.998001 7.75132 54.532 29.5441333273
8.04994 4.95766 54.984 31.6160470249
8.2073 5.40269 51.4886 28.2638325302
5.30774 5.10746 54.8903 29.3584926526
10.5749 0.448651 52.9749 27.6701772461
10.7617 5.31063 53.4037 32.733035241
0.528749 7.67117 49.2472 33.4244598189
6.23015 7.76913 43.9183 28.6002568872
9.63248 11.7727 50.2001 28.1616922728
1.04917 9.04123 45.2241 27.9535460787
11.919 3.11471 51.9168 29.1356581493
0.18444 6.81988 44.1176 28.6654039291
3.86599 7.55278 56.1946 29.6108492934
0.255902 0.803449 56.157 29.4829081583
11.2955 6.63512 56.2788 29.0814026366
4.13138 21.5958 14.7651 31.2976049886
7.51009 16.3441 4.61104 29.3358782156
11.9297 19.8111 6.58064 32.3167793945
4.84644 16.974 8.10185 32.9476034751
9.91764 19.9856 10.7034 31.7482033028
6.20736 14.126 4.97771 27.7854174927
10.1224 16.2254 7.8984 29.6572518539
0.73962 23.3484 15.7084 32.0955643931
8.2541 20.6203 4.85012 30.4153713111
2.70509 19.2031 8.56232 31.6132233895
5.13867 24.2023 15.4878 30.1424782817
6.93605 18.0956 9.57628 29.330999028
10.9611 14.0565 12.5639 29.3956930069
3.15086 17.6451 5.70329 32.6600443418
5.73989 21.4088 4.35379 27.6111923417
8.80883 22.199 9.40192 29.2552085234
12.0675 23.046 14.7831 29.4325703516
0.124942 20.6364 13.1044 29.560251262
6.97786 22.5694 11.8276 32.2766203111
7.75791 17.414 16.7299 32.3759297287
9.23964 23.5004 13.4589 30.725724508
0.639051 12.7433 11.2549 29.5479418955
9.29231 13.6308 16.0681 29.5042428803
3.88834 12.3662 12.5807 32.4910808056
9.87695 22.1663 6.87029 31.7888058201
8.41612 20.0794 15.7152 31.6667613463
2.59988 13.4492 9.7011 27.9353486529
0.317425 17.6007 5.34059 27.6926820516
2.6325 21.956 7.40892 31.1089848954
9.76929 13.7494 6.37198 28.0633990622
5.66658 14.024 7.7735 27.7651743987
6.67802 15.283 11.8882 29.0227554531
1.27276 21.5661 4.98939 28.8719165622
7.76753 14.1473 9.54632 31.4239301709
1.87909 12.7983 16.416 32.7882659602
0.230003 18.05 8.96728 33.5076941507
2.2151 17.1041 13.0884 38.917144505
6.56576 20.6325 8.96277 35.8256371097
5.74828 18.244 12.214 34.0634162996
3.85772 15.6972 10.7411 32.3423499256
10.2303 20.8792 13.4745 30.5988365009
5.31701 22.1023 6.79714 31.8481467725
1.85492 13.9184 6.99275 30.3764402059
1.87856 23.991 8.93349 32.6781745672
9.04047 18.1733 5.76095 31.1479676615
6.45117 24.2046 3.86436 32.4521753184
9.74859 24.4925 10.5831 32.6937954434
8.42422 15.7052 14.2133 29.4029959452
11.0968 17.4579 3.92136 27.1096406627
6.16504 13.2617 13.7736 27.8093745021
3.63634 14.8766 5.26348 28.8505995283
10.7753 16.8018 13.1419 31.470733161
5.95626 14.9276 16.0931 31.0499205199
0.953061 16.1311 15.3202 31.7095190801
9.62212 17.2067 10.5147 28.9651561681
2.61089 21.4447 12.2372 35.5152219642
3.33792 18.9026 11.1781 27.5040019093
6.49719 20.4158 13.7826 31.9118367868
5.21452 24.3161 12.558 32.8952319756
10.3635 23.8894 16.9254 30.5186615721
2.30949 17.992 20.9148 30.2038870351
6.29147 18.1958 20.8363 28.0600019863
3.69009 15.6223 20.1069 28.0270660687
4.85577 12.6032 21.6237 31.9873166201
9.82632 13.597 21.4671 32.3382933513
9.9251 13.2243 24.3533 92.5186465096
4.50683 22.0258 18.5687 27.5874002624
1.90697 18.9754 24.0485 52.1066591189
10.2442 21.2298 17.7946 29.5434084381
3.64651 19.7245 16.9929 35.9963310289
4.67452 23.5394 21.1336 28.6428835287
3.6479 20.5691 21.1131 30.7479770149
7.69468 20.5465 19.6016 30.0535316767
11.0536 21.0856 22.1163 26.6304186277
5.99326 15.2887 24.628 94.5063083128
8.73637 22.5382 21.4109 28.0637871477
5.2674 17.774 18.0574 30.5642518912
5.17454 12.8115 24.2712 57.0944181241
10.6037 17.8056 24.4836 76.2889599766
1.70499 13.7968 21.4382 27.4921825204
1.18609 21.9728 21.7652 29.4502842749
2.13558 15.9997 24.4216 90.0143629035
2.44243 12.9445 24.1263 68.1170191905
4.68302 17.0714 22.8996 27.3120081593
8.72386 15.5846 24.4235 60.7935013638
8.3577 15.9091 21.314 26.6919236261
0.684683 12.3994 18.8696 27.4839956303
1.96043 21.7981 24.678 103.5321851502
11.0357 15.3475 17.4179 28.7021637844
4.72197 19.627 24.053 55.7576552726
7.45352 19.1318 24.4051 78.0052932892
9.59493 17.155 19.0765 29.7294673657
6.24774 14.6475 19.7207 30.5653571582
9.1523 18.4414 22.1365 26.3051191487
7.07563 22.1894 17.4673 27.2892086753
7.21618 24.2646 19.4683 26.9856590105
7.26825 21.9367 23.9432 46.1341190843
11.078 19.5358 19.7468 26.1162630528
9.4436 23.5625 24.6876 76.8986325853
6.99722 12.8218 17.4128 27.5485059691
4.30884 22.9227 24.0667 49.1527259109
3.31967 15.26 17.1832 34.3168167861
2.67342 24.0009 17.7529 29.7490473436
11.9943 14.1076 19.8364 29.5307170634
10.8939 20.5378 24.6571 76.0846426366
1.19169 18.2345 17.0671 32.5339116959
2.56156 13.6653 41.6293 30.5239778018
9.42839 21.925 35.7243 83.6269895963
6.00072 14.1348 41.529 30.8939625682
4.20283 16.5355 39.0224 27.1787471778
0.738493 16.1577 41.4063 30.3781672164
1.96655 22.4356 35.8139 72.4113069141
9.33217 13.7342 40.387 30.7008059547
11.713 14.8649 39.0204 30.6554928213
9.05402 16.6256 40.5556 29.357272325
4.20592 19.1608 37.9109 25.6992206858
3.71323 15.6235 36.1555 54.1984085784
9.22143 15.2221 35.485 118.3590236396
6.60985 16.4032 36.3553 40.0039160426
4.48423 18.6473 35.3525 104.4830667906
11.3896 13.6548 36.1909 48.3529696073
0.828408 19.6094 41.8024 33.8132647896
4.94016 22.8205 36.0341 60.419092914
1.56147 16.8888 36.4619 30.0278972389
1.68353 19.6037 35.6272 75.1157213317
10.7641 19.605 42.3459 31.494758933
6.5932 20.4294 35.7852 63.7247320522
11.7322 20.1037 38.3056 25.1846565231
8.51242 18.5637 36.298 50.219876992
6.26492 19.8714 42.2303 29.7255870307
3.22666 23.3696 42.5267 29.9700207661
0.741674 15.0709 38.7238 31.6730021848
11.6244 22.4104 40.2815 29.3536384014
3.04487 24.3494 39.8929 30.7588979023
12.2737 22.2918 35.7907 62.9551064738
9.21419 21.2107 38.513 27.8678959626
6.80602 15.9883 38.9812 29.4602916802
3.87324 18.3857 41.2658 29.4848022871
7.86268 12.8189 36.2556 49.1596798417
4.02928 15.895 42.3981 29.2941537386
8.56761 23.8644 38.6831 27.1473882002
2.72875 12.8549 35.764 71.5620783316
2.56574 21.7194 38.3708 29.6313989013
11.3579 17.789 39.4448 28.1377209241
6.8554 20.0087 39.2765 32.1109313394
5.37964 22.6865 38.9761 31.9514371767
11.2955 23.8671 42.8099 29.187344495
7.58415 23.9008 36.188 44.9291626422
6.06506 22.683 42.9419 28.5976006254
11.3525 17.4128 36.4531 36.8591256566
7.3782 12.6959 38.7171 28.3585363564
2.88392 12.7641 38.6371 28.907241662
1.45437 18.4995 39.3193 25.8854605902
7.47545 24.5763 41.0745 31.5627054188
0.632712 22.2788 42.3933 30.7736041461
8.05315 17.575 42.7779 34.7451454095
4.34706 19.0661 55.8953 32.6861561927
1.61049 19.2139 46.6762 29.0230069413
4.26793 14.2553 47.5662 27.8716459715
6.80918 15.0936 46.7125 29.9006267091
8.09759 13.2408 48.0034 28.9373101219
0.0662378 15.1029 49.0774 31.3622210901
10.8801 13.091 46.3016 32.7633527448
3.55903 19.9017 48.8011 29.6831734107
2.35184 19.6329 54.264 30.6364690345
4.16554 16.7018 45.4228 31.6063670723
2.41335 21.6662 45.1832 29.3006836041
10.836 22.6505 54.4511 27.9508835011
5.48339 19.3631 47.0308 28.1583670216
11.1436 18.9545 45.8481 32.4237442424
1.96174 13.2227 51.0065 32.897599084
11.6385 15.1663 48.124 32.8711318791
9.57484 24.2051 48.4579 30.0806334483
4.59603 23.4701 45.6567 26.5652416379
7.07524 21.5484 45.9603 30.152009073
10.761 17.6648 53.6877 28.911584452
0.16265 19.6861 56.1297 28.0420469941
8.97205 13.5073 52.0488 29.3007853869
1.83637 17.5241 52.524 34.1427141837
3.61183 17.7569 50.323 32.2706151055
2.61614 16.3303 48.0318 29.6257460485
6.30266 17.3191 50.8614 30.7633199798
6.35232 14.5421 51.3222 29.2290290477
2.33403 12.6135 46.3096 30.7057799321
2.60776 22.5186 48.1841 30.0249577391
6.86836 17.3143 48.1732 27.26706025
7.94199 18.614 53.1385 30.6849259436
5.52075 21.795 50.5848 32.4531477186
8.89415 19.1284 47.869 33.1495687839
9.36275 15.2827 49.5544 29.3587384978
9.48787 18.0833 50.4091 28.613988745
6.27908 17.143 54.8104 32.1670136413
9.72916 20.4704 55.2148 31.6929258706
7.87247 14.6233 43.8936 30.7664607944
4.54489 12.4535 55.3731 33.3948005976
3.298 23.4582 50.4409 33.6054501454
7.67646 22.3429 48.7204 26.2689423774
9.79908 21.2271 49.9467 33.0695603469
1.87279 21.9201 52.5727 34.0974478858
6.60561 21.2363 52.9036 32.9132839162
11.7711 21.5071 45.2815 31.4435512059
2.71641 14.9801 53.0381 30.8595333043
5.5431 14.6829 53.9154 30.9070760116
4.58449 19.6411 44.4251 29.0800327845
4.38405 22.3558 54.2871 27.3487397661
10.8763 14.8255 53.5511 29.7652150314
1.62811 17.6231 43.9679 30.0612798273
9.61544 14.7911 56.1787 27.7318476425
10.702 17.1731 43.8796 32.4006633043
4.55925 13.1186 50.0094 31.5973148447
8.9148 23.2116 52.4881 29.9850655909
1.27204 23.2653 55.3219 29.2328215323
9.85409 13.1101 43.4041 27.4497527523
9.16992 21.8092 43.7697 33.2620098019
1.56199 14.4867 55.3901 31.4182349698
12.158 23.4521 47.4705 31.7579514087
0.660879 14.8444 45.2641 31.6481661527
12.4552 25.7523 6.20893 31.1848436166
2.04131 27.027 5.1892 26.5695740831
8.07397 26.5169 9.6537 31.7392691307
9.76077 28.7185 9.33346 30.6026794096
5.16947 34.3094 15.2977 29.1763435365
6.78751 32.3753 5.62366 33.806975167
10.9971 35.0549 11.7841 27.9895787995
-0.0731625 30.267 5.82053 32.5057995913
6.87085 28.7888 6.83247 31.1200550002
8.91397 30.7014 7.53408 33.2597826966
9.20287 33.2601 3.86667 32.88819187
1.86206 36.1361 9.84853 33.9793454438
7.81222 25.0641 15.5031 28.961662316
11.8891 28.0825 4.52204 33.5050607361
0.541183 32.0438 11.6965 35.0630511021
2.88861 30.4689 7.16865 31.7206738726
-0.0409221 35.4109 5.21096 31.0878459561
9.6757 24.7896 5.68181 32.3525976707
11.2606 33.0095 13.8319 27.5307228497
-0.0399258 34.8053 11.1664 28.4856531609
2.92035 26.707 8.02946 34.486344161
11.4342 31.9314 11.0128 25.8815034249
2.37446 29.7951 12.9733 33.6926481906
9.19487 30.3774 11.2247 29.2984911156
8.73626 31.6021 15.4573 27.8444611655
-0.110721 27.382 8.90734 32.0377656804
9.91984 28.8715 13.5658 31.9169556436
7.35335 27.6921 14.0559 34.9427343419
3.48902 26.3966 16.7114 34.6979902728
8.36842 36.2417 13.1932 28.9208586078
5.93755 33.4505 9.90651 34.5891108173
4.55664 28.9834 11.239 36.2530214178
4.69833 28.9852 8.43915 31.5809403804
4.12099 34.9767 11.4471 35.7905879308
9.90624 33.2369 9.15022 32.0390427578
11.1143 31.3528 5.67951 30.4321983888
6.53288 31.3379 11.6927 32.8859453338
2.61273 34.4714 13.9305 29.5778414628
4.11956 35.4255 6.03248 28.1653351237
4.51758 32.8532 7.39864 36.2307335143
8.13937 35.3455 10.3123 33.5680771299
7.56787 26.2467 6.97656 34.9161732213
6.41547 26.7886 11.671 33.0122879799
0.89295 30.2111 9.155 35.9599717257
6.4521 30.0103 15.8473 29.7438416648
7.42099 33.4532 14.0186 29.3598336895
1.9292 28.2137 15.27 32.2622397076
11.3682 35.5176 8.42673 31.3909857629
2.08942 30.8521 3.94091 29.57340708
9.94458 34.9102 15.5594 27.3852464629
6.2057 36.6039 15.2277 29.587959524
6.22014 29.8821 4.32052 29.6709762273
1.74565 31.81 14.8059 29.9072162941
4.84166 31.0981 14.1209 30.2089109302
3.22293 24.7979 4.29772 27.6790493836
11.9204 26.7347 13.6256 37.5140547481
4.942 24.6643 6.38773 32.2782632557
1.86793 36.0548 7.02037 32.5589849373
12.3861 33.5759 6.90607 29.1786690138
12.2624 26.9779 9.00891 32.9163100791
2.82183 36.745 15.425 28.1004563228
0.188516 24.3225 13.315 30.1460091954
2.42383 24.6899 11.7268 39.4759284049
12.2179 29.8826 16.7876 29.5710444025
4.29706 32.4315 3.95614 28.1411531432
2.20861 25.1076 21.8547 26.9664933848
11.4424 32.2353 21.0451 29.4776252169
4.65273 32.6487 21.2601 27.5906514516
2.25044 28.5468 21.3616 31.2970320421
3.49308 35.6675 18.0095 30.9131275583
5.1744 29.6288 18.2855 29.7630748695
7.86191 30.8003 19.0864 28.6621769535
9.53015 29.242 17.6049 29.8564671335
8.27653 26.5672 17.8105 30.6119463263
0.933112 34.9476 19.1923 31.9146484958
2.3067 32.4443 19.7761 31.3584041862
7.77838 33.0138 21.4307 27.3921280988
8.2379 33.2334 17.7374 28.0187539812
6.12876 34.7757 18.8538 28.3050418745
12.082 29.1944 21.9427 26.3422714945
4.55936 25.5243 24.2449 65.473413786
2.69798 27.9621 23.9504 45.6654800739
4.89988 26.5091 21.3546 24.6901518975
5.20492 29.3789 24.5163 102.4009857422
2.0572 35.1097 24.2511 66.9960698671
7.79799 28.3656 24.1818 54.5487215287
7.61775 26.0142 21.5584 25.1239877303
10.4365 29.1214 24.2843 67.5643220259
1.45402 31.8694 24.0106 55.9964699127
4.29536 31.7816 23.7568 42.4702998137
8.24527 28.865 21.3532 29.8283160859
5.17993 29.4884 21.489 28.2887433469
9.44962 31.9468 23.66 37.912603671
11.7317 32.8864 24.886 126.3220562225
11.1566 33.6153 18.3544 30.210903562
0.819295 24.424 19.7108 29.5730438662
4.09201 35.4811 21.917 27.5200813935
6.68599 36.1042 21.3557 25.2678654641
6.72127 33.2563 23.9645 67.4849642869
0.588104 25.4878 24.1741 73.5940276513
9.95342 34.9844 21.5589 28.6492015824
10.1858 35.3257 24.2908 58.2262309934
7.20693 25.6544 24.4774 73.4975560896
4.86002 36.1473 24.5443 94.959486128
10.5688 27.6803 19.7538 26.9164722961
5.3745 26.8919 18.6227 29.4160935252
10.7312 36.3393 18.2601 27.1100340324
7.80001 36.3339 23.9402 45.0839577238
10.9105 25.9548 24.4889 59.2377966151
1.09543 30.9709 21.5796 27.3965691383
10.3215 25.1269 21.5894 26.996819258
2.98634 31.1545 17.3468 31.4797526496
11.9905 24.6642 19.1086 29.4689994654
7.74055 36.6864 17.8574 28.4820946822
0.886503 29.4722 17.6392 32.4409381019
0.0634892 29.4822 24.4862 98.9222183511
7.28498 32.8995 40.3594 28.70749133
4.64552 27.3441 38.6381 29.2841342863
0.494418 29.2431 38.9852 32.6830396242
1.41931 35.0334 41.0116 30.6631730927
10.2591 33.6332 40.4844 30.4419112307
2.82118 32.9101 39.2838 28.6772946054
7.86199 26.663 35.7006 74.5175643696
3.37179 30.5398 36.0717 75.6565463061
4.49218 26.0444 36.0248 60.7045051486
0.365189 34.7941 35.3793 117.7026660934
4.15346 34.6395 42.3038 34.1097733201
5.78183 28.799 35.9623 57.3078046957
9.75437 31.9696 35.7655 63.3516106534
10.5559 27.0119 35.3862 98.0755950163
2.71867 33.5099 36.3346 50.0819834205
11.7897 29.8715 35.8057 60.9062514898
5.56184 33.9279 36.1173 63.2979426466
7.38252 30.8019 38.1853 26.1885178764
1.13709 31.4716 41.2486 36.1988517219
10.5074 31.2868 38.7047 28.9323210741
3.21228 29.6564 41.9572 28.784946897
10.4003 34.7298 35.5106 98.2048514651
7.1932 28.6351 42.1475 29.8400273565
9.44796 25.7809 42.7699 26.7172736302
6.85899 27.0648 40.1037 28.898473396
8.34354 28.1803 38.1683 28.4522096238
12.0855 24.8612 35.9947 47.6013768377
1.71674 26.3583 35.6107 99.1454612475
11.1112 27.6921 41.3656 30.6959522664
11.4816 27.8813 38.1955 26.7159623326
1.11816 25.3514 38.0208 25.8199537277
5.16657 34.3114 39.2232 30.2497937081
11.2104 24.9028 38.6056 29.9119395482
4.7068 30.5534 38.8044 27.8121052028
5.74324 30.6914 41.4636 26.4221499876
7.01183 31.5743 35.4792 104.3259279392
9.35369 29.6894 40.9334 26.3883023226
1.0089 28.989 36.348 40.5908623223
2.52337 27.4026 40.4046 27.8953012994
0.713043 26.648 42.5592 35.4756171044
8.0961 36.0974 40.2217 30.4811676992
0.226097 34.781 38.4437 30.0670473802
11.0253 34.9988 38.2399 28.4115278234
12.1143 34.2547 43.0586 31.0077257844
6.76585 36.7981 35.7552 71.9859556893
8.11541 33.6267 43.3967 32.0268066939
10.3635 31.6285 42.8635 30.1654018421
3.11113 25.9071 43.86 33.2427493674
7.63223 24.8 44.8556 30.4689808711
10.3803 27.1635 45.3697 30.7077211362
4.61347 36.6245 44.4397 31.4370150063
10.7353 34.0801 47.1812 35.4890560059
8.2308 26.3632 47.443 27.5832311794
10.1073 25.2299 51.129 31.4028125767
2.76037 26.6197 54.3673 31.2560749039
2.46264 30.3739 44.5601 32.8240968544
4.92852 25.0644 53.9159 30.1300562561
11.2094 31.6061 51.6936 31.4816330975
0.0423586 32.2476 43.9728 29.1342433617
6.73084 31.9907 45.4723 30.8598577897
7.57887 29.5623 46.5011 28.6447820911
0.649857 31.8651 53.9692 28.9900298936
3.22157 34.4449 45.8221 33.1090394692
9.99112 31.0291 54.2188 30.8257338028
6.59996 25.6875 51.8827 30.5310491994
12.2842 30.5886 55.8064 30.5661572314
3.52639 32.3821 49.3556 30.9751102377
3.50672 35.1634 48.5977 28.2400889691
4.29217 28.1301 45.4475 29.5309095157
4.61273 32.2659 43.685 28.886498722
7.76026 36.2825 47.2639 36.9374086971
10.5546 30.1153 45.7049 29.2616205305
3.43236 27.7289 48.315 27.096050657
9.10353 33.84 51.3167 27.9659836956
2.45143 28.5358 50.7464 32.1264315805
6.83492 30.1587 49.912 30.6330403064
6.77975 27.7001 44.8953 27.9389769172
9.01989 27.573 49.9789 32.3178057279
6.87367 28.3425 52.1456 28.991807361
4.85189 25.7504 49.7867 30.0586050194
1.60709 33.2461 51.3752 31.0970819552
5.09025 30.3143 47.8806 30.5611018284
9.31685 31.8742 49.1988 31.7106650481
11.5326 29.0389 50.2864 30.9884764387
11.8235 34.7075 52.2853 30.5386351421
6.12772 34.6573 49.7665 28.1870086038
10.0793 27.3188 55.0177 32.8985909434
5.61782 32.3125 51.3365 26.8713500168
0.7658 33.5812 46.1877 30.5667533012
1.54099 34.5006 55.4736 29.5713436964
7.88495 33.5267 47.5076 28.6141799773
1.15464 29.238 47.4053 32.7670697836
0.713508 35.9741 50.3234 28.5351156872
2.31956 25.5729 46.6143 32.413768958
6.04477 24.4944 47.8125 27.3689011042
11.9029 28.0564 53.0482 30.1645744306
0.821144 36.6284 46.7101 31.6592212642
4.40237 28.6974 53.1494 30.7961957181
7.69786 29.032 54.7436 34.9528174001
5.31806 35.5971 53.0043 30.4471947413
12.3166 29.3107 43.3769 29.4020873592
12.1381 32.5804 45.3432 28.4607042607
0.0019809 27.2397 51.639 33.1221522108
7.63704 32.9575 53.3884 31.2604051564
4.00487 31.862 53.538 32.6283525275
10.7567 35.0115 54.8938 29.3008323849
4.10913 35.4046 55.5373 24.9021410118
0.4529 36.667 53.6948 27.1102580375
0.946981 30.5181 49.9586 28.6430408836
7.23976 35.9149 44.4464 31.2650584489
9.14344 24.6195 55.4226 30.0807882346
8.04519 36.3023 53.4707 27.7402986304
7.10601 35.2329 56.0255 29.0188558943
3.82423 28.7204 56.2566 30.089425931
6.77063 46.6143 15.8377 28.1610652862
4.67493 48.3417 3.94014 32.3183075137
2.42382 38.7251 6.56964 27.3073739177
12.351 39.9132 6.45429 32.8534903138
3.83923 48.9981 16.6225 34.389184963
4.93504 39.9985 7.31408 31.7629420819
4.85409 42.5722 14.7759 31.9361235913
9.57806 46.3492 11.5683 32.1698016923
4.77765 38.5107 13.8783 27.2745607122
1.53832 46.0168 4.66062 30.7175597688
10.0618 37.6801 6.94881 36.3351780269
11.7817 44.7139 12.7852 25.5569827273
7.01416 40.8525 15.0003 32.1144863746
3.02149 40.4959 14.3146 33.0700701395
2.0035 41.2835 5.08146 32.0926961478
0.371164 43.2868 5.37353 30.6120959019
11.4744 42.4948 6.83938 27.8479003377
8.96913 44.833 5.96062 29.4149770549
0.650902 48.2408 6.02098 27.4119252156
2.69046 42.6789 11.232 27.7446798766
11.4957 41.6367 14.9 30.3331960871
2.23856 45.0539 13.0955 32.1262485245
5.84011 44.7345 6.4455 33.1474773149
11.2638 37.2677 13.4971 29.379046595
5.96578 37.0196 9.86614 29.415507573
4.12866 45.7214 4.35987 31.7021327571
9.22691 39.5781 8.96399 30.5034086283
4.41731 40.8719 10.1458 31.3602772992
3.87461 38.4724 11.533 28.4050724012
8.87513 42.0736 7.41008 30.2882708858
0.796021 41.1615 12.2968 33.363545195
11.2779 40.0939 10.3795 30.2682377637
5.99004 47.7418 7.54364 31.2012385135
6.38035 43.2028 10.5712 30.4378269051
0.967903 44.0995 9.27559 30.3992588021
4.44739 44.4348 9.3996 32.7056334785
8.63252 44.049 9.26775 27.6788759087
6.29982 42.0234 5.91044 29.5639590158
8.55703 48.479 7.39076 30.4118541374
6.25956 39.3665 4.13523 30.7328828709
8.52738 43.6472 12.9492 31.3869523221
4.08402 46.7884 14.7956 33.0040975251
7.26822 47.2871 13.1294 29.0065065751
0.91774 38.8083 10.7913 31.9069898817
1.77332 46.3946 8.2666 32.7779396601
4.35984 47.3243 9.8386 33.4683567703
10.1066 46.4094 8.46289 30.9175671421
11.3876 45.7654 15.4706 32.6816923221
10.6609 39.8568 13.1026 29.2997620003
7.83905 37.3727 5.28632 31.297188065
9.17172 42.7689 15.5709 29.1449493116
11.2566 45.0238 4.71977 25.0736755648
10.6676 42.9195 10.7584 27.50433439
7.90643 39.2879 13.1207 29.2424778771
5.68077 37.3912 7.09746 29.937750516
7.15373 39.5915 10.536 29.6724150961
1.72838 47.5809 11.7165 26.359797391
5.60813 44.749 13.2031 28.8266190338
8.02069 43.4216 3.76929 30.2040847718
11.6938 48.5458 15.1972 28.1898443053
-0.108771 48.8184 9.35598 27.8815288531
1.9838 39.5237 16.7593 31.9829608374
8.27702 48.929 16.8826 31.57862211
7.14382 48.1921 21.6631 31.7102646555
0.988178 43.9766 23.4839 32.1051794482
3.71415 38.5679 18.6688 32.9462204302
1.31521 46.7338 24.6241 90.7719882134
12.0906 37.3178 24.4428 73.3264723139
4.96305 45.7973 18.0336 32.353020906
1.92383 36.9359 21.4422 27.7645132683
3.64042 47.9066 21.952 28.4369838082
7.17018 42.2394 17.9698 33.9851201853
2.98436 44.2357 21.339 29.5151659156
4.30411 43.1373 17.6009 40.0936664232
5.56217 38.8322 24.2922 66.8315355427
9.04888 39.5114 17.9368 34.0224331011
8.83141 38.5886 22.0242 27.7476356669
11.2721 37.7482 20.8604 30.7746518195
7.24235 41.0149 24.4436 83.4753610287
8.43438 40.8702 20.321 25.4409551308
2.34162 46.4876 19.397 35.5681418632
6.46767 38.3483 19.6584 31.4577008822
10.0609 42.1178 23.7178 30.639202018
10.5459 42.4078 21.1951 30.2714010073
11.8159 39.6645 18.3366 27.3668706425
2.50543 39.6164 21.0724 25.8977855292
6.31144 41.8599 21.9747 28.4422156786
4.92738 44.1607 23.7105 37.1261035534
3.96143 41.6692 20.3608 31.735225366
2.85669 39.8301 23.8907 42.1684932913
9.9183 39.4292 24.4292 83.4910927761
5.64599 45.8679 20.888 28.6352672457
8.37325 44.2344 24.1506 80.434449777
9.80388 44.9565 19.7277 29.8739408233
10.3508 46.3557 23.9024 46.2066257511
2.84222 42.6605 24.5187 102.8419461081
7.74753 44.3732 21.588 26.378214983
4.2645 46.7585 24.4558 76.6295826587
9.95486 47.4105 21.3111 26.8001269219
6.29182 48.8508 24.5114 79.2480507242
1.10944 37.9307 24.335 72.8420295952
8.75809 45.0887 17.1547 31.8442848022
2.95905 38.9685 35.6881 66.0164155166
12.1922 38.0445 39.6387 30.5117974285
4.45259 47.5099 35.6016 72.9869831847
6.71102 42.6937 38.1951 27.4299294022
5.513 39.3231 35.2369 98.4534287943
0.184653 37.5205 38.3481 29.7934992705
1.03466 42.0235 42.7678 29.0695297924
1.05374 37.9605 40.9065 28.5689562213
9.44278 48.2681 36.2402 44.1984587222
7.89342 46.0117 40.3063 27.7759774851
2.35684 41.8414 35.8712 68.8336647659
2.33409 44.3861 37.3814 31.4568083308
12.1648 47.3491 39.824 26.5325513788
8.4453 40.3234 35.6164 64.8293056249
5.3049 41.925 36.1634 39.4562344843
11.3688 39.4408 35.6094 75.2112483784
7.52174 48.1832 42.2038 30.0071960071
10.8534 41.0058 42.9123 37.298536523
1.79707 46.823 36.1198 54.3715993088
5.46711 48.5981 38.2783 30.0419176966
5.99113 45.7304 38.4412 26.6597072384
11.2472 45.3272 41.7203 29.6660391589
5.54962 45.156 35.5426 92.0522689072
9.59762 42.2502 38.8888 32.5245446324
5.41583 46.0629 42.4993 32.3041751191
8.40757 45.662 35.769 74.4978779055
3.79576 45.102 40.0408 31.7710901774
0.970854 45.9849 40.2001 29.590283475
3.22622 38.1797 38.4904 32.4598900162
9.28362 43.0412 35.7219 59.9972198645
5.98844 39.3634 40.424 30.8350971997
9.72725 37.4554 38.6005 26.0775480566
4.94784 42.639 40.4614 29.9473415065
3.29479 41.016 38.5865 28.082490501
7.93446 39.7649 38.27 28.0829632878
8.18307 40.1291 42.5286 31.6780536497
9.5907 47.7373 39.0384 30.7387756358
9.05136 43.6067 41.221 30.2224286507
8.77329 37.4475 42.5879 31.0434416961
6.07852 37.1936 38.4794 27.8187052206
0.955561 40.895 40.0857 27.9709759501
0.480088 37.5975 35.6335 75.3608029834
3.67124 38.613 42.1921 33.6787078426
11.9285 43.2874 35.3953 76.5740312799
0.463141 44.7424 42.7839 29.8479684094
3.18747 47.9539 43.1257 36.0391200259
6.7959 42.7972 42.8605 29.7848715597
12.2462 43.2079 38.1039 29.8159973719
0.176663 48.2807 41.8498 28.0043507525
9.49623 37.1289 35.8606 47.9142529638
5.00764 37.7462 47.7622 29.9594301612
2.33994 38.8053 45.4586 32.8447827981
3.55269 41.1462 43.4897 36.0874450929
11.6329 43.2796 49.534 30.3393269068
0.10881 45.4791 54.7703 31.1921744714
6.34389 44.789 44.7006 32.5810107857
5.48335 47.0071 52.1631 26.6943959095
4.05794 44.7321 52.7748 30.6943289819
12.1855 48.2111 44.9264 27.6897171325
4.19409 41.5559 55.8311 30.455708821
8.73456 39.8477 49.1917 35.5212731599
8.06326 42.2414 47.6088 32.3141970026
10.3545 39.7784 53.8592 26.6136819762
1.95063 46.2064 44.8191 32.1114287217
11.4816 40.3038 49.5992 30.8045833424
4.29954 47.9962 49.6726 30.2594462139
4.27504 45.3695 46.435 35.9593317603
11.701 41.9148 45.3637 33.7439687227
10.1493 47.1262 43.2263 27.2223568466
11.4514 43.7638 53.5962 30.8252759067
11.3441 37.1649 50.4158 33.848898532
4.54681 40.3556 46.5215 31.9191265381
5.64951 40.631 52.3561 31.6658499519
0.298449 40.8149 45.7947 33.6394747558
7.84489 45.2354 54.0941 30.3553644277
3.31267 39.7703 53.8213 30.5941359062
2.8368 37.8772 49.932 26.4213489853
2.28325 44.182 47.6983 32.0372915565
0.749824 45.3141 49.7865 29.0984142204
3.81283 41.8595 48.8896 33.9708443293
7.27905 43.8517 49.6678 28.3713708373
5.18202 43.9504 55.0786 28.3425884148
10.3813 37.4649 55.9258 31.0802471164
0.298686 40.762 55.3978 27.8697361775
6.55057 48.2455 54.2065 28.2778246604
1.30175 48.0957 49.5381 31.2215479409
9.73064 43.1934 51.5904 29.119987156
9.95438 48.0669 50.7122 31.2433906566
6.09031 46.2148 48.7086 30.8332244637
7.74864 47.8284 46.9663 30.3470558962
10.8472 46.0382 54.6911 28.1978355505
8.57398 40.5181 51.8248 28.6619624484
9.14948 48.0822 55.0404 26.8908972725
9.04283 45.7884 45.6328 33.2875264431
1.5263 40.3063 50.0596 31.6457358505
11.8672 46.2954 47.2665 30.9673283337
7.01448 40.7971 45.3444 40.2553767503
7.84487 38.9206 54.2596 29.7341803352
3.09984 37.0274 52.4734 27.6767443166
1.46827 45.3537 52.3384 31.7305702713
2.57642 47.9277 52.4998 30.2674185409
8.33057 45.8578 51.3632 30.2495717616
5.09086 43.0349 51.0154 31.2811156717
0.210308 43.7597 45.8406 28.0096604804
10.407 42.0265 55.6019 31.4221186283
5.73132 38.4936 50.4411 30.3790965146
10.3805 43.6177 47.11 28.9617807639
0.613935 39.6303 52.6857 27.994765381
11.1358 36.8128 43.6344 33.2836007591
8.22695 36.821 50.2568 28.8741128165
3.5312 38.0857 56.3337 27.0531821523
0.68035 37.7457 56.2156 27.837706073
22.5359 8.56882 11.71 26.7340385476
21.9829 11.3683 8.19662 29.2177768167
17.3316 5.95666 6.3187 26.863853224
19.3307 1.8482 8.21546 30.069016921
19.9631 4.31318 6.91555 31.0923609095
12.9113 0.0655985 12.7989 27.6182709904
22.4354 5.87817 7.87855 28.4203613002
22.9992 2.95644 8.20954 30.833429019
14.3025 9.7326 8.99769 30.9762269345
14.3014 4.6812 11.1706 30.262142476
14.5615 7.2183 7.34405 27.2110118623
12.642 2.8533 12.679 30.141791492
17.2533 3.08359 3.914 29.6040309062
19.6528 3.06383 15.5082 29.9466567964
23.9593 11.2623 6.16558 34.735108441
17.5604 8.17258 8.62193 29.3749747396
17.6966 7.9513 3.8853 28.6194534245
19.6441 10.0916 4.54214 31.0979199766
16.6334 9.52957 6.17911 26.4821179877
13.9951 1.93432 6.56437 26.2090603846
15.9228 2.48921 10.686 27.3973430766
14.7331 4.49358 7.79571 28.3548447999
18.7494 1.55287 11.2119 29.7949898834
17.2855 4.29125 9.03288 29.4668581204
18.8495 0.514842 15.9553 32.2559924369
22.0098 11.0707 14.6875 28.2364599936
23.3047 2.38483 10.9378 27.2841692002
16.0136 9.03408 11.3627 30.3819592991
20.4404 2.9711 4.06325 29.489268871
17.783 6.18986 11.0797 30.1823899549
18.0873 7.8767 16.1778 27.2057733468
18.0102 10.5645 12.6663 27.1972722298
15.9525 0.958921 5.2449 29.2938439869
20.7161 8.34415 8.94833 33.0723407234
22.3996 2.03745 14.6999 30.1076071265
15.108 0.629327 8.88562 33.9999819006
18.7902 12.0561 10.3808 28.7976419499
18.356 10.9435 15.493 27.8805124298
18.9335 10.7745 7.84579 29.4415871892
21.7386 0.550731 7.25362 31.568600969
19.7127 8.30015 11.7988 30.6619856106
23.0706 5.9787 10.5831 28.7909925609
13.5777 4.47556 14.9069 28.9372601124
17.3308 5.65727 14.7089 31.9580862009
16.1479 3.08214 15.2404 30.5949432754
19.031 4.0 12.7611 30.9505201959
22.481 9.96606 4.17181 32.8656868612
12.9498 7.11113 14.8391 27.4920554445
15.3817 5.11081 4.31215 29.2138097807
12.5953 4.39753 4.64091 30.7516849512
14.7655 9.85848 13.6638 28.5528529108
15.4513 8.91837 16.5045 27.8758374709
22.7977 6.86295 4.62338 27.2625196319
22.0313 4.20099 12.4499 30.8274062143
15.3441 6.58962 12.9439 28.5743246351
16.2728 1.09129 13.3552 28.7102588987
20.0045 6.44421 5.02786 28.7550169259
20.4235 7.54771 14.7263 31.5249856459
22.7332 5.65679 15.062 29.884140477
14.3457 10.4629 4.6153 27.4403957364
23.6805 8.23542 14.0431 25.6804695576
13.6862 7.78925 4.66652 27.3170614316
23.8769 11.0505 10.5512 32.1967734336
23.8092 8.75796 8.58561 26.0549296979
21.2943 0.345485 10.5753 29.0118955389
16.6665 1.93638 17.9071 31.4270043774
13.8114 1.68614 20.1644 26.8485607148
23.5717 2.27292 19.8419 28.835835511
15.7934 5.91587 21.3493 26.212033025
12.8483 8.19903 17.5927 28.6146182384
18.4585 2.12981 20.2178 30.4340445186
12.5769 7.08551 21.5086 29.7368417011
19.9271 4.40137 19.4907 29.0757180974
21.165 1.85282 21.498 28.3930977385
17.837 11.0653 19.7571 26.4937397466
13.1104 3.97581 21.8081 25.6792042754
21.1203 8.19897 19.8705 28.4319446573
18.5083 7.30691 21.995 27.4574370121
15.0781 11.6774 23.947 63.9796309299
23.7188 8.84276 17.6175 28.3094273035
14.4094 6.2579 19.0439 29.9996767762
22.4566 1.4715 17.5345 25.7810676628
14.5696 9.37764 21.3247 31.2802334779
20.4457 0.339121 23.9626 72.7325496695
19.1902 10.1011 21.8941 29.3585514969
21.4471 3.89765 17.4593 26.0502085125
23.3134 6.20093 18.2702 27.115334365
13.0415 11.0177 18.4638 28.5604780143
13.0967 2.647 24.2266 74.469819378
18.8726 6.99144 18.7491 31.5418228233
22.6612 7.82679 24.4238 76.7585219609
21.1781 5.20098 21.7017 26.7287867529
16.1711 3.13108 21.274 28.2667455199
16.0704 2.43043 23.9971 49.521226662
20.665 3.88964 24.048 55.6073213251
23.419 3.74424 24.4549 92.0750591224
15.2386 6.14159 23.9909 54.6451423951
22.0723 10.6665 21.4467 29.7982945042
17.2888 8.36368 24.5857 82.1529357976
17.6081 4.47939 24.2383 77.4050798353
14.3034 3.67861 18.0841 28.9705901855
20.0663 6.6006 24.3544 67.2526448336
23.5631 6.32334 20.9812 25.7885010895
14.5889 9.22658 24.1672 56.122041874
15.7476 11.6028 16.8517 27.7380771134
16.6636 8.71804 19.5106 26.7332757742
19.09 10.4858 24.6629 82.9540613675
22.0536 10.6916 24.2292 57.4000541064
20.9222 9.37235 17.0961 28.0915169684
24.3745 8.78109 21.9186 25.3099046185
13.9778 12.1657 20.9169 31.4209164609
19.8763 12.1741 18.3292 27.5113370286
21.8492 2.20341 35.7677 84.3388852274
14.8679 1.5436 41.2147 28.2913458893
15.1949 6.79063 38.3822 30.5101313226
21.4143 7.09176 35.756 118.8190511309
15.8343 9.78124 38.9169 28.9217642995
19.4518 3.29018 38.3525 30.2756838601
21.3432 4.4554 42.2967 27.6676768998
14.864 7.01637 35.5754 100.2395370123
18.2241 2.99671 35.9314 86.3760565086
23.0293 4.80624 36.1457 52.0099317264
19.3166 7.29433 37.3508 33.7584852584
17.0919 8.72224 36.2021 57.3617318982
16.6626 11.1493 43.1635 30.8117109598
19.81 11.0193 38.9513 31.8498931311
21.0543 10.4203 42.5382 33.9555880107
13.029 11.0217 36.0452 82.6878735206
17.3916 11.4767 35.6532 100.5150182351
22.523 9.67343 36.4026 40.2654961353
21.2642 1.582 40.7556 30.0312935402
13.9454 4.33595 41.175 30.0633179266
23.2494 9.85541 39.2246 28.2247216174
15.8511 3.5094 38.627 26.9086310247
17.2922 1.79722 42.6914 30.8184101552
16.4003 8.88884 41.4331 33.6348248679
18.5879 5.60479 41.7004 32.1678097178
17.4166 1.41096 39.6004 31.0798417365
13.5905 4.44736 35.5238 81.5403223009
19.5205 0.566196 35.9313 79.4501285464
12.8939 4.97563 38.5591 24.9459869883
12.2557 8.34067 35.9386 69.0155181439
14.8006 6.68764 42.5473 32.1801735515
22.4362 6.08153 40.3282 31.4803011529
17.7751 5.5388 38.9922 28.6741943658
22.43 3.63581 38.6284 27.0554956146
19.2555 8.28345 41.9145 28.530630567
20.4756 11.613 36.0617 64.6006289396
13.3887 11.074 38.8286 30.684924971
23.9039 3.0464 41.5084 27.1198468994
13.9276 0.616827 38.8716 27.908131262
20.7699 8.39798 39.6289 26.7218884946
15.4606 2.65252 35.81 59.6372059883
24.4697 8.21472 40.7853 25.7895440759
17.1196 12.1537 38.549 29.2227330697
24.2694 12.1936 35.7368 70.9175581486
23.6299 0.297811 36.9659 29.8825644967
23.0445 0.431424 43.0932 28.2801002596
14.8546 4.99558 46.9201 31.8067922114
13.2953 2.77865 45.5331 30.1234924466
17.9703 11.7184 47.0101 31.297864353
22.003 3.22512 46.4352 30.8616551665
24.1484 8.99516 51.8032 27.069942009
23.841 1.02422 46.0778 34.5698725419
18.2948 10.5296 54.2207 31.335416254
23.9969 6.41333 43.0923 27.3438658702
22.3074 3.68939 49.2521 27.1531968813
17.2014 6.4099 46.2412 29.8755518336
22.0996 5.61917 44.8386 31.4144841708
19.4462 2.26602 46.54 28.378565668
20.6086 0.951516 50.3501 25.7752810648
23.4568 7.65598 54.5324 26.6541725652
16.3198 9.29053 46.7796 31.1813020855
15.7873 11.314 50.2652 33.1758522911
13.0263 7.93006 44.0159 32.0796866259
13.6818 4.39664 49.3067 28.6773985879
21.4829 6.30204 50.2122 29.4199426481
21.7675 9.26243 48.8632 29.685373977
13.616 11.0933 52.6043 30.2057874176
14.4687 2.17647 53.4777 30.0319623557
19.2133 3.08009 49.0658 25.9741369507
16.9196 1.82809 50.0988 33.1987454202
12.4374 7.50208 52.9719 29.9618615426
15.2965 4.03051 51.3241 32.4208811277
15.3649 8.8336 49.4189 33.5219033423
13.0773 6.89294 50.322 30.6740374253
17.0418 5.98517 52.6586 30.0217322493
16.8396 3.00104 45.6917 29.089775633
19.0279 5.93751 48.2054 32.0264538758
12.4025 1.82403 55.5123 31.6143966523
21.1983 6.75269 53.2819 28.223953505
19.3819 4.56427 51.8286 30.2058733756
16.7147 5.05235 43.7441 30.6265947056
19.1414 11.6681 44.1696 30.1951764162
19.2068 8.87956 52.4186 31.8237240908
21.6098 10.2446 51.5836 28.0165366193
18.7886 8.73366 44.7598 30.8197652198
23.9408 10.808 54.6354 33.221062789
14.0831 9.9696 45.4676 31.8698440329
23.0837 0.585794 49.0011 28.7565748851
23.3717 0.8969 54.3902 28.1189474727
12.3573 11.3548 49.9538 31.6550218199
16.8589 1.31761 54.3509 29.1146045487
19.6727 0.715595 55.1226 30.9683794546
19.0931 5.26991 55.0363 29.1419853858
24.3977 6.06285 51.9357 25.7566367415
20.8936 1.94501 52.8884 27.8450810143
15.4018 10.1782 54.457 31.9355423558
22.4768 10.0993 45.2303 29.417211239
20.5723 11.7889 47.9339 30.7049975359
24.4833 2.28798 50.9642 28.3829504054
24.2387 11.3283 48.3735 30.0309312525
15.3384 0.65737 45.5032 28.0347031999
17.6831 7.51117 50.3727 34.8166508786
24.5557 8.28917 49.1074 28.471435766
15.1048 7.15558 54.4319 31.9050126524
20.9381 7.73929 46.3605 31.0649056827
22.7033 4.14154 53.2617 27.8448495217
22.781 4.28703 56.0584 29.8527426828
12.3599 5.8823 45.622 29.5396304731
20.2042 1.96633 43.6165 29.8203705937
24.5637 6.24066 46.5698 29.0418663627
19.9152 18.5312 6.96727 27.315803614
18.4917 13.8318 16.39 27.1122534467
12.6625 17.4654 7.80845 28.9802110393
16.821 16.4342 9.7014 27.3765297128
18.2112 16.2553 7.03112 30.3191420173
14.854 15.3359 7.38143 28.3081190088
20.3966 15.9117 16.5044 33.7807552001
13.09 17.0471 16.3834 34.88296057
16.2427 12.4851 5.96323 29.2387180828
17.878 19.9567 11.4705 26.6351107255
16.8231 16.3836 4.64755 28.0076536673
23.6446 23.2062 12.7405 30.0704860259
23.318 15.4437 9.2074 30.8442150874
19.3263 18.2292 9.94167 28.5040158764
14.7897 12.3289 8.24806 28.2694730552
13.8091 21.9738 4.65839 30.0179842123
16.4983 19.4969 8.89097 30.1973705662
17.6624 20.7079 6.60754 25.3867173434
21.6383 16.3846 5.93317 31.8545084556
14.2179 22.0404 13.0473 28.8662395516
20.4302 19.5487 4.34828 27.2060608561
19.1426 12.7751 4.80127 29.8869910223
16.1786 12.5982 13.9051 25.3134523047
14.3571 23.2764 10.7469 29.0098539437
17.7249 16.5595 12.5396 30.7151646461
22.3535 15.6828 13.504 33.8542470421
22.0698 16.9953 11.019 31.6462237004
15.9787 19.5142 13.3664 30.5264463722
14.9602 16.6544 13.2821 26.9708005665
23.6781 19.6776 8.45301 31.4111047558
21.0917 20.3531 8.835 26.567150295
17.6995 22.7322 10.668 32.0239052991
21.1231 13.3516 9.66961 29.4184051266
14.2166 16.7936 5.10585 27.758200678
21.9974 20.9866 11.6005 29.0555370891
23.801 22.0448 6.64099 31.3029283431
19.2971 22.4257 8.13199 25.6703574908
12.7901 13.0927 16.6776 28.7375819331
20.9658 12.8491 12.6217 32.6213972895
20.5931 23.5126 11.0353 30.1471188057
13.5171 19.3361 3.8608 27.935581276
12.739 12.4284 13.7764 30.1704368547
22.3793 23.7497 8.68229 29.427910191
14.1169 17.8175 10.4228 27.9651668824
16.9462 22.6488 3.96378 28.8961430938
19.5952 21.5158 15.2368 32.399896199
14.7599 14.9109 15.6791 29.1025499793
15.9289 23.0523 6.86113 29.1570168799
18.6191 14.0498 13.6142 28.3975831969
14.7488 14.4106 12.1385 27.3313119102
12.6296 20.2246 11.0387 29.6120327642
22.117 23.2845 15.2047 31.2145620854
17.1291 20.694 15.4868 31.4643756721
22.4143 12.7049 16.6974 35.2280132579
15.7878 23.0965 15.1959 31.908275287
20.1738 17.2201 13.8219 30.6351689252
20.226 19.8847 13.1833 30.1343499355
20.2237 14.202 7.01636 32.3667342918
14.2482 21.1422 8.86998 28.7024461547
22.6921 21.0429 3.89814 33.2000681909
16.5011 19.2588 4.38508 30.2802990336
20.0513 22.4107 5.22604 30.6344581187
16.4906 13.5761 10.1458 31.157291974
12.5519 13.9275 8.30081 28.620860275
12.4182 14.6543 4.11055 29.9834543277
12.7478 23.0774 7.05732 30.6772148004
23.1312 17.1733 16.1284 33.2067800804
24.1083 17.1461 7.1654 28.926881972
12.4036 15.3529 10.5712 26.8468471311
12.7076 18.7141 13.8218 30.5940540388
24.3467 19.0027 11.3083 32.0205408755
24.1966 19.7123 16.239 34.4621760344
12.7444 16.6142 20.8663 32.7296696346
16.3939 14.9101 17.9851 30.9695032869
19.2253 22.4519 24.09 66.1164798676
19.342 17.703 18.6205 34.0585294703
16.4029 17.4735 19.1414 29.1633092377
20.6272 17.125 20.9735 33.8548900969
22.9852 21.9166 24.3405 78.3509930251
15.8513 16.5292 21.7778 29.4286590822
18.3256 21.0346 19.7488 29.8911861552
20.5307 20.3486 17.7289 34.4618882907
17.5853 12.5791 24.4445 81.3549936979
21.414 21.3684 20.4024 31.1957616353
14.3359 20.2894 21.2118 28.5130679606
16.2666 20.0659 17.9924 28.2622141201
15.0281 22.552 19.1005 27.7945478523
24.2376 15.9418 18.6847 33.4855377105
24.0434 22.8225 20.2096 31.5598535458
22.7636 15.1174 20.9835 33.2362515338
12.9184 16.6555 23.7864 53.537101295
19.5299 15.0037 24.5056 86.6905012205
24.1707 12.7508 21.7136 30.3113434589
17.7287 14.3371 22.1299 29.9857490378
23.1958 17.9349 24.3822 92.4711674756
22.2279 15.0362 24.3114 65.4834645617
23.1487 21.741 17.5889 31.6438007546
20.0285 13.8578 20.4187 34.4529345796
13.2432 23.3142 21.575 26.9439964965
16.0347 17.6324 24.1728 92.6702382657
24.0304 12.9105 24.5078 86.7918411382
16.9708 19.4109 21.8086 29.371498328
18.7533 17.688 24.2613 70.3757723325
16.3607 13.2543 19.9937 26.6054498437
20.7481 19.8431 24.2614 68.0198089557
19.9012 23.6689 21.4215 31.0701153962
13.9206 20.5102 24.0691 62.1165871781
12.5794 23.1081 24.6732 78.4539891418
22.2311 19.1062 21.9506 28.1001992415
16.6239 21.9177 23.6201 48.6633655743
13.5409 18.7467 18.6878 25.6224114961
13.2077 21.1667 16.9845 31.9678226849
12.7901 13.8982 23.6107 59.3539857906
17.6163 23.8988 19.6636 29.137018533
15.9654 23.897 22.084 28.1711790659
13.9056 24.5093 17.2014 29.9088614379
13.5455 15.5266 35.7395 88.5000417926
14.8763 14.5474 38.3391 28.2435774136
13.5073 13.2581 40.4058 28.388047141
18.9357 15.2924 35.9894 58.782736635
20.7232 21.2704 41.5172 32.3260292971
18.9074 17.9926 35.5581 84.1137534174
14.2978 21.2288 38.5605 29.1498137151
21.607 13.8932 35.9744 65.33615711
16.57 14.2023 35.9437 61.2027689524
20.6668 18.7815 42.6627 33.5066630989
13.7473 17.8605 41.2361 32.9768401371
15.7639 17.2284 35.948 61.3914616956
15.974 16.6604 39.9671 31.8111390589
18.3304 20.9283 36.3359 51.0025054768
17.2491 20.8957 39.3244 28.9729606409
23.4583 16.1144 36.7187 33.9002105166
21.6572 18.3441 35.4371 96.0702158316
17.679 18.3783 38.6198 31.1326989102
15.5085 21.4614 35.5598 106.6719874617
20.5302 17.8251 38.5413 33.3369248814
23.5724 20.7484 39.8164 31.2587471491
23.9726 13.9095 41.8954 34.6087380097
21.2929 20.758 38.2165 27.3547509681
24.7036 24.3628 42.2964 29.9531625004
24.268 23.4841 39.8094 27.0919307782
22.9032 21.0362 35.8034 63.386441306
13.3333 19.3161 35.69 84.3339589661
17.8757 21.5676 41.8322 30.9139435905
16.4912 13.1148 41.0035 33.8662640198
24.5226 12.6889 38.4147 28.3397470677
21.1768 14.6644 38.6799 34.8773361502
12.783 13.45 42.9506 33.2150716664
15.2749 23.6038 39.3366 28.5095129121
19.5957 22.9038 38.1734 26.1958580119
17.4886 15.7808 41.8281 33.1244318472
13.5867 20.5438 41.8208 31.4549592411
19.9418 16.4061 41.0217 32.9613137551
15.0548 24.0098 36.538 37.7433028991
21.8818 12.2107 40.0936 29.5693147481
17.8288 24.431 39.7875 28.2765081926
24.2831 20.343 42.7829 30.5383457762
22.5458 23.8743 35.6563 78.8497771212
22.0494 24.2292 38.3898 27.7603690568
22.0265 15.3062 43.1014 32.6502639251
16.4962 23.4387 43.737 30.7484665323
14.6541 14.0905 46.8843 29.6485307029
17.4128 14.2261 47.4521 28.5193062433
22.3942 22.8536 54.2201 32.2874613039
21.6664 23.8605 49.864 29.0501799604
22.507 24.4609 47.0446 29.687465471
20.3903 12.4851 50.6374 28.3687214905
15.5713 19.8101 45.407 34.5224197208
15.8854 17.9562 48.4771 30.2437583909
18.4528 20.5724 46.4585 26.8773917418
19.2039 15.7479 46.0614 32.320157765
18.9841 16.7226 50.0457 29.5504477466
19.8221 17.9882 47.5591 32.6551642661
22.6222 17.8444 47.7235 30.7575879602
23.716 16.7766 44.5725 31.711086995
12.6908 21.8859 50.2597 30.1843045655
15.9167 18.1553 53.5335 31.0597602822
22.3274 17.2344 52.6291 30.7277078143
13.1889 22.9484 52.5659 29.5903927922
17.7036 20.5355 49.4494 29.2490209049
14.0276 13.5973 49.5748 27.4236974706
23.3585 20.7857 46.9245 26.9820487356
