22.949 17.0755 39.8625 36.6935563929
23.2562 16.5165 42.5592 33.6466053434
24.4937 20.3009 43.0898 35.0122783886
12.5556 20.6998 39.6287 25.5504124362
15.6241 22.7346 41.6799 30.0492467697
18.2903 21.3279 39.3141 31.639082482
19.9765 23.5457 42.4261 25.9507968099
20.0089 20.8386 41.7441 35.7617846172
17.3656 24.0579 43.1558 25.4520535515
21.0472 23.8819 39.8601 30.1904368166
15.8004 13.0272 45.6622 31.8677475532
12.9802 13.6122 45.2404 30.1850540574
15.3539 15.3533 43.5508 33.5627534748
19.6011 14.7726 44.2631 31.7658668561
18.263 13.6916 46.9215 34.3558509524
21.9982 16.0777 44.8214 27.3871786133
23.3134 13.8415 45.7926 28.4658831759
13.3349 20.1667 44.7044 26.882588643
13.9031 17.4524 45.5573 27.0503957753
16.6896 18.2146 46.0444 32.238366775
18.5074 18.9 43.4545 33.0578241896
22.8059 18.6575 45.4793 27.0701661766
16.0998 20.5869 43.4413 28.0835461713
15.2292 22.6411 45.682 29.8701983892
19.9012 24.3547 46.6931 27.5707106223
18.3647 22.343 45.5891 29.4368523758
17.1308 20.4777 47.6217 26.5263539269
21.7585 23.3357 44.5341 30.1682536009
20.9823 20.5895 44.7972 34.0050027834
14.367 15.0955 51.1341 28.5982373116
13.8718 13.917 48.533 30.7711389328
18.1345 16.3319 48.0583 28.2808231278
17.277 14.9414 51.4691 31.7787431296
19.3467 12.9978 51.6926 31.4903745434
24.4917 12.6736 48.5173 30.3804948212
21.727 14.1679 48.4937 31.7528683258
23.0534 14.2911 51.0664 30.4162069717
13.6284 20.1755 47.7639 27.3956126587
15.3297 16.6637 48.6061 29.5178278442
15.5652 19.5234 49.8478 26.4394589102
19.2695 19.6863 49.023 33.1995924865
18.4568 17.247 50.6096 25.7057737124
23.1326 18.2324 50.5336 30.8456119395
22.2144 19.3864 48.1818 29.2835062588
20.9288 16.7481 47.7135 32.3391869074
20.9565 16.9977 52.0234 28.3237357048
13.8152 21.4914 51.0043 26.0599624866
15.5614 22.9254 48.5076 28.2602462632
13.1004 24.42 48.9971 27.3594497464
19.8636 21.5384 51.3772 29.6384982797
19.9606 24.1184 50.8665 30.88029855
16.9574 22.11 52.0104 28.9272315217
21.7315 24.4201 48.8602 30.5570580231
23.364 21.8749 48.7993 32.7866964846
15.0293 13.1064 56.3928 29.1813532207
14.6656 15.8994 55.5135 29.0362416605
13.5167 12.7032 52.5395 28.283841268
17.7784 12.6716 55.8628 33.359728579
17.3797 15.2048 54.3483 29.804391085
19.7442 16.2605 55.1796 27.2124963766
22.8076 13.9384 55.533 35.4757150546
21.2156 14.4299 53.2764 28.3418030607
14.974 17.4334 52.8918 30.7155926372
13.0636 19.0375 52.3052 29.4482049411
17.2208 19.1735 52.2658 28.1244099349
19.3585 18.6118 53.8901 26.3826833463
18.3326 19.8171 56.3062 28.7556487101
22.1427 19.7006 55.0828 26.6653577419
22.9993 17.1039 54.372 28.1456683214
12.4011 22.782 55.1533 30.870533513
14.2728 23.233 53.0642 29.1216041204
15.7433 23.1249 55.7017 32.2245049623
18.1745 21.9479 54.3569 29.5821277611
20.1866 24.03 54.4037 29.2822626409
22.5667 23.694 53.1288 27.2879857022
22.3354 20.8397 52.589 28.7477124987
15.3121 27.732 3.542 34.4614895143
13.083 27.3794 5.48293 36.9397052896
13.2399 24.6934 6.80112 32.4537709869
17.5687 25.4795 7.80473 30.6375072667
17.7608 28.2496 7.9408 31.4618289247
18.883 25.0647 5.36557 30.4860288133
16.8352 25.3855 3.66369 32.5509333355
21.2367 26.924 5.82836 34.6015918396
23.8517 26.4482 7.27208 29.2506316619
12.5029 30.2414 6.23655 29.0419427043
13.1601 32.6345 4.66686 32.9232608129
15.2148 29.5355 7.46383 28.2536822508
17.0086 29.4428 4.90545 31.4698699467
20.3719 32.1077 5.2788 26.4137732434
17.5601 32.1552 4.52599 33.3827283552
19.8088 28.8094 4.35539 32.3843478478
22.246 30.2858 5.97239 30.6346761807
14.6017 33.0768 6.97218 30.561933309
18.9686 36.4089 4.74099 30.2927601332
16.4833 34.9264 5.67115 30.3708742502
21.1024 34.5099 4.76268 28.2856619081
22.8126 35.3567 6.87653 29.7582939969
14.7867 25.1772 8.94078 28.7368042298
14.8367 27.8762 9.65177 27.645124518
12.9459 28.42 11.2898 27.6104075699
17.1646 26.7601 11.1124 27.4682659487
19.4691 25.5974 10.1567 30.0087708925
22.4683 26.2109 10.3058 28.8984789435
12.7211 31.5992 10.4006 27.5655274497
15.3295 31.5162 9.20572 26.2920388412
19.8049 32.6343 8.17781 34.9819328128
19.6709 30.3972 11.8641 29.5490754254
16.8415 30.0024 11.4629 28.175516791
19.7167 29.9491 9.15974 30.0975746655
24.0513 31.8881 12.3179 26.7400069709
21.9628 28.8361 8.42338 27.8352713193
24.1014 29.8977 9.90248 30.3218137727
13.3914 34.9061 11.3245 29.1220326458
15.2789 33.2471 11.8128 27.3874726605
18.4287 33.4337 11.3381 28.3239602393
17.1821 33.8629 8.93521 32.313968757
22.246 34.0528 9.2186 32.1880056393
22.074 36.2099 11.1851 31.9206482794
21.4313 32.8463 12.2652 28.7430954042
12.6332 28.0796 14.0444 29.0809701919
14.7692 26.5035 15.2874 30.8795670374
19.5459 26.3781 13.8145 29.1335360439
17.2303 27.6678 13.8916 28.3957349939
17.8533 28.3522 16.7732 30.8404958978
20.7226 25.1815 15.9245 29.6127925809
21.2539 28.1454 12.4569 32.3839510099
23.9163 24.8847 13.9739 27.5027840394
22.8761 26.33 16.1883 28.9054271266
13.7624 30.7606 12.8933 27.0668898584
20.4026 30.0788 16.5801 38.4446401933
16.4665 30.5119 14.2534 28.8921345271
23.0912 28.9326 16.2107 30.8052447898
23.8568 28.9851 13.4769 30.2775691587
20.8487 32.4763 14.8994 28.9030677282
23.6584 32.2769 15.4524 30.8045956211
15.8145 34.4356 14.659 35.1922325843
19.9563 35.7585 12.551 29.3782949394
19.6489 35.6156 15.4819 32.198756183
17.9622 32.8276 14.0307 29.0443785354
23.7977 36.1983 13.5853 34.5101157398
14.5823 27.3978 17.6937 27.8399813233
14.7281 25.2165 19.3801 26.2309748523
16.6519 26.6641 20.8739 30.9248251838
19.2578 26.213 20.3346 30.8910277618
18.8283 25.9621 17.6705 30.8417045175
24.2358 25.3295 18.4389 31.2252584536
15.73 30.6161 17.1589 30.7128347454
12.9977 30.2841 18.2161 27.8285096775
16.2665 29.2464 19.7743 28.9914570983
19.6842 31.8444 18.7541 31.6011116319
21.5971 31.4324 20.7264 27.8434269678
24.1935 30.8907 19.9918 32.4902735606
14.4983 34.21 17.1593 28.9641340245
16.3614 32.8474 18.7594 28.9380714944
15.1062 36.2879 19.1324 27.4351043181
18.4341 35.0699 18.801 28.9093424158
22.2246 34.0379 21.0834 27.0929210251
21.0099 34.1368 17.7388 27.6294190586
22.0731 36.4486 19.2168 27.2804104191
24.0353 34.4414 17.2859 27.1869295774
13.9061 28.5527 24.176 71.8451510471
12.8142 26.0966 24.1361 61.1571898315
12.6688 25.5775 21.4665 27.6695266457
16.7011 26.4136 23.9325 49.3337024614
19.4472 26.0169 24.6235 105.3676973673
21.0412 28.0154 21.4368 34.6707162569
23.549 26.4107 21.4483 30.5904052644
23.8272 26.1338 24.1624 78.4008772899
21.1784 27.8212 24.3589 86.7436911764
12.4634 31.5433 24.3871 79.6091337429
13.8458 29.3759 21.3989 28.976007013
14.5706 32.644 21.27 30.1477922033
15.509 32.1012 23.8357 43.1159239419
18.3821 29.4881 21.9524 30.178357202
16.4938 29.6221 24.2546 88.4984299767
18.1425 32.409 21.4312 28.557058383
18.8048 32.648 24.1724 82.6526610085
23.5384 31.6694 24.2458 95.5265747833
21.0229 30.6969 23.3338 33.6836659756
13.8393 35.4391 21.3455 31.4732582721
12.5119 35.256 24.4054 82.0704183006
15.3312 35.1025 24.3888 94.8123845218
19.5693 35.0282 21.5176 26.8523192347
20.2353 35.0649 24.4717 96.6413690631
24.2901 36.6012 23.8172 51.9494973309
22.6445 34.4441 24.0267 57.2592386777
15.6089 25.7173 35.6546 100.4991258125
15.1728 28.0775 37.2123 31.2658733862
12.7704 24.8584 36.4771 44.331266422
18.0967 27.3402 35.7314 105.1064806903
16.9943 25.5804 38.4261 29.2852368773
19.629 25.9412 38.5609 28.5807185741
19.9892 28.5309 38.5758 29.2503469312
20.5782 25.6713 36.0265 57.1737912638
22.5025 27.4435 35.3925 132.8133617655
13.41 32.1547 35.8928 107.4263469887
12.826 29.0916 36.1801 73.7158964666
15.5984 32.0706 37.587 28.9857466282
17.4324 29.8139 37.6842 31.8878661398
18.7559 32.0068 36.0761 85.9593700179
22.3158 29.2966 37.4918 32.6542104328
21.6966 31.585 36.0585 82.3300057863
13.1885 34.3541 38.5561 29.1363340881
17.3602 34.3601 35.8899 91.5118071735
20.282 34.8646 38.832 36.7455481206
19.8873 35.8719 36.0004 51.3692492025
22.3977 35.6897 35.3631 115.0885102259
23.8782 33.4431 35.9886 64.3461026316
24.3295 34.19 38.5476 32.748822127
13.249 27.2744 39.1275 28.4342946031
14.6808 27.2416 41.5292 33.2508951839
13.9545 24.8129 42.4853 29.2344212695
20.1506 26.411 43.0426 28.0480468492
17.1901 26.3333 41.2061 30.2134907352
22.862 26.2937 42.9564 27.8641837908
23.4656 24.7644 40.9005 33.2494165793
13.9564 31.5817 39.905 30.1816905271
15.8328 31.1906 41.93 29.2096098313
17.6817 29.0488 42.3639 29.1638216233
20.4999 32.5406 41.925 32.3557317217
20.3571 29.0249 41.3372 29.6778227838
18.6655 31.5173 40.2393 31.1786245047
23.58 28.9914 42.1734 30.9542008194
24.1511 29.5912 39.5061 32.3106865775
15.5969 35.3008 40.2297 28.9229727541
16.1192 33.9647 42.8334 29.2151653285
17.6202 33.7606 38.9145 28.6608258315
21.8666 36.7132 42.2429 33.0454820067
22.5117 34.3634 40.6025 31.3613115921
14.5232 27.5527 45.1022 33.2121767439
17.941 28.5448 44.9994 27.8310309336
20.4977 27.0017 45.7211 29.6464067437
16.8743 25.8657 45.3787 30.7810849025
24.19 24.7547 44.9506 24.941955748
23.1483 26.1547 47.1203 28.1242586314
15.0776 30.4601 44.282 28.1462001983
12.7844 31.584 45.0514 28.7169433343
16.592 31.7537 46.2923 28.5736384781
17.7988 29.6915 47.5895 35.6435250009
21.026 29.6592 45.9664 30.2666119469
23.0103 32.4732 47.5322 35.6829141342
21.5499 30.6801 43.4611 30.503231765
14.063 33.7987 44.3286 28.1286028606
13.668 35.9292 46.503 30.1387080543
17.0268 36.155 45.7976 32.129154766
18.0526 33.5918 44.7301 33.0671376735
23.1647 33.2088 44.936 26.5463891802
20.7265 34.4672 44.1323 30.6658651059
23.5793 35.8057 45.7639 28.8825955161
14.075 26.8854 47.9224 30.9644234738
14.5964 25.447 51.4707 29.7169885492
16.6422 27.0075 48.6563 30.768392149
17.9859 24.5226 48.7369 30.8519963251
17.3281 25.606 52.0124 31.4060121887
16.8661 28.1333 51.2228 30.3312542724
23.1131 25.77 51.2153 30.9493306279
13.8677 31.5244 48.953 32.1715637078
13.4386 31.5846 51.735 30.2662242082
12.8484 28.6022 49.5157 28.4910342419
14.488 29.0785 52.0784 25.7179735056
20.0384 31.4984 48.2273 30.8871798365
22.9447 28.7546 47.8128 32.1659932044
20.746 30.4137 50.5585 32.984103096
23.0614 28.9547 50.6143 32.7953641686
16.1686 33.526 48.3723 31.3242321843
13.2408 35.3532 49.2768 27.2598426444
14.8984 35.8549 51.3315 28.7128718559
15.967 33.1299 51.3774 31.4352223034
18.7524 33.7718 49.4357 29.1586507614
19.1136 35.8722 47.8003 33.3919322344
24.5454 34.8836 48.2871 27.6450618446
23.8417 34.1374 51.6113 30.9173222736
20.6593 34.7903 51.3813 26.8587090221
22.8355 36.5881 50.2582 28.5212536258
12.3368 27.3564 52.5154 33.3930004392
18.6127 26.2956 54.6642 31.316484843
23.3857 25.3122 55.4797 34.1721527093
22.591 27.4853 53.5018 31.3271773521
13.7097 32.4705 54.7835 28.9165960853
13.2877 29.6072 54.7424 31.7337778238
20.4133 28.7206 54.4151 29.6460064855
18.3684 32.6285 52.6068 27.8131576003
18.8394 29.7968 52.3897 29.5629817916
16.5142 29.1261 54.3523 29.4894879039
16.4576 32.0548 54.6141 29.6511686252
21.1471 31.5349 55.364 30.4400377358
21.5847 32.3828 52.5953 30.905004219
23.7175 30.9525 56.2343 30.4188809933
15.5956 36.5111 54.8396 30.1712433552
13.4687 35.3844 53.3874 31.3352161822
17.845 34.7358 55.4462 29.8607010689
20.3971 34.6899 54.5623 26.1459774024
23.1953 35.1833 55.6939 28.3864034806
15.667 38.7311 5.85247 27.2307521263
13.2097 39.9938 6.74445 29.4672921014
14.49 36.9199 4.23319 29.6951774362
18.6722 39.5945 6.33238 28.4139390204
22.7749 38.8868 4.80017 30.4156598486
21.0003 37.4614 6.52356 27.5429091264
24.0641 40.6567 6.71422 28.5551617249
24.5883 37.2769 3.96118 28.4142872008
15.976 44.5189 6.22624 27.4083018089
15.9403 40.9689 4.19952 27.4691847479
13.8449 42.6766 4.9482 26.7019322848
19.2968 41.8701 3.96808 26.8168789858
18.3869 42.9546 6.45816 30.8077901321
20.5614 44.107 7.11579 25.8111551383
21.1722 40.9308 7.57415 28.2276903995
22.0232 43.9372 4.44025 29.6589197517
23.2971 43.2698 7.38304 27.8039063892
14.1204 46.5663 6.64451 31.2845875791
15.0898 48.7609 5.20675 35.1069010093
18.3069 47.5787 7.46129 30.8642703765
19.0681 48.1426 4.49713 33.6608284637
21.2158 46.709 7.41275 27.0618479311
21.8286 46.9023 4.48673 29.565248574
24.3334 47.9472 4.19138 27.0383324116
14.4082 38.1942 8.98018 27.1537930664
15.4493 40.7659 9.75649 31.340661854
13.7892 37.4828 11.5482 31.5707709603
16.5572 36.7891 7.96387 30.0217436995
18.8661 37.9233 8.82225 29.290895334
18.1139 37.515 11.6386 31.8407860459
18.2237 40.7588 9.87943 30.3275854859
24.5652 38.7796 8.58406 34.9048409084
21.7328 38.477 9.45881 26.422144961
22.0943 39.7336 11.817 30.292799435
14.1183 42.4113 8.01959 31.7168332999
14.6621 41.4865 12.2424 33.9255853469
14.1441 44.2684 12.2718 31.2501045319
19.0831 43.575 9.61184 28.0885736138
21.4813 41.9355 10.3325 29.1413954857
23.3771 43.8288 10.2476 30.1700992952
13.8629 47.5483 9.19644 30.7346930078
15.4685 46.3671 11.0244 29.8342581414
16.9089 45.4214 8.90365 31.2560193824
19.6917 45.3584 11.4834 30.9374273821
19.7982 47.8801 10.0419 32.2893929349
23.7347 46.5131 8.59269 30.2814695439
24.5723 46.7286 11.6733 35.5794572326
14.028 40.3537 15.8921 31.2524199921
16.0464 37.0989 13.3231 34.0265639442
19.1135 40.1814 12.6778 31.1680919984
16.5648 39.4262 14.9133 29.991348116
23.8842 40.8187 15.467 27.6032857122
24.401 38.8196 13.4152 30.5416421721
20.6089 38.0441 16.5379 30.0602565128
21.0718 40.504 14.8432 28.9337917566
23.4681 37.3639 16.5906 30.2547323749
12.6805 42.8816 16.4339 28.4307325692
20.1083 42.8867 15.2201 29.028123265
17.3566 42.4081 13.9641 32.1618609442
21.297 44.6107 13.5388 31.5737718485
12.8596 47.9264 15.5019 30.5537712232
15.4946 48.9085 14.8343 29.2666742139
14.0744 45.0648 15.0708 30.3460520737
18.5908 48.0426 14.5257 27.4990697074
16.9251 45.9287 15.8433 29.5472139517
17.2338 45.0877 13.0076 29.9666071872
21.1387 46.9853 15.2821 28.8877957014
23.9822 45.2796 14.0794 30.6736310723
24.3533 47.5367 16.3054 27.8434157563
15.9175 39.3664 18.5184 27.6163000258
13.1752 38.7235 18.0688 32.2961246156
19.6536 39.8759 18.7356 26.6697649807
17.0914 37.0424 21.1052 28.0160145349
20.0977 37.9461 20.8278 25.6776281573
17.4581 37.4589 17.1346 30.9571743998
24.6067 37.3559 20.9876 31.1323183527
12.424 44.6025 21.103 29.8096690126
13.981 44.1493 18.5817 28.1612728642
16.3432 43.0932 20.6555 26.7414934057
19.5692 43.7432 19.9038 28.447141378
16.8692 43.8707 17.9185 29.5544034563
17.5706 41.3346 17.059 29.1768835395
18.49 41.0187 21.0411 27.8592998471
21.1072 43.4644 17.8353 25.8813397194
22.1605 40.9055 18.0481 30.256967161
24.0557 43.6444 17.2115 32.6583403344
13.5698 46.7805 17.9213 27.2926728384
15.8047 48.5989 17.8148 28.4596380559
14.0862 46.8946 21.1655 29.8318157536
16.7266 45.876 21.1729 30.7243574428
18.0427 47.1792 18.7039 29.0936548829
19.9501 48.841 20.5878 29.8675213729
23.054 48.6739 21.02 30.0844804336
20.9196 46.2632 17.8465 27.7410292068
22.6113 46.5125 20.0443 23.9030008085
15.9135 39.7873 21.3857 28.733042674
15.0506 39.4782 24.2135 86.5700198645
12.8118 38.0721 23.9503 58.3074894893
19.226 40.8127 24.04 78.7228912693
19.6436 37.7771 23.8131 48.0193474813
16.8162 37.2033 23.7718 46.1399965211
22.6324 38.5751 24.2105 78.710272816
22.4058 39.1766 21.5479 27.714005562
13.8267 42.0679 21.365 25.7625788249
13.3478 42.209 23.9801 60.4353050545
12.5737 44.8924 24.2129 77.1254204336
16.6591 42.2399 23.9369 63.2032264457
22.0074 42.0684 21.2768 26.8896470507
21.6163 42.0845 24.0726 53.3345842974
21.7367 44.6316 24.4403 81.2609020845
22.8746 44.4924 21.7201 26.9096772142
24.559 41.0587 24.3928 84.5226777099
14.5951 46.8209 23.895 56.1490379019
19.7912 46.1691 21.4645 27.6168972256
16.7161 45.0534 24.0343 68.2698624546
19.3735 45.9139 24.2624 69.4083137331
20.2259 48.5896 24.4459 96.4761407821
24.2258 46.0496 24.3656 86.5077102462
23.0513 48.5285 23.9062 45.2943078154
16.3791 40.3084 36.0548 54.6375343323
16.0416 37.3882 36.135 67.2322617162
13.4587 37.1162 36.3103 45.7164682794
12.8559 40.3554 38.6141 30.9606756108
19.6766 37.9643 38.7747 30.6008462193
19.1654 38.5039 36.0279 69.2388418447
22.7488 40.4466 35.6149 92.9806170715
20.594 40.7227 36.7928 30.2298006094
23.7976 38.0376 36.0005 40.3623735874
23.383 38.7419 38.8179 32.1638914862
14.1982 42.1301 35.6192 96.5070478284
14.569 44.7064 36.6757 28.3924705758
19.1385 43.9265 38.3945 31.6382583148
18.2045 42.3091 35.6276 84.816557879
17.2809 44.658 35.5504 83.4186234507
17.7115 40.8958 38.5624 30.7175730362
20.8429 44.7762 36.0261 55.0611689545
23.3998 43.4306 35.8821 69.589902472
22.9009 44.2283 38.8444 28.991089881
24.2576 41.2148 38.0383 28.4418428973
14.6807 47.2989 35.679 89.8406569633
19.0784 47.0553 35.8947 57.1804185443
16.9494 47.7468 37.3878 26.8677616831
21.673 46.9537 38.573 27.1929179511
24.4015 48.5005 38.3618 26.5322779907
22.5996 47.1513 35.836 65.4814296221
15.5548 40.7937 42.2867 29.1537826476
13.1793 36.7954 41.2493 31.0271629565
16.6321 37.3176 42.6654 32.5869886678
17.8816 39.2657 41.2522 29.3513974974
20.2124 38.9599 42.9529 27.4630334614
16.7664 37.6543 38.8679 32.8365318126
24.0439 38.3863 42.1525 26.3927258564
21.2473 40.1616 40.4527 28.5737679608
14.6476 44.5103 39.4401 29.1202143946
15.0774 41.8188 39.854 32.3901097101
23.4089 40.9781 42.4883 27.7412659726
21.0039 43.0072 40.1932 32.0681380312
21.2588 44.8043 42.4113 31.8631900598
13.3048 45.117 41.8917 29.6981083781
16.2101 46.2311 42.5559 29.1710822164
14.2382 48.3033 40.8687 29.9169119087
17.1826 45.9033 39.5003 32.4254179886
18.2995 47.8946 41.5778 27.5814079486
24.4915 48.1261 41.1551 28.9498748417
23.85 44.9477 42.9901 28.2845073146
20.8302 47.4906 41.1611 27.3540287893
14.6156 38.6566 46.067 36.695310123
12.6397 40.7545 47.0228 34.0427897499
14.2221 38.6992 43.3562 28.0760627978
18.1492 38.8109 44.9096 31.4218551668
20.7756 36.8234 45.5633 27.8042333158
22.073 39.1448 46.4407 30.6591132234
13.8934 43.3148 44.1351 28.6624314695
17.2536 41.3891 45.4749 34.4431394006
19.6114 43.3808 44.5388 33.7270900748
16.4883 43.1964 43.4068 34.3715976433
21.3573 41.1439 44.3923 29.8802431063
23.2337 41.7894 46.9099 29.4775994678
15.8417 46.9204 45.1903 28.1859153221
14.0554 44.953 45.9894 28.2803989649
14.2379 48.9383 45.1862 24.9345813376
19.4065 46.3047 44.9489 31.699870071
21.696 47.0685 46.6944 30.7921129607
23.494 47.3619 44.4335 29.7298032988
13.0296 39.1329 51.6898 28.9468287788
15.5515 38.4224 50.7632 36.2729342055
19.5975 37.9718 49.4804 31.0558105638
17.6651 40.0471 49.4539 35.7415807856
19.1526 36.8839 52.0253 30.7287479168
22.132 38.9809 49.053 28.9557614898
15.1818 43.856 48.8491 30.6579167231
12.6697 42.7749 48.8208 30.4745042
15.8932 44.0071 51.6312 27.5020574562
12.3949 41.8528 51.3043 34.025457667
17.631 42.51 48.1406 31.3086125479
19.7396 44.1535 47.7569 29.5137623706
18.3418 44.6554 51.648 27.4305389213
19.7157 42.4544 50.6091 28.3363997622
22.2172 43.6059 48.6753 27.3024033894
22.6258 41.2341 50.5235 32.5274274143
14.7568 46.5573 48.6297 28.6038338881
14.6486 46.6441 51.6659 36.0257558841
16.1887 48.9488 51.1939 29.7679576318
19.4115 46.3322 49.7228 26.9991235006
17.3377 47.1652 47.7348 30.919658604
22.2049 46.3177 50.8794 26.2612481693
23.7146 45.916 48.2475 32.9489329547
12.8269 39.0353 56.0554 28.851160723
15.2487 40.0757 54.8017 27.6479205683
18.472 39.1396 56.2856 28.8796297727
17.3431 38.4966 53.4067 27.0671220867
20.6795 37.6351 54.2329 31.3895380547
23.2213 37.387 52.9605 31.2436965092
21.4411 40.2708 55.8599 29.3630007499
14.383 42.4983 53.3775 30.5800322148
13.8004 44.0303 55.5618 32.2043364901
17.2373 41.1803 52.2384 27.6845350136
19.8088 41.7977 53.5535 29.1671600003
17.5531 42.9478 54.8295 26.5967698947
20.6974 44.1206 54.9513 26.367743464
23.4294 41.9147 54.3844 30.9230235652
22.1784 43.8607 52.4779 28.3669574004
16.1271 45.0959 56.4534 32.7027192447
16.9039 47.9063 55.9766 32.3438938986
18.4629 45.8454 54.3027 31.322905407
24.4915 47.1314 52.5167 28.3316215433
22.6236 46.6031 54.5239 29.2505981235
20.5187 47.6987 52.9428 30.7135924583
26.0229 3.17827 6.14423 29.5282469271
28.6222 0.159985 4.133 33.0338541722
27.74 0.499451 6.7406 32.1400775658
30.3875 4.07416 4.72888 29.6165196087
30.8168 1.5431 3.9893 28.2626657715
36.337 0.484611 6.89646 34.0100727005
33.5561 0.877121 7.84324 32.9843057891
33.1667 0.52134 4.83868 31.740068389
27.8254 4.37411 4.17781 29.8900955625
25.0544 5.73599 7.03807 26.2190739139
27.3325 7.05447 3.9584 29.3898693437
30.7389 4.40302 7.4173 28.8593288354
30.4131 8.13485 3.59408 29.5661000692
32.2674 5.79361 3.68328 28.7822368317
35.7391 5.34088 6.72986 27.2750303283
33.9436 7.1947 5.52093 26.875454355
35.2194 4.28688 3.72894 30.4159622256
26.7727 8.88103 6.52715 31.585738578
26.926 11.7022 6.70402 27.8776645447
29.7386 8.23574 6.19699 28.9175063007
29.6481 10.9241 7.60368 34.3258701939
32.2491 10.2664 5.67671 25.6709555263
30.511 11.6821 3.97607 28.5125776016
35.0756 10.0867 6.41233 31.4946320487
28.4452 2.99792 8.17818 28.5988349789
26.0074 1.16334 11.2685 31.2406802527
25.914 3.25673 9.76157 30.7614159554
30.5495 1.53521 9.61404 30.8247516113
30.4107 3.26108 11.9893 32.0361030956
33.2296 3.96119 8.19499 33.0917189628
33.1601 2.42934 10.6895 30.5158990058
34.756 0.117102 11.3139 29.4488916332
27.1898 6.83575 8.71937 31.2987033192
25.5094 7.88252 10.8094 29.950673995
28.3015 4.79311 10.7776 27.1850998701
30.3382 6.74558 8.50881 27.7368055786
30.0207 7.28038 11.3064 28.9304690585
34.7643 6.47534 9.0972 30.4764313324
35.1795 4.31303 11.1747 32.6607029443
32.3141 8.93494 10.6603 28.157279208
30.2023 10.523 12.2778 29.1266004023
31.5155 11.4402 9.76408 29.8030279719
32.8159 8.18617 8.03906 27.0868538979
34.7947 9.5313 11.8649 34.3863539267
26.5071 2.49902 13.8523 28.4757972478
30.5661 1.8869 15.9971 31.1099093804
29.0173 1.51993 13.603 32.1074243868
36.301 2.22611 13.4463 30.8727250226
34.0294 3.7541 15.426 30.8718565412
27.5125 5.02152 16.2977 28.8881009125
26.95 5.1912 13.3198 27.0534521993
27.597 7.61526 14.6555 25.6299492366
30.1796 7.92208 15.3733 28.5202601763
30.8056 5.73337 13.5196 29.584901155
30.5778 4.8955 16.5204 28.7788960481
35.2091 7.67523 14.0659 33.1343230609
33.7778 5.45875 13.3678 32.5120603501
26.0478 9.18928 16.1797 25.1554801957
26.1415 11.0497 12.4151 30.3715050768
27.7703 8.86927 12.3603 28.0603661452
27.3256 11.4088 15.3663 31.3425135192
32.3358 9.96321 14.0993 35.4856678086
30.2542 10.9381 15.9542 28.8804375106
33.9569 8.92275 16.3748 36.5387648949
26.4801 2.24894 16.9958 29.4472838041
28.9313 1.29235 17.9714 27.2505772964
30.6215 2.85298 19.412 27.1889894501
32.9253 3.44597 18.0012 26.3452003798
35.6726 2.56031 20.539 29.6763596943
34.5883 0.924247 18.228 30.4715112272
25.7619 5.87863 18.5224 30.8613119806
26.0425 8.1298 20.5401 30.5826156799
28.6974 6.93393 18.7895 29.2464153308
31.8781 7.1343 18.169 31.1177682889
29.4367 5.00316 20.7749 31.7199341274
36.1799 6.9696 20.5011 26.5976010319
33.9082 5.33165 20.0962 27.635199893
34.795 6.01748 17.1437 28.7351852581
26.5935 10.0842 18.7752 28.4524861573
29.8694 9.63443 18.5432 29.8532889177
30.691 9.24001 21.168 27.7110007094
36.0004 10.4455 17.6757 36.4971053756
34.6028 12.2161 19.8782 28.4542094136
28.1986 2.29349 21.5856 28.4962055373
27.2712 0.510389 24.2507 82.0172429571
25.499 2.26866 21.6154 28.9165597724
28.8019 2.98817 24.4462 88.9730873508
31.0776 1.69823 24.1471 73.0531558816
31.46 1.17735 21.4261 33.723050117
36.838 0.528724 21.7893 28.7031627519
36.1605 1.97357 24.0924 79.2471970981
34.3452 4.07452 22.9053 31.8378984548
27.394 7.3332 24.2276 87.733580841
24.8402 6.66184 24.481 93.3823701775
29.3304 5.43443 23.6133 34.0816592167
32.1835 4.51704 24.6911 110.8243133391
31.6368 6.63475 21.4515 27.56881889
32.069 7.211 24.4011 76.8857834901
34.7139 7.83875 24.2588 81.8148002357
36.574 5.73754 22.9593 28.4323027207
28.2257 11.2958 24.2756 85.987086342
28.0539 9.18967 22.2593 32.3328769092
32.734 11.578 21.5755 26.954628736
31.1653 10.1428 23.9856 57.7068686685
36.7799 10.308 24.3475 75.9315647769
34.376 8.97789 21.6876 31.1718974182
26.1732 1.01623 36.0824 49.1778784953
28.6324 2.49637 35.6287 98.1736898462
27.1158 1.64545 38.6111 27.323341467
30.6756 3.63452 37.0237 33.6674244397
29.557 0.256993 38.7263 30.5919141412
33.8087 0.365463 35.9395 78.7606018193
33.4185 3.34187 36.7073 39.1967754269
36.6807 0.128563 35.5642 93.7558609869
27.0812 7.87639 36.3851 49.7698506873
27.0321 4.882 35.9266 67.7662695923
27.1079 4.60143 38.6845 27.6953966261
29.9424 6.21249 36.0388 88.7909553642
35.1938 4.87246 35.3244 132.353028967
35.0356 6.26808 38.3645 27.0490716679
34.5085 7.46363 36.0894 57.4196060211
28.1526 10.6946 36.2208 52.4455482218
31.7824 8.26846 36.3015 50.7320734757
31.291 11.2778 35.4834 115.5506626663
28.8806 10.5146 38.857 29.6996790888
35.1997 9.99139 37.6761 29.4649759994
27.0794 0.115029 41.4002 28.8295309766
27.5709 2.53184 42.8491 29.4121825974
30.0604 2.41769 41.6225 28.9285047131
35.2753 0.819488 43.1269 31.2050752212
34.7001 2.79313 39.2269 30.2240494259
33.1771 2.27274 41.6107 31.3858001255
27.037 8.01602 42.3565 27.8325085419
27.2199 8.02457 39.0411 27.1441004645
24.651 7.86676 39.9046 25.955100305
26.4266 4.88471 41.4966 30.6901106309
30.3048 4.36175 39.8714 31.6951701512
29.5695 7.18013 40.7652 34.2549321423
35.7718 7.50585 42.6103 30.7191211821
33.0813 5.40839 40.5621 31.9773360581
34.1357 8.02144 40.0338 29.6940958447
25.5267 10.3388 41.3524 27.7729082469
32.6311 11.1321 40.7582 29.8334761509
31.2821 8.92278 38.9369 30.7023322109
31.1404 11.1421 42.8943 27.9982530257
34.9037 11.568 42.9003 35.1470425612
25.3154 1.61853 47.413 31.2443021474
27.6762 0.808412 46.0056 27.7199499809
28.8675 3.34092 45.2968 28.9153594697
32.3534 2.08768 46.912 26.5890482906
31.5042 2.60649 44.0887 29.2618873461
35.286 3.67386 45.9488 30.6713801106
34.1234 0.00334277 45.6746 29.2754400592
35.9101 1.23625 47.422 29.0028386599
26.7718 5.02352 46.4754 27.62478663
26.795 7.67633 47.6587 24.6638414401
28.3499 8.06168 44.683 29.3652929158
25.006 4.72326 44.4304 25.7195740695
25.0255 7.66391 44.3 28.1223504125
32.5093 4.91837 45.3683 26.784150463
30.3612 5.94237 46.4644 27.0713764088
33.0004 6.53186 43.2925 33.2924994678
26.8418 11.8329 43.649 31.5370830506
26.0003 10.353 47.594 26.9408284366
28.4321 10.65 45.888 30.3083100636
31.9083 8.70744 45.9985 30.8024609982
32.5567 11.3978 47.4467 28.6567384215
30.7363 8.5511 43.4679 29.221007868
36.6317 10.6852 45.123 32.0207900955
35.1318 8.37346 45.794 33.6973374403
26.6543 3.623 48.8938 29.4923717078
25.9783 0.177444 49.5748 26.224148274
28.4995 1.88563 50.3553 29.3108826732
30.0537 2.90685 48.0581 28.0945468844
33.8046 1.51942 49.3885 37.3822982099
35.583 3.50514 50.4134 31.2739424747
26.6788 7.15865 50.4769 26.2896622154
25.3259 4.88252 50.938 30.0622684261
29.2723 7.95991 48.3924 27.8741357766
30.7176 5.43771 49.3353 28.9721612979
29.3175 6.52505 51.2879 29.775532909
33.4927 6.69145 48.106 28.6540109187
36.0941 5.40121 48.0223 30.0129607238
33.4133 5.68957 50.8478 34.1064295097
28.6869 10.2679 51.7457 27.3669724581
26.4286 9.99087 50.4298 24.2076354499
24.8435 11.809 51.214 26.60506449
30.8491 9.64649 50.2216 28.1344430993
35.8325 11.3583 49.9124 31.449770183
33.6512 9.3226 49.3708 31.3567693041
36.3978 9.67181 52.0646 30.9683063497
25.0184 2.66186 56.3141 28.4216713437
27.9155 0.913519 54.4485 28.9096045124
27.5635 3.77092 54.3823 33.2218808108
29.5652 3.62604 52.4144 32.1638363135
30.5228 1.57429 54.0243 28.8820435663
32.9133 2.79615 54.8729 31.7718992776
34.2291 0.0910395 53.7232 30.502113528
36.5917 3.7636 53.0234 31.6130516839
35.2991 1.42382 56.5184 28.9506961516
24.7892 4.24834 53.6983 28.8352107605
32.0787 5.49591 53.6859 33.1991556007
34.9628 5.94978 54.1664 30.3729124952
35.4398 7.95841 56.1336 27.4446024166
24.9211 8.67034 52.5361 25.413272239
27.1132 8.40129 54.6502 29.9963459848
26.2217 11.0979 55.5149 29.0810610341
29.6173 8.41906 53.68 29.307795861
32.073 9.72875 53.1504 29.6055436026
32.9824 9.61199 55.7404 27.420881814
35.4423 11.0786 55.6949 28.3787143969
34.2641 8.262 52.2368 29.4337207751
27.1912 16.052 6.05543 30.6487805775
28.3503 14.2425 7.68715 30.1431977145
27.8232 12.3006 4.19036 30.0083265858
30.7328 13.5863 6.47168 28.8044319907
31.7036 14.6098 3.79265 32.4942352566
33.8973 14.6194 5.42479 26.6475231473
35.4741 12.3712 4.90084 28.8477828559
33.0013 15.9087 7.67694 30.6370990573
33.4177 12.2741 7.65624 28.0533599452
25.8846 19.8399 6.07122 30.7925498267
27.8298 18.4735 7.02472 29.2664053135
27.7605 19.8111 3.73762 31.9126452402
30.3 18.7932 5.6903 31.5447317047
32.227 18.5673 7.49702 31.48746587
35.1344 16.6189 4.00859 30.7877451053
34.9865 19.4235 4.71651 31.3466751031
33.9875 20.4203 6.99257 31.9688919019
25.0807 22.4877 5.40125 29.5972036426
27.4108 24.4351 6.15419 29.671097463
30.0351 22.964 6.00264 29.897141222
30.4935 21.1899 3.86116 29.4752637025
32.8973 23.1011 6.55899 31.8112149957
33.3925 23.7198 3.73548 27.2586996311
25.1443 12.4236 9.89426 33.547364557
25.4328 15.4572 10.2142 31.7645840516
28.5641 15.3441 10.1668 29.1920591991
28.0909 13.2763 12.1315 30.8373521175
31.2515 14.5785 9.70387 34.3648295701
32.5136 13.9718 12.2507 32.1703825436
35.1458 12.611 11.9772 31.8566954984
35.647 13.2449 9.38682 32.3205514495
35.2032 16.2387 9.40076 34.2631640891
26.5598 20.3688 10.7398 30.6459577267
28.3635 18.2053 9.78739 31.1434549779
30.6753 19.9266 9.46142 32.1740559885
34.6713 18.0414 11.674 34.5000900802
26.5343 22.0608 8.34617 30.3888902888
29.2715 22.1979 8.55203 29.4966252901
30.6894 23.5269 10.4525 28.3988834351
31.5897 21.1628 11.5283 29.7570538702
34.5142 20.6677 11.4797 32.1133091752
35.8881 20.8541 9.00594 32.9271893855
33.5886 23.7681 12.0015 31.1598439671
27.5903 15.3771 14.0907 29.9668222829
25.5387 13.6559 15.0613 27.9218285286
30.3298 13.2903 13.7664 30.8589526622
29.8657 15.8722 15.7611 31.1630034974
33.5536 16.1443 13.2545 32.3458756571
35.67 15.6234 15.143 36.1148605021
26.5703 19.849 14.6745 30.3302698549
25.1482 17.0209 12.5146 31.8130555666
27.9031 17.9072 12.8626 29.0725452955
29.1988 19.9731 16.4354 30.7611096405
30.5689 19.1833 13.2966 36.0558915074
31.9759 17.5827 15.072 33.7856085491
36.2319 19.2871 16.5376 30.020795981
24.7804 22.1346 14.557 26.1334550546
26.7635 22.6332 12.4233 29.0671852459
29.1772 21.7804 13.9965 31.2203165658
30.0169 24.2374 15.0018 29.5824383587
32.9437 24.4104 14.9067 35.0274015472
35.8121 21.9251 16.0276 33.9134054661
36.2873 22.1411 13.3818 29.3175354229
24.7677 14.0423 17.6834 30.0404040757
27.1304 14.7414 19.0381 31.1693935151
32.3003 15.4347 21.043 29.6872471417
28.7781 12.383 19.1579 31.0478120319
30.7726 13.5153 17.3723 36.5014672773
33.1042 14.0792 18.7702 34.1730159103
35.3423 15.7905 17.9315 30.7730549891
36.7903 12.861 21.04 26.7912168303
28.5566 16.8974 18.0887 27.5104329978
26.5712 18.4587 17.5043 27.9697064985
26.6057 19.9157 19.9032 29.9374258622
30.6961 17.7301 19.7838 32.3395087549
31.9502 18.9615 17.4115 30.9614655707
34.4371 18.6071 18.3095 29.843674405
35.6171 18.144 20.9839 28.8749974334
28.0324 21.9989 18.1012 28.2697907005
25.7348 23.2554 16.9576 32.8112862338
26.5354 24.2953 20.1348 30.7351692496
29.8225 23.7327 17.5659 27.511052472
32.3451 22.5154 17.6722 33.2193844399
32.9103 21.0637 19.949 28.8985974905
34.5986 24.2657 17.4566 29.1868441588
27.2519 15.9956 24.4129 85.7379107123
26.5863 15.9827 21.6817 29.180311647
25.7448 13.1769 21.7158 34.097784463
25.2643 12.3575 24.4262 85.2137698254
32.0989 15.1189 24.1282 57.5148948228
29.4241 13.8945 24.0113 59.1984829313
30.4948 13.3298 21.5149 31.9820644771
34.8913 15.3871 21.7106 28.4107692952
34.9867 15.8823 24.3098 75.5613539256
35.7275 12.7201 23.7972 35.6213680236
33.0665 12.259 24.284 85.1194096674
28.3252 18.2443 21.3253 29.7064946763
28.4785 18.7641 24.2439 67.6366967764
31.3789 19.922 21.8701 28.3289100227
31.1776 17.8057 24.3667 89.3858156713
32.8959 20.3674 24.0406 60.1311122174
35.3916 18.5982 23.6992 40.9252887881
27.7991 21.3531 24.1759 57.4575883127
25.4553 21.8781 21.6581 28.300756435
24.8897 21.006 24.2352 78.7840681697
31.9797 23.5453 21.2532 28.9564680116
29.9105 23.1443 24.8553 136.3396117904
32.4986 23.1547 23.7678 36.3719255967
29.0709 21.6616 21.4604 29.2895007402
29.3566 24.3211 21.2399 25.7170375953
35.2157 21.177 21.7101 28.6662312164
35.7117 22.0512 24.4554 84.5350306937
27.6695 15.4171 35.9096 72.1197015135
24.8604 16.0857 35.8034 81.7974479278
26.2684 13.6068 38.2458 26.717117459
26.5547 12.6 35.6645 86.2124450506
30.5571 14.2202 36.1183 60.7551215372
31.0426 12.443 38.1239 26.2100729915
32.9865 15.7324 36.2082 43.767723023
35.4759 14.9142 35.8324 77.1046145871
34.2328 12.5047 35.7014 71.266957366
34.0476 12.7091 38.7197 27.1056809889
36.6611 13.8964 38.3749 27.698306843
27.558 19.8337 35.626 103.5307427248
25.0418 18.8912 36.0425 44.1419830233
29.4782 17.9339 36.5619 34.17143634
31.9617 18.1997 35.6719 104.2907679495
31.7662 20.1124 37.9475 29.0877710976
34.8626 19.8208 35.9464 70.771698392
34.365 19.5576 38.8285 33.1594983266
36.9026 16.7707 38.1343 27.8485038329
28.3464 22.6376 35.9011 55.2947871927
25.573 23.768 35.9569 82.6167613235
31.2159 22.1198 36.0137 76.870606771
33.5121 23.7711 36.4095 39.0299566144
36.068 22.4171 35.6472 84.5541080636
27.9146 16.0653 41.4542 29.0807454075
27.6393 12.7719 40.4354 28.8649749588
30.2021 14.4581 39.9452 28.555923657
32.0479 14.8197 42.1981 29.1977047407
29.2709 13.0211 42.9447 26.4186242779
34.7161 14.1388 41.3403 29.5070041654
32.9232 15.9101 39.0052 29.2305185097
25.0802 18.8789 38.8767 29.8301095271
27.059 16.6857 39.0733 30.7543099949
26.807 19.1149 41.5383 27.8392099934
30.0894 17.6259 39.3414 30.1357521084
29.4121 18.9657 41.4909 27.4321466877
34.8958 17.1322 40.2416 25.4887849708
33.9628 17.2483 42.8409 31.4720154007
28.3386 22.3272 38.9723 34.2439570603
25.8441 21.2116 40.2195 31.0588319835
25.1897 23.0935 42.5815 30.5003950706
27.9226 23.952 43.0056 34.0149678857
31.4578 24.2509 40.2816 32.9470602818
30.4806 21.2906 40.3095 34.9001419768
35.7685 23.6737 42.0785 34.8408678665
34.0549 23.9374 39.1073 31.6503460468
35.7427 21.6725 39.5764 30.7951098578
36.8298 20.7915 42.0839 31.0097562767
25.911 14.1863 45.1507 28.4713239648
30.6822 13.9809 46.1311 27.0755147235
31.8125 16.119 46.8636 27.0493882385
32.7233 12.5695 44.4905 29.2781879898
28.8852 15.4315 44.5808 26.7807673471
34.4144 15.3138 46.7039 31.0174295772
34.9382 12.5536 47.0646 34.1833504794
36.2197 16.3059 44.8844 31.6960865493
25.7405 20.2711 45.578 32.2484973129
28.119 16.5648 46.8778 30.0912241809
25.9066 17.0263 43.7661 29.0839810395
25.4161 17.3493 46.3913 32.2838833956
31.143 17.4203 43.5725 30.6701853477
31.7578 18.9129 46.1356 30.7560996883
29.334 19.2903 47.695 31.9731480424
34.9359 19.6802 44.0578 35.185579176
36.537 18.8161 46.3488 29.9529362867
28.3237 21.2826 44.5531 32.1963299661
24.9726 22.805 46.931 31.1269271599
29.2984 21.9884 46.8406 29.3822114682
31.3291 23.3065 44.6579 31.9022376023
31.0382 20.6328 43.795 33.2776652425
33.3741 23.5372 46.4025 30.9626591087
33.854 20.7653 46.2789 30.6124448995
25.2677 16.1006 50.4166 30.756829396
26.9582 14.2339 48.2918 29.3067789882
29.1003 12.4084 47.9396 30.8052709765
31.5166 15.7094 49.5019 36.0479252343
28.8878 15.107 50.5234 30.400506306
31.5298 12.5962 50.1023 28.3428603605
34.0666 13.1034 51.435 34.3606572742
34.0077 15.8955 50.6704 33.9744968362
26.9856 18.6375 49.871 33.245947871
30.6599 20.3763 50.1495 38.5423922134
35.8496 16.7659 48.7583 27.530265659
34.7965 20.0396 48.7679 35.5871627459
25.7982 21.1813 50.1782 30.6113705122
26.6443 23.1938 51.9112 25.6063785844
27.6492 23.5465 48.8183 30.9857946653
32.5517 22.7508 50.8694 31.6245080779
29.1911 22.6387 51.5898 27.5020506507
31.3392 23.4195 48.3152 30.4808518349
35.7629 24.4661 48.6012 33.6984566431
35.114 22.2557 50.7626 29.1165276738
25.4988 14.6058 54.5863 27.3986604333
27.1122 15.126 56.5131 30.6289403514
26.6436 12.6822 53.2313 31.3449741139
29.6125 12.9399 52.2868 33.8328402255
31.4798 12.6776 54.5775 32.8390116058
35.7086 15.5515 54.5129 34.0954865632
34.0857 13.312 54.2385 31.4638157753
25.0507 19.5827 52.7613 25.6473712873
28.5398 17.2124 52.1415 31.5677104017
25.8256 16.8391 52.9577 26.2204696799
28.2028 17.2152 55.2349 30.9320258538
30.718 17.2374 56.2902 33.6595289196
32.3152 18.7993 54.5712 32.6207161809
30.1891 19.2921 52.998 32.3070607113
35.8489 19.6643 52.155 33.0421268108
34.2413 17.505 52.9404 35.9722912343
27.7529 20.4486 53.5878 28.2300279131
25.0139 22.5664 54.1017 26.1243928456
24.8112 20.6026 55.857 29.4187216848
26.6156 24.0925 56.0721 30.5373189317
32.692 23.541 53.7257 31.6446472227
29.3116 23.1661 54.75 32.7771722987
35.73 23.4816 53.5337 29.9037871106
33.3166 20.8897 56.2068 31.9950818914
26.0519 26.9258 5.99904 27.7541067902
28.8884 27.9217 4.80635 25.9505890621
29.1879 26.5894 7.32558 28.6859827184
31.395 25.5711 4.33128 30.0002562635
35.9278 24.6727 3.82781 28.7652088289
33.2148 27.4335 5.41588 28.1461157024
35.1717 25.0788 6.59927 31.1843842358
27.1068 29.443 6.73321 24.8428560357
26.797 29.98 3.75621 29.3556173413
24.68 31.1787 7.09103 30.0580429062
29.484 29.8861 7.65866 30.0634548524
30.3586 31.4473 5.31612 26.6557125453
31.2952 29.0493 4.03626 27.8946101276
35.4269 31.6643 7.26589 32.8814289198
33.2469 31.8078 5.07708 30.8341142539
34.8272 29.0486 4.00459 28.1380298656
28.0741 36.1818 5.73007 30.6210147774
25.2822 33.6586 5.87495 29.393733241
28.0707 33.3696 6.41292 30.1520214985
31.5626 33.8006 6.91965 31.2873125234
33.371 35.3376 5.41681 29.0848541178
35.7451 33.9826 5.4836 29.3724032337
27.6537 26.2646 9.63678 30.1086088147
25.2853 24.7439 9.60056 28.8071159723
24.9121 26.5409 12.1657 27.1345023357
28.7257 24.7154 12.1219 27.5481352314
31.6393 25.3102 8.22125 29.9429832383
32.6419 26.1722 10.94 30.3068318977
33.5507 27.6548 8.07158 32.2191420608
35.3576 27.2043 10.3334 29.580763892
36.1014 24.6968 10.9175 30.8964992598
26.6063 28.8998 9.54214 27.1619522698
28.192 30.8125 10.5693 28.8150884653
30.7253 30.0734 11.323 30.8030449559
32.0739 30.1189 9.05251 33.9558316682
33.1203 32.4328 8.57075 27.8745969595
24.8139 32.8701 9.63754 32.5410022902
27.97 34.5593 11.6051 32.6887310034
27.5902 33.1716 9.1754 29.7341713261
30.2796 34.9376 9.4792 34.7331482759
31.9984 34.2069 11.8904 29.5902194514
35.6862 32.8624 11.9249 35.5436738694
33.9448 34.4627 10.173 30.5145972845
26.9555 25.1695 14.855 29.8619054784
27.9247 27.2478 16.5376 33.0432141794
27.4326 27.7073 12.6379 26.833356539
30.28 27.5298 12.6158 28.5741539329
32.4145 27.0988 14.3173 30.8135531947
34.9205 28.0089 13.0661 32.0523598726
26.7262 30.3577 13.2125 29.8554393407
27.8273 31.3471 15.5077 29.8215192931
31.9339 31.3721 15.9702 30.2279772457
31.7022 31.8116 13.0836 29.1095952569
29.4645 29.0922 15.204 30.8328434566
32.1156 28.7681 16.7295 32.1527024578
35.8292 30.904 15.9461 34.4550554046
34.5883 30.8475 13.4933 34.3334611198
25.7585 34.0935 13.4205 30.364474812
26.2629 35.2658 16.026 28.4383492306
31.0042 36.4527 13.4827 30.0536723358
29.4433 33.5413 13.9878 30.360576123
30.7174 35.5943 16.2937 27.6495477216
35.0061 36.0217 12.6797 32.5883656638
36.1764 34.978 16.6889 30.0871739822
25.5096 27.8787 17.7347 29.0578324321
25.3087 28.4348 20.4976 31.9763937065
31.7996 27.3984 19.1872 30.6305570108
29.1272 26.0044 18.8832 28.8660696117
33.6335 25.4019 19.8322 30.6087131247
36.3887 26.5259 16.8779 29.3805720039
25.599 30.6715 17.2614 29.7963429205
26.6957 32.2851 19.5017 31.0790393721
31.9214 30.9938 21.1237 31.1933746151
34.9141 28.7579 17.7296 31.1678943913
35.3665 29.8048 20.1385 29.7343664572
34.2114 32.2573 19.5557 31.5459785974
28.5458 33.7529 17.1134 26.0090912889
28.0345 35.0904 19.5921 33.7728910061
24.6793 34.5918 19.934 28.9463076646
30.9278 33.0345 18.6244 31.3333157495
32.7652 35.2466 18.4 29.5670992066
33.9934 32.9263 16.8544 29.2631067596
34.5402 36.7385 19.9506 30.2040349619
26.385 27.1166 24.0889 71.5908494057
27.3328 27.0537 21.6046 26.9334239977
29.8867 28.1638 21.355 29.5675056112
29.0965 25.3875 23.9229 45.0769472014
30.6953 27.6989 24.1172 73.2607242018
33.382 28.4459 21.3092 28.0087774096
36.0744 25.3926 21.6007 30.2424054526
33.4607 27.68 23.9612 47.8510965526
34.8642 24.9307 24.2878 78.3264969611
26.2459 30.084 24.4134 90.03469972
26.2473 32.2489 22.5521 30.3310588364
28.9483 30.7584 21.6558 32.2932221377
29.1476 30.2293 24.4072 92.4078546397
33.4371 31.7479 23.8251 44.7997442184
34.9905 29.7737 24.766 129.4263635398
27.3887 36.3948 24.2073 81.9653773052
27.7941 33.6524 24.0523 72.4920176931
30.2715 34.0702 21.2182 31.0678949
31.8826 35.3353 24.9035 130.9281511183
30.7647 32.9755 23.8829 39.8567650325
35.838 34.2805 21.2244 29.3695920687
35.1725 33.8163 23.8806 53.318746105
27.2056 27.4027 35.4807 107.9440822355
24.8569 26.3138 36.2968 36.5427590888
29.2563 25.2532 35.7115 74.8854674458
31.9329 26.0761 36.0351 60.6320513683
31.5316 27.228 38.8383 32.1894575827
29.1761 24.8067 38.5378 28.4916883863
35.3681 26.5199 35.4606 87.4002121088
35.6664 26.1116 38.1328 30.6934613435
26.9629 29.451 38.6287 30.5885517856
27.4501 30.1656 36.013 65.704105525
32.6814 28.9855 35.9388 68.3521380987
30.2557 30.4925 35.9684 70.5725939703
30.1279 29.7681 38.6127 29.886076529
35.8139 29.3017 35.5505 80.079547362
34.393 31.009 37.7803 27.6060353346
26.6777 35.9739 37.5689 31.7687005833
26.8439 33.0782 35.9315 92.0433217208
31.4243 32.9605 36.0439 69.7914577573
29.0898 34.574 36.7029 32.9276659039
34.4903 33.1614 35.7748 88.1829529004
35.3049 35.757 36.2867 43.0957162403
24.6977 26.7667 39.236 34.0261842676
27.4615 26.482 39.8924 34.0148099812
30.429 25.0925 42.5866 28.4950741167
28.7457 27.2915 42.1017 30.0637596189
34.2528 28.3742 39.0008 31.3238187738
28.2733 30.0857 43.0446 28.8038253443
25.755 32.1903 40.0609 32.7922808701
28.4289 31.4277 40.3364 30.2198981154
31.265 30.8679 41.5256 29.0422240616
31.9092 32.4427 39.0133 29.162160082
33.1855 28.9478 41.4843 35.0607816565
35.844 30.4032 41.368 36.366215903
26.2827 35.6365 42.2335 31.1810322597
24.7685 33.3256 42.5129 29.1590793648
32.3788 33.1003 43.0739 30.4453508989
32.6076 34.843 40.3118 30.1082533374
29.0023 35.8671 41.7323 29.5215119601
29.4075 34.263 39.4594 31.0579789646
34.8794 36.1526 39.0906 30.0298785153
35.048 33.024 41.4971 31.8408339959
26.4299 26.3053 43.7905 28.1680963244
27.6181 26.694 46.4615 30.7668279867
30.31 27.3229 44.9362 29.6055677698
33.0207 27.6699 44.1088 35.518902094
36.2479 28.3271 46.361 35.8476903125
34.3517 25.0729 44.008 34.6485185814
36.0845 25.4527 45.9076 33.0058690538
25.7246 28.9808 43.987 32.1883878962
25.3446 30.3954 46.8137 29.223177344
26.3058 31.9361 44.5082 29.718851821
30.2231 29.5063 46.3951 30.1976592297
30.0979 31.3595 44.403 28.3248116647
33.4614 29.0158 46.6477 33.0329696461
33.1604 31.8824 46.0848 34.2358164411
26.3395 34.4729 45.6746 29.8502364491
32.1493 35.7212 47.6628 28.0013140091
31.2247 33.1658 47.442 30.8271111992
29.392 33.9041 45.6166 27.9327239554
30.4841 35.4379 43.8718 25.7832630785
29.5842 36.7183 47.4435 29.9195402354
35.7405 32.7147 46.0649 34.2627517304
35.4591 34.5389 43.8406 33.6046437114
33.209 36.3421 43.8501 33.5427664892
25.9284 25.9935 51.3915 29.9175597161
27.0772 28.5166 50.6532 30.6065807553
25.7622 25.4753 48.352 29.8099472548
30.0948 25.9202 47.8943 34.7524116166
30.8545 27.3906 50.4185 30.0698328808
35.2665 26.4499 50.4199 29.1786667216
33.0859 28.1663 49.4086 32.6366998491
27.3632 28.9293 48.1037 29.0599647741
25.2623 30.0618 52.0113 34.2032399044
26.552 32.5317 48.249 27.122032359
29.1851 31.4785 48.5379 30.1643961674
29.7291 28.932 51.9975 28.1027871144
30.2194 31.4245 51.0476 29.7168177844
33.8905 30.3914 51.0505 32.8636807091
36.6294 30.7658 50.3789 32.6581347996
27.5248 35.6894 48.9513 29.4811263223
26.1521 32.738 50.9853 31.3400159385
28.9788 35.7975 51.3585 31.8312589354
32.1078 35.1555 50.7521 31.2403396942
32.6877 32.8545 52.1165 29.704983906
36.405 33.0488 48.7022 36.5970009458
34.6836 35.4 49.2019 33.6658267466
36.8191 36.1741 51.7622 33.2214500536
27.7437 25.8808 53.5258 29.3828332932
25.9983 26.8752 56.1683 28.5205717955
28.5543 28.2284 54.8823 30.175771425
31.1121 26.7842 54.6775 28.5573818567
30.6186 25.0151 52.2922 27.9552040106
33.7711 26.653 52.9619 29.6718376809
35.4331 27.0816 55.2251 29.7783800345
36.913 25.689 52.5644 29.573861083
24.7314 29.2035 54.5015 30.6497934223
28.8298 32.0575 56.1934 31.2885585079
32.4878 29.3706 53.2964 27.9369982502
33.2587 30.896 55.1905 26.2677349387
36.3325 31.1594 53.2978 34.8542605513
25.1314 35.5804 53.669 29.4242900421
25.2068 33.094 56.191 30.6584551124
27.6188 34.3133 54.8125 29.3999988016
28.6027 33.2316 52.248 29.8260296706
30.9842 32.8368 54.4661 31.4167453886
32.3567 35.2883 55.831 32.5153945284
29.5015 36.2389 56.1211 31.4405477541
34.1036 36.3982 54.0437 27.1490522724
34.7944 33.2459 54.2236 29.9260171157
27.5503 40.239 3.88038 32.3969475551
25.6111 36.8238 6.64757 34.065612379
29.7311 38.7964 4.69624 31.2867037001
31.0739 38.8342 6.90912 33.0052779504
35.2795 39.4219 5.16062 29.6735736114
33.4754 37.8152 6.25169 28.6742861109
26.4849 41.789 5.86866 35.0977639475
24.7853 43.4493 4.08693 30.2750637365
30.4104 43.5705 6.11882 32.4832629138
31.0449 41.3557 7.85728 33.2521179338
35.2133 42.0454 6.53988 30.7288535982
32.9371 44.311 5.67032 30.5238163786
34.8985 43.0929 3.68769 27.4003212342
26.3062 46.0375 7.06579 28.8784491713
26.0316 45.7511 4.46092 32.6641812563
24.9173 48.8911 6.83281 29.6745324498
28.7993 44.9646 3.9845 35.7960513861
33.0145 46.8153 4.32038 28.316819807
36.3062 45.3814 3.94655 28.064592478
35.7287 46.7156 6.43206 32.3506041911
28.4878 39.184 10.2953 32.1010573839
25.8738 39.6759 10.7047 34.006767876
29.0696 37.1938 8.33917 35.7877628087
30.7777 39.8781 12.2155 33.9946757673
34.8854 36.8722 8.53859 38.4451821875
34.8346 39.2476 10.0863 30.6595894594
33.1806 38.5071 12.2096 31.0617860319
25.6261 42.4927 11.1177 33.2964883494
26.7391 43.5174 8.19555 33.5337490729
28.8639 42.1842 9.7048 31.1671003121
30.1912 44.0035 11.08 29.2096845815
32.291 42.367 11.6076 28.5338510803
33.6071 41.4717 8.89212 28.7114676658
34.2339 43.9076 10.2142 29.0817008128
28.5579 48.6477 11.1799 27.1031668762
28.4246 47.3351 8.57314 36.0104133788
30.3761 45.3508 8.20667 33.0338388
30.7664 46.853 12.0965 34.2125893018
32.3877 48.082 9.72451 29.4817363497
34.3524 46.2709 11.9446 29.7499195729
33.258 45.8491 8.0973 31.534821997
28.5187 37.192 12.6306 31.3574068142
26.841 37.6233 15.1209 26.568088186
28.9247 39.9234 14.6004 32.4545289408
33.3727 36.7997 15.9352 30.9012377474
33.1826 39.5507 16.4673 29.7402334639
34.4465 40.1545 14.0177 30.8409831076
25.3125 42.831 13.9292 31.9520996578
28.0674 42.4114 14.986 31.9578148195
28.3812 44.676 13.0525 30.7683158081
31.35 43.048 16.462 27.3332829179
36.0913 42.801 12.8263 31.7440167103
33.3076 42.9461 14.2183 30.7673126229
27.1172 47.161 12.931 29.6044711375
26.5511 48.6445 15.2792 29.6901388987
32.7583 46.0811 14.2664 33.0250771207
30.1053 45.2861 15.0326 28.2433881515
35.1442 48.5766 14.361 32.9061648601
32.9359 48.9567 16.0616 34.1261191707
26.4157 39.2035 20.2354 28.3105777058
25.7294 39.389 17.259 32.3388086501
28.8886 38.0343 19.7038 30.259453189
29.2624 37.8036 16.9894 30.081703418
30.8281 40.3766 17.0081 30.0962407946
31.1867 40.2885 20.2958 33.8130751881
35.7779 37.5568 17.6249 29.9212826694
35.1034 40.7302 20.5881 30.9834649676
25.9542 42.0412 18.5741 29.8070384655
28.4178 43.2648 17.5887 31.2726381311
28.2193 42.9869 20.9612 27.5422828045
31.322 43.1897 20.9294 29.3817670226
32.215 44.5419 18.7704 27.5716989806
34.4338 43.2781 17.4006 34.5159971434
35.2214 40.8662 17.8865 28.5274558152
28.5469 48.7803 20.4139 26.9310233333
25.9116 48.4906 20.5947 27.0609210235
27.581 45.7693 18.5741 29.4160145377
24.8845 46.2573 18.5423 25.812804313
31.4852 46.9624 17.4621 31.003515921
31.5904 47.501 20.5225 27.4320386922
28.7874 47.4406 16.8178 30.2548045896
35.7241 47.8451 19.7543 33.6676900969
33.8188 46.1769 20.8321 26.2302310876
36.3188 45.1204 18.7131 32.4373285239
27.0116 39.6218 24.0555 63.2762661871
28.7222 40.3873 22.0381 26.991257794
30.9805 36.8739 21.5586 31.4710163103
29.9955 37.3741 24.1687 49.1202744294
30.4399 40.383 24.5158 88.6715524217
33.1983 38.7424 21.6196 27.2752793518
33.2947 39.4601 24.3337 64.2564159973
34.2905 36.7681 23.9704 44.840437535
24.9937 41.3378 21.6472 27.5153650158
25.7868 44.2378 21.2937 26.9406231192
26.3256 43.6735 24.2005 68.2042451773
29.0823 43.2081 24.3939 81.1247195944
31.7984 43.2688 23.7082 44.3898687677
34.6641 43.4252 24.3032 73.012955743
35.6156 41.0869 24.6864 101.6346442887
35.0399 43.5149 21.4789 30.3844485179
26.7928 46.8997 22.8506 29.5411013851
