19.747 48.0134 10.0301 28.5906226677
29.4475 48.9721 6.29172 33.1168275568
23.3303 37.1616 16.6505 31.2430149917
29.4723 42.3313 12.8912 33.8294922791
21.4111 35.8962 15.1639 28.9196492307
25.2084 36.6569 14.6845 30.4460891944
25.6714 33.8193 14.7567 32.6471921428
25.1427 32.7481 17.3566 27.2455498601
21.6204 33.3467 14.3252 29.5178816732
25.8292 39.2029 18.5778 30.6457769383
23.7096 37.9822 12.7238 28.9871317378
22.3264 45.5912 13.289 29.923927044
24.0731 48.0564 13.2263 29.9395218126
28.3489 43.9695 16.0563 28.3463172624
20.7153 43.4596 14.2871 31.0082555083
20.4182 40.4515 13.5716 28.1494533822
23.5416 40.2435 17.416 29.8031331945
20.7981 41.0573 20.106 24.5091737079
20.8242 48.5719 13.9454 29.5878691484
23.7523 42.6877 19.1161 29.269401045
27.9087 48.4441 15.0821 28.2125418417
23.162 41.3895 15.0125 32.0319955403
28.1776 42.0327 21.202 31.7291121569
20.4204 33.8886 19.867 28.473644097
25.8421 43.3545 14.5031 28.1633351817
20.5487 46.0379 17.9286 25.5577449768
25.929 46.7161 15.3717 28.6281005056
24.4127 46.991 19.1907 27.2756441131
23.0015 34.6658 18.2615 31.1186613029
22.3805 46.5019 15.9163 27.0067585837
26.8401 35.0552 18.3909 31.1677526884
26.7275 45.1519 18.2713 30.7846729289
28.4876 32.7784 18.7553 28.9775761184
20.9904 37.6932 13.2472 28.8886047138
27.4977 37.362 16.9138 28.810077155
20.4729 48.7484 17.7323 27.6275195092
24.6976 40.3544 12.9157 27.4391132621
27.9953 41.3096 16.6429 29.7331333996
27.3023 40.602 13.9907 30.9247383835
26.4852 42.2494 19.0483 29.5966198584
24.1936 44.1278 16.633 29.1080730804
19.7453 35.7892 17.5745 29.7835553253
21.892 38.7697 19.207 26.4424186305
25.0611 48.6488 17.1015 26.60006511
22.3226 45.123 19.4763 27.8751027335
29.3992 38.1429 19.1433 29.6877903501
27.8487 37.6446 13.8853 27.7244563459
28.7832 47.0463 18.8609 29.6977252547
25.6713 35.9713 20.8387 28.944847853
29.3671 34.8913 13.6577 27.7814295112
22.5415 48.387 20.9956 29.0575760218
20.4455 43.7055 21.1874 30.4441285896
22.634 38.0327 24.4366 83.4591140792
23.0452 41.4647 24.0565 64.2196948315
21.1241 35.8321 24.1229 50.3706384951
25.6169 35.2679 23.6591 38.3843570364
25.8871 41.0796 24.1959 85.6186460096
25.6277 38.0753 24.2418 76.7658843938
20.3112 46.5934 21.3495 26.0397583423
28.9221 47.4697 21.7152 30.5073850081
28.2659 37.6368 23.7888 35.6930966785
20.8636 43.7378 24.0022 57.8644720825
22.9192 45.5014 24.294 91.9566752143
28.8902 39.589 21.5756 27.1490162387
27.5119 43.4193 23.7662 54.5126579128
26.1921 47.9385 24.8331 111.8598023524
23.1413 34.5626 21.2779 26.6523334833
20.5442 40.0216 24.2443 64.1291197148
25.7738 45.2953 23.2669 39.3812308031
21.9903 48.0195 24.0189 63.4327266632
23.2745 33.9396 24.2593 77.3792810597
28.1882 33.9738 24.2395 73.4043804142
29.0762 47.3782 24.5542 72.8020696898
28.4513 35.9639 21.6835 28.2016453709
22.9425 37.5232 21.5483 27.4756849436
19.8821 37.0946 21.4818 26.5047184883
26.157 47.2899 21.3541 28.254653911
25.9606 39.2052 21.5054 26.5116221069
23.4092 40.7731 21.317 29.8899296709
22.2361 48.6214 36.2507 50.6958636546
23.5434 35.5382 36.1983 62.4972135472
21.2072 41.289 38.6469 29.2366823513
27.8386 37.3237 36.016 63.4093443524
26.4224 34.9529 36.0186 74.6575178941
27.0475 45.7884 36.0305 54.8545526813
22.7526 38.2982 36.2231 56.0683606861
26.605 42.0157 38.487 30.1840131913
20.7436 33.8682 35.6747 82.6375673201
28.1977 40.4263 35.7061 93.5497848814
25.2217 39.6735 36.3621 49.5197893468
21.191 40.6924 36.0621 54.8899601167
19.7596 47.4623 35.6396 91.0535797314
22.4664 44.5806 36.1952 44.136193449
23.86 42.3777 35.8289 82.9601948561
26.635 42.9393 35.7646 83.4222421819
20.0983 36.9265 35.8134 66.7037874178
24.2289 46.7324 36.0279 71.9415146758
19.7605 44.3902 35.6481 80.4992799039
28.1211 33.2263 37.462 28.1009649659
26.3046 37.6199 38.3735 26.7766268906
21.8893 48.3091 39.0307 30.3335702949
27.487 45.9773 38.5851 28.4376999035
21.7706 34.3577 38.3003 28.6238869746
29.1955 40.9786 38.2376 29.4019567907
25.6248 46.3658 44.6739 31.7586039449
24.2941 39.9792 39.5537 30.1576217987
27.4283 44.4272 46.3624 31.0271585209
26.7081 33.2281 41.1293 27.6858643027
25.5668 35.469 44.8714 31.9548408071
20.4428 38.7391 40.6995 30.2333703316
23.1463 40.3872 43.854 26.118602978
23.2116 35.3119 41.1987 29.8747657125
23.8544 43.983 46.7729 28.2888000555
27.2567 37.9733 44.735 27.955089142
27.9343 40.2793 41.8017 28.8655629793
25.3045 39.6152 42.3372 28.3170758465
20.1592 42.3576 42.8539 28.124698043
23.8636 44.0596 41.8264 28.7592692683
26.4717 43.8244 40.4643 30.2663575111
28.2659 43.2608 42.1851 29.0656234534
27.8252 35.8371 41.1005 30.5678786138
27.4288 48.2391 43.328 31.2556559275
22.1587 41.8687 41.0556 26.6326358799
19.9819 42.1111 46.16 29.8786700838
20.6785 45.2667 43.052 26.7798596487
27.2176 41.9506 44.7978 27.1780848219
20.4321 35.5977 43.2861 30.4724306526
22.1337 37.9215 42.7296 28.7299469585
24.2195 42.8316 44.3415 28.6377637526
23.1238 46.9088 43.113 27.8376749722
20.4351 45.7016 39.987 31.528880098
22.8107 34.4833 44.6433 28.6912944746
20.9838 36.2369 46.2804 29.1416191032
20.905 33.481 41.3622 29.2003331079
28.5991 38.551 39.4468 26.6673191691
21.8226 47.8823 45.1754 28.0374452056
23.9374 48.7693 41.5482 28.616302885
26.1481 39.9023 46.522 29.7566580201
25.5672 36.8874 42.491 27.8334069643
23.6316 39.7959 46.948 30.9657288884
20.4537 39.7091 44.3257 28.7940490832
21.4502 44.3521 45.5059 26.1011424893
20.0872 46.3449 46.4445 27.7384327295
29.4246 45.6953 42.8025 28.9848711401
27.5981 36.4829 47.1547 29.9661983065
20.0083 33.5642 47.2946 34.5578601369
24.7322 46.4122 39.4308 32.2666862019
28.4733 48.6178 39.4775 29.3142020932
27.1421 33.3277 44.2499 30.3848885693
26.7191 47.4869 47.2759 27.406039055
25.0729 35.0973 38.89 25.9135030061
23.0335 37.6465 38.9305 26.5581537241
19.9049 36.6112 38.9521 29.6272497825
22.6532 44.4425 39.027 28.4698232161
25.612 35.3633 53.0466 30.7215005152
23.4683 34.791 48.2009 35.5503455494
20.0016 45.1366 50.7764 30.0882472833
27.9465 36.7961 51.9597 29.3552195339
28.7131 42.2381 48.2359 30.3079982761
20.5117 41.3873 52.8325 29.5959911499
28.2258 37.8891 49.4183 33.0416453631
26.3505 44.1783 54.231 28.2546995508
27.6001 38.4147 54.3814 27.5071412898
22.8431 47.9568 53.0192 29.1911625874
23.2265 41.9427 48.4375 31.6959741609
24.7081 40.9106 50.558 28.7922403428
24.2596 46.4019 47.9262 27.4688328058
25.5077 37.4239 56.1579 29.5459949943
28.5199 46.8764 49.3697 29.5897155554
24.6221 46.4975 50.8285 31.2167561202
26.3577 48.819 50.5431 28.7090875188
20.2825 34.2525 52.9285 28.3379963421
24.5136 32.6857 52.6801 31.0539200371
22.9838 36.1681 52.8972 30.6113705431
21.5512 46.5985 48.8834 30.8231407643
21.4175 45.5692 55.2979 30.8364323489
19.7454 46.5186 53.181 26.7739477059
27.0708 40.4052 49.0535 30.2806879047
22.5925 44.8718 52.5135 31.1737688711
26.7854 34.6629 55.7596 31.1819563477
27.1195 40.6944 52.6972 31.7210262623
27.7175 34.154 51.0576 27.7189373423
26.6589 47.036 54.7465 33.1332467904
28.6589 44.3033 50.3877 31.0599003087
21.6832 41.3812 55.5311 33.448361752
23.4189 42.211 52.8132 28.8360238516
22.4788 33.2443 50.7034 32.9436046662
22.8379 37.2395 55.6325 32.2268446028
23.3407 38.0861 50.8785 37.6148235491
29.0109 44.1418 53.5229 30.5347967103
21.3075 32.7537 54.7982 31.0548186985
25.1932 41.126 54.512 32.3037493246
26.3935 34.4395 48.6524 31.8967989477
29.3873 35.9604 55.7443 29.9273273274
25.8047 43.8807 51.5598 32.3213228985
24.0052 46.8625 55.7643 27.1955202881
22.3667 37.8138 48.3578 29.2542016468
19.9849 37.3289 53.2925 30.6790888251
20.7479 40.9507 48.7745 28.9170084381
20.7427 38.9451 51.5656 29.2634344506
32.18 0.413975 6.34552 30.0276992179
29.7766 6.08402 7.75717 28.9575185747
33.2563 1.50191 10.4903 29.3792794873
36.9484 0.985303 5.94511 28.7746152004
31.7827 5.63439 5.80196 31.911599612
37.4611 11.9271 4.87029 30.3766524033
36.2672 4.42834 8.04416 28.6722215477
32.8496 14.2536 9.57999 30.2204375203
30.5093 9.68201 4.17325 29.1000005628
35.4412 3.41096 5.22139 27.206433576
32.9159 3.08225 6.31836 33.2876474057
31.1285 4.48689 9.82016 30.5435171503
33.1652 10.0507 3.74573 29.4897238911
33.6157 11.9493 8.06056 30.6127106747
36.6903 5.98801 5.88746 30.6445158634
35.6574 8.10275 7.03553 31.4000662005
37.5112 10.1774 7.09007 31.7802753188
33.8648 12.162 5.37484 30.8016854819
32.0219 15.8842 7.25795 28.5800032375
31.7428 14.196 5.16889 30.6385739782
37.5624 0.758906 8.48987 31.0302067307
33.1152 10.5176 11.7472 26.3941313112
36.4638 15.3232 5.65802 31.5475930029
35.7096 11.3233 11.5572 28.0680515694
36.406 11.9109 8.85099 29.2573989949
35.3653 3.18693 12.124 30.3467207193
31.3163 12.3553 10.7221 27.5844192445
37.5055 14.4986 8.14736 31.0080881313
33.754 3.53006 8.85222 29.929021095
37.1061 5.34453 11.0821 30.0959609073
29.772 10.7766 8.4702 29.4799969155
30.1278 1.78094 10.3984 30.7936888009
38.7573 3.54776 9.16073 29.7875270239
33.1318 8.23624 5.87277 30.4863026162
32.0823 9.57219 8.17359 27.891273311
35.0491 7.11082 9.63503 33.2626748435
32.4797 7.95881 10.1943 29.2936229708
34.7126 15.3753 11.3761 29.274804024
30.457 6.18204 12.0884 26.1273589988
36.463 8.68129 11.8333 30.4389580591
39.0293 12.2385 10.3957 29.802472909
38.9965 7.67056 10.485 34.3057710945
39.3696 1.93276 4.31938 30.9773511234
39.2888 14.0344 4.81134 27.5432319159
33.3184 2.86766 19.4905 29.7485570342
34.1356 2.25507 16.1101 27.129842973
36.8151 14.9943 13.1971 29.5115247922
37.6414 10.7708 17.4913 29.5690916733
35.1875 0.687525 19.198 28.6845501409
29.6774 7.28756 15.1736 28.1191264948
33.7647 8.7357 21.2781 28.154518501
38.3537 7.68241 14.3315 31.3662761096
29.7748 8.07783 17.8762 27.4192057443
35.9139 12.3074 13.8648 28.2520036313
35.2005 4.8532 17.887 27.1866551888
32.3063 8.25946 13.414 29.4452883302
30.9007 10.3684 14.5203 26.8760048411
34.0628 13.7362 20.1138 32.6028769821
33.4985 8.39924 18.4313 31.2569426343
30.2076 1.72596 13.3893 30.9499905209
30.3911 13.9897 13.4597 31.4133573609
30.942 14.1786 16.3012 32.3965571447
32.9073 15.9912 21.3187 28.5083255027
31.8114 1.62399 17.3058 30.8535895017
32.7114 12.2536 13.8755 25.1268565856
35.3016 13.5586 17.6891 31.9079803457
33.3537 15.2193 14.7293 30.6218908093
32.0092 4.52555 13.8531 29.5583186322
33.1508 1.815 13.4109 26.5007527292
32.4946 5.93298 18.28 28.2619041069
37.1641 2.5227 17.9628 28.9599412052
38.2125 12.3949 19.8317 32.9636380292
38.2836 7.56093 19.9949 29.0335229779
30.1464 6.1622 20.2918 30.8779110077
34.8015 4.73138 14.4799 28.039228463
30.9568 4.88561 16.2607 29.6017876851
34.221 11.2904 16.1816 29.6312381393
35.092 7.58321 14.2993 31.4695382783
37.6574 6.70327 17.0871 31.6125011996
35.4535 8.87913 16.6623 28.0299833337
37.4446 14.9143 16.2123 31.721965185
31.7946 12.0403 19.4615 30.6932971438
31.4672 10.3271 17.478 26.8802801082
36.7952 0.786335 16.038 29.596810002
29.5737 13.8052 20.1201 29.6841614614
38.3431 12.2578 15.1751 25.1436236923
37.6591 4.13942 15.3796 30.4646623322
36.5347 5.15578 20.2774 30.2662402869
34.3223 16.3909 17.1934 33.5171146738
37.458 1.85819 13.4678 29.4075024242
36.4797 9.84545 21.1821 31.8929785937
39.0527 0.895473 24.5337 86.081112663
34.3071 13.3959 24.2944 65.3952669206
30.1008 12.5349 24.2437 57.845844015
38.4598 10.0733 23.7799 40.8095743788
33.8895 1.73153 23.8788 39.1456777503
32.7566 4.39373 24.7918 113.1433645734
38.2486 7.4465 22.8754 29.5022345179
32.7885 15.8011 24.1913 66.6239771518
34.6765 4.0399 22.1127 26.8702932228
36.3225 5.87669 23.9185 80.127047064
34.4351 8.26956 23.8123 37.7011985995
32.457 11.1662 24.3935 73.9183164691
38.6585 3.69028 21.6173 29.8855763975
32.0833 7.20357 24.447 82.3278447142
29.9075 15.2242 24.2335 70.223369875
30.0786 2.88037 24.4811 73.1953481594
35.9309 12.5537 21.8043 29.8416428357
37.1762 14.3164 23.9788 52.8654066585
36.2325 0.347003 24.3734 86.2438249749
35.7676 10.7406 24.6815 110.2641789017
32.5407 0.908031 21.5519 28.5013180098
36.8257 1.37039 21.8098 28.448667313
30.034 15.8322 21.6982 26.6934867399
32.6467 5.93511 21.7362 31.0542141504
29.7798 1.51068 21.7098 29.5467824639
31.1121 0.273125 24.5696 86.0806372829
31.679 10.3884 21.6502 30.2722029941
38.1189 13.9249 36.0786 40.9496373362
30.6456 8.42217 35.3718 114.3657877277
30.2505 13.6414 37.8823 27.9861045669
38.7081 6.80454 35.6046 72.8149559345
32.8881 0.346379 35.7126 90.909946537
35.1334 14.3666 35.5097 79.3632908256
32.2 4.76631 36.0526 63.0658167316
34.9713 5.38656 35.6984 78.1699176302
39.1406 9.71868 38.1615 28.2042753481
30.7504 2.3232 36.1524 51.7433433024
30.6918 10.9278 38.1271 27.2024770953
37.8641 5.64298 38.2579 28.1305025074
32.1483 7.6429 37.6958 31.9427018379
37.4459 3.53861 35.7709 72.1751454036
35.6579 1.15611 35.7936 83.5031794349
38.5076 16.6246 35.5569 90.4172421062
36.1333 8.05778 35.5108 84.1882165179
36.803 11.0246 35.7024 59.3084122159
33.9799 11.6808 35.5722 73.6949537726
31.739 13.6146 35.3968 101.2323435024
35.5022 1.50573 38.5387 28.2799267668
35.3692 7.97157 38.0752 29.283606306
33.2425 10.4881 38.0267 28.7402933077
34.7689 15.3034 38.4552 29.1377355732
35.2206 4.35407 38.4014 28.4846846732
33.0865 1.18654 38.7311 29.2411681667
36.5318 11.0408 38.5751 28.2645682247
32.121 4.89609 38.483 31.6774664864
33.8165 13.7094 40.5821 30.0444011873
38.6379 3.91034 43.6599 30.6619544895
33.5203 0.266595 45.5078 33.5545234949
39.6782 15.692 39.9513 29.9047517646
32.552 8.28124 44.8454 30.0219862944
32.7484 7.77164 42.1181 34.1277099333
36.6552 1.72628 42.5173 33.1421852853
29.942 2.19419 39.1844 28.503199677
36.4921 10.4198 46.7459 29.5949826013
31.6046 15.0842 41.3334 32.4665469658
30.2639 6.35754 41.5501 32.2938559027
33.1123 10.9434 43.5076 34.336879559
37.0174 10.0151 42.1863 29.9695613891
33.9417 4.77628 44.3512 33.2811174317
37.1106 7.77334 40.3261 26.0303197322
39.0592 6.32036 41.9608 30.604096054
35.1433 6.55154 41.9899 32.8383468389
36.9572 15.8549 45.0367 30.3727098619
35.5651 15.5871 42.6021 37.7670631004
34.2912 12.0958 46.1509 37.0654659781
30.4621 13.2583 44.6364 27.1455454133
36.6013 12.9485 41.5295 30.9120625958
34.1054 10.7666 40.803 30.2048330262
30.787 10.5375 46.1375 29.8043649313
34.7953 3.71443 41.3435 31.4893556593
31.3917 3.94358 44.9324 32.7772719516
36.3295 0.69212 45.18 29.4183999779
37.6434 2.04861 47.0269 28.5255124925
32.3882 2.29403 41.468 28.8911850315
30.7305 12.5258 42.0855 30.1458381778
35.0786 7.53088 46.1206 28.9553401969
32.3118 0.0406217 42.884 35.5479947613
39.0716 13.9585 44.5827 31.9194371296
32.8664 3.18694 47.6928 31.4392841579
37.991 6.723 47.183 27.5766238395
37.2302 8.67719 44.6131 31.6029661781
30.2045 7.12559 45.5402 30.3282808534
35.1986 14.6232 46.7554 32.3493609695
36.4501 4.36662 45.7843 28.3319986079
37.3665 13.8763 38.814 27.7977594799
37.6362 0.558322 40.1375 28.4122574726
32.3325 15.3159 45.9619 30.6950342167
29.9303 3.45647 41.9947 30.8272613661
38.8492 11.9036 46.3375 32.6598841476
31.2345 15.8713 38.7344 31.3876605826
37.3437 6.96756 49.7933 26.7059637743
37.9631 1.12998 52.0197 28.0865429276
34.0992 7.13272 48.7358 30.4684782882
29.9813 12.1392 51.666 31.5092254979
30.3016 1.91192 50.2398 29.7476854589
31.4879 5.25114 49.4824 26.9285169662
37.7328 14.4435 53.9066 24.6352777963
37.2344 2.59904 54.3255 30.8879897061
34.1458 5.38737 51.2367 31.9700248367
30.7164 3.55385 54.1718 28.4617105687
38.6603 8.59165 51.3945 28.9766526142
29.7788 4.44784 51.8081 29.1794778144
31.4606 8.24738 49.9693 30.3607200825
32.8166 2.68867 51.2682 28.7173395783
39.1664 13.3216 49.2525 28.333777921
37.9884 11.2927 50.3304 29.6919661362
33.7527 10.1955 50.5658 32.408056852
35.3606 4.31692 48.4321 27.001671129
33.0793 7.09281 53.3908 33.0984296264
34.2086 14.6124 50.5509 34.8858417331
31.9558 12.3442 53.7964 29.4203975024
35.6028 13.2167 55.9548 29.8992154842
34.2108 0.494828 50.1943 30.725676623
34.7351 2.19318 55.3506 31.1174551587
32.3672 1.4228 53.7467 26.9033514573
33.0535 14.4446 54.7211 29.8596726566
36.6683 2.16222 49.7902 28.4354494129
32.3074 12.5176 50.2913 29.7166067742
30.4599 7.13006 52.3072 29.3430795111
37.2692 4.59318 51.2767 27.5330952704
34.7625 5.46316 55.8905 32.7837221635
31.8562 5.57163 55.3806 28.7389470273
35.0531 9.22121 54.5541 34.4257782986
36.121 9.57549 49.2549 28.3542297269
37.0834 5.42614 53.8561 31.2388200897
34.2926 11.1948 52.9059 27.1439166209
37.9024 8.56845 54.0971 30.7724992091
37.8398 15.6474 48.2856 30.9287258787
36.4278 12.7635 52.2039 31.2866104803
38.4222 11.3411 54.9396 27.3997286513
29.475 10.6729 54.4428 29.4939983377
33.0892 15.9126 52.5964 28.5959114973
31.9768 0.367147 48.4383 29.6205703399
39.3551 6.71009 55.7914 30.4772834455
29.4432 7.22969 56.0207 30.4856131383
30.8733 15.823 55.6568 30.5593803544
31.6224 12.7431 47.7041 29.8833351321
37.6854 31.9739 7.11599 30.6073943515
33.8205 18.9654 4.28814 34.383330763
30.4554 30.2145 11.5632 29.5818059566
37.5515 27.5612 6.28064 31.4139108861
30.8231 28.9827 5.21694 30.9382664187
33.5419 21.4846 5.30077 31.0668527821
34.9326 23.8213 8.675 34.1932121146
31.5029 29.2925 9.07848 32.4000780278
36.634 27.1666 11.7621 25.5095508803
38.4497 18.2396 10.8009 31.0971282871
31.2376 22.5998 5.51834 28.7402194497
31.3575 32.3241 8.63919 37.6269225512
30.6755 22.7074 8.28738 29.2030515977
30.5727 25.9273 6.91849 25.061438912
33.6749 28.419 6.65347 30.6989042276
35.2251 21.3469 7.40892 29.2928165253
37.7818 21.1156 7.53785 31.6962857102
34.5654 25.9337 6.44053 28.1900457735
32.1947 25.1562 4.77443 31.6311713625
29.6499 28.1315 7.43178 32.0571565991
31.1095 32.0226 5.52293 32.2552355269
34.7689 18.7951 8.41398 31.846112214
38.8933 23.3662 5.32931 30.7040421831
38.7617 22.0336 10.528 27.9590423508
39.0587 29.7063 9.38068 28.2467100201
36.515 24.5149 11.019 27.6385224134
37.7926 27.2959 9.29302 28.3489833536
37.1198 30.36 11.9148 33.4019331641
29.8979 18.0669 7.38634 32.9836389953
32.1615 18.9896 9.19771 30.5040101447
32.313 25.7461 11.8657 27.2432109686
32.0232 21.6718 10.6844 29.5823163511
38.9633 17.6743 5.99641 29.5906790317
33.7111 32.5512 4.25719 33.8909617499
32.215 25.2184 9.04525 30.582166019
35.2163 28.5924 8.76486 27.1111126695
36.3926 16.7024 9.63386 32.0673219581
33.8686 28.0805 11.0031 27.9570604978
36.6139 25.0378 5.09709 26.3911155349
34.1469 17.1009 6.39712 31.8367689466
38.1626 20.3043 4.7575 31.477540384
35.8809 31.2126 9.30558 35.6385339873
31.851 16.8339 10.8678 28.649603889
34.6978 21.6312 11.497 29.0591406358
33.3503 32.593 10.5145 35.5241661151
34.3186 29.6531 4.08387 32.6263096186
30.4307 23.6857 12.1385 28.1747117685
37.2083 20.4723 12.263 27.6700280654
34.9725 23.5116 3.83122 28.1303782356
39.3755 30.6738 3.61171 31.9444307918
30.2213 16.8461 16.8543 32.4259510995
31.1458 18.8077 15.0685 31.9700338961
33.4176 17.6643 13.0206 27.800778455
32.477 31.9256 12.94 25.6348807464
30.395 31.1719 14.8026 27.2750405709
32.1882 17.381 18.7412 33.1934958959
35.4399 23.1433 17.2485 30.1153659797
34.3714 24.0392 12.8217 26.2245076589
31.3764 22.6457 14.6165 29.4910098554
31.6891 26.3977 19.8901 31.1377407619
36.8767 26.5528 21.0758 27.8199221887
35.849 20.7424 15.048 32.1516406468
33.8235 27.4016 14.3211 29.1196007942
35.0244 30.5722 21.1289 27.707062273
33.0877 19.8385 19.8774 31.7324976395
29.901 20.9515 16.5657 29.8822717407
30.6385 27.9406 13.2485 29.8165158837
37.3573 23.4222 14.1414 31.1366766581
36.4871 18.0658 16.4621 29.8264663944
36.5775 26.1527 14.7902 29.462254023
33.6328 30.4654 18.5427 28.6984701489
34.0161 27.7321 21.3769 29.2662301899
31.0496 30.9169 19.6536 29.1014759687
38.4384 28.0073 13.7299 28.9640782659
36.3121 31.7149 17.1526 30.8045021642
31.5974 22.1386 19.0793 29.839261027
30.916 24.2229 17.1828 30.5537599501
35.9028 17.7959 13.6416 30.5837709386
33.2738 20.478 13.7244 29.915679499
34.5258 29.9997 13.1462 31.6835929685
38.5079 23.5589 17.3881 33.343580779
33.5473 24.5408 15.4736 29.0386266234
30.4076 28.5784 16.1201 28.3782265237
35.9525 20.1208 18.1599 31.2208490758
38.3941 21.0169 19.0223 28.6447834882
36.6357 28.972 18.0141 28.5981578094
35.4711 26.2887 17.6398 28.1352555663
32.9589 28.0301 17.0977 31.9355003416
38.9032 28.6805 16.6156 27.0937659125
37.5503 22.2552 21.278 26.2572203507
35.8377 24.0983 19.8051 28.8954630413
39.0855 31.5091 16.0599 37.4462857832
34.8985 32.5005 15.0154 34.8215432124
38.502 26.1569 18.2117 31.6119687707
33.0259 23.9261 20.504 31.7384664488
37.3493 29.0463 20.6485 28.1011816109
35.5738 20.0252 21.0873 29.6214556245
33.8331 18.5712 24.2535 75.3779353531
30.437 27.7375 22.0745 26.8298442436
39.2238 17.5888 23.7824 52.202670046
37.7833 21.8466 24.3469 83.4357792847
30.6273 19.5155 24.4941 79.5989884094
32.5958 23.0019 23.2489 38.4551700635
34.8848 21.2514 23.8435 69.8790721273
36.345 26.5701 24.1571 87.9790249915
31.3419 25.3559 24.0819 80.1543595311
33.7242 26.9512 23.9094 56.3326539428
37.7628 29.0526 23.4482 36.3924177106
30.8038 32.0755 24.5569 85.2512314088
34.2663 29.7804 24.4167 108.741283416
32.0934 30.1674 22.2939 27.6506683807
38.7063 16.9038 21.0221 33.5813174896
36.6484 31.8227 23.5016 58.872179253
36.5456 17.1988 24.1599 79.4502878509
30.027 21.8627 21.2533 28.3487990342
38.725 24.3044 24.4351 78.1442145762
30.2095 22.0771 24.2311 64.9113698452
35.7522 17.3504 21.7278 33.4153683915
31.2324 18.9034 21.9828 28.7067833186
39.1037 24.3303 21.7854 28.6253951479
31.435 29.9298 35.9224 55.4611967806
29.7066 18.5799 38.2039 32.0400478118
37.5786 21.4411 35.489 101.4712524466
30.0507 22.5135 35.5564 83.3795367678
32.9354 16.5693 36.3668 39.8252418743
36.0248 17.2231 35.7 68.9708929852
33.6978 19.3849 36.067 44.2399683023
35.3028 22.2499 38.2381 26.8155894431
34.8367 22.0469 35.5529 86.6416584256
36.0589 31.9847 36.36 40.1363639687
29.6838 27.6498 35.6343 87.2191042105
31.2947 25.1018 35.8757 58.9499325538
34.1754 29.7571 35.5729 104.1597926675
37.0561 29.4117 37.4455 32.3572354401
38.4476 26.5332 35.5247 102.5691798193
35.4547 27.1737 35.8574 61.5486796271
33.9543 24.8363 35.7092 78.3363211379
37.4801 19.3813 37.3098 27.6547916568
35.3117 17.9597 38.726 27.8079089737
30.9394 19.4557 35.3979 93.6432319986
29.8519 23.0426 38.5845 27.8956823576
37.3715 26.3605 38.3881 28.5827280151
31.2703 30.0904 38.8326 30.0992856942
39.0421 23.8454 36.1066 42.3737767449
31.5769 25.6818 38.7286 32.7393541127
39.2084 27.5263 45.3402 29.3062652096
31.8829 32.5572 43.8943 30.0477031661
35.8658 20.789 43.7701 32.5953581639
37.5242 18.6311 44.2823 33.51200959
34.3601 24.7962 38.8758 29.6540900525
33.016 28.1883 40.1374 33.2898993806
34.585 31.2479 44.7202 30.2592808705
34.4829 19.6969 41.4656 27.9026370927
30.6601 24.0172 45.2362 28.4383876858
33.3358 28.6477 45.8513 32.8352096942
33.1742 23.9238 46.2375 31.430572083
36.7979 22.4575 41.8323 32.3815620609
35.6679 26.9533 40.5124 26.9938381649
33.8549 24.9765 43.4101 32.8079763928
31.685 23.1369 42.5858 30.8447007694
36.4722 26.5193 42.8525 29.2706787969
36.7685 28.5822 44.6094 29.4199553989
35.7235 28.0511 46.8485 28.0179463856
34.194 22.979 41.1534 28.3217671313
34.5504 21.4969 46.028 32.758523836
29.7699 26.6826 40.6725 27.7684605966
38.1984 31.2132 45.4687 29.3840280287
31.4241 16.9065 43.607 30.485674793
31.0081 20.7568 39.0542 29.4845506287
34.0953 30.5116 41.8356 30.73830786
37.8007 21.6886 39.2315 31.1660442194
38.6738 24.7228 45.4338 35.4745973485
39.1268 31.4275 40.7202 32.3313884657
36.511 17.6786 41.2407 29.7006802582
36.5603 29.7658 40.3801 32.1489884439
31.361 29.9676 43.0922 26.0967882158
32.2612 19.2028 42.8278 29.6017749554
32.7145 19.6548 45.5349 34.4798479344
39.0484 26.1519 41.7927 32.4343605396
39.2975 17.7791 41.8026 30.4071412193
32.254 27.4985 43.4036 29.1782266808
30.4523 20.7328 41.9272 29.6568067767
36.0352 25.2391 46.9266 35.5571980235
29.7609 17.6735 46.4505 29.3188066769
35.7579 32.1869 39.1771 28.5640203197
33.6651 20.268 38.9422 26.6158619009
36.1715 19.025 55.577 28.9303076585
32.3811 24.0578 49.0584 34.6749640377
32.096 19.3366 50.0621 28.3467955749
36.9819 29.8162 53.3012 29.0205121921
36.3895 20.967 48.23 34.8600370312
37.8853 16.6419 56.0855 26.0031649125
32.6301 17.59 47.4979 32.3574655188
31.898 18.306 54.7279 30.4647844755
31.9008 22.0488 50.5927 27.1333845329
39.3698 19.5254 54.379 31.9200023004
30.4733 30.7392 51.3288 30.6880054782
35.9254 25.0024 49.7306 31.5637107408
35.7541 32.5027 48.0746 25.3856369692
33.7074 28.2589 50.0555 28.4552163173
36.1102 22.3017 50.397 31.5300839218
30.9137 17.6542 51.8658 33.6716137885
30.698 20.7518 54.0851 30.3408732602
35.8439 27.0604 53.2727 26.6166244956
34.6144 29.9918 51.789 27.7680429973
33.359 28.2725 54.4727 28.2636224304
32.1964 30.8225 53.9672 30.1027555804
33.3356 25.107 54.5828 30.1804700931
38.6123 28.3313 51.6308 28.4806875217
32.817 22.5744 53.2867 32.0202079324
35.9759 29.9772 48.8414 28.6505326209
34.7977 19.3434 50.169 29.7886443518
37.1741 16.838 52.8981 31.1442979201
31.2451 28.0483 51.7893 27.4914907314
37.7139 25.7372 51.7547 29.4237426157
34.6274 18.132 52.9 28.2652230138
31.8212 29.0015 48.2114 32.2022100263
31.082 31.7072 48.2509 27.3023907443
38.5733 29.8103 49.2767 27.706298964
38.5279 21.4329 52.2456 29.2571813081
37.3671 26.5726 55.5385 30.6304289962
33.6998 25.7897 51.3821 31.008428714
35.0298 21.0984 52.888 29.0580880313
36.6871 22.0143 54.9203 30.9479764224
30.6954 26.7048 54.3654 29.8638559887
37.1329 29.1011 56.347 28.2231657219
38.6772 17.0357 50.7034 31.0503677439
35.015 16.7051 48.9721 31.8172448925
29.7013 22.6145 51.543 31.2834461959
29.5408 24.6587 48.1952 30.113305931
39.0947 20.8829 47.9275 28.1903423335
30.2871 20.1926 47.8469 29.6839665584
33.8777 47.8241 7.8471 30.4139201799
29.7078 40.1452 6.00073 27.1132243852
34.978 37.3596 9.03298 29.6503514387
35.9965 47.1634 5.98712 32.2201281292
38.6179 33.6151 9.42443 35.7353981899
38.5376 44.5468 8.36919 29.149552527
32.5542 40.1606 6.38777 29.9891662473
29.7017 34.044 6.54279 28.7697899634
38.8732 37.1579 6.54985 31.2687232792
32.7324 42.4489 5.19508 27.6001417448
36.0229 41.5114 5.98157 29.8446502083
33.4081 41.688 9.08847 34.710445768
35.1019 44.3466 8.66025 32.3154837896
29.8157 48.2294 9.61697 33.3741243426
31.5702 46.3824 11.7446 32.5514531338
32.5613 45.6708 8.98715 33.8187613389
36.4953 36.0458 5.5501 30.4664668231
32.2037 48.5914 3.95949 26.7318655139
36.4472 44.1445 6.08791 29.0143598011
32.5994 39.9019 11.0501 33.209472809
33.3535 35.5846 10.8783 31.557074156
31.5967 37.4513 10.1009 31.4075800089
35.7924 36.3004 12.1084 33.7172634853
39.1334 40.2411 5.562 31.4495667772
31.3603 37.541 4.53816 29.1087356141
37.4468 45.5728 10.5552 32.7296946507
37.5547 36.3845 8.91722 30.378513427
39.2314 41.8672 8.90303 29.4561982349
36.7371 47.8571 12.529 33.9931633955
39.0733 43.0734 4.93356 30.5104493181
35.4427 40.2127 8.40974 29.57779673
36.0432 33.409 5.44556 35.0037576596
37.0586 41.0343 10.4162 28.9581067587
30.8438 36.4145 6.8983 32.015139659
38.3867 37.5088 11.3226 29.126481856
33.8583 37.1145 6.54021 34.8941415405
31.8301 45.9119 4.42946 28.4522128736
31.4104 44.3749 6.87457 33.3093694749
36.1849 43.4576 11.7975 30.0840401461
34.1696 38.5005 3.69861 29.6960980526
35.3884 48.9872 9.87599 32.5652697171
38.5445 48.0946 4.06609 34.8016689555
34.3638 45.0059 3.84347 27.691030989
34.8092 39.0521 12.4487 28.6841726432
35.7352 35.3122 14.6587 35.4172177053
37.5754 36.0074 16.6932 31.5073421553
39.1279 44.3799 13.3894 27.433096608
32.0744 34.6537 13.3048 30.5063132816
32.0606 41.4291 13.2045 31.3999400543
33.7142 33.207 20.4358 29.6123004025
33.6861 37.7018 18.0515 27.7931080335
36.2466 39.8063 15.5681 29.6835435862
30.562 38.0591 14.7776 32.8164485701
34.9584 46.6401 14.3433 28.5816903721
36.9089 38.2533 17.8853 30.4143974108
33.5379 44.2237 12.7932 31.924294197
36.163 45.7356 18.5271 30.7691661118
33.1605 40.4967 17.7018 28.0107707338
29.8027 44.9824 13.9433 30.2029687252
31.5547 45.934 19.1155 27.6207398253
36.7164 44.2595 14.4952 28.1892689352
36.9827 42.4655 16.6211 31.5883445562
32.3001 44.6951 15.3497 25.8597196967
31.0391 43.0644 17.3997 28.9849209516
30.5093 39.879 16.9197 29.9008438707
33.2672 36.1463 15.7615 27.5032988116
32.3469 47.4194 16.561 26.3927245416
35.0049 47.7615 17.0562 26.8895340698
34.7436 42.0252 19.9474 29.2449742012
35.1746 38.0199 20.3931 29.0290999998
33.5025 39.1482 14.8631 26.5352383678
38.6361 44.9209 17.1794 28.8385663782
32.5572 47.9981 13.8082 30.4369402472
31.4162 36.188 19.2603 28.4360729497
29.7313 48.574 17.0559 26.5675940427
30.2426 35.5108 16.5058 28.1115908958
37.3993 39.6866 12.8225 29.6194770403
33.1908 33.3706 17.4352 29.7146012382
33.4101 47.4822 20.6688 27.8418357564
33.8014 44.2171 18.3411 28.6500159642
37.4138 34.1039 18.5419 33.386192648
34.1175 42.3212 15.6098 27.8439032599
38.0526 48.0206 21.426 27.7166962325
30.8044 42.8997 20.3167 31.1799740754
35.9622 46.4772 21.107 25.9966991805
30.759 32.8226 16.6923 26.7964732865
35.8633 35.2529 20.4525 30.1056430106
32.2915 38.4323 21.1023 28.7222119688
36.5965 40.2337 21.3229 29.4347550867
30.1107 39.9631 24.4181 87.2338845378
38.8844 47.1585 23.7343 39.5525683113
36.7483 34.5443 22.7037 30.0307476237
34.3549 35.5421 23.6548 54.6070863687
35.1956 38.556 24.2525 82.113810369
32.1426 38.0632 23.961 45.5394907584
37.6607 36.8918 24.2436 91.1184433049
30.2132 44.3681 24.3069 81.4536602692
36.172 43.7421 21.7347 29.6512605946
31.2299 45.4035 22.0549 30.929195958
31.912 41.9991 24.5155 91.6282597422
36.2115 41.1385 24.1084 59.435219811
34.5933 43.7173 24.1526 74.1946480417
29.7408 33.2493 21.7057 27.9213420818
33.2173 47.4264 23.6095 42.7324005167
38.9123 40.7293 24.5249 109.0400111566
33.3495 32.8732 23.8481 55.9959759371
35.8338 46.2173 24.2183 86.2928865184
30.461 35.9876 24.578 102.8110377156
38.7349 42.6595 21.5128 28.616083485
32.5286 41.3587 21.4602 31.1140275423
31.8203 35.221 21.7134 26.075951793
38.3482 40.066 38.4338 31.4305437644
37.0916 37.3043 38.3897 26.2606740368
34.4773 35.6144 36.2551 51.681152198
29.8084 46.3897 35.5708 110.4897992908
32.7759 32.8238 38.893 29.8455230587
37.8907 33.9685 35.3762 124.6577060236
30.2639 45.4589 38.165 34.0654998324
37.3646 43.5981 35.6517 81.8177527028
32.4173 37.9906 36.0992 55.900012455
33.5306 32.9004 36.0598 60.5866935714
35.0412 39.5532 35.7009 86.7721806562
36.897 36.644 35.7149 71.3078618787
32.7678 46.6473 36.2296 42.4500789403
39.1786 40.6712 35.7153 85.2925145082
32.3463 43.4826 36.1578 59.0411262916
31.4105 40.6876 36.0285 70.3154490204
30.5229 33.16 35.819 77.2379950233
36.9455 47.7295 36.697 31.9831388615
35.452 45.5812 35.8863 74.7209467137
34.6698 42.3941 35.7296 72.1581928313
30.3138 36.0464 35.7681 84.1913537204
36.5373 42.8389 38.476 28.361602807
35.1743 39.3062 38.6136 30.8939097055
30.2396 36.213 38.7195 29.867816019
39.3277 47.1179 35.6805 113.7924480587
32.9697 37.6012 38.8004 29.4139012329
29.8883 44.6827 45.4293 32.0140066142
30.6547 46.9003 47.3938 30.2332106134
36.4222 34.5381 42.7894 29.8122983009
31.2213 38.5913 41.2783 34.5524042875
32.3908 36.0443 42.2468 29.0922557818
34.5688 41.7314 40.0954 29.7086305494
36.4462 45.5506 42.6356 31.7467372984
30.9803 36.7194 44.8097 28.4298991974
35.445 41.3882 42.8106 30.5618772478
36.3596 38.6266 43.1246 36.9718188971
37.6143 43.1112 42.5802 29.5946823825
32.1977 45.0053 41.6844 30.5958357409
31.4133 41.2728 39.889 30.9508979753
38.6384 36.6749 40.3077 28.5053020349
36.0595 39.4177 45.9595 30.0468577449
29.8987 41.6852 45.3273 27.8675855372
37.8168 33.8677 40.3196 31.503993216
35.6068 45.4836 39.9787 34.0758329821
38.8608 42.9425 40.1042 30.4616370499
33.0272 32.8941 46.7201 30.8415815407
30.7563 34.0467 40.4524 26.9234323049
37.8029 48.0787 43.1544 31.8070948575
36.9125 33.4303 45.1524 27.9713197569
32.7177 47.1988 39.0293 32.0201250783
31.3916 39.4967 46.8896 29.4600553944
37.6934 46.8918 46.0023 27.22501262
33.3076 37.4984 46.0995 29.8107627187
34.6374 36.4855 43.926 31.9078196404
30.9862 42.2601 42.459 27.0356064918
34.978 35.5077 39.1719 31.0444469355
30.0733 47.8989 44.7068 30.3584035985
37.3661 41.8219 45.4164 29.3708125423
38.604 37.3641 42.9994 30.3319723507
33.9635 33.6218 41.7121 26.9123332204
33.66 40.9491 46.5957 30.2692996188
33.1559 42.3805 43.9781 30.6191874355
33.1608 43.7672 39.114 27.2859028443
29.5699 38.9468 43.8681 28.378128761
33.9792 45.3409 43.9638 31.8015434427
29.5646 34.2374 43.2584 29.0503958311
30.6737 47.7155 40.8892 28.2712190848
34.5277 46.9065 46.4286 28.3203719193
39.0064 35.4467 45.1145 29.8508533738
35.5777 43.7051 45.6651 26.8996393516
29.8626 34.8173 46.5425 29.5282490594
37.9924 47.1718 39.1012 28.7404595047
33.4413 35.2525 51.3854 29.4382082116
29.6359 39.7545 55.6523 26.7083615478
30.1841 48.5871 54.7722 26.9552974139
37.583 34.1119 49.2731 27.4924479928
33.6752 33.4125 54.3145 28.7258003098
38.2684 39.2974 51.9349 30.1636323035
33.4394 43.0498 52.0572 26.8612561171
39.5981 41.3914 47.8769 29.98051896
32.1142 36.0062 49.1433 29.5686392664
36.4177 39.1577 49.7984 34.2902404285
38.2444 38.9388 47.833 29.7030699836
37.816 35.2515 51.8516 29.0416763429
32.3485 40.0116 51.7439 29.8456565353
37.0876 36.2559 55.5289 28.2618640685
31.493 44.7651 50.5516 27.9834592191
34.3638 36.3151 54.5436 30.9615987807
34.4644 35.3499 47.6969 29.6735884838
33.9348 43.0091 48.3755 29.4937136011
30.5927 42.3953 56.1113 28.2477931484
33.1096 46.0595 48.5737 28.8448082767
31.5368 46.6531 52.8068 28.1390276913
36.5158 46.9694 48.9458 30.2067025157
31.564 44.4039 54.6259 26.0495244854
37.3683 43.9547 48.1943 29.2243940246
34.8342 39.7793 52.9642 29.6820424005
31.1459 38.5237 49.4204 32.8958716728
35.0252 45.4405 51.2454 29.6890015771
35.5605 41.8421 50.4998 28.5993399389
35.6494 40.7231 55.9754 28.0276782517
35.9083 37.0411 51.9479 29.3313635028
37.737 39.0652 54.784 32.7201251537
31.8852 38.3396 53.9141 31.2950695264
33.6838 48.1065 52.4653 29.692238779
34.4012 42.87 54.8924 26.4405882534
29.9083 41.4448 53.0807 32.6723033953
36.4645 43.9073 53.5819 28.6479858808
38.4083 47.3137 50.6001 29.8568086322
37.8234 43.3939 50.9744 26.4470198537
35.025 48.5663 56.2071 27.3333585185
35.5946 46.6777 54.3534 28.2260542022
30.1548 35.9521 53.1857 30.0457879419
38.0578 47.866 53.7574 30.1759166678
31.4547 41.913 49.3734 31.0530920457
31.3842 33.4293 52.3192 27.1149653357
30.1985 33.8056 49.4787 28.5514471445
38.9089 43.4181 54.9508 31.733597906
34.6148 32.7212 50.6393 30.1741174401
37.4845 32.769 55.6506 30.4781223472
30.4916 33.1647 55.7092 30.3741111297
29.571 48.6256 51.5714 30.4216693047
36.495 32.9954 52.8261 27.8651695853
37.1978 36.0519 47.5189 29.1300958835
44.0109 1.76784 5.82801 31.3156575246
43.9053 0.670923 10.4054 27.7219860606
42.9054 14.2622 11.1094 28.3238529718
42.1525 0.76558 4.15825 32.3728005086
45.6098 14.5819 11.3765 28.6686367881
48.8107 14.5831 8.14661 29.4504365626
43.1987 4.99762 8.21402 33.1728869825
46.0279 2.25361 9.02063 34.6657506795
48.7113 7.53058 5.08129 28.4333813934
47.1597 2.83532 6.22293 31.2160238695
41.1127 10.2513 5.9845 33.1196552765
39.4872 6.08913 6.1018 29.1717113613
46.7266 12.1232 6.61413 34.5383658472
48.5668 0.705195 4.67206 30.5278407069
45.1501 9.64348 7.59847 38.4969423206
48.5659 12.0323 10.9623 30.3455964285
44.305 4.38571 4.92717 29.5197717256
45.4783 14.7112 6.7001 33.7194211039
42.2852 6.35384 5.88264 29.2407607761
39.9834 10.0646 11.4684 27.7457523517
43.3909 8.66924 5.54238 32.9815699552
40.3128 3.36306 6.64601 30.6358237467
47.0124 5.29904 4.34368 33.3859431367
40.9382 1.00661 10.5257 28.9335459036
48.9069 11.6186 8.35245 27.9907430052
41.5287 12.295 9.42533 30.0299145885
48.3622 11.4733 4.4161 28.7524202145
41.3658 12.9364 6.82227 31.0296918682
46.001 5.23666 7.79922 30.0700664263
46.5679 7.84839 12.6949 33.0062383997
42.6234 4.4334 10.8136 27.9274446758
46.0622 4.6026 11.1213 27.9697512626
39.9322 15.5743 7.45527 26.795520755
43.8867 10.7384 9.83892 34.4868834614
39.9907 4.34112 11.3601 26.336865124
42.6148 9.21852 11.6768 32.8971083098
47.2971 7.66565 7.58268 30.7892357346
45.8397 12.071 11.4802 30.1895217338
47.9838 6.46384 10.3215 30.4698967625
42.5025 2.28525 8.13713 26.5959937442
47.4507 15.9868 5.22046 31.2919069325
42.8437 14.684 5.48716 29.4493693677
47.8154 1.73994 11.418 31.8065460201
39.5123 8.38926 7.81284 35.2174720242
40.5255 16.3296 11.6318 32.8387179045
44.4587 16.1059 8.99727 32.2502478217
44.0203 6.67189 12.0687 32.8624855818
41.9304 3.29788 18.9528 32.7931411219
46.7003 2.46376 16.1268 35.9572110413
40.1783 2.13191 13.0928 27.4490833646
45.6819 3.85708 14.0077 27.2174956516
46.334 10.6055 13.6561 28.3905091877
39.7791 14.664 19.9082 29.8765764094
39.6074 9.10265 17.0255 28.613958369
47.1954 6.63889 15.0199 25.4042433596
45.6266 15.4161 17.7529 32.5889811748
45.2295 7.88083 17.0345 29.6596847275
43.1122 12.0756 17.4308 32.3118285627
39.5865 2.05861 19.5295 33.0717531607
39.955 15.4533 17.3579 29.5641060186
42.7537 9.34126 16.8489 30.9863751325
42.9397 10.3616 13.912 29.7976251608
46.5436 13.9338 15.4585 34.452798892
49.3683 14.4768 16.7977 32.5877849815
45.3678 11.4598 15.8394 25.2874225943
41.9017 3.81897 16.0381 34.5882771752
46.1202 10.3655 20.1404 31.0226637339
42.3787 13.3392 13.9027 29.161830599
40.1442 5.23212 14.1838 34.8664746821
39.9691 10.1704 14.2702 28.8122719817
43.4446 12.0372 20.2017 31.8751501136
45.685 15.3488 20.6139 29.5048495445
43.2596 0.569422 18.0252 32.196280824
46.2016 16.0842 13.4784 29.2846696283
42.2454 6.35573 17.9135 31.2338874595
40.9895 13.3274 16.1204 29.2930584725
46.9265 10.093 17.457 30.2614888277
48.9408 8.92011 15.4277 28.751633917
45.863 1.57089 18.9881 27.9630208291
44.0235 5.83359 14.9245 32.6531234707
47.9966 4.78079 17.2052 31.5859928856
40.7396 8.22469 19.5141 28.186698284
44.5579 6.24661 19.1879 28.971401626
46.7871 4.30187 19.4684 29.9012666378
48.8093 0.887717 15.3961 31.3959543264
48.7039 1.14888 20.0958 27.7950788802
42.3163 0.820814 15.0395 30.9207213771
49.1933 4.88242 13.7517 29.644358966
43.2004 16.3195 16.8944 31.7060676719
43.4414 15.9324 14.1791 29.2137212104
44.0637 2.82107 21.0793 29.6333300983
39.3932 13.8519 12.7313 30.6611143768
43.6798 2.68213 12.7328 29.1991456029
42.8406 2.61707 24.7792 101.9872122872
39.4755 3.83131 24.2151 68.5862962947
41.9789 9.96408 21.4647 29.0396528631
42.0238 14.2719 21.3776 26.3580772014
39.7632 11.8922 22.1887 27.5817778816
39.634 13.371 24.349 92.7796389639
41.5042 5.569 24.4866 70.9328853516
48.0542 9.32153 24.5386 110.302160067
45.4738 1.63855 23.7396 34.1727940257
40.6194 6.2509 21.8993 28.551668704
44.4995 5.53215 24.356 63.9206924153
46.7304 3.98677 24.2867 86.8629522919
43.4475 10.2893 24.451 88.2839822786
41.0999 8.73992 24.4935 95.0476342639
47.9876 11.9836 24.1789 62.2011368417
45.2816 8.09068 24.0859 54.5861382512
46.4234 12.9069 21.7698 31.224119742
41.0197 15.7012 23.8891 63.7475282132
45.8718 13.9123 24.3526 71.8876673436
43.0007 12.8457 23.9456 53.6030441931
48.6151 3.82676 21.5244 30.6817939705
44.3842 8.29777 21.2042 30.5764645542
43.4863 5.47858 21.7067 28.2388116396
48.1151 9.1125 21.5289 31.493936871
47.871 1.49114 36.0907 59.0389546071
49.1191 13.1236 35.4538 109.734939242
45.2883 11.0227 36.5263 44.5196294944
44.3965 3.9421 36.0341 38.40463303
45.2183 1.63628 35.6592 96.1299346777
48.2972 14.6742 38.325 31.6473786436
41.9279 4.50934 35.3296 104.8888089742
49.1171 10.7554 38.616 30.0428565808
41.8327 7.34954 35.7402 66.9292859426
44.4761 8.29158 35.9298 73.2017886052
46.1104 6.15102 35.7145 71.1486649388
40.0923 2.64332 36.0442 58.0475827999
48.0472 16.012 35.7861 76.2074289542
40.2475 12.3709 35.7783 62.9459338861
40.5217 7.256 38.5005 33.7317862058
42.9912 15.3992 36.4267 37.5310916724
48.0146 10.6482 36.1821 56.0116491
48.8519 5.75875 35.3625 121.7254441634
39.5484 10.0273 35.6199 73.0871933908
43.0411 12.8077 35.6215 119.2463696454
41.8117 1.42497 38.8483 29.3557252345
47.0747 6.56975 38.3888 27.622849133
43.1167 5.20855 40.8556 28.9398734215
46.0039 1.80711 46.8548 26.6507721568
44.623 14.8207 46.1115 31.0400182215
42.371 15.2412 39.1536 31.5372861391
45.2719 8.83252 42.8498 33.1710778187
40.3052 0.0309197 43.92 31.2637749044
43.017 4.22311 43.2237 29.488530507
43.1351 7.83092 40.9319 32.2374963776
39.4741 10.263 41.2728 30.2224389024
44.8399 4.13692 38.939 32.5022137781
47.4998 1.1013 38.9004 27.4041914121
45.5267 6.55996 46.6679 32.8137301268
43.5642 11.4399 44.6156 30.0827761558
43.5985 0.594471 44.5602 30.2470144406
41.6451 11.472 46.8677 28.7396781438
43.209 8.18002 45.014 30.5790662188
48.1931 8.47967 45.736 30.8185802715
45.2396 13.6897 42.2497 29.3316069332
46.9575 11.0091 42.7003 26.7243397964
49.1305 9.35826 43.3238 28.4534412478
39.6122 13.1049 41.8211 27.8356593365
40.8669 8.27585 42.5353 31.2744380772
40.8071 2.70326 42.3699 30.6987041569
48.5697 15.3667 43.973 30.4247820966
40.4093 4.81171 40.2307 26.3406799653
42.4411 13.1134 42.818 29.3583959892
40.4766 -0.0366994 40.6546 28.2566884437
46.8432 15.6385 40.739 32.0754613304
43.0021 15.9844 43.8927 30.3262091054
45.2738 1.10558 42.518 31.990990076
45.6721 3.47904 43.2854 30.4310189768
46.0835 12.555 44.9865 25.3517473362
48.9881 12.6974 45.6912 32.8454909739
40.2528 8.95577 45.7193 31.6812068949
42.3912 5.66264 45.5942 28.574678281
47.849 3.61143 39.2919 28.9024906729
45.9097 10.0328 46.7578 30.4447496012
47.4594 12.4061 40.2182 26.8934219203
39.8324 4.91958 45.952 30.0338457034
47.6796 4.51144 41.8748 32.0100619369
42.719 12.5193 40.2488 33.293348764
45.1373 8.54296 38.8325 31.4481271591
47.2358 7.36542 41.3259 33.1036220936
47.128 4.20601 45.9012 30.9889651891
44.4358 1.32305 39.7921 28.9320215584
43.156 2.59238 46.7483 28.4561655809
45.1567 11.1547 39.2742 32.5136628872
39.3802 2.81943 38.7367 29.8538948975
40.1182 12.4585 38.8769 29.1043315443
48.7283 5.7902 52.3935 35.5124027417
44.5651 3.42187 50.9532 33.4677058013
46.7289 2.57459 49.3777 31.7352897797
43.2691 1.21494 49.1147 30.6893614454
39.8882 3.70098 50.2671 32.3716253044
39.7884 14.3661 51.7702 27.9422207641
43.8728 16.265 54.1001 31.013897476
48.3128 1.86452 54.559 30.0190120185
40.4737 11.4497 52.5701 26.9025291734
47.5561 9.39409 55.3025 33.8524535156
40.5112 13.8816 54.7488 27.3306309463
46.2377 12.8532 55.582 29.4886257438
44.8421 8.4093 48.7118 29.9864074589
44.5384 10.2157 52.5878 27.5883301185
42.5393 10.0075 49.2279 27.7295804322
47.1352 4.35187 54.4848 35.2753346447
47.0195 11.7327 53.0298 28.9673891746
45.8091 13.0389 50.6382 30.7916454779
42.3152 11.2096 54.7545 29.111250804
48.0315 14.5319 49.8238 35.2023011686
42.952 12.0582 51.0541 27.0410971348
41.5775 5.99999 49.9677 31.4067112426
44.3401 15.2052 51.4764 32.9331484503
41.5577 8.62319 51.8663 28.267872204
42.8791 0.693013 53.7232 27.8530593229
44.4803 3.02635 53.9326 31.3013457961
49.1556 9.77303 53.0652 28.7857456354
43.7529 6.02887 52.0871 32.1355266494
47.5186 0.10708 51.0832 29.1131468877
42.239 7.52205 54.476 28.561487588
40.2248 8.15024 48.6162 30.3559470199
40.3491 2.39398 47.518 27.6738513601
48.0207 8.27951 50.9999 35.2385608872
40.3132 0.237128 49.6493 27.7539084341
40.7549 2.18172 52.7206 32.540472754
44.4831 9.18695 55.5556 35.8491062092
47.7308 14.9323 55.2447 28.1148749916
45.3504 8.10545 51.3149 29.9450687916
42.4139 16.2846 47.6481 27.7325737824
42.73 4.92915 55.2004 30.7424736094
42.0476 13.3323 48.6804 26.5332141315
40.3617 9.52852 55.9191 28.3005171769
43.764 5.19575 48.4318 30.6813554605
39.9587 4.11612 54.7742 31.5957995408
43.6693 13.802 55.6629 32.0188978703
45.8342 0.0225823 53.0902 30.3668085791
44.8235 12.3476 48.0932 30.6115347804
41.8545 16.1108 50.4271 29.0744061513
41.1228 20.5422 10.5264 26.7976394854
45.7268 27.9421 10.9229 31.8187256646
39.9085 19.4651 8.30754 27.437601651
43.4224 26.42 11.9629 27.0675563362
45.7642 30.9962 11.7455 29.8385636919
43.516 19.4084 4.23213 30.2345970459
42.4579 24.8308 10.0023 31.26916968
43.3925 19.3604 8.81083 29.2235775344
41.7339 17.1323 4.81396 30.1781688027
45.0674 26.2491 6.26682 31.1028130052
46.9604 21.2474 6.83535 30.6540599865
49.1672 24.311 3.99958 29.963430058
48.949 19.706 11.8873 27.3608474038
48.0237 28.6874 4.62796 30.4938146457
39.4917 24.942 9.9132 29.4809228555
43.8986 23.9581 7.93592 33.9898172694
41.1383 29.4838 7.50087 30.5171864182
48.8081 23.3939 7.04209 32.7008205173
43.1216 22.5253 11.5554 28.0944838665
43.4492 28.1083 5.0415 32.7575440391
39.9875 31.5181 6.41707 28.4984224381
46.0174 17.8722 10.6471 29.2951453423
46.1807 18.3679 3.93104 29.8231460506
43.6072 30.4377 7.82241 28.5285787579
48.2905 26.1506 6.43687 29.0293361234
42.3432 20.2626 6.67042 29.4015041655
45.4349 28.259 8.20424 30.5826712107
43.1413 30.692 10.5238 28.0952837571
48.0485 18.959 8.77247 30.4991566565
48.9302 16.4479 10.1562 28.2325434812
48.243 19.0529 5.591 28.6240981083
47.2697 21.5628 10.9492 27.7261741709
46.0609 24.825 3.9742 27.7391522077
42.4787 22.644 6.06339 27.1853595918
40.7105 24.5202 7.29395 33.4659490871
40.4172 27.3352 5.79811 31.4996073407
41.824 16.6875 9.11209 28.5549676782
40.8918 29.3565 11.2774 28.2027384058
45.1121 21.4943 9.13232 28.8921113527
47.6787 31.2545 9.49128 25.8105269366
47.6743 29.5142 7.43564 30.5944624386
48.1634 27.1089 12.2472 31.7773708719
45.3418 22.3723 4.79061 27.3173596801
48.6751 27.3006 9.2557 32.8379402699
44.2578 19.8627 11.9763 26.4571319982
40.7144 26.9026 12.2886 26.6313544278
47.7241 18.2635 14.6606 27.5213500929
48.6388 22.4093 15.0264 26.5176994617
45.7823 20.4451 14.3247 30.8605239016
42.1057 19.0328 15.697 30.4609259476
42.7225 25.0466 15.9737 28.8139339405
43.8372 20.9778 16.2438 27.6984573774
48.3358 21.5607 17.7901 29.1627059587
48.1124 30.6495 15.2134 32.292747678
45.5087 21.5123 18.503 28.8804687274
45.8779 23.882 16.3023 27.9661572837
41.625 23.4313 20.2859 29.8503790764
43.8472 29.1371 13.5348 28.2889517823
44.3581 24.6923 13.5781 25.7318845826
44.7009 32.2742 17.3391 29.935314222
41.6249 27.2897 15.0277 32.5591445518
48.057 29.3194 18.0097 30.6702124076
41.6175 31.3901 17.2533 31.2168829932
42.3283 18.1596 12.9434 28.3258014836
45.914 28.9232 15.6575 31.4398343297
46.7466 22.9708 13.1959 27.5453057202
39.6405 31.1969 13.2613 28.7152381967
47.1291 17.7694 17.2967 32.1153830472
42.2985 31.4056 14.3335 32.2339310927
42.8282 18.4178 19.1436 29.7135313099
45.497 29.482 19.5487 28.9583380623
45.8525 18.8784 19.7234 29.0360444232
45.9124 24.9217 18.95 28.5688130394
41.4652 22.877 17.2782 34.498868447
46.3083 26.5736 14.2508 28.4117714587
48.4729 25.3555 16.0908 30.538061134
43.432 26.2912 18.6074 30.6660201776
39.5242 18.2872 17.0608 37.3467171015
39.9831 23.6136 12.7482 31.1896414123
43.6828 29.253 17.6189 27.3704263357
45.8012 32.142 20.0352 28.2075480597
40.4288 28.8727 21.1874 30.2870435161
41.0194 28.0368 18.2092 28.6397767147
42.0426 22.4035 14.4089 27.5606106516
40.4653 32.0369 21.0867 32.6536999564
48.7913 23.964 19.1663 28.275100785
40.1449 20.2961 13.1365 33.5038583107
44.5077 22.9006 21.0089 28.2166050099
40.1117 18.8352 19.9916 28.8594955244
43.2474 16.5215 21.0283 27.5136865948
47.4018 17.0498 22.1379 29.5312908553
45.9614 26.6252 21.4107 32.0048603847
47.4218 23.1417 21.5998 27.9330911872
47.2962 19.6033 24.4463 87.1264692298
48.7141 27.3527 21.2961 28.0893302225
43.6895 17.4074 23.6139 39.3171419061
48.5809 22.1873 24.2204 77.3887957143
41.762 30.8104 24.2458 76.9011224834
43.3004 19.946 24.0833 70.7511198783
44.3691 22.8507 24.2292 78.9968085087
46.098 16.4116 24.7234 116.6915936819
46.7458 24.6502 24.1536 66.1494987831
48.1911 32.3076 22.5221 26.3441994935
44.2983 26.9197 24.0451 67.8375365074
41.3364 23.147 24.3687 69.4204136995
41.502 26.0867 24.204 63.4633104688
48.9896 26.6209 24.2423 78.317504663
49.2115 29.3473 24.2099 57.5169713574
40.1633 20.4816 24.2212 71.309071846
40.1872 28.4932 24.2303 82.2924592017
44.4913 29.7793 24.2647 64.2234007247
46.9359 30.8062 24.5756 94.864972837
43.4339 29.1291 21.5757 28.1860100884
42.0053 26.1024 21.4462 30.0639657828
43.4169 32.0281 21.4364 31.7873820071
43.6172 20.3824 21.4292 29.2577953143
39.4512 32.3861 23.4396 39.4005355779
47.7025 20.363 21.6382 26.960134252
40.4577 21.2372 21.4411 26.777474829
41.5012 31.8122 35.5424 98.9901643528
41.9919 20.3541 35.6037 82.9938523856
46.9493 23.8551 35.5812 91.6938740455
46.9086 21.2231 36.1899 41.5361319009
43.7039 30.8641 37.5692 26.3028488218
44.6675 19.5887 35.8938 72.6400810713
41.4343 17.4713 35.7982 77.0752964303
39.8156 17.8669 38.007 28.4747464749
45.585 27.8945 38.3931 25.2740938595
41.9257 23.2108 35.5925 89.9307708258
45.4251 16.7598 36.0027 70.2770214779
43.0809 28.2139 36.1069 42.8188397021
48.1938 30.6388 35.7253 83.3239092401
40.6856 20.434 38.5566 27.0689312165
47.263 27.0264 35.557 82.5859933157
