20.3686 8.45838 38.8785 30.8046974933
17.6933 9.18914 35.9884 54.1345679262
22.4446 10.1843 39.1274 30.3025471391
22.7122 13.2016 38.7866 29.5732894814
13.804 11.1527 44.7912 29.4232212027
15.8228 15.2895 36.4846 38.5397177819
23.1457 10.3383 35.9421 80.6833280689
17.7341 13.2891 36.5964 36.0556263309
16.4081 0.812571 44.059 28.6469640043
15.9569 15.3836 43.5449 29.9913115257
20.1648 14.4219 36.0776 72.9531583699
20.2634 14.3241 38.9852 30.3151908361
17.3533 2.60498 39.635 25.3528070565
15.8352 0.587293 38.4138 28.9162770731
18.7218 2.68103 42.2609 27.8747836611
22.1948 9.4298 43.8703 31.8113346573
21.41 3.55317 39.7237 30.6877598371
21.7006 3.89303 42.4273 28.5708797869
17.3996 5.00696 38.6477 29.3591153495
14.2385 6.13311 41.65 28.501063372
13.5293 2.30878 38.6747 30.3994303652
14.7209 4.83202 39.2403 25.9993641533
18.2732 7.26517 40.3356 35.0398920143
21.0474 6.63094 43.4786 35.9976930306
16.0491 6.88039 35.8439 65.0963807152
15.5641 8.68307 40.4397 28.513668226
17.4378 9.78273 38.6537 32.382914237
21.6147 10.9869 41.6494 35.2483642263
13.2065 10.6688 39.1126 27.8024354374
18.0274 12.5038 39.385 32.1667914149
14.0864 11.3487 41.6487 30.2009772267
19.185 12.7391 42.2121 30.8581236286
13.1787 13.2978 38.7212 27.2011246783
21.844 15.0042 45.176 29.8491931487
13.3722 10.6863 36.1605 40.1936992298
22.9831 2.35606 44.166 30.760999262
15.1977 15.3402 39.1697 32.5923800145
20.8109 15.1561 42.2499 26.9877909639
19.472 0.481986 35.7646 96.4457465354
22.9703 13.2106 35.8515 84.7515605214
15.4947 3.91877 43.1121 35.9773546316
18.0012 5.71093 43.0145 31.2558093982
23.1953 1.70873 38.8718 27.1840982837
19.3728 -0.00108141 42.1683 26.2564900467
13.3397 8.37175 44.6353 32.5613661486
16.2187 9.85968 43.2309 32.0741735305
15.8735 7.01492 44.2288 29.4371014913
18.0782 11.2983 44.3456 28.9039262958
16.1262 13.3049 41.3858 31.5678354845
24.2524 7.27359 43.373 30.8749610891
13.523 13.7072 36.0622 49.6241620402
12.5377 1.44484 42.5575 30.7989444733
23.7867 0.162125 42.8099 33.9628467814
20.6453 1.28746 45.7929 33.0451496323
24.4109 5.02363 41.973 27.7295212778
24.3724 6.1982 39.1684 32.3570030898
13.401 15.6118 44.9139 33.1534466628
23.4874 12.9812 45.8915 29.925528454
12.8029 5.20942 47.9904 34.7797257897
17.02 0.498689 50.1216 31.5567856961
14.1961 1.52668 53.0167 27.3454731491
15.5544 5.43168 48.2382 28.335117636
13.2384 13.1739 46.741 27.6087701796
18.1768 9.89203 55.3237 28.80383126
18.0309 15.372 53.5298 30.255209391
22.8181 10.8358 55.2538 26.6260677713
22.2344 4.38318 48.0278 30.2970826527
14.0267 15.0315 48.6159 29.028642422
12.6329 8.03796 47.1859 28.8692996187
23.4103 14.2505 53.34 33.8714477735
19.3961 7.77859 47.3347 33.4650337815
13.5693 10.6633 48.2419 29.1187331448
14.6672 4.35492 51.996 34.1719315928
21.0176 1.17296 51.3698 29.8432876227
12.6024 0.376008 47.0478 30.7268535177
17.8378 2.78049 54.332 28.2387232271
17.0217 0.373692 52.8881 32.2803402747
16.2909 12.9131 54.8512 28.2601368272
21.087 11.9868 46.9858 30.2947733085
22.6248 5.63056 55.2831 29.8930368504
20.1891 11.0593 53.3531 28.8748403778
16.8485 5.36705 50.5954 31.6200634764
18.4478 2.75165 48.9869 32.3249767907
24.119 0.787634 53.6631 29.2795966166
15.2858 0.749074 47.1556 31.2137754234
22.9987 11.4657 52.4037 32.0384796742
22.0039 8.23877 55.9109 32.9822228874
17.0578 8.09421 51.3088 29.6194083348
21.0759 2.10131 48.5404 26.8565969958
20.2535 5.70528 53.5348 29.7182738785
23.4952 5.64903 52.5023 31.1211626704
23.0645 15.4645 49.302 33.7952338952
14.5745 7.9641 49.5576 26.4601308333
16.4823 10.067 48.0153 31.1380605178
19.7144 8.25242 52.1939 32.4378894268
16.8592 3.37605 46.7207 32.8170176611
21.0724 8.34286 49.8164 36.1867230793
23.0227 6.35516 49.7836 31.785480704
13.3952 1.81161 55.8456 28.1032919049
14.3999 13.3669 51.0005 31.5519333954
15.0367 15.158 52.9263 29.2164413036
21.9577 11.0925 49.475 33.025903658
14.1467 9.34348 56.0919 27.6024695153
19.2462 3.80816 51.7836 34.5957678226
21.3674 1.16374 54.5437 32.9645081162
13.1345 14.6573 55.4098 28.6624626899
16.5668 8.2615 54.0768 26.1698837975
12.7725 11.993 54.8831 26.5967939102
19.4607 15.0428 51.1902 32.3357682028
19.4495 12.1588 50.7725 34.4516665193
15.3231 4.00723 55.0282 29.0983252094
16.8048 11.2502 50.5422 34.4703721028
17.9809 5.75137 55.2259 29.4350084538
18.5153 15.9204 48.6605 34.93119304
21.6978 14.2548 55.5138 30.3714251564
12.6971 8.21916 51.5167 29.9245917669
24.1028 12.8767 48.8539 32.4976335957
15.219 10.6129 53.156 28.5181942738
16.7045 7.47852 46.8335 29.8195945317
19.1496 13.2798 54.8456 29.3060290122
21.9616 15.9057 51.6424 32.4407786661
23.9418 3.03029 51.9212 32.7621064592
14.2111 0.738516 50.2653 33.2621427848
16.0216 15.3266 46.776 26.7067709833
14.3404 6.83886 55.0938 27.5272801036
19.0349 13.9172 46.6929 29.8746840803
12.621 11.2348 52.012 26.6685387409
16.3914 12.3401 46.1546 29.4895989737
24.4739 3.77474 46.6156 31.1352715718
20.5132 5.79554 46.0522 32.3620503705
20.298 17.3392 10.6357 28.1948685965
17.5529 31.8806 6.37876 26.5153581452
21.7469 19.9585 6.78524 29.2081533093
23.2422 26.6983 12.9325 27.5625887204
19.1094 24.0404 3.89149 26.680587555
18.9624 19.2577 7.41569 31.9988292835
13.3119 22.2478 10.0071 29.2728199755
24.2622 24.9249 6.49013 28.3716375601
17.9549 23.0001 6.32818 29.9766578751
22.0454 20.916 4.07305 29.9913656902
18.9935 26.8019 11.8286 29.730874298
23.5981 20.913 10.7322 31.0604298616
15.127 22.9987 6.03843 28.9509587186
17.2056 25.9072 4.00344 27.043004386
17.857 31.2993 12.5886 30.7374370159
24.4786 29.4943 5.42832 32.3508944775
14.501 30.4916 4.18389 28.179524743
20.8024 20.258 11.2275 27.2507360924
13.2426 29.5804 13.602 32.0597673585
21.6231 31.264 5.25321 28.240207067
17.3426 22.3861 13.5399 29.4005918996
22.531 24.3044 9.50902 26.5838838853
17.581 20.3316 5.08913 32.137282763
15.5532 16.5637 7.56722 29.3587757578
20.1045 32.4826 14.0194 31.9336844196
13.3298 20.9246 5.59309 27.5997939783
17.3521 17.9651 11.9399 28.5106529329
16.5585 26.9871 6.40284 29.2996096132
14.2823 18.5924 5.93824 27.5097853322
19.2065 26.3027 8.46894 31.899589112
18.2386 23.4871 9.11504 28.8878315298
21.064 27.0226 4.49785 29.9347382116
24.0592 20.3078 8.10216 30.2352106738
13.9934 29.1919 8.67651 29.3093224098
15.1528 26.5547 8.89129 33.4120739729
18.9297 29.0147 7.90753 31.8619869265
21.4863 28.8728 6.46644 28.4641597497
21.2355 25.1103 11.7205 28.8045540556
21.0767 24.3346 6.28503 29.9114357202
15.5394 31.5442 9.84527 30.4666474122
18.6529 16.8274 8.4152 29.1776561386
23.0408 17.6572 12.2775 29.8512307993
16.1218 22.7229 10.7908 31.411360557
20.6372 32.6495 7.49636 29.5235354804
13.8772 26.0489 5.24853 29.7600140073
15.4279 18.8503 9.43807 32.287380986
12.3236 28.961 3.65481 25.0976074152
12.6032 19.976 8.76081 29.240861062
20.0983 22.759 12.6842 29.9138850388
18.9496 31.3594 4.11399 30.1559464806
20.8859 22.3555 8.68722 28.6947969769
17.8313 20.4206 10.0102 29.8437245302
16.573 25.7364 10.9974 30.2258326084
15.8352 29.591 6.35946 30.0435819471
19.4161 29.4553 10.8574 31.4655301187
13.7388 24.1981 8.0163 28.4848197818
22.5619 26.8854 7.9733 28.1412447465
23.2334 28.0233 10.3129 28.7144799491
14.5619 31.774 12.4541 29.0131807619
13.5918 20.9273 13.1297 33.6482520884
21.9535 30.2624 11.1032 30.4172702435
15.2163 26.8492 13.257 31.8963366261
16.0643 18.3557 3.80095 30.7065585804
21.8951 17.3027 6.68493 29.8182371514
22.6531 32.7359 9.39696 30.979022441
20.995 19.2398 13.7519 28.1697428882
13.1847 17.6749 11.0806 28.359930702
22.6721 30.9603 13.7233 29.0982498129
12.8967 16.7402 4.64308 29.6735551848
21.1285 16.3631 4.06561 30.988840504
18.2374 19.6458 14.0705 28.5738399483
18.3192 31.7999 9.20287 27.6844889719
14.6951 18.2458 13.4329 27.1127336228
24.4068 32.4706 4.7492 31.9024872799
24.3908 25.3931 3.79014 28.138427549
22.6648 27.3532 21.293 32.6542920528
24.0395 16.5364 21.3687 27.2552822673
13.2821 24.6826 14.9164 29.7991337782
21.0025 20.7885 24.0223 75.375608269
15.0749 22.2297 15.0924 27.9677068245
21.3225 31.7317 17.4229 31.5612665832
13.6228 29.3972 21.5454 30.9496407829
18.0459 22.1765 18.4126 28.8700212761
18.6044 27.4856 14.6802 36.4422591146
21.5705 23.2093 20.1853 29.7075719224
23.5531 30.5065 21.1944 24.548462995
16.9692 25.1407 14.8526 27.4109500159
15.6074 25.3538 20.9855 31.4411715513
20.7866 31.1148 24.386 92.4496371394
15.1618 16.7401 21.481 27.8345756885
13.7242 26.7844 16.759 32.2478426505
23.5059 31.0489 23.8646 44.8466626988
21.1012 24.0667 24.1161 64.5947931136
21.4426 27.3693 14.9259 34.041652312
22.8849 29.5968 16.1959 31.5334803656
19.5307 28.6989 23.7229 39.6798160236
14.4218 19.5451 16.4266 29.0822518438
15.5469 19.935 19.7352 26.5235044809
17.2406 19.9353 16.9847 28.7805839007
19.8327 24.4389 21.7674 26.8385484878
20.4852 21.0075 18.7008 27.3123791859
18.1734 21.6685 24.0228 51.0897484332
14.379 22.4916 18.2931 29.3732756966
18.0547 22.2812 21.3773 26.8218545538
20.9976 22.9215 15.0314 31.119886672
22.926 21.1241 21.7668 27.4179492542
14.4287 17.3564 18.5375 27.5760275062
12.8324 28.9769 24.25 77.5628745352
21.5344 17.0799 20.8486 26.8679088793
19.0851 24.4346 16.7031 29.7387496739
21.8258 25.5208 17.4645 33.2537796766
19.4178 29.0415 20.9661 35.1300062483
16.4651 16.6424 14.7923 26.6583158143
18.1808 24.411 24.5026 104.9783722839
14.6131 31.9614 17.7853 29.2195245673
22.0176 26.9313 24.1383 71.5640879253
16.4415 29.9445 21.6397 30.5971090371
16.4214 29.0486 18.9466 36.1472771648
15.1428 30.4935 24.5826 89.8248058256
21.3171 31.0715 19.996 31.8476964224
23.8898 25.0069 20.171 30.678892356
23.9427 22.6434 23.9419 43.2384961121
16.1195 32.7605 21.2119 31.2173145192
21.9944 18.3235 18.3054 28.3838413919
15.177 16.8084 24.2965 58.6523628479
19.0372 17.8234 17.5628 28.4912648437
14.9976 22.495 21.3896 27.475133982
16.8593 30.7282 16.6687 31.1508170854
21.984 18.1744 23.6771 46.3377414477
20.1209 19.9659 21.1127 26.3930383359
18.8449 32.4993 16.6725 27.3792753829
13.6267 23.8406 23.7762 47.4178108274
17.4826 18.6866 21.2583 28.0400457995
15.0369 21.2531 24.3234 82.9835844316
17.4657 25.9867 18.8899 32.3079882866
19.4325 17.1501 23.8856 59.6386173212
15.706 24.7073 17.2224 25.2551684469
16.9979 28.3422 24.5137 97.0093699196
17.2085 18.8032 24.1934 69.7621487602
21.9465 20.3575 16.0979 31.6504445913
16.0465 25.8535 23.7007 44.1667356927
20.2507 26.404 20.1732 30.1652050359
13.0313 19.4606 21.3504 29.925586884
13.4435 27.0298 19.8409 27.3217918741
23.6242 23.8036 15.656 29.8646059089
13.4447 19.0459 24.2306 66.5852210699
19.4322 16.848 14.9562 24.9516739098
24.5198 19.9741 18.8994 28.179373247
24.46 30.2159 18.3195 32.456656393
12.7566 30.0097 18.8664 30.5615656867
16.4634 29.3345 14.2087 30.7179348126
14.1526 20.0913 38.7142 30.6154629759
14.7628 19.5964 35.899 63.8723570157
21.4982 20.2595 35.9586 66.9800015688
23.108 22.5143 35.9522 70.4541807777
13.1216 25.0034 35.9158 75.758945717
17.5889 19.1757 37.5179 30.430850247
19.3571 31.0041 35.9294 45.3391058951
20.1119 17.3696 35.6913 88.8480381957
13.0302 18.3338 45.5895 30.3539987084
18.9954 21.1352 36.1442 71.4260814304
12.9127 22.8061 44.0883 33.0532397155
19.6797 28.4273 45.7066 26.5140015566
19.2456 22.3529 44.2502 30.0829109935
16.867 23.1064 36.4094 47.7455659652
14.5429 24.0624 40.0904 32.6491925153
20.5637 20.2027 38.8565 27.3781234004
22.7936 20.1717 44.3059 29.3126990318
22.0993 27.1756 45.5349 29.9729125436
20.0797 23.9051 36.7702 32.8918046645
17.9906 18.0162 45.0304 29.262356363
15.2371 26.7099 39.1609 30.1190162348
15.1899 26.7455 36.4705 34.9902568207
23.3392 31.318 43.2972 32.6442215331
21.793 22.8814 38.9098 28.3829890944
13.7282 28.5631 40.8102 33.2344261121
23.4585 31.997 36.4486 29.1489232658
23.0782 17.7455 36.0184 58.7381133039
20.0419 28.3081 35.6711 74.8770944254
16.5553 31.3807 35.667 84.2617817587
14.6894 29.3523 35.6602 95.0165002858
19.901 30.8774 38.5718 28.3649975865
23.1576 29.2 35.2962 99.0739545801
23.8897 27.9855 38.1102 26.6149914579
16.8124 17.6236 35.5863 103.3068079995
12.5603 30.9423 38.8039 31.2536300661
22.5058 30.165 39.4871 30.3779539033
13.0081 17.196 38.6718 31.0015654526
22.1118 18.3349 41.2898 33.699707294
15.9115 19.7377 41.2092 30.0622914227
20.7476 28.798 41.1917 30.7912781633
19.5534 27.2162 38.0327 29.1639394488
16.1634 22.3261 38.9118 26.0174900746
15.3377 24.3704 42.7065 27.6422429354
18.4885 21.0765 40.3074 26.2041123909
22.8999 17.3053 44.1956 31.3399732485
24.6398 25.0213 41.6575 30.1496132474
17.7943 25.3738 42.344 30.9982064336
18.47 24.2356 39.4835 29.9379975354
22.1815 26.0773 38.8558 27.1667626036
15.5703 31.3693 38.4786 31.349256124
17.4545 30.4627 39.8616 31.9603678788
12.4427 31.3443 41.8888 30.6521767964
16.8256 30.9475 42.7046 34.037815784
12.4809 17.8173 35.8851 54.1276638616
14.0595 20.1278 43.3731 31.7277100348
23.2201 27.7224 43.0137 29.6724616601
18.5572 19.8718 42.9723 28.6743574088
21.6086 25.8299 41.7609 33.7851944985
16.4071 16.9028 41.4772 32.8710468795
19.1352 17.1671 41.3992 28.184200794
14.0791 22.3719 35.8579 75.628475143
16.3471 21.8569 43.8726 28.4644682628
17.7287 27.5683 40.2597 30.7070682525
20.2368 22.942 41.5588 26.6358729047
22.5165 21.2254 41.926 31.4729983066
15.8627 26.7571 45.5822 29.4968187763
20.8072 29.882 43.6673 27.7085591989
18.7316 25.7576 45.1446 28.5710104376
22.2129 25.5608 35.6811 88.7990679696
17.1626 29.0936 44.9095 30.5851349764
19.2615 32.4392 43.5517 32.4915807181
20.0493 17.375 38.8524 28.9177827918
14.5696 26.9042 43.2243 33.8481055723
23.3405 17.0097 38.8547 30.7551853138
24.6557 30.7521 45.6505 30.3764026776
17.8028 26.0934 35.7651 98.3808655987
12.2976 24.8304 38.3846 26.3806909092
15.7008 18.3369 46.5234 29.556775875
15.7955 20.4183 48.282 31.792333804
20.9587 24.365 46.4336 31.6229007402
15.918 17.003 50.8921 32.7437323785
23.8297 19.2742 47.5112 28.7733122372
22.0385 17.3158 47.3101 32.2989861173
14.35 26.2235 47.817 31.1396603373
17.5801 24.7367 47.5059 31.7966996884
19.4673 18.6502 47.1092 29.5740424404
15.3543 23.9834 56.5652 26.2233995543
19.7967 31.5393 52.8567 31.002807843
16.7061 26.7638 49.6357 28.8841333793
17.2329 29.4874 49.3313 31.3148976794
19.2005 27.4789 55.2589 33.3965428362
20.0849 24.1002 48.9803 31.311246059
16.5714 30.3709 55.2458 28.4341430065
21.8172 30.6363 46.9204 27.5252267585
22.1052 23.8468 56.3061 28.7561797439
16.2645 30.6066 46.8888 30.9491134358
19.96 29.1069 48.5067 29.6767421333
15.8997 31.5085 51.061 26.504110999
13.3437 26.5943 51.066 31.7987877041
22.7036 23.8621 53.4725 28.1302958396
13.9904 19.2108 50.4947 28.812611506
18.0769 19.5875 49.4824 34.7165291792
17.4187 19.1228 52.2365 32.8305087779
23.2824 20.7437 49.6773 30.134752253
13.3985 26.4365 55.4401 28.6491277729
18.9906 17.458 55.5036 33.0935028344
13.3317 21.9096 49.6411 31.2384857488
14.4588 23.4945 51.8859 35.7964680527
24.3978 23.4593 50.4961 28.8813944456
16.1912 25.7435 52.0708 31.3198552595
20.412 21.5809 49.9282 34.8900622427
15.3606 19.8384 54.2837 32.3004175775
22.4722 25.772 50.1449 32.4947229403
18.5119 22.7657 54.1994 29.5016123768
20.8787 21.7585 52.6541 28.5345373322
14.3544 28.8858 52.4652 28.0393072788
17.5036 29.822 52.6951 30.913633494
15.7604 27.5815 54.6639 28.1836219393
19.5554 26.6473 50.3446 32.5577233785
21.9172 26.1574 52.8939 29.3396148519
22.9976 28.6206 53.4751 30.8319236109
13.6951 30.5283 47.7529 29.5261484278
23.4735 30.5164 51.6186 30.1877520632
20.9709 31.2233 50.3922 31.8401032334
19.2759 20.6938 55.8885 27.947339073
23.395 20.5748 52.6403 28.505903451
12.5691 19.1481 52.8398 31.9887847598
21.2538 30.3488 55.0278 28.1374467461
12.4292 30.0344 54.0728 28.0525419451
19.7237 19.2505 53.5372 26.5508079277
22.1468 18.1388 53.4532 29.5993432983
16.2282 22.6455 46.5258 31.7682856715
22.798 18.567 56.0854 29.2906466799
23.2269 32.4617 55.1804 29.0046149237
15.8352 22.4679 54.1013 29.4203705745
12.8413 17.6105 48.4374 32.4014582136
22.9889 27.6511 48.1784 29.2213911539
12.6308 20.4328 55.7482 30.4165605566
13.18 30.9006 50.4074 30.1609931462
13.5879 23.4978 47.1434 37.7052659558
23.952 30.4618 48.8098 26.722234413
18.9674 25.4413 53.1823 31.7032075279
20.8399 21.0067 46.2462 30.4532355144
12.7326 23.1092 55.5208 29.5687706987
23.1905 22.7821 47.2266 29.1889921543
23.306 28.0686 56.4084 26.9838072761
12.401 28.1493 47.2781 32.2863904174
12.3486 24.62 53.2104 27.0962541745
22.5255 46.7502 6.90339 30.4060841954
14.9275 40.3318 8.7941 29.4278090234
20.1581 35.2469 6.63929 32.4232086049
22.9706 47.6082 4.15134 34.7381681888
16.6764 38.9705 13.5722 32.8101316782
16.0508 43.0221 3.67021 30.9841813519
22.8863 43.7914 9.61836 29.1549769589
20.5022 40.7542 5.01121 37.8778133846
15.8667 33.9952 6.11569 29.4822138019
18.3616 39.7063 6.45476 31.0173103168
14.0318 41.1156 4.86815 29.0239656847
17.9003 44.6895 4.68159 30.7518673372
22.5462 38.838 4.27318 33.6357936094
22.7545 34.5207 11.5445 31.5847396716
15.226 45.1956 6.54392 28.9694470882
16.4103 41.4858 6.71292 30.1103812261
19.0548 42.0386 9.26688 28.90855699
23.6517 47.2923 12.7929 30.2177210103
21.8917 39.6524 10.3283 31.1712491861
21.6155 41.4374 7.6496 29.6715900347
14.4659 33.1895 3.75112 31.4890490547
17.7824 46.8326 6.96937 29.7638005562
19.5783 46.9618 11.9725 28.5783491971
22.0361 46.6794 10.3056 27.215662586
20.5769 43.7102 4.31654 35.9087987642
24.1636 42.8171 12.0263 29.7017182414
24.2691 41.5246 6.48738 29.1085121819
17.4868 37.5602 4.61961 32.8065179216
22.0603 36.2406 4.96773 32.0534322726
14.0841 35.4931 10.4168 28.1227884915
20.2379 44.8907 8.55024 31.690571103
20.4684 36.495 9.28817 34.8006352207
13.3147 38.5148 7.78937 29.4093984118
20.3381 48.6374 6.5161 29.0116847823
17.0569 38.9718 10.3193 33.4728872141
19.264 39.1615 8.82908 28.358486054
14.5499 48.6186 3.89818 29.4607489016
14.7259 41.5008 13.9039 28.0925864785
19.4221 37.4204 13.6404 30.1498990351
15.2248 43.1381 10.9016 29.8343575406
15.846 46.0448 11.7457 30.1159036024
19.11 41.9916 12.042 33.1152035337
20.7315 39.7771 12.9909 31.0071969076
17.7973 46.4157 9.9132 28.9090865469
23.9232 37.9604 12.8053 28.8666424937
16.7946 43.7013 8.6969 27.5002948154
22.7079 44.6877 13.6169 33.8988723259
19.852 44.5613 13.0317 31.9668635131
13.2306 44.5116 4.33502 29.3004898904
14.5105 33.5341 8.64498 28.019050702
14.5474 38.6293 3.93656 31.6016527264
16.6333 36.4718 11.1256 30.0644945771
12.7405 34.0719 12.2235 30.5273574604
22.497 44.0936 6.30588 25.417457525
13.5527 40.8202 11.08 30.7977545947
24.6611 40.7894 13.9066 28.8064315146
13.1027 36.0722 13.9231 28.9458423349
23.4915 36.8828 10.0335 30.7004209454
15.5042 48.3554 6.4909 29.9312189149
18.4095 34.6087 10.3982 34.2782716296
14.8901 36.8358 6.04987 33.9566137264
13.3563 44.1701 8.60986 32.3180820685
12.6585 47.0984 7.27375 29.3753785621
18.1283 35.056 4.92722 29.8253599135
14.3268 48.4368 11.7749 29.6918463093
20.2328 34.693 12.5346 29.3224826205
24.3873 35.0751 5.67881 30.1280553186
15.9265 35.853 13.7765 29.9811432222
13.2566 33.8705 24.2015 86.8987296662
16.4821 34.2385 17.1675 28.5481193367
16.4819 37.17 16.5406 31.1541944602
22.9831 38.6988 16.0207 25.2100219887
13.0417 45.1333 16.1061 29.0462027338
21.6429 40.8785 15.6964 29.1713616946
14.2794 37.6226 24.1363 72.1237875425
14.801 39.4522 17.5533 28.9452354252
19.8985 48.1899 16.47 32.3735099894
17.4856 41.3941 18.4945 32.7382738827
17.5005 41.5438 14.5442 28.4492116106
21.9811 37.4265 18.1852 30.4370457836
14.2376 42.0517 16.6574 26.525763998
16.2302 43.752 17.0769 25.0332414391
22.7878 42.1781 17.8591 28.7480353831
15.5053 45.4302 23.3194 46.4619775274
22.5614 34.2946 16.7929 31.0274087305
21.1475 48.5389 21.9957 28.3539228811
13.6084 44.7382 20.1693 31.5938576998
18.1588 33.762 19.825 30.454315487
19.2892 47.051 20.3258 29.320083647
19.0554 37.8596 16.4194 28.3224073584
20.1906 45.7023 17.2725 30.4293747308
19.6251 36.1269 24.4777 95.3248461186
13.0235 47.8176 15.5093 30.6008587174
13.5803 33.9133 20.0668 33.1384198109
21.8651 46.237 24.3745 93.6795399267
20.3479 35.7015 20.513 29.6243322789
17.9665 37.2825 21.7494 30.2772519658
23.4307 33.9285 22.1582 28.366179167
14.9407 38.9246 20.1616 25.6802043868
20.209 42.2861 21.398 29.7584662382
16.9775 39.9487 21.3158 29.6740321238
22.1243 40.6106 24.2819 71.8892431014
20.8688 40.4684 19.1438 32.0869830524
22.1292 39.8864 21.6651 27.3638465908
22.5007 36.9866 21.6054 27.2249818512
14.1913 42.5836 22.2231 29.9324332359
15.927 45.6376 18.7842 29.8632021225
18.1325 44.1998 19.7674 28.8843809822
22.5984 44.5155 16.589 31.081212658
24.5778 46.2598 17.5061 32.3967784858
14.6953 40.4738 24.3778 86.9097275995
23.662 48.2832 24.0749 62.85855983
22.9234 43.3768 20.9887 27.7822654349
13.0852 40.0427 21.6449 26.2358497595
18.9194 33.1883 24.3138 73.1327306505
24.1159 48.9395 18.069 29.7738471074
24.0877 35.2208 24.6767 99.8822348296
19.4541 48.6612 24.251 75.3096985754
17.0953 47.6482 22.477 30.1312941784
16.5969 36.1175 23.8303 52.9814906964
17.5467 40.927 23.8939 55.088825615
13.237 33.0758 15.5219 29.4589714855
15.6401 48.3676 17.0751 28.761437678
16.2598 36.314 19.7154 32.2858690753
19.1634 40.4374 16.5866 26.3613093522
12.8254 48.6522 21.2329 28.4230332264
19.7393 42.5767 24.406 89.9972611983
21.8137 45.7648 19.8196 31.0314890134
19.8586 39.0053 23.8893 49.6144872732
18.2811 44.5607 15.3186 29.9196379167
23.6556 33.6329 14.2322 33.5663702744
18.0546 48.8035 18.5347 29.1192915305
13.1063 44.0521 24.55 96.4594305012
17.0318 43.324 21.9831 27.5974944324
18.7355 45.2984 24.1475 85.4538584059
22.3983 37.115 24.2646 51.4354290685
22.5663 43.5909 23.4544 33.8384312875
15.4401 48.7489 20.4366 30.0355704256
16.2395 33.2817 24.0724 52.3288493189
19.8845 35.2814 17.4718 29.4733846612
16.8912 47.2867 14.6525 31.1180465821
23.6491 47.7307 20.7294 27.6819412609
16.125 33.0744 14.5532 27.7629112148
13.157 36.6759 21.2272 32.2306167051
20.5695 33.3047 21.8487 29.5243091422
15.0781 44.5594 14.1294 29.4977189396
22.1187 36.4774 14.5293 28.0701598649
22.5843 40.3858 35.1796 140.2800903936
15.7478 43.0266 35.7386 87.0149200167
15.6652 34.1088 38.5079 31.1243934173
15.9977 34.2743 35.8417 77.783760569
20.0347 33.6213 38.1147 31.5685700599
22.2179 43.6721 45.662 29.108296237
13.1167 42.1882 36.5757 41.1724863817
20.4676 35.6352 35.8457 69.4386761745
13.9591 39.6416 35.6922 106.1882942491
16.1208 38.7229 36.7914 30.364896645
20.3984 41.17 38.8958 28.5780328864
21.3056 32.7971 35.3005 103.6426099694
20.7425 41.0177 44.3745 28.6903822518
15.7827 42.6927 40.2222 27.4165503029
16.3361 45.8529 35.7941 79.7806630558
21.9919 34.0165 44.2788 30.7701950502
17.7096 40.8026 38.7483 27.5409709995
19.8558 44.4135 39.2232 29.9347100053
20.3478 41.6846 35.9807 47.4253310833
23.78 47.8173 38.5477 30.333827517
23.3246 42.6778 43.1039 29.3470829806
24.4821 45.3232 42.7015 32.2165408385
24.1669 41.1831 38.6567 29.1687610719
17.2357 43.7226 38.1175 27.6509017584
13.6864 38.7717 42.3738 29.7214203367
20.5053 44.3336 36.2606 53.1287024149
18.9901 48.1097 44.8222 28.0862315543
22.2313 46.0147 41.0474 29.735404432
18.685 34.685 45.7838 28.6491522801
14.2963 33.7643 45.9054 31.9146962956
18.0281 35.2247 39.7945 31.2283574744
18.9297 46.9319 36.3761 46.0777309478
20.8205 33.9905 41.4309 31.5933452766
18.405 43.1064 45.5591 30.3573750268
14.3486 38.6663 39.5053 27.2884655846
17.2998 38.2652 39.6739 31.4274365301
20.1991 37.1128 40.9102 30.1038709358
18.1963 38.946 42.4148 30.3710662735
23.1401 36.3485 41.8476 27.5992024852
13.4636 35.731 39.0023 28.4061749045
16.7775 42.3504 42.9232 28.0212382116
24.2086 44.7356 38.9542 32.0469083804
17.8492 40.9207 35.7206 88.5150290632
17.7714 46.1424 42.9304 29.4709507187
16.2378 46.8247 38.6169 28.9370682325
13.7685 48.5218 44.3789 29.0791531112
19.9395 44.5749 42.5098 28.9015795672
12.3067 40.9601 43.354 32.3782750925
23.4395 47.7242 35.9034 60.7730384282
16.9397 48.4993 41.3812 27.11488955
22.2654 37.663 36.1669 51.8680787978
14.1539 35.6015 41.869 33.4306913267
17.037 34.5052 42.4857 31.3948193993
23.0123 45.1698 35.5793 95.3452669678
17.4939 36.8051 44.2546 31.2720974983
22.9473 33.5336 39.2828 31.584045234
20.6014 36.6977 43.6218 27.7170984367
13.2062 35.1683 36.0307 82.1531212103
22.2488 38.6118 44.2994 29.2777073496
15.9057 39.8831 43.6852 29.2576818679
21.6414 48.7408 40.8296 26.6698375854
20.2521 45.4009 45.5832 31.8461103606
14.6235 32.7802 43.0512 32.3582708651
13.7612 41.4576 39.2667 27.4873947785
14.9454 45.17 40.4569 32.9870121159
13.859 42.5416 45.1201 30.0396889163
13.8393 46.1716 43.218 28.8051860502
18.9614 47.2863 39.1955 28.8140637659
15.7149 44.6007 44.3932 25.2630335568
19.5278 41.8835 42.0412 28.725190068
22.4221 42.7947 40.5953 28.9886651288
21.6636 38.6111 38.8147 35.524086556
17.7464 36.7152 35.7471 97.362999954
24.6623 36.2568 36.8699 33.3446649383
24.4676 40.9157 45.1234 30.5922540189
13.8341 47.0833 35.6575 86.7593911856
23.5186 37.6468 50.1487 27.7838011116
22.9221 34.9715 47.2091 27.6255088803
20.9228 33.1601 47.4342 30.3702914623
16.3874 36.2929 48.5287 28.8813925838
16.596 33.2422 47.2626 31.527635443
12.7474 36.8558 49.1105 27.1379910011
18.3774 40.2356 50.0776 28.4545602489
19.8903 40.4884 46.9824 32.1402125728
20.7428 46.7583 47.9589 28.4654906149
13.8406 44.9446 48.2355 31.7192550826
13.3731 39.5722 48.6884 27.7963225022
14.6245 43.4315 50.3292 32.5371029805
20.1619 43.7811 50.5599 28.4633872219
19.65 47.6779 51.9371 33.1096345036
21.5305 46.1398 50.3061 27.4404503094
19.3876 33.6411 55.6861 28.4984839223
18.3207 47.0299 49.1409 30.8425987258
14.052 39.3935 52.5697 28.7114245316
17.4486 44.3549 49.7841 30.5848756627
16.7507 44.0592 52.6975 30.7986102486
24.0002 44.8304 50.4317 29.2117257571
15.2624 40.6959 50.3887 26.0392266852
16.6318 33.8948 50.3519 27.1008535014
21.7232 34.7813 55.6096 32.9780711156
19.542 36.0985 48.1908 31.3950925867
20.5827 38.5957 49.726 27.8163784239
14.1302 35.3673 50.6927 29.5375986667
14.6728 36.8328 53.0655 31.3302170911
20.2995 42.0446 52.6619 30.3591963964
21.0885 39.2859 52.7937 32.3281447965
21.4025 43.8589 54.5075 34.9069332275
22.9819 39.5624 54.6211 31.3227185197
16.5471 38.0243 50.7808 28.9654662819
17.5053 41.2746 52.7369 29.0838649005
16.1451 40.6004 54.9442 30.8036581472
15.5148 37.4324 46.2034 29.4358642377
24.4505 37.8665 53.2358 26.9930137516
23.1296 34.9518 50.1533 28.1064440635
15.8664 47.5337 54.8326 29.8088309606
19.5597 33.9945 50.2186 29.0501523161
18.9252 45.3281 53.4854 30.4075775934
23.7405 42.0296 50.6633 31.8172997962
22.5198 48.6477 47.995 28.1011231353
23.9352 42.1238 53.7894 29.3031835232
17.784 36.6211 53.0697 29.3208962355
17.8966 33.7297 53.3522 27.8682792129
20.1366 36.3011 51.6843 26.8601907003
12.7663 47.7215 51.643 30.9941474847
12.9008 44.9181 52.1871 30.4299701387
24.0438 33.2419 52.8971 29.7871271869
24.1878 45.02 54.8713 31.1457130808
18.0632 38.53 54.8756 37.1415178171
22.378 35.9777 52.9883 28.9864847239
15.204 40.2547 46.5919 30.3968753637
14.8289 45.0375 54.5269 29.1928127146
15.3944 32.6955 53.9119 28.7532554669
21.4465 42.2491 48.3435 29.0614480347
12.3318 47.2561 48.8411 32.4095468994
22.116 37.8715 46.977 30.1178659961
17.2042 41.5598 47.8225 29.2635212032
16.2048 45.2082 47.0301 27.2148614757
18.1708 46.6802 55.8081 30.4009580302
23.5119 48.683 50.7961 28.174031367
16.8372 47.6208 46.5137 28.906628475
13.2614 36.272 46.3654 28.5663550735
23.3614 40.3064 47.8954 26.825035499
12.7535 35.8465 54.9446 31.3357415703
24.25 44.1464 47.6023 30.454507915
20.1439 48.7028 56.5166 29.6206276862
12.6197 33.0183 53.5556 26.2669764584
12.6936 40.69 54.8556 34.8291275212
25.5445 9.76977 12.1689 28.9879955221
27.8622 14.0485 12.8606 33.4567654391
32.8989 1.68935 8.15807 31.5364850668
29.9201 1.71076 7.29022 29.9409187047
33.9368 3.18193 5.98028 28.2395351096
33.2022 7.25358 4.13633 34.5227697063
36.8862 5.11197 12.7189 33.6365492827
29.7839 8.02053 11.6649 27.9234945222
24.931 13.2003 7.83122 28.8468096295
28.6486 5.94282 7.10194 34.7001150331
25.1992 2.20875 13.9875 31.1777453688
27.4286 12.8711 9.81335 33.9538060357
32.5518 14.6142 5.64459 26.9484050292
26.4987 10.1442 5.81667 27.5745024411
29.2669 11.4652 6.45432 29.5717120424
31.4278 11.3243 4.64519 30.3329332294
34.5743 8.76587 6.2774 34.399741096
24.7249 4.14093 3.77573 32.4008194189
33.7092 11.5036 5.95414 29.0776108934
35.91 10.214 10.9136 36.0555571906
34.6472 1.33125 13.7838 30.5052641459
28.6312 13.6879 7.44628 29.2780597209
32.4251 4.6048 4.15673 33.7896765144
29.8828 15.4349 5.3635 28.7183625004
36.1388 12.3565 4.76229 30.8171623215
26.4116 3.06936 10.0606 32.1643670816
26.4921 1.28698 4.87028 32.3649762233
28.2388 2.2896 12.1863 30.5615550028
32.553 7.86701 13.376 32.8764236507
33.7974 8.05085 10.4142 32.4280797489
26.1763 6.07075 8.11266 29.1762316885
25.4992 6.0136 10.5477 27.8430555085
30.5852 6.83216 9.20077 27.8246455559
30.5502 4.42303 10.5832 33.0160982721
32.9435 6.8757 7.94203 31.1134782489
34.4827 4.77704 7.9256 29.1660339491
26.6985 8.87257 8.20789 28.9196359947
27.2736 6.74828 12.5565 28.9365036064
29.0241 11.4156 13.3165 31.1937764839
31.7905 10.0567 10.0164 28.5192590676
25.2323 14.7061 10.205 25.9210093651
36.5035 2.41808 4.89299 31.1499117059
29.4913 9.77336 8.49986 29.7960392527
30.0071 3.91797 5.62097 34.1812538814
32.0907 13.5877 11.877 36.2738485561
31.2169 14.2437 8.43358 30.784236958
24.8349 1.19625 10.9613 27.1409115691
28.5981 8.0924 4.94279 33.7731161747
34.2767 15.569 10.5957 27.2406178788
33.2114 1.3608 11.2865 35.6066613033
27.1821 14.1821 4.74484 31.6262504888
25.0762 12.308 5.08398 27.7933664383
30.244 3.98552 13.7463 29.4869107981
33.1178 12.2254 8.71647 32.1663210354
34.0913 5.64103 12.2933 30.9432052077
33.2264 3.97367 10.1454 27.6061266531
35.2505 12.9782 11.395 28.6373669011
25.1188 13.6836 12.7328 27.6551694703
27.0371 1.44005 7.6508 30.5775464525
33.6722 1.14346 3.78107 28.106186766
27.8996 10.1471 11.0837 26.1725035237
35.5039 14.4649 6.91981 35.5074701739
36.98 13.6476 9.04061 32.3827233306
30.1847 1.55355 10.216 29.5166029566
31.7656 10.9 12.6656 28.0008557335
36.7311 9.4003 13.4282 31.4319843227
28.423 2.78975 3.58835 29.363501881
36.4938 13.7438 13.6322 30.9686916551
30.9759 8.70722 4.01076 31.8787589283
25.3507 15.1015 19.5007 31.214602898
33.1296 11.2364 15.2355 31.7501846891
33.0903 2.44735 23.8957 78.1615970185
32.3572 5.09529 18.4481 29.0302778679
34.6663 4.75015 16.8381 31.7246351249
28.8331 14.9063 24.377 66.0635201718
25.9848 13.4215 23.4275 36.523537566
25.7521 8.52725 17.2877 29.0661642817
27.4405 6.62237 18.1536 30.7184393343
29.7196 6.64368 14.3869 32.4132755449
29.5292 0.104895 19.0193 31.5794783252
30.0524 7.51157 17.3939 34.063384117
35.4804 12.5507 18.2394 29.9781336321
32.7603 0.881658 17.2472 30.6110887413
28.1412 11.7719 16.5773 29.5222800177
30.644 2.1103 15.9748 30.2205042867
26.2217 0.447096 16.0549 31.9581099085
35.7788 2.36398 23.1836 33.2562330722
35.8625 6.41742 23.3862 45.109583417
35.5596 9.78263 24.0268 69.3093855081
36.0177 15.142 24.3357 67.1981348823
34.1483 13.1679 24.3485 67.9554341927
29.2671 14.6576 16.8918 34.8020103747
32.1108 14.7646 17.4564 28.8969349434
26.9156 4.5361 14.3019 30.6709086596
26.0628 11.4988 14.9001 31.5924007392
29.1082 2.64469 19.4303 28.525927987
36.5756 6.64906 18.1763 30.3519250759
29.9741 4.27961 17.3979 29.4667024956
27.2364 9.37678 23.9016 40.7141747322
34.137 10.2819 19.2233 27.397206137
31.9011 11.512 17.8744 30.8761641788
34.7162 13.8697 15.7751 27.8604165098
34.7624 11.5826 21.91 25.5798025786
32.1157 11.4828 21.5375 28.0559465985
27.7211 11.5039 19.2684 32.2859791947
30.1517 10.325 16.0169 31.7431013347
30.9615 8.82607 21.3905 29.5237304125
33.1862 14.8651 21.6507 28.1366786859
28.9713 15.0609 21.6196 28.2929191096
35.3338 1.66435 18.4067 30.0513380285
31.6037 7.84926 23.8832 48.2581763646
31.0607 13.7838 19.9868 29.9737147333
35.8785 14.2318 20.6372 25.6840143549
31.7659 1.40604 21.4395 30.8644813092
25.0581 10.8414 19.3699 28.1783770296
26.3264 2.36855 18.6235 31.8138257671
32.3803 4.12384 21.1099 26.0314352634
25.6047 4.63167 17.1394 30.9391445137
26.9904 13.6099 20.8875 26.696763223
35.4823 3.48511 20.5487 27.7945230405
34.8808 6.15576 20.5661 27.7411417717
29.9531 1.08225 24.2757 92.2628276642
26.798 2.35326 24.1679 81.5305063209
29.2165 3.13367 22.3628 30.7530269463
33.175 5.48331 23.4881 59.3896852571
28.1201 9.30422 21.2509 32.3856885968
29.9223 5.94548 21.5667 30.9494998285
26.9299 6.67977 21.0926 27.3970135935
31.7575 14.8725 24.3576 73.7433884222
32.3791 7.83686 19.1629 31.268411013
28.3803 16.1205 14.5992 29.8010572365
36.2277 9.25761 17.6626 29.4245685837
26.3454 3.87226 21.313 28.0000353022
28.9868 7.26396 24.4178 106.3561444567
26.9721 5.21113 24.155 65.4115617092
30.4588 12.1635 24.0742 49.9453997994
34.6468 8.96784 15.2708 35.4021778364
32.8528 10.1047 24.5818 107.8037591013
25.4741 8.17434 14.5436 31.630778253
33.0985 3.95585 14.5693 32.6715967598
27.8003 11.7447 24.6112 112.3952507608
32.1632 15.3488 14.4329 32.2535491679
25.2082 2.14807 36.5346 32.9149873246
28.1453 9.17229 35.7566 96.684889707
26.7009 4.20496 35.387 104.4073970314
27.598 2.52598 38.3505 30.0463714635
35.0539 10.4868 45.6632 31.0869235629
30.715 5.00443 35.6816 89.5794054069
30.1789 2.62243 39.2549 31.8449397959
25.2834 2.17296 40.9406 29.6579995968
32.8478 14.215 40.5985 30.5347394601
31.6281 12.893 43.4814 27.0175680438
27.0858 5.05936 40.2246 30.8380061896
31.0998 0.634847 35.5671 104.9395667082
33.5587 6.41621 38.5144 33.6012919326
36.0122 3.0924 40.8525 35.2803664401
26.6287 0.539494 43.2134 27.600964403
28.6111 6.44678 38.5241 27.4765892226
27.0763 11.9186 35.79 72.965001832
31.4602 10.2319 39.0731 29.7937918002
31.1382 5.26234 38.5014 33.3847404381
35.1652 12.7675 39.0799 29.9381180002
35.6104 10.0888 35.8618 103.3522360978
33.7388 9.15958 37.7679 39.9962986544
26.6465 11.2226 38.3016 28.6039277375
32.6123 12.6733 35.4988 122.8802034727
26.0569 9.3518 42.168 31.0404598012
32.6342 1.18502 38.802 28.8261868596
25.3814 13.9258 36.0645 41.0118247958
28.5583 6.46866 35.7665 60.8910476156
30.5895 12.9937 38.4846 30.0615806151
35.3465 12.7232 36.3375 43.397303265
25.3218 8.62931 36.3759 46.5244371555
36.0078 0.772728 36.4991 41.3374036148
27.7414 6.26177 44.9175 34.294322042
33.4546 0.958451 41.7088 33.3278678053
36.4725 15.3056 39.2511 27.1035731234
35.5048 2.41597 43.962 32.5941685338
29.1919 5.10017 42.6696 29.5403034906
29.2634 2.53109 41.8556 34.2720698479
35.8044 5.76643 39.9841 31.3277201165
28.4741 9.41003 43.0605 29.1033907951
35.1028 15.2833 42.4251 30.9898439303
29.5865 7.71611 41.2728 30.0367635471
29.0108 9.24369 38.4463 30.9099186173
32.321 8.27542 41.21 30.3122179256
35.0198 9.65535 40.2822 26.8473950491
35.7962 7.62335 41.9 30.1260701493
33.5232 1.88174 36.2878 50.5906179267
29.6178 13.1767 35.8441 69.2912669393
27.7984 13.4293 43.8262 29.103595469
27.891 12.8101 40.0507 27.2561526946
30.1663 11.342 41.3892 29.2108753974
26.4945 14.5452 45.7664 32.2771654971
33.8427 11.5433 42.4305 29.0904229237
25.0195 9.13534 39.434 30.606710212
24.9915 6.07021 36.3344 39.7033893929
25.8396 12.3342 42.1908 32.2853362088
28.2403 15.4844 39.0379 28.4137920343
33.7098 4.65007 35.8134 126.3413813427
26.2625 3.6805 43.9837 30.1681844764
36.0621 12.7877 43.8303 29.4920460598
32.1435 4.53199 43.6162 35.6788092148
32.5946 2.07912 44.745 29.9203346605
33.997 6.62003 43.8056 31.3644717311
33.0681 9.12783 43.9018 30.0345497019
29.3533 2.72297 35.7735 60.5967021414
29.37 15.0036 42.2145 30.8699773498
29.7084 11.7551 45.3623 28.9464866381
33.1005 15.6205 35.995 92.6260456169
30.5739 5.22851 45.808 33.8650986495
28.4503 8.80933 45.867 31.4861231724
24.6605 10.7792 44.7449 32.7703961511
32.4619 15.7227 43.6844 28.0053746404
35.4364 1.04309 39.2792 28.1075153839
25.229 14.8993 38.4866 31.0890915279
28.7402 15.7936 36.0361 58.1078806924
31.0808 16.1601 39.3464 26.5559369415
36.4023 14.913 45.652 27.7092617523
27.9013 11.6945 53.8806 30.940194396
29.787 9.19183 53.9622 33.8972615693
35.9656 8.28924 47.4831 27.7218203932
31.4376 11.5788 54.5631 26.8897175616
33.099 3.83579 52.273 29.5047701106
25.9619 6.96071 53.0798 29.0867460026
28.2536 3.9913 50.6278 31.2959103569
27.0196 6.50065 50.7468 33.4452790902
27.39 1.88073 49.2542 28.4303181931
31.9764 6.67985 47.9074 32.3018212883
36.2143 4.61417 47.3574 30.122249229
34.379 6.47371 46.4923 30.2463774192
26.1433 9.547 47.1084 33.331643299
31.1544 1.04875 51.7815 30.3605579441
35.3375 15.7859 51.8315 31.5298157971
28.8435 8.73222 50.957 33.0437828019
31.6388 15.4579 46.867 28.6408227016
30.8646 2.94349 47.0795 31.1159395004
32.7688 13.9169 55.7464 28.3743949093
25.6829 16.3401 50.3488 34.6121001914
30.3873 13.4062 50.2278 29.8894211618
28.7808 12.8713 47.9781 27.6366390209
34.5802 13.4999 48.0117 29.0496488186
31.1517 9.02969 46.4743 29.7655879186
36.251 0.212864 48.3345 29.0009193877
25.2067 7.41628 48.8339 36.2503676876
29.0442 1.02096 47.3979 31.381790873
30.7285 10.547 49.4576 30.0335283208
30.925 4.55098 50.0731 29.1178642335
32.3997 2.14385 49.2059 27.126292288
32.308 2.7218 55.0629 28.7496976919
32.208 12.7987 46.6095 28.1602860387
35.331 1.13136 54.4856 28.3873751484
29.5984 4.30607 53.3381 29.0230838073
26.5983 2.9634 52.9799 29.6321568109
34.1759 6.36835 52.4598 35.8191065992
31.1943 7.16272 50.8781 27.3465484061
35.5353 8.73918 55.8182 28.3589827926
35.0015 2.62294 48.9934 30.4034874562
27.0045 11.2282 51.4942 33.7980706566
25.5968 15.8913 53.1712 34.740669903
32.7355 11.0463 51.6161 29.580576238
33.5721 8.70483 50.3895 29.2683835174
34.9418 16.3098 48.1378 30.7664766132
26.5853 11.6681 48.9278 30.6626980418
30.4024 13.72 53.1329 32.7701843911
31.7261 16.1909 54.3795 34.7139384748
34.5449 12.9092 51.113 30.9646529143
35.3563 13.684 55.482 31.0062673726
33.2743 10.5219 47.9545 26.5008111865
29.7738 1.70319 54.6747 24.8763198844
36.543 16.1787 54.252 28.9471690123
27.5449 0.0739795 53.2853 29.6954242942
28.4196 15.9107 49.6445 34.0142737979
27.976 14.4327 54.6622 34.6309558791
32.6244 15.3238 49.7918 31.0216279755
26.5869 7.9281 55.9098 31.9820662269
36.5872 8.4701 50.6277 30.9507417412
26.9893 4.70302 55.1248 30.2122516035
31.0404 6.50504 53.7464 35.0000413439
34.2019 10.8178 54.5035 33.8632169932
25.6545 10.8705 55.4753 29.824222893
34.4642 0.53681 46.2287 29.0271261584
26.5954 1.45852 45.9736 31.0904299749
36.3942 6.92764 53.7604 31.7049204197
35.6087 2.73693 51.6732 27.5706468467
25.1533 9.6766 52.9464 32.9014039035
28.7086 15.7208 47.1183 28.0240706987
24.9683 6.441 46.0673 33.4922647465
24.7781 1.81184 48.9144 29.7066722353
36.8399 11.3008 49.9268 29.5850924445
25.6566 17.8618 8.47447 30.2399921494
27.5698 18.7687 6.24914 31.0310389032
30.1431 17.63 7.0876 28.4693998066
31.8376 19.3107 5.86428 28.5147852144
26.567 19.3223 3.5875 26.5273988123
35.9489 30.8397 7.16055 26.8563320395
32.0234 18.0761 11.2102 27.3207848258
30.1286 22.2253 6.50269 30.4973621807
24.6381 23.4227 10.8074 30.5220458158
25.4605 22.2263 6.90157 29.543061487
30.4818 17.6352 13.6701 32.0717408079
28.868 24.668 5.4396 31.053699278
28.5908 30.379 5.95837 33.055335367
25.8264 28.5071 9.43435 30.4767046756
27.1812 31.9878 3.94103 30.3759160951
34.758 31.3497 13.4734 30.5174769198
30.3157 28.4402 14.0754 31.7666510728
34.7613 28.7794 10.2119 26.8590435739
32.4918 16.4862 8.88303 25.1494744544
31.8402 31.6552 13.8679 32.221665668
32.7066 31.5161 5.99096 31.3223568222
26.9856 24.3813 9.49061 33.4879513697
34.4775 17.5232 7.15409 32.4811619428
26.6712 28.6621 6.67878 32.4920917397
25.6891 16.5915 4.82389 35.8857281962
29.6173 18.0818 9.8825 33.4008194961
32.6627 20.5162 10.6687 29.5450275331
25.194 31.1791 9.65441 35.9538046514
33.5457 17.1076 4.33933 33.3349430797
35.8586 21.4604 4.21838 29.4505737776
29.6148 30.9896 12.5321 29.7000995906
27.8829 21.1911 7.55909 29.7780158768
29.9015 23.6851 9.90592 31.9710644612
33.1123 20.3666 7.76197 28.6639194213
32.1145 23.0701 8.19277 29.0558609413
33.6546 24.5938 10.6968 30.186758693
36.3013 25.4345 10.1246 28.608296798
35.1868 21.8429 6.90046 32.3539298136
26.7544 25.9846 7.00626 31.9348155108
30.6379 26.7328 5.36533 34.2168404767
32.7805 27.2342 9.85013 30.0548945964
30.7953 29.615 4.73371 29.9147300303
35.603 24.9184 6.93 30.6592813961
32.6761 25.8591 7.42793 32.1508040718
25.0869 21.63 4.17294 32.3418772046
29.1595 32.5241 7.7655 32.3570407671
35.7867 24.4473 3.93272 29.6902244518
34.1134 28.508 6.72267 30.8576678451
30.7533 30.8642 9.71737 37.6348044063
28.1169 20.2489 10.4308 35.0540105255
30.3022 28.0795 11.158 33.5272994084
34.0962 19.3072 13.447 28.4099963751
34.8155 21.7466 11.8987 30.275771592
34.1991 27.1908 4.2058 27.2537455375
30.2718 21.8757 11.7031 31.4805035019
33.3849 24.128 13.6283 29.4995372757
27.5705 26.957 10.8622 33.8481346376
25.3912 19.1853 12.0189 29.4673884327
34.4323 16.586 13.4035 27.0971144938
30.6169 25.2792 12.2042 28.0146393565
25.0352 24.5422 13.2089 29.4254559495
25.2003 29.6986 12.5979 31.4380026457
30.759 21.0861 3.83744 27.9116013108
33.3464 31.1804 8.8893 27.5243008716
26.8143 16.9932 10.9809 32.6647829964
34.975 28.5979 12.795 29.4721434892
27.3275 26.7727 13.7897 27.515716554
25.936 23.3121 21.5794 27.2928490301
35.9959 32.1007 16.1815 35.1419648374
28.8468 20.9591 19.6007 32.6690299017
26.1456 17.4421 15.2825 32.0615239162
29.8747 19.6143 15.3024 31.7939812186
30.1234 17.8613 21.4665 29.5638354669
35.6534 21.0359 18.8055 27.7903488675
34.3348 29.9763 24.243 68.6138727614
34.6378 19.3379 16.8812 25.3189249454
26.939 22.8217 14.4963 32.170157405
31.2387 23.5443 17.489 32.1886236016
35.7208 23.382 17.5736 30.3579639584
29.8874 28.7563 24.2384 73.9017091433
29.1553 25.5164 17.1799 30.7311179943
29.8513 30.2609 20.3484 29.4407436287
32.5603 20.3313 15.3049 28.1759315203
30.5455 27.4799 21.5641 33.1583782078
27.47 24.7645 24.6162 99.0896825393
26.4846 28.0794 18.7339 32.5025050091
35.9356 27.148 24.3491 77.0886866313
26.7667 32.3707 17.9012 29.407025827
31.783 21.6139 24.2175 74.9792573629
27.4279 27.5447 23.9795 48.6313494489
31.3696 31.2433 16.6665 30.5044767293
33.1411 26.9756 14.2166 34.9019956155
29.0943 24.5406 14.4595 27.5919951291
33.3023 24.9324 18.2458 30.5143082374
31.8764 31.401 24.576 98.2306680171
32.5731 21.2173 18.4778 29.2305262754
26.0119 28.9318 21.6086 27.5978423445
35.9809 32.3394 23.8906 56.2678100294
29.2218 25.3705 20.1063 31.9922879883
25.0376 19.1536 21.6127 26.4370622311
27.7394 19.3985 21.8349 27.2743599142
29.8658 19.3757 24.2613 64.7735188545
28.4297 28.0222 16.2777 28.0444042334
32.7769 29.7324 18.4359 31.8125000246
33.9522 27.4865 16.9786 33.3006735002
33.7243 27.351 20.7604 30.218890016
32.9146 17.6521 20.9017 26.2828238304
29.0602 30.541 17.5535 28.7375335946
31.7977 31.8719 21.7652 26.4063261226
34.776 31.6359 18.8451 27.9301327957
24.762 25.2285 24.2283 62.0302411483
33.7189 29.9546 21.7024 25.436442971
31.6959 26.4645 24.0785 70.4254120485
35.907 28.2359 19.1804 26.3756578707
27.9408 21.7058 23.2735 28.4008492941
25.8817 20.8906 24.7338 104.474371378
26.3553 22.0504 19.1293 28.2510507205
33.9458 20.3321 21.1339 31.9047210397
35.0004 23.5023 24.7163 118.7324750306
34.0254 25.4788 23.1968 29.012674162
35.7629 17.0183 21.9666 28.3026210042
26.8483 25.9414 21.4951 28.0810015784
28.6047 31.5818 24.0782 72.8915984527
25.0836 27.8811 15.15 27.74087458
30.28 18.9895 17.8273 29.7854398888
30.1804 22.9133 21.2403 29.7799727281
30.2614 24.197 24.0456 56.2638756629
26.8378 23.6984 17.1261 28.761241921
25.8143 32.605 24.1964 75.0853903065
26.6678 19.8761 14.4581 32.034565419
25.123 18.1784 24.5594 81.359211835
27.6195 31.2044 21.4075 25.4371683614
32.9649 23.7547 20.826 34.3764639678
35.2126 18.6064 24.57 100.8698047373
27.9388 17.5979 24.6435 84.0446552024
34.3175 20.9177 23.6106 31.1093940885
36.2228 31.1715 21.2923 25.5741338207
32.6625 17.5203 18.2037 29.5138616902
36.4743 28.9447 16.0119 33.3648004639
24.7789 21.2555 16.375 30.7923582243
26.2844 17.5805 18.3024 34.1244869965
32.2661 17.5886 23.9779 51.7471897516
36.0652 23.4108 14.5318 32.8046043996
31.2178 22.5678 14.3254 27.0265633569
26.4302 32.625 15.2988 33.3929345363
28.7302 16.5811 19.0278 29.0115051811
24.577 28.2728 24.2417 77.638691242
25.0302 25.8072 17.4533 29.2537855236
35.2512 16.4849 16.659 28.1440577744
27.221 30.2318 14.2414 29.179048764
31.3669 17.5162 36.9917 28.7804653982
29.2164 18.801 35.8661 80.3762213935
36.2447 18.8783 44.7059 30.4640452333
29.3451 31.7016 40.6818 28.8390619817
27.7401 30.533 35.7088 92.899378081
34.6633 28.8097 37.7657 32.032439588
34.7362 24.2559 45.4555 28.8503358118
32.7695 20.5649 38.266 28.8326593905
30.2979 17.6653 43.6553 28.3221351309
33.2254 31.5212 42.7376 31.2775310705
28.1153 32.0847 44.1798 28.3653381149
31.4224 22.8544 38.4622 28.5275484811
35.5873 23.4934 35.7587 74.5716193662
36.6404 18.8936 36.6887 28.5203023966
26.2339 19.3421 36.3226 39.4964034855
25.9284 22.0899 36.0073 66.9552602024
34.9579 23.3047 42.9186 28.8454991931
28.5478 19.6021 38.7593 27.9475422528
34.026 17.3425 45.7848 29.1324241261
27.6737 26.146 39.2735 31.2248566448
24.8668 21.5367 45.4134 26.3285318634
30.9717 27.3979 35.9285 86.4463968253
26.2425 28.6556 39.5462 32.5178628937
35.1362 22.4727 38.4225 28.5336253748
30.5635 30.0036 36.5341 40.850071807
32.1978 25.3492 45.572 30.7021629891
25.957 28.1453 43.3824 28.5168676632
35.1266 16.7439 37.6681 28.3258911764
33.4062 17.8763 39.5342 25.4142276076
32.7237 26.0071 42.7585 32.0899662591
26.8111 17.8343 40.1676 30.739438657
30.6507 19.0523 40.3555 29.2158596113
33.2947 31.3159 38.8757 29.0156661573
33.2257 18.6705 42.3366 30.2849526132
28.7406 22.5638 38.3644 30.0974735705
36.0319 20.5636 42.4227 28.5958357106
30.4752 23.7226 42.0609 31.1318845911
32.9501 21.2157 43.496 31.2566942862
28.2647 26.2053 35.9277 63.2591593008
28.0326 23.7762 41.1988 27.1334207391
29.6107 26.0389 44.0226 29.1172960658
24.9902 31.7599 40.6795 27.8669064183
31.4076 23.2414 35.9372 54.1463213931
30.5876 27.0764 38.7789 31.5216323158
35.2421 24.5838 40.3094 28.8241203203
35.0561 20.7022 35.652 81.5671668307
35.8342 30.0132 35.4919 135.2538175561
31.1376 29.7871 39.5508 27.5807952784
36.0443 28.606 40.1438 28.4065759631
35.0403 25.9767 37.6848 26.7147129192
25.788 16.7522 35.3678 113.3680106681
24.9354 25.4346 36.2342 44.4249944971
25.8994 28.1207 35.5218 81.2634113698
30.159 21.0812 42.6576 30.0939932261
28.7272 23.325 35.6618 90.7250335421
25.9092 30.9193 37.94 27.6185889086
27.6702 20.26 43.5138 25.9875096208
33.0218 25.431 36.0143 70.6551997299
35.192 32.2329 45.1842 32.9902006832
26.7661 21.3053 41.0784 27.1176780177
32.2661 20.4964 35.4996 101.0485106737
27.5864 17.7429 42.711 28.6184985026
26.6958 25.5758 43.2381 26.0424669851
32.3642 25.2361 39.8503 29.0426658105
26.4071 24.1644 45.4641 31.6416097818
29.515 29.6253 44.4559 30.1495667855
25.3031 24.9202 38.9077 25.4603762437
25.1717 19.0437 38.6632 28.1369217089
27.3561 30.0391 41.87 27.7588679427
30.2938 28.0118 42.2306 31.909091649
33.3283 28.6995 41.351 30.9978246097
25.6435 16.6063 44.4704 34.6002711183
35.8738 19.6785 39.5077 27.5563998369
32.182 30.707 45.6051 32.6447594362
25.0619 22.4825 42.6499 28.4077363878
33.4412 32.0319 36.0386 64.9444816585
36.957 17.4423 41.4249 27.0964634601
34.6043 29.3978 44.6077 36.0586921078
24.9844 22.1727 38.6865 28.7608193395
28.1492 21.9046 45.7948 29.7708699689
26.5717 23.6074 55.695 31.2514997142
36.6567 29.4053 53.0795 32.9130151395
32.0144 19.4505 50.1567 29.476662626
32.9903 17.573 52.0126 31.5135022409
29.634 23.481 55.7888 29.5451564725
33.1729 21.6178 56.0379 33.2827529074
35.2881 28.0909 46.9837 30.6774872172
27.5618 19.549 48.5813 28.849259474
30.5367 27.1521 54.2879 25.7790019621
31.4353 22.4735 49.5784 29.6856277931
35.0972 22.0859 47.3257 26.6115124273
25.5499 23.3275 52.8305 29.0375795943
30.3333 31.6577 52.9049 29.024648663
33.2692 22.2844 53.207 28.9017439241
28.042 26.55 49.787 31.5807271227
36.7857 25.9601 46.187 29.8025195715
30.7759 23.1312 46.6053 33.3914198273
26.783 29.3853 49.1261 30.0572447233
29.5217 16.6997 55.7249 32.215580394
32.6842 27.0415 47.9677 32.8041003338
30.6823 22.1287 52.4002 30.2434704975
25.2482 17.9801 54.7459 28.0505792961
27.2309 28.6843 52.1544 30.5323507211
28.0749 26.6612 55.6918 31.7616169556
32.0152 30.8894 48.8354 30.6006762977
26.7278 32.4725 46.534 28.288903433
29.3247 18.5056 50.4474 33.1694230712
28.9717 20.0198 52.8111 33.167701354
34.0968 21.6867 49.7796 27.8197871465
34.9505 23.8454 51.3851 28.0030724686
35.3929 31.2449 55.4122 30.7992779434
26.4476 24.3122 49.0442 30.1082581127
28.3999 22.3035 48.6626 35.329231941
29.9436 24.7012 52.9156 28.7327491223
