17.7031 12.5327 24.1584 79.2036132857
14.8042 12.9662 24.3649 95.730152453
12.7075 0.321206 24.1795 66.734939779
9.85232 0.301049 23.627 38.2124236551
10.2781 9.11148 21.7003 28.349870539
15.707 4.30394 21.5298 28.054983073
13.1448 0.248077 21.3229 28.1771076943
15.6952 8.6898 21.5529 26.7211665431
12.9463 2.39634 35.8655 66.3057174281
12.4281 9.79727 38.1411 27.350193281
14.767 15.5078 36.9833 33.9871207606
11.0808 4.58644 36.0441 56.6784987337
12.5738 1.97047 38.6332 28.8773722313
12.1279 7.10724 35.6057 84.1883952068
14.7146 6.95168 36.0901 45.2957942173
15.2522 4.31777 36.179 48.5322117574
11.6135 12.7507 35.9055 63.8360899777
14.954 0.470523 35.5343 98.5439124831
18.9708 7.12044 35.5832 87.5596288822
10.1491 15.0185 35.607 109.5263810225
10.9506 9.77399 35.6447 67.8585423305
16.9455 8.77054 35.7853 68.4889625954
14.682 12.7958 35.9622 65.1593582289
17.5081 1.67167 36.1053 50.6205217153
14.0531 10.0447 35.425 91.4144560188
17.3438 11.5912 36.4542 34.8337723048
18.1582 14.4417 35.463 117.8325317891
17.2224 1.53632 38.9462 31.2014609899
18.0716 4.48019 35.6336 87.73435144
10.1073 12.0323 38.3414 30.7631876335
12.191 6.81803 38.3717 26.7298591097
18.6742 13.8379 38.41 25.8935006348
19.3366 16.3669 37.995 27.3971646988
14.1917 11.8648 38.9977 30.1830197368
12.5421 5.80538 41.6407 25.9580335704
18.2878 8.99397 45.4355 30.0376386643
15.5041 7.91518 38.8955 28.8329614058
10.8176 10.602 43.4386 28.6526056191
16.7481 10.4758 38.9145 31.5497827006
13.6337 8.32934 40.8882 28.7804644671
18.1625 11.1016 41.1885 29.0705598736
17.3154 5.23468 42.4766 33.8704029837
13.6293 10.9806 42.0367 32.7501091581
11.4532 12.2555 40.8806 28.312686193
15.2303 11.7826 44.5302 30.34764504
16.9462 9.78801 43.1593 31.8221024725
13.5191 0.746703 42.2465 30.6077561102
17.9376 1.66239 43.9245 27.5218087441
9.92367 5.72947 42.6059 29.7047315117
11.4859 14.6618 41.9954 31.2015010481
15.7529 10.1866 46.8194 33.9381302196
10.7725 6.0544 45.3442 27.0154917118
10.0273 13.3086 47.4939 26.1101702131
16.805 15.8605 45.1239 31.2227717697
17.0234 13.3783 43.6873 31.1553428042
18.4009 13.8164 41.2317 26.2933981669
15.2493 3.00357 43.255 28.0921552062
12.3411 2.6809 44.7784 33.5030457778
13.0326 5.33819 44.2348 25.0633906363
14.4378 7.65406 45.9587 27.0771382893
14.0258 3.72868 40.8643 28.5722171827
17.6236 6.32598 45.5569 27.1931293992
19.2576 4.17995 44.0355 28.1522568368
10.5992 0.343812 44.0565 33.5739216083
9.9126 4.10699 47.1204 28.741840614
12.3456 14.9044 45.2776 28.3804160508
15.5637 4.46425 46.0891 29.0299751083
16.5019 2.23745 47.403 31.4859399512
15.3805 7.3554 43.2096 29.4933803873
17.3581 6.07247 39.7419 35.2309206165
12.6131 11.9767 45.5955 31.109850917
11.6877 8.68618 45.7038 29.631325872
19.7418 13.4859 45.3632 33.7857444222
13.988 16.0327 43.4313 29.8409507457
15.7453 14.3617 39.5395 31.9983427394
17.394 0.367076 41.4138 27.7095133231
14.6148 0.056956 39.7625 29.2998338276
15.3154 16.1794 47.5498 32.4246698565
11.0057 4.21339 39.2102 30.3845145156
15.7641 3.91236 38.774 28.8154596675
11.905 3.20587 52.3086 30.8617557597
19.5527 15.5277 52.4441 29.4185633687
11.693 2.89991 55.3419 28.1203611565
17.0887 6.72267 48.3294 29.9322623278
15.0822 4.27741 52.1816 29.3403248336
17.6634 1.62883 53.8614 28.9433579085
12.6035 8.97906 50.8644 27.4289726371
11.5845 11.4678 54.0649 33.6928330039
15.7621 2.20783 50.2515 29.7084977518
11.8598 7.99207 48.4527 28.047815138
18.5938 5.2452 50.2258 28.9279202807
15.6308 14.6486 49.7804 32.9389105421
18.4699 13.6468 54.6938 27.3816238643
13.5493 6.702 52.3049 31.0450641122
10.8343 11.4873 51.1284 28.3659667926
11.9605 2.18807 47.6133 27.796140214
10.922 10.8504 48.2137 24.9347512475
17.1992 12.5674 51.364 28.2601036893
17.978 10.3627 53.1307 25.6603881628
18.714 8.29482 51.7453 29.1438738567
17.8707 9.74467 55.8112 28.3667743594
14.8831 12.0698 56.5556 32.9554722037
19.4537 4.1335 53.2404 29.3339624081
17.3299 9.05481 49.4951 27.8800067268
12.5073 13.6272 50.0989 27.3860388426
13.8099 14.6903 52.4207 32.9694743178
13.3605 3.70588 49.5081 31.0249415255
18.8425 2.80906 49.0482 27.1925911997
11.3609 5.61474 56.108 31.9335582146
11.9356 13.8166 55.2707 31.3558698266
14.9843 3.6729 55.0563 29.7506934996
10.2469 1.36921 49.9521 30.750588812
17.6607 3.73159 56.0959 28.4070818127
15.2695 10.2427 50.8401 28.4698595864
17.3367 6.056 52.8572 29.4003568231
18.116 0.147162 50.6631 28.1473871723
14.9412 8.21252 54.0587 28.6638589148
13.8771 11.3421 48.7906 30.6975758194
14.3593 10.9503 53.8204 28.1909366941
15.9057 13.3229 53.3048 26.6991472281
17.4386 15.5278 56.4362 29.0260532314
12.369 15.6038 48.097 28.8808094718
10.7265 6.63922 52.4257 29.1161681608
17.003 6.94985 56.1697 27.0093260571
11.2674 0.251244 53.151 26.4935810394
14.2886 6.19853 48.4376 31.5957136186
18.6488 15.8596 49.5786 32.8775396577
19.6654 5.84618 55.7116 26.5582896778
13.4608 7.90813 56.3923 33.8465995978
19.5353 10.8284 48.582 33.2162352049
17.4541 0.325267 56.3874 27.6304035146
11.7906 17.1499 4.82114 30.2765776344
13.0111 29.5172 4.57976 31.7285188439
16.5279 29.3964 6.33321 28.6836202125
10.1639 26.4759 11.4419 29.7095732676
17.3627 31.023 8.55411 31.8483321114
14.2436 21.7788 11.1683 31.1316477007
12.0764 20.8303 8.24362 29.4523047999
10.7289 29.8209 11.8037 31.8681924356
15.3185 20.4947 9.03461 31.9734929136
14.4332 17.8594 9.07836 29.3833459752
14.1791 21.4298 5.91713 30.2310911451
16.5791 23.3007 12.0533 32.5091568352
16.4703 24.4884 6.43466 31.0318773765
11.2462 24.5245 4.8986 30.1640609075
10.6233 19.2301 6.56862 32.175003938
17.043 22.3102 4.59842 30.7527928048
14.2272 28.1851 6.53579 28.4620762414
15.368 29.8243 10.2417 31.1517836702
17.9187 28.4128 4.14631 30.13078313
13.3864 28.1542 8.8928 28.9965499753
15.9484 17.762 11.4719 29.61367063
17.0779 26.8465 7.87403 31.5269776052
14.4331 18.4573 5.82062 27.8037878837
12.2542 20.2139 12.1026 26.5574751784
17.1343 17.9828 5.42185 29.7995982855
14.6879 32.097 5.7283 30.5026423444
16.401 25.7552 10.5621 31.4940241698
19.7315 23.5975 6.99636 36.525151716
11.9963 17.632 10.7467 28.6793313043
15.7597 27.9254 12.2702 30.2981054745
17.7639 17.143 7.91425 26.841185664
19.8826 20.5132 7.51789 31.169108461
17.7696 19.5607 9.32085 31.142124933
13.7298 25.7033 9.94798 30.2389376935
18.5337 20.2109 5.1987 29.630503091
10.6932 23.6755 7.94059 35.2350037123
11.6668 31.0415 8.68609 29.4426661428
13.9387 25.4293 5.25536 29.404274823
10.4427 28.1534 9.38662 29.2689023423
13.6191 23.8251 7.65132 29.8287874847
10.4064 30.725 5.87182 29.8083760797
14.3438 32.034 11.4174 30.999672461
18.8614 21.1529 11.6881 33.8388214651
19.619 26.0004 11.4216 34.2107377731
17.8018 25.3951 3.88216 27.1891658593
12.4514 24.5964 12.3083 27.5328181297
9.87129 21.1842 4.7023 32.0442260411
12.5108 22.1779 3.5953 30.763650845
10.8003 18.0994 15.8541 30.2137061975
14.728 28.5744 21.0864 29.1769302428
11.2674 19.78 20.6271 29.8670575603
13.7193 28.067 14.0498 30.7877619774
16.7691 19.8294 15.3468 29.8629353503
18.2549 17.6604 16.753 31.8831023471
11.2884 20.8162 15.3495 30.3829410561
13.9666 20.826 17.9293 29.5485315761
14.1378 21.1379 15.023 28.8819365561
19.3169 23.0717 13.7725 27.6548853114
11.5762 31.8019 19.6309 28.6140430209
14.5355 23.7681 13.841 29.0705332606
11.5687 26.0475 14.655 31.0471214938
18.2189 18.7694 13.0432 32.6553595005
18.4733 27.9611 12.9626 30.0968564924
11.0378 30.0786 15.7924 35.3540891717
18.0683 26.9136 15.655 26.6256264328
10.6547 22.4073 12.8081 29.7530599734
12.4501 23.6282 19.592 29.251926183
12.4188 27.7074 19.5435 32.2009322298
15.6822 32.534 18.9596 33.5442039423
15.0463 23.1654 20.2885 30.0218752382
18.3879 24.5342 18.9882 30.2069477864
13.9838 30.4131 15.573 28.3386423448
16.6694 26.4541 17.962 26.974220363
11.2636 21.7176 17.7573 24.813447902
16.5449 29.5907 15.9544 27.5773922642
13.8569 30.3333 18.5539 29.7298871572
18.4567 20.0832 20.6394 31.5991891598
14.0606 18.3243 19.2347 29.4349664579
12.6434 25.5975 17.8651 32.0260872992
16.2958 22.9109 17.6554 30.15726029
11.1606 17.6018 18.7188 28.3562623586
18.2214 20.4838 17.6105 32.0328206468
16.7602 29.1141 18.883 26.867791073
17.5027 32.015 16.8951 27.7140139943
14.6153 26.2477 15.7927 29.1586087146
15.3218 17.3653 16.6816 35.6452961883
18.2882 30.7849 13.5509 29.0527850889
10.0109 24.2616 17.0053 34.6592291085
17.3567 24.2524 15.1955 29.4177797085
9.92186 29.3071 18.4901 37.9237013885
14.1538 18.5089 13.4977 29.9232908495
11.9221 16.6647 13.8535 28.0347776625
16.0957 26.2032 20.996 28.6943013382
9.97957 19.0786 23.247 32.4219494828
17.3806 22.138 22.2653 26.5276013474
10.7449 23.7895 21.9717 28.1726159394
16.4397 17.022 24.5048 92.1594056894
16.8796 19.8032 24.6411 79.0362493753
14.4819 31.9559 24.4017 90.9802731041
13.9326 21.5526 24.0828 51.5139082474
17.8372 28.8764 22.0004 28.0424505635
19.5718 19.9644 24.5138 88.4540392139
16.2308 23.1718 24.5699 90.6064088893
11.2985 22.8604 24.3497 80.9532612541
12.3222 26.4392 24.4136 91.604238695
16.2577 27.825 24.8251 99.1169837234
14.9069 25.5012 23.7097 35.410395056
17.3223 32.3611 24.4633 68.2893951876
18.2631 25.7788 24.2573 55.817521752
10.371 26.6477 21.6709 28.2342892148
11.3108 29.0638 23.0861 34.3502057897
14.0941 29.4588 23.7106 38.3629124326
18.4028 29.7977 24.6881 88.109784655
12.527 18.6077 24.4049 93.1876877798
18.5954 24.7358 21.8465 25.7317245324
13.9256 20.6823 21.3643 27.9047648416
16.061 18.7365 21.8006 30.2803470683
17.4554 31.9491 21.5872 31.0656516424
15.0518 21.3403 35.7991 89.5888666043
12.7292 29.741 38.1921 28.6541242702
18.3327 24.7897 38.751 27.6963057145
17.4327 19.6369 35.6592 95.0248857819
12.3284 16.8477 36.1489 72.568818455
11.7694 23.9665 37.852 28.3591329565
15.2266 24.051 36.0149 63.3745323501
9.97933 26.6658 35.9297 64.778633691
12.7671 25.7592 35.9203 83.3469453662
12.6812 20.3567 38.5822 27.7755878361
12.5334 17.5051 38.7652 30.5575664479
16.9693 16.9703 36.1247 58.1028016963
10.7798 18.9247 36.0715 66.9672691989
14.4054 27.3724 37.4416 26.0088770955
14.9218 21.5858 38.716 29.9818037981
15.6512 28.8631 35.4042 114.2642515864
17.8314 24.9526 36.0689 63.8543020264
12.4207 30.6009 35.6975 81.0197922788
18.1431 27.6956 36.1931 49.9752193072
16.5395 31.3431 36.1338 52.156012255
12.0104 21.4483 36.1606 72.2880623788
10.3935 32.2246 36.4256 41.4515021434
19.4455 32.486 35.7681 92.0734524136
16.425 18.8211 43.5598 28.6609623886
14.9155 30.2475 46.3681 31.9552591043
16.1336 20.4545 40.8981 30.0543992387
17.1627 30.4389 38.8683 30.1966111702
13.7646 32.4158 44.6746 30.5771111006
17.0313 21.0833 44.5825 29.2592241471
11.3864 32.5039 46.1794 32.9041063619
14.6496 22.3154 42.8527 29.3053618341
18.2213 22.1747 40.0628 31.4016191288
19.0339 22.1579 42.7842 34.1835098181
11.7647 24.0062 41.4154 25.7909734485
12.0035 22.1199 43.629 26.2956431408
17.7438 16.764 42.0294 28.6578744616
10.4842 30.3853 44.5787 30.6555906858
14.9799 30.6383 42.7045 29.7149408383
12.1737 29.4021 42.4691 31.8517365184
14.6351 24.7144 41.6682 27.441832912
15.4287 27.934 43.4211 30.108788532
17.456 29.7991 47.4706 32.2874826213
12.8272 18.2611 46.5965 29.0245398361
11.365 18.8623 42.3879 28.863133103
11.2429 21.1592 40.7166 28.8005461744
17.7485 31.7894 41.7682 27.7215080415
13.7949 18.6582 43.8256 29.5101021207
19.0539 25.167 42.3555 29.5408435169
16.8002 27.4787 38.8888 27.5629371816
10.5873 29.8882 40.2416 30.4493407284
11.039 24.7226 44.5908 26.5361536448
18.5758 26.038 44.8489 30.2189037687
15.1042 22.7008 45.7681 28.6301573052
18.4902 19.8714 46.9361 31.3934251122
16.8774 26.5657 41.5292 26.7875186713
17.1436 24.2887 47.1333 30.3038785779
12.5576 26.5592 39.6784 30.0488267571
14.1013 25.4839 45.3058 28.8714327102
12.6914 26.8009 43.0489 28.8996513796
16.3405 27.2273 46.0881 27.7258135776
19.1852 16.9728 46.4019 30.4640769425
10.1437 19.0059 46.5814 29.8124962351
14.5515 30.942 39.8208 29.270953767
12.0022 22.8692 46.6259 28.2261933388
18.8239 29.0796 41.5462 29.8679803665
17.1122 17.8832 39.5172 32.0094818431
10.56 16.9528 40.3826 27.0856553486
12.5968 27.7467 46.9251 30.0915797143
19.4498 32.3703 43.8936 31.2693817879
9.98906 28.4147 46.2672 28.9174899619
14.5966 16.5599 40.5845 30.4827004587
19.6975 30.0787 45.6581 34.0045495954
10.0446 27.3918 38.7813 29.8665301884
15.1814 24.4277 38.9908 27.0171660611
19.5733 32.2944 38.7238 28.7200357279
15.1227 17.1696 51.5068 30.870321308
10.7665 22.8397 50.7483 25.5150019205
15.5625 18.737 48.9838 29.7851625371
11.6017 31.1638 48.5212 28.7325108884
11.7323 32.4053 50.9041 28.3967260908
13.9327 20.6914 47.7627 31.5327033761
17.0986 20.8079 50.3603 26.4126787605
12.8862 20.9893 50.4459 29.9156228524
13.215 31.7479 53.5513 30.5133694918
12.4852 27.7641 55.2188 28.0375551854
18.146 21.5679 52.9608 31.9098668065
15.1034 30.3346 55.2848 28.3705005387
14.9567 22.5915 51.1125 30.0448247089
12.1638 25.3713 48.5341 29.1250524583
15.2109 24.9455 49.4274 32.257069561
17.9099 23.9774 50.929 32.2494250562
15.3405 25.6324 55.5999 26.9892870445
13.7408 29.4138 49.0368 26.9036356941
17.5147 26.8146 53.6426 29.0243262179
16.0651 27.7507 49.2744 30.9450177997
17.7605 28.6245 51.3989 32.2330961757
10.1854 27.424 50.4848 29.7334518242
12.4405 18.609 51.8753 35.6166462769
10.9899 18.1063 49.4174 29.892247456
14.8517 28.0045 54.101 28.4048168735
13.9234 19.0682 55.7542 30.8321628693
11.4158 18.7258 54.3305 29.3937006752
13.0132 27.9272 51.643 30.4017287225
17.8365 17.7622 52.651 30.0807086742
17.4777 31.3006 56.0455 29.6477784083
11.3381 29.3213 53.1638 25.8231958135
18.4195 31.4517 51.3243 31.0221653274
18.514 22.2779 48.658 26.2680441748
15.8889 21.382 55.0736 35.5890464886
15.5932 17.0736 54.7653 32.1417749209
18.7176 18.5664 49.9975 26.8037527357
12.6009 25.0197 51.6548 30.1999531061
11.8206 24.6678 54.5579 30.6015341313
19.0717 24.3614 54.08 30.3127660995
14.4379 23.5673 54.1447 31.3044776486
10.1303 22.6689 53.4432 31.1236908937
14.9983 31.9471 50.5381 30.9805544698
16.2444 32.2401 53.0162 29.012347438
10.7671 16.3727 55.1721 32.3419047912
17.1252 32.1784 48.5914 30.8704691455
12.9821 34.2805 4.47664 34.3437662869
10.9433 35.2732 6.05523 33.8140552798
11.8372 34.7031 8.71489 33.5750920942
12.7239 48.0362 6.10488 34.8806668462
18.843 47.0045 6.616 35.7556873521
19.2776 42.1391 10.8481 30.4702447338
17.7652 37.8102 12.3618 28.7176181989
11.5009 32.673 11.2103 29.1575904239
18.8856 32.8313 11.6587 28.1347511036
16.2858 34.1092 11.456 27.8487618432
15.7936 38.281 6.19267 33.4428000472
16.2961 39.7021 9.04581 30.0142035561
11.5213 44.7161 9.25799 25.277917904
10.2181 37.9626 5.15609 39.5212080365
10.3803 39.5278 7.55771 32.042504863
12.1954 43.5153 5.74244 29.5418296573
16.1997 46.3029 11.6253 30.5405653517
17.5302 42.7915 7.01435 29.2556610369
9.9294 47.1225 10.5881 27.611891654
18.4776 38.0981 6.46653 27.1667239524
15.828 43.8773 8.48274 27.2359695071
16.0987 46.3712 6.21505 30.9344218002
13.439 43.4471 7.9912 26.015303914
16.46 40.9913 5.03003 32.6378966358
13.9361 32.5887 8.14988 30.2287277655
16.8195 33.8569 8.63802 31.6903660284
18.9658 35.7452 7.95387 33.716170372
14.6494 36.5461 4.10579 33.9927793913
18.9021 40.789 8.2089 28.433688585
11.4557 46.0361 4.86926 33.8542310159
16.8125 43.2615 11.1535 29.8729620895
12.5686 47.347 8.88303 29.684230788
16.3168 36.9631 9.701 29.8696037215
13.3175 38.3265 7.88393 33.9147519215
14.7698 41.0239 10.8953 31.5696813841
12.9573 36.6909 10.0833 31.5118978535
13.0624 40.8592 8.68412 28.1517615898
10.8484 41.0604 10.4781 31.2014980118
11.0738 38.3197 11.6161 33.1594463539
19.0768 36.5208 4.25555 30.7936018939
9.78086 42.1489 6.21874 36.0155493477
15.1285 46.5208 8.99743 29.7113845624
14.2222 42.5664 4.16266 33.6124239432
17.4471 33.1156 5.12026 28.270572478
11.9004 43.654 11.6586 27.1138742539
15.3489 44.8164 3.81021 31.535309985
19.0074 47.2572 3.80176 28.923919289
11.663 48.0054 12.4117 24.0898378028
14.4065 48.1683 14.7194 30.5193605213
17.7602 42.2899 17.4708 31.4790202698
18.4241 35.5618 14.2105 32.5658386685
17.361 44.706 16.3219 29.6892905887
18.5698 34.2488 18.551 30.7070453736
13.5904 32.7878 14.2383 28.8706260537
11.4108 37.2813 14.2704 29.1177276948
13.6247 39.5875 17.2787 34.5609608544
10.4649 40.4069 20.8019 29.8029139218
14.6785 36.7333 17.149 36.017449899
17.2053 48.0543 15.5257 31.764121947
12.4775 42.2422 14.1422 31.0783840991
18.6711 47.9594 12.6911 34.0644893419
16.2311 42.896 13.7927 29.7477422948
14.1109 44.6019 17.5918 30.0095368729
15.1526 42.0768 18.1238 32.2904560547
10.0026 37.8055 16.5902 30.7716849278
18.1572 46.6685 18.0021 30.5522953933
17.6642 40.6244 15.1245 31.2045266074
15.0803 41.9938 20.9558 28.6563346655
11.4563 40.9014 18.1973 30.7236597935
11.2498 45.6815 14.879 27.6381226184
11.3569 44.1641 18.2524 33.0905347634
14.1772 44.5443 14.7631 26.0337742947
11.1858 48.4686 15.7104 29.1023281625
13.6527 35.4133 14.6875 30.3558744321
16.7301 33.1696 14.4205 30.214023296
18.8033 45.3726 20.9498 27.0835643864
10.9302 32.8345 15.4761 31.6502315753
14.7949 35.3632 19.7274 30.4890586084
17.9483 36.3998 16.8437 36.5784795223
18.9799 39.0451 17.3549 34.1053354229
11.0636 33.9083 18.0489 31.7318940292
19.0391 42.6824 20.1165 34.4041532998
11.8166 36.8478 18.2962 30.0180278826
16.6972 37.1137 21.1275 30.1687422345
15.2302 46.8692 18.8564 28.6467812085
11.7055 45.1989 20.8829 31.5762436589
18.2615 45.3765 13.923 29.8725970286
13.4936 48.6701 17.4406 32.8599337287
18.2248 39.269 20.0898 31.1056458409
15.7114 39.4338 13.2924 29.6688824551
13.215 39.6051 14.5183 30.9165241787
19.5907 40.2631 12.8091 31.0381914438
10.0545 34.8015 20.973 27.1452194876
10.3996 34.8441 13.2086 29.3142890296
18.7033 48.4227 20.6873 28.9732191793
10.1206 42.6842 15.398 28.7248304351
11.0004 37.6955 21.056 27.6838775273
14.799 36.5223 12.4911 29.9892657547
13.7391 46.0015 12.6443 26.4345872537
19.3574 45.3724 23.7682 48.533740125
16.0322 36.7779 24.0607 45.114945388
13.2129 36.7549 21.8933 25.996384967
12.5 34.0288 24.1461 59.2720273546
18.1202 34.9135 24.3827 82.8691211798
15.7547 48.758 24.5289 105.9748803079
12.4594 39.5289 24.4636 76.3536580234
13.299 36.6883 24.6754 103.7354014278
17.1671 39.4393 24.5522 101.8599960217
14.6968 39.124 22.3988 30.4178666903
14.3855 46.2063 24.247 55.2095886714
11.5998 45.8512 24.5276 90.7051221981
18.6997 42.7993 24.3602 80.1342985309
16.0415 43.8693 24.4234 74.65767288
14.4111 41.9288 24.4035 65.207413521
17.3777 41.1287 22.1451 26.814553177
16.1188 44.6147 21.6802 31.0585980833
12.3545 42.4451 21.6942 29.9408954657
11.7168 43.0072 24.3468 79.2228642443
18.4315 48.2576 23.5258 41.8690317305
18.1918 34.6969 21.5254 27.4730392871
14.0455 46.7368 21.3228 27.7979101578
12.9696 33.7188 21.4421 32.2678270166
11.5177 45.1422 35.7551 78.9641334857
17.3846 36.4436 35.9981 77.2125168797
13.3036 40.3227 38.3718 28.8076589075
10.9453 37.9952 36.2636 39.3123148186
18.9652 40.43 36.2812 58.2831138907
18.3648 43.0188 35.5358 116.4248440445
14.7971 35.599 35.8679 71.8092880074
16.6707 39.2454 36.693 36.3643231304
15.8674 44.0039 36.1472 53.7794749486
12.1936 42.5116 35.9687 60.6803253868
11.6729 48.5211 35.7072 79.0078750658
14.3748 32.8902 36.1675 52.4810986867
14.8451 41.5088 36.0258 65.2302055529
19.2781 41.0934 38.7523 29.2120666678
13.1828 47.0681 38.3381 27.8169908426
11.7262 34.8182 36.4187 53.9820158489
18.6636 35.1239 38.8333 30.9228947567
13.6015 38.1716 35.6133 102.3775766746
14.3402 46.6179 35.7561 85.0647521598
13.8283 33.4974 38.92 27.0367209584
11.8717 42.5249 38.6102 27.8198746852
10.7945 48.7696 38.786 26.6422381537
11.7837 36.9457 44.5899 33.7781132731
13.7515 36.5628 42.6535 29.0655961538
10.8597 47.5274 45.9112 33.5242830773
16.6333 37.9337 40.6225 26.9570558478
11.9582 45.1793 44.8647 36.5810696813
11.3173 34.6929 39.5718 24.6421132202
14.5931 41.8711 46.7061 32.5706364836
12.1498 45.628 42.0741 31.8691558814
14.0532 39.5726 41.7077 32.8913812907
17.3129 42.5303 40.3305 33.6781622426
18.7269 39.9468 43.358 33.4064564373
18.2842 46.7296 39.84 39.7280671173
19.1552 38.7545 40.4183 25.9733074707
19.1765 42.7967 44.7636 30.9231433527
16.7755 42.4339 43.0874 34.4596728415
9.98946 43.9882 40.5763 29.3261402278
15.9946 40.3735 39.3043 27.775642518
10.0708 43.3496 45.6181 31.1747113541
15.5367 35.9929 38.7941 29.3627051704
11.0932 39.4641 41.4813 28.4573554857
17.3373 43.608 46.8459 29.3706005281
19.2978 48.3739 45.1472 28.9630605232
15.535 48.6277 46.7084 29.1891031257
17.2127 45.3346 42.392 29.7222017113
15.9455 48.2818 44.0592 29.1336083426
10.2749 40.9749 44.0339 32.7002953635
17.5491 34.3273 45.0084 33.3913717245
18.2012 37.8811 46.5261 28.3376576341
12.9792 48.814 47.4026 31.7497123212
17.8448 46.1558 44.7152 26.6866525511
16.6615 35.9769 42.9895 25.2049086616
13.1711 33.909 41.9721 31.7603397281
15.3406 33.6411 46.674 32.6615934918
13.8173 44.4808 47.021 33.905610116
14.9562 40.5887 44.1854 33.2424783983
13.2493 44.6355 39.6817 31.6989971048
16.9292 38.1729 44.3228 30.4189182369
10.9592 48.1249 41.5295 31.586244137
12.3204 39.508 45.2447 29.6665712796
19.3853 36.0531 41.7299 30.1879115291
14.796 46.7437 41.9664 30.8805038451
12.8323 36.9405 40.0246 28.6837726472
15.8654 33.745 41.2198 28.3223534019
19.4431 40.0913 47.701 28.93104316
15.9613 44.5855 38.9242 33.669206073
10.4397 38.9466 38.852 27.4278902316
16.3349 34.9003 53.6399 31.8393064185
19.2487 48.22 48.1881 34.7353530096
17.575 45.1192 50.6653 30.1751651405
13.9303 34.7361 50.7524 29.2114625426
12.0064 38.1865 53.8359 32.1367905142
16.2418 37.3881 48.2328 33.6890330124
19.3412 45.3954 48.1169 32.1700309471
12.0515 39.7808 47.7574 27.805611296
13.0396 41.2908 50.4958 28.7862244342
14.7889 48.5653 50.7892 29.9095361543
17.6007 41.546 48.9117 31.385293997
12.6504 43.9515 49.6138 28.7126135061
14.9808 41.5298 52.5941 32.3317750534
10.4704 40.8694 51.6141 28.6554024874
16.1652 48.4053 53.3531 28.0966038934
10.1257 43.4005 48.4107 28.1407238492
11.6751 37.8477 50.9375 28.8970744116
14.2035 35.486 48.3986 31.1508739061
19.2293 34.3812 48.9517 33.9149884918
11.666 33.5061 55.0201 33.6088898003
19.5164 38.237 54.8632 34.7764724192
10.7695 35.2779 51.3357 29.1499346528
14.3936 37.7895 54.7172 33.0308287103
12.1002 48.459 50.4176 27.9776233863
10.5788 40.5955 54.3955 30.9130820905
16.7161 39.4305 53.6813 33.4451842882
14.6787 36.818 52.1136 27.6815936465
18.5212 46.9298 52.3117 28.0084414425
16.8467 37.8479 51.0412 31.3980528101
17.1523 45.9332 54.8032 28.1961721247
18.7444 43.2445 54.5195 31.5968253458
14.8584 44.5014 52.966 30.7719285506
11.233 45.9864 51.0743 27.4370779332
10.2586 35.7444 54.0566 35.9237950057
12.8667 42.224 54.759 31.4634142767
13.3761 48.5873 54.6868 32.8708455819
11.7684 44.4774 53.504 26.4126687895
14.8344 45.7012 50.425 28.0749387184
19.3461 36.4717 50.7647 33.3521379397
17.7503 42.3967 51.5706 30.7019058901
13.0443 46.0078 55.3087 28.3312615586
18.8822 35.8255 53.6416 29.4510567403
16.0828 46.1604 47.797 28.0887384257
18.2086 40.8585 55.9517 30.3273280422
14.9817 40.0454 48.9154 30.9002992045
16.8713 35.1237 56.3592 28.4987073078
11.9101 36.9274 47.6175 31.9122501451
25.6646 0.267208 5.94174 36.7486974193
28.0485 15.7474 10.5719 27.5670634571
21.8843 2.48861 4.92088 38.3578325619
27.1178 2.34868 7.54994 34.167442662
27.7917 12.9653 5.28184 31.3764206917
28.6121 2.53118 11.8505 30.5778376876
24.5024 3.55837 10.7221 30.8790505554
27.6421 15.2502 6.95715 28.6901894037
23.4888 10.6665 8.83774 34.531478479
21.5911 5.07684 4.51701 27.9235857826
21.4817 9.91154 10.5251 33.094231732
24.7336 1.3804 8.72317 31.4132196648
25.2186 8.12756 5.45346 34.287580382
20.7871 6.35244 6.79782 34.215702191
29.1067 1.01815 9.12962 31.7968626218
24.2243 10.7081 4.51099 28.6248561684
24.3996 15.4042 6.31332 27.8242862192
25.2477 6.44234 7.69104 31.9664287879
27.9806 10.2938 8.85538 32.9198975812
28.7894 10.6418 6.24633 30.3298205063
22.217 11.5188 6.42461 29.2301512619
25.7209 15.2757 8.86496 29.2324216369
23.1117 7.79875 11.3465 31.6691101612
25.0745 13.171 4.88309 30.9145928388
20.9456 8.97556 6.02352 31.0373009288
20.5597 12.6594 4.05903 27.3830908379
20.8064 6.08727 10.9713 29.4878704204
23.9991 6.10327 3.64944 35.0152308851
26.8701 4.68337 10.919 30.7118087852
22.3512 2.77548 7.72906 32.5657650347
22.2591 2.65089 12.2676 29.6814066128
27.5541 5.33604 8.05506 31.9348527503
22.9958 5.37243 8.83382 30.1363988011
25.7561 8.476 9.35313 29.7887521892
27.979 8.46803 4.69581 32.9071249388
20.7234 1.93645 9.5542 28.1102024421
27.3513 12.3428 10.698 27.8362191208
24.7623 12.7385 10.0381 33.4408791475
28.9153 4.08417 5.54233 33.4812895802
21.9977 14.297 7.17416 28.9799150275
21.0901 15.6894 9.29929 29.4127986477
19.9259 15.0521 5.58574 26.8748518723
23.3747 14.1692 12.1878 30.6805790534
26.51 7.68095 11.7485 26.9080585111
28.0961 -0.113026 13.1676 30.8378428992
20.9895 6.75458 20.8516 28.7527050432
19.5575 5.51365 15.3431 32.4798099995
26.8958 10.8558 12.9438 30.0752522692
27.7017 7.20304 16.0111 31.403545407
28.8631 3.13626 14.6146 28.411993743
24.2231 1.85998 14.2474 28.3830169351
28.4943 8.92497 20.3975 30.4526880097
26.4329 9.28142 17.797 30.6619098776
21.1041 14.1937 19.2093 30.3727882966
21.8524 5.25861 13.6284 32.7374596306
27.7842 14.8056 13.2856 31.9957975502
21.8155 10.3862 13.4894 31.5730098186
23.684 5.51442 15.7592 28.8523244355
28.5256 13.1207 18.5095 28.4556743504
21.5906 13.2541 13.6589 29.0355137327
20.355 8.44062 16.7535 33.345596596
22.8997 11.8063 17.5022 29.6466929767
25.4542 13.1826 13.8455 28.8453596538
26.2055 14.8202 18.5085 30.0975861161
21.6313 14.6688 16.2832 29.8070757693
27.4372 0.224799 18.0776 35.3401072094
24.5858 13.9161 16.47 26.2007194605
24.4154 9.25741 13.8758 30.6028172037
26.7723 11.8368 16.6401 31.0847848735
26.3972 2.5062 16.6541 27.8756642641
23.6711 3.12274 17.3094 28.6208126743
24.701 5.51116 19.853 29.4170699206
25.2601 8.36143 20.3495 28.7756668533
25.8554 3.99086 13.6868 28.7196565366
25.6646 6.80033 14.3095 26.2683263208
26.7918 1.27027 20.6622 28.3127056923
22.5535 11.4702 20.3855 32.3169644315
22.7504 6.57079 17.9502 28.2201772173
20.5367 2.50339 18.1781 31.3303349911
26.8882 3.90071 19.5799 29.2864632139
21.8777 1.24746 15.7487 29.6253993331
20.48 11.5298 16.1544 28.8131530298
23.8316 9.28183 16.7783 30.5849093292
24.1176 0.624876 18.9873 28.1876464412
21.7243 0.071564 20.4061 24.3221424945
29.1131 11.299 14.7107 27.4159692045
28.4067 4.54607 17.1707 30.7753993624
19.9468 5.51026 18.1605 27.3209618807
29.4454 15.544 20.8351 28.380007844
29.2735 7.82902 12.4671 28.5764591019
25.1976 11.1585 21.5453 30.7265590815
25.3027 2.53269 24.1683 67.20284387
27.4957 12.5396 21.6134 27.3517310656
28.6763 4.92623 21.5168 28.9703831059
20.1715 4.66775 24.3798 68.8225804046
22.4042 8.92824 24.1868 49.7520675758
28.4966 1.28234 24.3087 77.6049670232
22.8452 4.47819 24.3928 66.1253958191
28.0925 4.15584 24.0279 61.9362029468
24.1011 6.79162 24.6199 93.8566788282
20.2378 1.16695 23.839 53.9178918845
23.5903 11.3213 24.3745 91.2134642456
26.2231 6.29954 22.5729 29.9036823078
19.8753 7.60107 24.8067 113.5149521624
27.3615 8.17273 24.396 79.3111893114
26.2053 10.7648 24.3772 70.9273382405
22.7686 14.2177 23.9662 70.2658821591
28.065 13.1001 24.3534 89.9550878344
27.4072 16.1025 24.0384 68.5875952904
22.5425 4.45999 21.5678 27.1786805092
20.5557 2.48977 21.2941 27.5062905183
23.4826 14.3687 21.3245 30.3223114158
26.3348 15.2637 21.4101 27.4435164348
29.6204 1.82644 21.8535 28.5247424184
24.1762 2.20024 21.6645 28.2281102611
19.864 14.5199 24.2718 94.3203031533
22.8097 0.217496 24.2759 84.4355938318
22.7358 8.72329 21.5448 29.8887926739
23.2271 5.37867 35.7858 76.795549141
20.8738 3.97051 36.4347 32.7709940923
25.2018 3.63365 35.9305 46.4764345111
22.7134 14.1656 38.8061 28.1045822946
19.8115 6.42299 38.3254 30.602863512
28.0768 0.961846 35.9687 59.2544307859
23.2392 1.35565 37.9421 26.8840374756
24.176 8.04402 36.252 45.4464561943
21.2434 8.73064 36.4837 43.8215990882
27.5357 4.83618 35.7741 67.3255851133
27.1378 7.46707 35.5929 85.1053154411
28.0771 14.7249 35.8653 77.6471483149
22.451 2.00916 35.2444 109.5338816172
20.3373 11.3374 36.1471 69.4531176353
23.6117 10.3536 38.2207 27.2287488437
23.3225 12.1215 35.941 79.7498360418
25.8955 10.4158 35.7174 89.5016863248
28.2674 11.8909 36.3881 39.2204424492
23.6051 14.7992 36.0998 48.6144223548
21.2084 15.9838 35.8291 73.4180172732
26.5129 9.15629 38.5598 26.4228716908
25.3744 0.807189 35.7597 73.7997103986
27.3913 15.7837 38.5221 28.2821470493
29.4486 4.68153 38.2773 26.4008218989
20.9711 12.2883 38.6801 25.7949757297
27.8014 2.04904 38.6418 28.3900169444
28.7442 7.605 38.6488 30.1850395543
24.1427 3.85758 38.6395 26.6694310586
25.8341 16.3571 35.5807 93.9671464996
20.2233 0.386697 35.829 80.1790708587
24.2367 3.55786 43.5364 30.7234359603
21.914 11.1139 43.1909 26.7766693368
26.0313 5.18377 42.1613 32.2670841969
20.0057 4.08031 46.7558 32.3427119525
27.3241 12.0392 43.0431 29.0539419709
28.9717 9.31014 43.8925 29.1089647799
22.0699 7.00976 42.1611 34.6902528281
24.7384 7.37987 45.1215 31.0312785087
28.7854 5.72057 41.981 30.9637015163
26.0288 10.037 41.3867 26.7098424083
24.2975 7.03596 38.89 29.1460972091
24.7762 7.56596 42.3297 28.5973616153
21.3886 4.07877 39.3997 28.8275413099
28.819 8.35407 41.5038 30.0468339974
20.7649 10.4734 40.7539 30.1958125385
24.7619 10.4671 44.4075 26.6141604975
26.5508 4.6109 39.3698 28.7194166578
20.7619 13.6471 42.9006 29.253652091
25.4869 14.0795 39.3428 27.2557735967
23.7251 1.08497 42.4396 28.9033251036
22.4136 7.89974 46.7747 31.2030785079
21.3886 15.1874 47.0217 31.1955184355
22.3557 16.0259 43.3365 27.3374985896
26.9163 14.7889 42.082 28.9923270907
24.1795 13.6852 43.2094 27.4728323997
25.5117 0.853049 40.0645 29.860014618
20.7602 11.188 46.2158 25.7024089012
27.0989 8.84473 45.8951 33.1031922057
24.9998 5.48355 47.2858 31.4933736674
26.8448 11.7615 45.9805 26.5662236313
27.3124 2.08962 44.1913 32.654142622
23.3764 11.5617 46.5919 26.4221322
22.6527 2.82184 46.0249 32.6361876662
20.8276 8.53263 44.4309 33.2899931882
21.7693 7.99529 39.3862 27.1857306311
24.7913 13.847 46.3246 27.9911427304
21.6313 4.13606 42.4812 29.92774253
23.8481 11.7854 41.0592 27.6605412481
20.6728 1.34042 42.5414 25.4957220554
27.3795 12.0715 38.9354 28.9952297521
27.0133 3.04266 46.6975 35.0661393852
20.0266 1.95072 40.0274 29.6037412274
24.2595 16.261 41.1568 29.5313982737
22.2321 0.239748 45.0824 32.0810030609
28.7031 13.8337 47.4721 29.5120500662
21.8703 9.38094 48.9141 28.6069130089
26.5069 6.43259 53.3531 30.7433419579
20.4018 8.65259 56.303 28.4949421559
25.0131 3.05295 50.944 28.8835450343
28.8384 15.0084 53.1288 32.3288610458
26.1615 0.270078 52.2809 28.1577743768
26.599 1.5326 49.0983 28.1958291052
22.0214 15.1827 49.6796 29.071570321
25.0507 8.02998 51.4108 33.1181316227
26.4021 6.18861 49.3874 32.0751263705
22.4017 10.8475 55.1733 25.7630863467
23.4114 0.504933 51.3594 26.4652519091
27.6639 4.58333 51.5371 28.760106518
24.422 10.9554 48.9485 29.5697062453
23.086 12.1742 51.2421 28.0088338065
29.5354 9.08602 52.2911 30.92583084
27.3664 11.154 49.0635 28.8212825313
23.324 3.2499 48.7036 28.4406205227
27.6794 3.31165 55.8384 33.8544279943
22.738 9.3229 52.0791 27.4247949043
26.9517 13.5678 50.9127 32.8010295363
21.1751 1.36005 49.5261 32.8357064223
21.0109 6.90386 50.6513 28.3856138839
25.0296 14.9371 55.3391 30.3128266921
21.8445 5.69853 48.3151 30.4322904641
23.3469 3.12649 53.3986 27.2279938739
21.9052 5.47721 53.0209 31.4240912719
27.7954 15.9323 49.2626 28.9218521287
28.2065 2.20108 53.08 29.4662644181
24.5751 14.001 49.2434 30.8772397794
25.1719 4.43956 54.8612 31.4418614042
21.2706 14.6976 55.0904 28.609319984
28.7157 12.6011 55.2292 33.8944125446
26.4339 12.7804 53.4752 27.1699951175
23.2689 13.118 53.85 29.2650247006
22.5599 7.71888 54.5398 29.5259342823
20.1451 12.9001 50.4337 28.9645570589
26.9812 10.1046 51.8914 29.8419131105
27.876 8.33611 54.7471 30.7669410168
20.5293 11.3377 52.836 28.4320817979
28.3769 7.67347 48.2888 29.7479050351
25.7725 10.3095 54.8688 32.0564484574
22.5806 1.27038 55.0889 31.0331336359
20.4631 1.24644 52.8926 29.3621992026
26.9866 0.532627 56.4951 28.8872065052
23.8193 17.9562 5.56518 30.1486415322
26.4607 27.0952 9.73605 31.7290700741
23.8925 19.4064 7.98121 32.4649519641
27.7651 21.6372 6.3552 32.6123427791
26.3947 18.6063 4.60019 30.2261434747
22.1273 21.5024 8.7939 30.7706571477
20.709 28.2838 5.28925 33.7307068864
28.3571 28.4722 11.7369 32.6263347286
27.698 25.3456 4.26747 36.6753978588
21.5088 27.1019 9.49509 28.7761056892
24.8484 30.8244 9.91154 29.5445844284
22.4345 23.8874 7.97945 32.3246977527
26.3306 20.3438 8.46265 28.9799743225
24.2024 30.9043 5.28806 31.0462833029
21.2692 17.2447 4.27163 29.7150728954
29.2442 24.214 6.71704 31.9305784721
25.3199 26.3231 5.41543 36.7001335963
23.3947 23.7348 12.0971 29.200167854
28.1226 29.4135 5.1701 29.0110955327
21.7953 30.7293 6.12219 32.5844856778
25.8628 30.6301 7.35183 32.2474497204
26.9978 27.9496 7.18761 28.5874823895
28.357 18.147 6.70796 31.0004413351
28.6029 21.7403 11.1511 30.0626491383
22.6914 32.3687 10.5432 29.9388775425
23.5636 17.1574 9.28439 30.1134382226
26.4907 31.3676 12.3216 32.022477271
21.7138 21.5044 11.6075 33.128798495
26.5582 21.1571 3.95121 30.4172389798
25.6794 22.4306 10.0765 31.2516345411
22.2287 29.8113 8.74034 31.0551220939
28.6303 32.2521 5.12425 30.8468532328
27.8716 18.6251 10.1275 28.3682772857
24.2833 28.5847 11.6648 28.2881447699
23.7698 25.6597 10.0173 32.5722444931
27.6399 24.4396 9.10809 32.396187636
23.3747 24.184 5.32926 36.5490857905
20.0569 31.4079 9.38964 30.7045855383
29.5561 26.9889 7.69392 29.1952463649
20.425 17.592 7.26136 28.9191512734
20.6976 24.3822 4.23123 29.6288995676
21.3846 28.6598 11.9902 28.9471500911
23.1983 17.1579 12.0176 28.2600482181
19.7551 26.6029 7.44359 31.921093161
20.2404 16.8256 12.3495 31.4432478078
23.9828 28.4775 3.9712 30.7442064276
28.4091 18.6563 15.0971 26.9823560985
21.5903 31.3718 12.9724 26.611241507
29.1213 19.2145 19.6654 31.6504498627
28.03 17.1063 18.2549 27.2012984039
25.0543 25.0297 17.3322 32.5564813141
22.0819 19.5769 16.1914 33.5554849535
25.5034 16.8615 13.4493 28.7147341975
26.5392 19.2457 16.934 35.5821293034
25.9067 22.4844 14.6826 30.0595252398
19.7585 17.544 21.0002 30.3216927546
24.2541 27.2634 18.9474 36.1090889828
28.765 27.3233 17.2759 28.7669035413
27.5024 29.0622 15.432 28.6274608864
26.4956 29.071 20.0276 26.2141231288
24.2282 22.8597 19.0249 33.6281346574
28.6141 25.4384 13.6473 30.180724665
28.4606 23.3665 15.3744 29.1572385643
21.8755 29.8107 17.1989 28.2576217142
24.4098 29.052 16.0219 29.6107341255
24.2304 30.9658 13.8196 26.7839726433
22.356 31.4216 19.1869 30.1050173628
29.212 30.5103 13.8208 29.6801045483
22.9467 27.2874 14.38 28.1667792855
23.0164 17.0255 17.1467 31.0888484189
20.4558 17.1866 15.1709 30.96107497
26.4495 26.9896 13.7317 29.0948095067
22.5256 16.8179 19.9822 31.0235913379
20.3717 21.8443 16.3355 35.3163288356
25.6015 16.6363 16.095 27.118660195
24.6376 24.9923 14.4384 29.2473482834
29.2807 31.7382 18.2354 27.0978615928
27.8994 24.5332 17.723 30.3831678678
22.0247 23.6516 20.3411 27.5600247632
20.8471 24.2031 17.7532 34.5689754395
19.6661 28.9945 19.3792 32.4530379955
24.4517 21.0803 16.6091 34.7342295784
27.4205 23.2296 20.1889 32.5937753839
26.8668 30.5402 17.91 29.0883549842
20.0311 31.251 15.6535 29.3414089131
20.7017 27.1094 16.2821 33.7513418484
25.4076 21.0535 12.4188 28.5750967969
21.1317 24.8527 13.3517 30.1297748488
28.1336 26.9646 20.3181 25.2234952437
22.9395 19.5162 13.3181 32.9725696965
24.3885 31.2643 21.1254 31.0725561172
29.4503 32.5646 15.3658 30.9398320353
24.9767 17.9872 21.2122 32.1632219554
20.1135 31.2932 20.8663 30.1226953691
27.1522 18.897 12.7124 27.1467676269
22.5514 19.5243 21.9272 31.3764970493
24.5212 19.8479 24.4863 95.7511385132
27.1636 18.8789 24.2692 78.8225121207
28.7757 29.7708 24.6225 93.4535684656
23.6792 25.0662 21.9787 26.1076293416
22.2565 24.6538 24.2604 77.2691665637
20.8229 21.6307 21.562 31.5211701769
25.0471 23.2504 24.6314 114.4347291609
26.5267 28.0023 24.3802 80.4039302505
21.1689 17.6799 24.0065 62.5932594024
27.3522 25.0189 24.2299 78.3126050036
20.7461 27.2153 24.2175 69.1261289269
23.3734 27.825 21.8148 28.4158056339
27.11 19.989 21.6996 32.3918748944
23.9896 29.2543 24.1415 76.8540875728
19.8862 22.8444 24.1623 62.3331759446
21.024 30.1017 23.181 29.5389757868
29.3589 27.2808 23.0728 28.1749433204
24.5762 32.278 24.0659 76.6572630347
27.5452 32.2419 24.314 77.4454198495
24.1612 16.9753 23.7677 49.9678043975
26.5684 25.4879 21.7188 26.6394260424
24.9199 21.7588 21.9554 30.5428754487
27.6498 30.6642 21.7513 28.6925339755
20.8117 26.8938 21.366 30.2076547385
20.8747 27.9388 36.1152 63.8244033939
24.0349 21.6711 36.312 55.8129070361
25.4827 23.46 38.1983 26.6560925582
20.4445 26.4968 38.5235 28.0921544171
21.6849 30.601 35.944 68.0797773231
25.0034 31.1688 38.5384 28.2709236557
28.0163 20.4207 36.1484 68.2538946421
28.6252 27.2917 36.1835 35.1061580847
29.5125 28.1457 38.6918 25.8888894205
19.9852 23.0527 35.8098 85.6591464581
25.3412 19.0196 35.6506 78.8771168923
22.6009 24.0088 35.9609 69.9421276626
26.5439 25.6917 35.8157 93.7231371615
28.0846 23.3017 36.5919 39.1827831363
23.3354 26.6337 35.9006 71.1508300738
23.0314 18.9839 38.311 28.0772432934
24.5867 29.3307 36.035 53.9685258554
22.3076 18.5664 35.5906 86.4653834453
20.0748 20.3574 35.9231 53.5347442485
27.2607 29.7235 35.3316 107.6312112058
26.0914 18.2981 38.3779 28.855775078
25.0508 26.3692 38.5125 31.3798368486
22.6993 24.4024 38.95 28.1659049329
21.9613 30.7899 38.6175 29.7380564801
20.1082 20.765 38.5158 29.9444139113
20.2349 17.2978 43.8242 29.6416400407
21.2452 20.6205 46.2356 31.6247908117
26.6956 31.4692 44.9675 30.5864678108
25.5989 19.0286 41.2006 30.8385764857
26.155 16.7139 44.1567 30.004792412
21.5602 16.9586 39.5302 29.3094608839
23.4171 21.0844 42.2336 35.6894014148
23.2267 23.5809 43.2326 30.0440811039
28.9519 26.4315 40.4448 31.1804780411
29.3842 16.4426 42.8431 27.125648799
26.0003 22.0779 40.4342 27.3506444472
23.2011 27.3315 41.2217 31.2318086205
26.3679 26.7302 41.3531 28.5735016149
25.9716 24.06 42.4517 34.0075377313
27.8324 16.6623 46.2507 31.3119129578
21.7789 24.9546 41.5109 29.9062899793
29.1478 30.0975 45.728 26.0693766062
27.7547 30.8203 41.4616 28.0249625866
28.8743 23.6137 39.6617 33.0437443559
22.8886 21.4816 39.3829 28.2620640588
19.8952 28.2845 43.8815 33.075079223
21.0305 28.5971 40.0564 31.1393093904
26.5545 29.1915 39.6017 31.4272440569
23.9903 31.4907 43.5564 34.8114111917
27.4912 20.3589 45.2068 30.3912864334
24.9362 23.2216 47.0113 28.737117827
22.6161 23.1826 45.7783 27.7353574698
26.7115 24.1738 45.2046 31.5447832922
28.8696 22.6298 45.3525 33.2109447392
23.854 16.357 45.5121 27.3252107627
24.0953 28.6834 43.4247 33.7675377597
23.3842 27.4899 45.9784 37.8383873872
27.3953 26.8756 45.6645 34.5538146574
21.199 25.3971 46.1852 35.5574157241
27.1546 28.9319 43.481 28.7327470638
27.9505 19.0814 42.6405 30.4459134897
20.9039 20.242 43.3715 30.4689747552
23.3767 18.6881 46.9691 36.3116939241
24.4066 31.4868 47.6129 31.7247482244
20.0527 18.8551 40.6678 30.3323026012
22.1988 29.8736 47.4731 32.506224205
25.4612 20.5741 47.0863 31.5913888349
29.2435 18.9904 46.3477 29.6282817132
27.8136 20.5038 39.0762 27.2711858105
26.4649 20.139 49.4473 29.3052109389
29.2901 30.5033 48.5457 26.7408124433
25.8981 17.5772 50.3903 31.2954394607
21.4431 32.1814 51.0692 29.4119797792
20.7643 20.0633 56.1776 34.4454873831
21.1827 20.0037 49.9581 32.0804504693
21.1735 22.9364 48.679 29.6121580071
22.0547 21.2243 52.3422 26.422012019
23.2215 17.112 54.9769 28.4959463283
23.8735 27.2658 53.3246 34.2618561295
27.6826 24.4108 50.3112 29.9357348052
25.7257 27.0752 47.9269 36.7998148589
22.8315 23.6333 51.0279 33.0476953921
27.7305 28.2767 49.4908 28.9830017941
25.1386 24.4299 49.3149 33.8250291666
28.2563 26.5948 51.5064 31.9254315389
22.52 31.0034 53.2282 29.5473929523
21.6395 22.8882 54.7022 29.5761709931
26.7125 31.5201 54.2105 33.060847089
25.9843 30.4784 50.1558 34.9350475912
26.4736 24.0676 54.8107 35.1973792967
26.5842 26.8243 53.9402 33.0725771635
21.7625 26.8956 55.8959 28.901956313
29.0531 20.0181 48.9162 29.2490143809
21.6277 29.5142 50.0765 32.8158014231
27.1404 18.156 52.898 30.7720366784
24.3442 19.8558 52.4472 26.991165999
19.7436 28.1281 54.4515 29.2603663091
21.9188 17.239 52.5686 29.7992726207
27.7893 31.9826 51.6031 31.5013315815
26.3148 29.2006 55.8207 28.8173598444
23.1625 17.809 50.194 28.2676881534
25.5522 22.0436 51.529 30.302845803
28.0297 22.5719 52.6265 28.7285772683
28.0856 20.3381 54.4077 30.2651127205
19.645 25.3167 48.831 34.3008749125
23.7793 29.2975 51.7637 31.7862542058
21.7376 25.5209 52.8167 29.1485067819
19.9428 19.3337 53.5786 30.0181171553
20.257 27.3008 51.0393 32.5142602436
24.4342 22.6895 56.1243 31.1503431238
27.1559 16.6048 55.492 30.2975996936
19.6254 31.0485 54.1326 33.0237189724
23.5716 20.0602 55.1806 29.531516256
29.269 27.8348 55.7853 29.9563695005
21.5231 38.614 8.26885 30.462853705
23.1646 38.4024 5.99054 33.598799601
25.3034 46.6353 5.72952 32.6464207255
27.3185 33.3144 7.59099 33.2148762945
27.8339 47.6292 8.95087 28.3972144375
27.8308 43.5749 11.8243 34.0104302639
24.2618 35.7168 5.33335 34.4406154719
19.9668 32.9282 6.8367 35.6369408976
20.9836 34.6375 11.6279 29.5476435699
20.4763 34.0528 3.9734 35.0617877823
26.1476 39.0854 5.89889 33.2516897825
28.9164 43.2115 4.96747 30.8357378824
26.81 41.811 4.22625 30.9635511507
23.9313 42.7207 10.8552 29.5206609984
21.4593 42.3161 5.84074 26.5223430893
23.3784 33.5044 4.15515 35.2222371037
28.2766 35.3378 5.25712 32.6991496607
24.5266 41.3435 6.9635 31.3514334953
27.6451 46.9507 11.7188 29.1344197613
23.244 45.1139 4.55115 32.4735067073
25.7258 43.555 8.62938 34.9294222268
21.7684 48.2537 9.41271 35.4825736676
21.3851 45.5474 8.56535 39.3108808139
28.6012 39.0508 12.1721 34.3443944725
29.2691 48.0637 3.91894 26.1258565044
25.4294 46.3801 8.29914 28.7248638016
28.2446 46.1888 5.80481 32.4601646896
23.0859 37.3116 10.102 32.0880335075
24.4466 34.7616 10.3995 30.7520392914
27.0467 37.5691 8.19208 32.3629598375
27.1678 34.0552 11.846 34.5737024039
29.1957 33.611 9.7004 34.2447631671
24.465 47.8124 10.2409 30.48594111
25.2931 35.3898 7.99455 33.1234972082
27.1069 39.6126 9.94916 32.4432154651
22.0527 41.4647 8.52638 28.2162721122
24.2325 40.031 10.7033 30.5669953657
23.9588 42.4889 4.05734 28.5592274101
19.8734 44.3024 6.51048 27.5754941558
27.8975 42.1398 9.35796 31.8959503201
21.3987 43.777 10.608 31.2580061993
19.6543 36.8757 10.3001 28.7175908689
20.2747 40.1277 4.83517 28.4812040455
21.5912 38.0704 12.3247 28.7472334155
21.2938 48.6818 12.2233 30.4726437914
24.4936 35.1102 13.4168 29.82454065
21.5294 35.8907 14.2285 28.0533980112
21.138 46.9987 18.5673 33.6956113896
25.8445 37.0059 14.7088 28.6509104911
28.1528 34.9448 14.2772 30.8391219346
22.4577 46.6646 13.8359 31.5452500424
23.7637 40.0735 13.417 26.4562885284
23.2015 37.857 15.4488 29.1528400837
21.4818 39.6374 16.5927 33.7071815856
26.4916 39.6258 14.0576 32.3211219117
22.4473 39.8196 21.2091 29.673315323
21.0637 41.76 14.6993 34.2559437587
20.9017 44.4637 13.542 34.8247215633
23.7798 42.2414 14.723 28.3009639096
21.8229 33.4937 15.4398 26.3219456013
29.2527 36.4426 18.304 31.6668954824
29.208 41.9101 15.6918 34.3372880157
25.229 47.3211 17.2518 28.8863329488
26.6583 45.3955 19.8515 31.4517372176
24.4213 33.1409 15.3688 29.4495488387
24.0228 44.4109 18.7563 34.8720300084
24.8322 42.068 17.2237 29.8899246683
21.489 33.7598 17.96 30.3579687462
29.4245 38.6149 19.972 28.7168871924
26.9612 36.1102 16.9424 27.5348307792
25.6258 33.472 19.8332 26.6288421922
22.6393 47.6642 16.4766 30.2157146615
24.5737 37.3513 18.1938 30.1152806312
23.48 39.9038 18.518 31.4795659951
25.9894 44.5078 15.9115 34.6361310121
23.4942 35.0563 19.2964 28.8356019325
27.1904 40.5194 16.666 36.5476705873
26.6654 38.1239 20.1862 28.7570052686
25.3646 43.9503 13.0626 28.712446229
21.8807 45.2147 20.5559 26.8406823501
26.3126 33.5964 17.1906 27.9860537012
20.6704 35.6707 20.9664 30.8145382377
24.9205 46.7014 12.545 27.010516782
28.4766 44.3481 17.2449 31.805835645
29.3621 42.7178 19.3134 28.646844602
25.6332 48.5665 14.6384 30.5040954962
24.3051 42.8202 21.2613 27.8414586655
27.4017 42.754 21.1766 30.2218778383
21.7097 42.4945 21.0758 27.2715824166
20.0479 38.2595 24.0137 61.1337760024
20.9911 35.5278 23.7429 55.1607751731
25.9911 40.187 21.7368 29.6233998466
27.2258 36.8178 23.91 68.7070934372
26.5093 35.9067 21.6364 28.2713673268
29.3411 45.9978 21.6353 31.0387390245
23.4897 36.0061 21.9731 34.1302899552
24.7046 38.274 23.7066 64.8863987874
28.3267 43.2276 23.733 48.9328004683
29.0374 38.7997 24.3971 88.2829829773
22.3425 39.9328 24.2766 105.1248906421
28.004 33.2443 21.2537 26.3852390215
21.4012 42.3377 23.8811 52.253979524
21.9433 46.0652 24.2174 93.5442528501
26.6066 45.8172 24.2173 83.8071234488
24.1755 44.3104 23.6859 58.5943579234
27.3123 40.8409 24.1996 95.0190303084
26.2377 48.602 24.1902 66.0794837485
25.5028 47.5517 21.3966 30.3433549381
22.7989 47.3739 21.9739 24.9064665795
29.0674 34.4673 23.9731 66.4346853023
21.7681 32.6939 24.3308 102.5063908694
20.1786 38.2684 21.4565 27.6260243558
23.02 35.4036 35.4725 108.7387580087
25.649 35.9283 36.228 38.1478828598
23.3 39.8535 36.4952 44.6795788825
27.1585 39.4217 38.0386 29.6513677788
29.307 37.6654 37.8933 35.7329989192
25.3004 44.4007 35.6722 93.5611579386
28.503 41.797 38.0365 31.4153527214
29.4363 33.3003 38.3754 31.2221189258
25.9942 43.2723 38.3284 30.8521542788
23.1939 42.6705 35.6389 98.8851947138
28.381 35.5527 35.7345 84.1768204322
28.2535 44.1145 35.9573 65.2647854155
24.0704 46.9397 36.2898 48.0633683728
25.9088 38.9546 35.6801 116.9116299481
27.8111 47.8758 38.3644 31.6718808433
20.8712 38.2315 36.4348 52.0247809248
21.3419 46.7393 35.9149 80.4734927073
23.8819 32.8542 35.9673 54.3526711383
20.7972 44.1037 35.9235 53.2059357224
28.7241 46.973 35.7336 97.3386522365
26.6777 32.8379 35.7781 65.4171083629
23.9993 41.318 38.742 27.6290787183
20.2394 35.442 35.7919 70.2025045093
21.3203 42.893 38.3955 29.7832682519
22.8605 34.6492 38.2974 28.2867412113
25.3175 39.1499 39.9664 31.1684255684
20.4992 33.4972 41.2192 28.8627412197
26.7504 33.2361 38.8142 27.9588098249
25.9871 48.8311 43.9682 34.204772811
22.8695 46.9876 41.4377 32.260262366
24.8229 43.4145 45.3455 30.7248670619
26.0468 40.4672 42.2981 29.879608392
21.4149 39.0699 42.1875 32.0596140576
29.036 37.8418 43.202 33.0658938466
19.8128 35.7038 46.636 30.9372254966
20.8151 45.0031 44.3881 28.2840095231
24.2436 47.7481 46.2861 31.2204438497
22.2434 44.561 42.3799 31.3865430988
22.467 42.018 41.087 35.0159799509
21.4612 41.2988 46.0047 32.9245367369
25.6016 44.722 40.7214 29.6224204518
27.765 45.6165 41.8175 28.7149512401
22.7784 36.801 46.4416 28.4834988219
27.2235 34.2097 44.115 30.9256513087
22.3282 38.9926 44.937 30.76506217
21.0957 45.7044 38.8905 33.8555937918
27.553 48.2839 41.5421 28.3328826686
29.2317 45.0329 44.6091 29.0345545525
23.7587 35.799 42.6814 30.3341921406
28.4872 41.0278 42.8662 32.8351017976
23.0774 45.265 46.027 28.8309974417
22.1759 32.5873 45.7771 28.6555826116
28.4091 40.8495 47.0094 29.190187237
21.2873 48.6825 38.9861 29.602127326
23.1801 37.4387 40.3507 29.6138487694
21.5248 34.838 43.8514 28.8029947298
26.2535 37.0861 43.7065 29.8581574037
24.9229 42.8297 42.727 29.8890314458
25.0843 39.2286 44.8515 29.6498395093
24.4453 34.6576 45.8317 26.5981458854
26.6371 45.8444 45.3887 34.9774800867
26.1761 33.0211 41.7929 30.5524505776
25.8259 41.3569 46.6472 27.573325137
19.9669 47.3974 42.261 27.9573787382
26.7021 36.8906 46.5798 30.2238911319
20.7729 37.0218 38.7372 26.6693182739
25.2237 35.5182 39.1182 33.4749139278
29.3341 38.2165 46.181 31.3341144969
23.3669 33.0402 40.7941 29.2315345759
25.0274 47.086 39.1004 29.8663951518
28.786 45.1721 39.1117 28.6936379268
23.6204 35.5112 50.3092 31.5726782185
22.7033 41.302 54.4759 31.4927807792
23.3559 35.262 53.1163 31.5040966681
22.2544 38.9504 55.771 31.044673861
28.5222 34.4099 50.6142 38.1814261635
25.0657 48.7979 54.789 28.2144279044
28.9604 42.2501 49.5183 30.6194272753
23.2174 37.8713 48.9701 34.3774289056
28.287 33.024 47.6892 31.0678235655
26.0627 38.7597 48.7562 31.2391471331
22.1318 42.0647 48.714 30.1432784366
28.2886 33.4118 55.6098 30.5378857792
22.0476 44.6945 48.2878 31.6251214708
24.8015 41.4199 48.942 30.0431161621
24.1908 32.6683 54.2149 30.1224466657
27.0897 39.516 55.6889 31.132990784
