0.17866 6.20315 51.3524 27.9171666806
5.55718 4.31095 48.6914 28.3644023522
9.86011 4.57512 49.1719 30.5106617254
10.6744 2.18822 44.5287 31.3188563791
10.049 8.44108 51.159 29.8773997416
4.81664 11.8897 44.43 29.7665379093
11.6743 6.76264 49.2216 32.6183460092
0.38105 8.76375 50.3042 32.4762663212
4.61733 2.94079 51.3555 28.0891866536
3.59512 10.6554 51.9942 30.8273545432
8.34615 1.86973 46.0422 27.5075419377
3.85043 7.10328 48.2071 29.9311257639
7.48006 8.15193 50.6847 30.0073741759
7.21832 5.31983 51.0783 31.7300266851
2.34025 0.657483 43.7415 29.0492527129
9.64697 4.74443 52.4895 29.8428060755
6.35179 1.94448 44.3249 30.3308479495
9.88924 3.41486 55.6395 31.2605216331
6.04876 8.0836 46.9122 31.3256113674
2.64099 3.6696 53.7312 29.6776368895
10.1661 8.14691 53.969 30.2676971647
2.71835 1.1427 50.5396 29.585470542
3.00085 7.86404 55.0234 33.5732680288
4.96373 6.48167 53.0971 30.0186140925
5.3894 4.08568 54.7373 30.0316347343
0.298548 1.65433 53.9391 29.7693670878
6.3372 1.96101 53.2028 28.8212637884
3.36087 5.89135 51.0252 33.0903056387
10.331 1.89669 48.2585 31.098154734
9.09223 2.27401 53.1411 31.6830575589
6.35374 1.45629 48.5099 31.2923819907
11.8583 10.8985 50.7741 31.7583467072
3.01722 9.47212 49.4613 30.218964324
4.56482 9.14109 44.9002 30.9943654595
8.84914 10.5129 54.8732 27.3803910282
8.59406 0.394506 50.0075 29.2963454753
4.48063 10.995 56.0376 29.7656413402
12.03 0.850611 50.1836 30.4522401497
12.2102 5.00807 51.3933 32.8173946995
11.4954 11.8505 43.5005 28.569238995
9.39741 14.069 8.08919 30.4653753195
8.9695 16.24 5.86577 30.953579499
0.55379 23.1118 11.6265 27.2397796227
7.20379 17.9341 16.34 26.5853250858
5.35654 20.7056 11.435 29.3166601402
2.83582 12.6088 6.31159 28.0668771794
1.39 17.4527 8.27664 28.4345089616
5.29983 13.4363 9.53721 30.0536889075
0.343534 12.4888 16.2591 30.8725175495
2.00086 13.1073 8.7709 32.516281941
9.6474 22.1027 5.95968 31.2438526167
6.53852 14.4491 7.33405 26.2104170495
7.00614 23.1823 5.56838 29.2948004797
2.86734 20.1374 15.2298 26.9847403238
11.552 14.676 5.46963 29.6788837342
6.79435 16.0237 4.01753 27.5817529508
3.59033 21.1269 5.60443 30.0975652309
1.22314 16.1401 5.65213 29.3869999813
2.37855 22.7272 14.233 26.6636645651
9.12595 23.3142 16.231 29.4037560684
4.91196 22.1869 7.7659 26.1534185699
4.42753 23.7175 12.0043 28.1455636015
11.6264 23.2504 11.1995 31.731949305
9.48247 20.7362 11.8575 35.870329284
9.77903 22.6947 8.8943 35.5290513186
4.39419 15.261 5.43218 26.8209553677
3.25072 15.3856 10.1638 28.3446601993
7.3115 21.5299 13.7599 27.2343024013
10.5456 15.0413 10.6088 30.9528068815
0.920913 13.6181 4.57253 28.2939226913
4.81509 18.512 4.62198 28.3420797443
7.48773 14.5815 11.092 28.749990737
9.13422 14.1908 15.8906 28.5139906117
2.53628 19.5132 10.2864 28.9914504088
2.7368 22.2957 9.92732 27.4489094463
1.31172 19.8854 12.7602 26.8200503219
9.57934 18.856 9.39756 33.9461812315
7.43482 16.9294 8.99713 27.821457194
8.45658 19.4105 5.27574 28.8637021603
7.15481 21.176 9.28571 32.0737039458
5.97587 19.076 7.30022 29.6478648191
9.96694 15.798 13.5016 30.1384236922
4.02414 16.8881 7.70516 27.4348830959
9.61915 23.8422 13.432 34.5510388471
1.5885 16.1184 14.8355 29.6460241262
7.8196 20.8131 16.2382 24.8637318912
11.7904 24.4982 4.14204 28.8771749203
4.74234 15.0365 14.0659 28.0071969591
7.07427 13.2174 13.7884 29.2932627238
2.09842 23.89 7.73223 31.3244086596
4.24883 24.4175 16.0308 28.207392812
5.0831 15.7278 16.7313 28.6524113482
3.16952 17.3982 12.7186 27.5169505107
5.34085 17.8226 10.6124 25.8919188989
5.29524 19.2043 14.2144 27.8921111636
6.74041 16.7745 12.7622 26.8463363857
8.73166 18.4148 13.8617 30.9546308425
3.24786 12.4955 14.9011 27.8407376956
7.34043 12.2174 5.55594 33.3428848205
1.66766 14.3654 12.5886 29.1021519469
11.163 12.6154 11.6933 29.7493756505
10.8307 18.8688 6.78345 29.5657648107
0.897337 21.7212 6.28371 29.1717923978
11.9808 17.2711 4.43361 27.6368958925
6.23671 24.1606 14.188 29.8381664424
0.00375359 23.5466 15.1163 31.5124807245
12.1995 15.7458 14.9714 29.4822377017
0.0158942 18.7517 16.4228 33.1219616035
11.8318 21.4806 4.10946 30.9208060852
9.96599 16.7561 16.8399 27.1691265388
0.75917 20.0342 3.82107 31.3407085114
4.88392 15.791 21.6228 28.1755358598
1.93218 16.9166 17.7835 27.3415013453
12.16 18.5993 18.8535 29.7615023357
2.82981 22.7101 21.4349 29.1994918036
2.06464 16.6959 20.8403 25.5428681238
3.76692 18.724 20.3422 28.1169834823
1.13866 14.0543 18.2125 30.3758809996
6.73257 17.1776 19.3206 31.0146765657
5.8596 19.6753 21.7055 27.1354826436
8.76337 13.11 19.5729 26.4889511495
5.26955 12.5309 24.2217 65.7610570346
5.86631 22.489 21.7746 28.7235800267
9.88961 20.0867 21.1172 28.8447250785
7.5923 20.0503 19.5429 29.2258072264
11.4357 22.3406 18.1838 28.686187623
6.08067 21.9691 18.1261 29.8902550955
2.62965 24.0762 24.2742 83.3485246795
9.38103 15.9743 19.7263 28.9198004926
7.29908 17.108 24.2673 64.8668564845
5.17659 15.2762 24.3015 81.2710075864
9.92569 16.3719 24.5294 80.3998390496
3.28723 13.7712 20.5332 27.2805418061
10.6431 17.2808 21.9051 27.9044497781
2.35628 16.5744 23.757 42.4808199339
5.67183 19.4661 24.3759 72.9543329396
9.12664 21.042 23.642 35.6507439916
6.72492 21.9768 24.6795 107.2642983551
10.3972 23.8679 21.4965 26.9876144936
11.094 19.054 24.363 91.0113256823
0.407256 23.2958 17.9815 29.6069290061
1.76956 20.9192 19.5651 28.3987338224
9.38718 23.6234 24.0858 63.50152833
1.49155 19.0864 24.1955 80.6613118908
3.41755 20.998 23.8212 43.210900874
11.5483 13.4549 19.595 29.9449714191
8.67588 13.4301 24.3015 62.6742426111
7.85289 24.0176 20.1981 30.7379323683
11.5226 12.7262 24.3189 71.6690384462
3.25352 21.9274 17.346 28.5732055505
5.21941 24.338 23.9609 48.1051227212
4.32645 18.5045 17.5122 27.5752504006
12.0203 21.7454 20.7999 24.3104640196
7.43512 14.1605 21.8887 30.2866978979
0.573061 13.1108 21.4324 27.8365468782
7.05623 13.0906 17.4118 32.0524961967
4.17903 13.409 17.9698 28.1209424097
0.0989454 15.3989 24.3428 80.5916371556
10.6553 20.0527 16.8928 28.1544577153
6.59785 22.7917 41.5125 26.8615203523
1.07893 22.6428 42.7239 26.1239986397
8.21762 13.212 38.5844 24.2534780139
1.0516 21.8032 35.5535 102.7235436033
7.92786 13.3747 35.9013 68.2241178219
10.7714 13.2102 36.0156 69.8012952114
8.73834 16.005 39.2501 29.226296002
2.17161 13.761 38.2789 28.4250390437
0.354926 22.3823 40.239 29.503994853
11.4889 18.8251 35.7108 92.4418816202
3.31027 14.71 35.6159 88.0129314036
5.41102 16.9862 35.8903 59.2195787971
8.2285 16.0579 36.4107 42.2395916727
11.1514 15.9342 35.9447 67.651116816
11.8164 15.7024 38.7205 28.9821463578
4.96096 20.8156 36.164 49.2081042458
11.5478 18.2109 40.4518 26.1062391152
3.20935 18.8107 35.1918 121.1271990295
7.05451 18.7484 38.9183 27.0078800164
7.3781 19.1133 36.0134 69.2407522715
12.134 19.6403 38.261 27.3209331186
10.9499 23.002 41.5934 31.1227370947
9.40146 20.9895 36.1626 63.0798151326
10.229 21.8323 38.7211 31.3808541502
0.250325 13.6385 35.746 89.369557854
7.67279 17.4469 41.6626 27.4982994886
11.0308 12.6152 38.9436 26.1113513044
10.329 13.506 41.4001 25.606598795
7.56559 23.1181 36.7587 34.9841329787
0.424409 12.7753 40.4275 30.0867806224
4.91465 14.513 38.827 28.5824310037
7.73629 12.8451 41.6316 25.8889491855
9.29146 19.583 40.9472 26.9295499492
4.83343 17.3192 38.7011 26.880699771
10.2778 24.4325 35.8165 87.8136334095
3.20027 23.2729 38.8251 33.150758413
1.17836 19.8539 39.1253 28.6060420397
4.23193 20.2733 41.8621 34.0085358599
3.79779 20.3769 38.7771 27.080274517
7.14081 21.5742 39.142 28.5921246864
5.11678 13.8979 41.5733 28.7224688403
4.87627 23.8412 36.083 73.4860125584
5.27877 12.6383 36.0235 55.3878098491
3.12415 17.651 41.0354 27.4121387486
6.98407 20.114 43.26 30.9960216559
1.35843 16.6667 36.2996 38.9694340791
1.45869 16.3635 38.8377 26.2648069493
10.3755 16.0658 42.2752 28.8215574873
0.0374931 19.2108 36.374 36.5577871788
5.27856 16.2025 42.8398 27.2458270213
2.06115 15.376 42.9302 27.02668789
4.57701 24.4402 40.8925 33.1411735746
0.547146 17.8432 43.7285 27.8867045881
0.291327 13.6448 52.5606 29.473920132
11.8778 19.1447 51.8634 31.4849991492
9.00846 19.5124 45.7532 30.0484875716
7.35222 12.4397 48.6399 33.7942926802
2.26839 20.0461 52.3441 27.3481640003
5.54892 15.6657 47.3615 30.1134850721
12.029 22.8569 53.8978 29.6712022748
2.02546 20.2717 43.882 30.0033946938
9.9281 21.8358 49.4426 28.0823414426
6.00245 19.0556 53.9228 30.5724339208
5.38945 19.5068 47.1343 28.3309142031
6.83683 15.5752 45.0016 29.2988867897
9.10783 16.9216 44.6309 29.5914845024
7.62839 12.8542 44.3497 32.7305984932
3.96114 14.9942 55.0509 29.5316554505
6.78144 23.7567 44.2449 29.7317569023
6.76127 21.5072 45.9081 26.9411452376
11.0951 21.1489 46.4584 29.5439199006
4.35259 22.745 55.6684 28.733793104
11.6061 13.7767 50.4117 26.9965470215
6.07744 20.3424 51.5617 30.9922628062
9.64383 14.3804 48.4666 33.9535678165
2.6804 16.456 46.7901 30.690212362
10.3624 20.6722 53.5858 31.7619022442
2.13771 21.5692 54.5777 29.6642875991
6.13532 16.2679 49.969 30.4339293464
4.64802 13.3634 52.9215 28.1197250502
7.20089 13.5845 51.4162 28.4712908739
2.50714 13.9334 45.3146 27.0492152686
2.43735 17.9178 49.2825 30.843885304
9.55218 19.2325 49.0207 31.1785982141
10.8795 17.1264 50.0848 26.6761393665
6.41566 20.8974 56.0324 34.5185237866
6.1145 23.6262 49.9734 28.7043661889
1.85891 21.8814 46.1773 29.3079093321
3.40068 20.5551 48.3774 28.1754621802
11.2422 15.7734 46.1309 31.6050380164
8.02874 23.0372 48.0378 28.4505348211
3.84601 21.5333 50.9717 26.4428086433
8.62882 22.0007 51.8472 31.6138617613
4.57427 23.1244 47.2699 29.0001443516
11.1425 12.857 56.0922 29.8558156841
2.79083 13.5821 50.9958 32.0923194856
2.03805 12.484 54.8951 27.153908818
8.10065 17.1716 54.4746 33.1193461107
8.62823 15.8333 51.8283 30.7869324833
9.18456 13.4328 54.1713 28.7913598939
3.56362 17.845 53.6142 28.4158300546
3.62732 16.3593 51.1745 32.4166855639
10.392 20.9227 43.362 30.2215357391
11.4742 15.1588 52.9349 27.8861225022
6.98407 18.8522 49.3808 30.8283424849
6.65548 13.3568 55.6269 29.4307684286
3.96614 18.1493 45.0432 30.9744555544
10.0432 18.7225 55.545 26.9110498813
11.3302 23.8559 45.4941 30.0706225054
1.09962 12.4044 47.0835 27.5770366879
3.54919 23.9424 52.271 32.5723527392
0.394825 24.3517 45.8115 31.4873679483
10.1408 13.1073 45.7854 28.6872675179
5.17443 12.9794 46.9696 27.2124632797
0.623963 15.7673 54.7117 34.8260923601
2.2927 17.8082 56.167 26.8000996759
0.157544 23.6687 55.1036 29.7519737891
12.2117 36.3682 6.53422 34.2239009725
1.49432 28.6902 5.14321 34.7945048273
11.1181 34.1811 13.2086 28.3374009288
7.57191 28.3826 7.7402 26.0380472713
7.81891 30.3099 5.03506 31.4845290727
10.0169 30.1929 8.16318 27.5785141593
6.9689 34.5991 15.9398 29.1975482636
5.45091 27.4247 6.27927 34.4628013939
2.56856 26.7101 15.2031 30.9171592749
11.961 35.9253 15.0487 28.7780420092
4.2584 29.2556 8.7699 31.6016753632
5.90742 31.4105 6.532 30.8521819808
6.5915 30.3705 9.41271 31.8598589
8.69756 30.3344 14.9713 31.4580642275
1.91182 33.1433 7.52214 34.240360899
5.8707 24.8981 7.88285 28.0789765857
6.25128 35.4951 5.40238 33.1212479299
1.88057 33.135 4.63338 33.7166868139
9.93522 28.025 5.61232 28.7220291843
9.29256 36.4336 14.9419 30.3784723262
10.5685 27.8962 14.2688 31.9380749348
0.166193 28.961 15.0227 30.0223673609
10.3369 32.4637 15.3063 30.9861186038
0.897421 28.9668 12.1613 30.8055126026
5.40413 35.9835 13.8542 33.3558991939
5.45066 25.9019 10.6179 35.148921986
7.82668 27.4466 11.4622 29.644913995
9.41597 25.3369 5.25743 29.1677792395
7.32827 29.9681 12.2165 27.569570273
9.83105 27.2044 9.60652 28.6139152379
2.56403 25.8117 12.6888 29.2331690486
1.88416 30.5038 8.48003 30.6766063438
3.38268 30.8307 5.41282 29.4701090562
2.20362 31.7914 11.1377 30.8171093308
6.8273 33.7935 7.50381 31.5864172093
6.04361 32.8622 13.4099 32.7586592701
3.76596 24.6311 5.36404 29.2361208558
9.36647 32.8694 7.36289 30.7091097276
10.1733 31.9305 4.81804 30.4606437018
1.6146 36.029 11.106 28.0806786381
3.02216 34.2999 9.80323 33.2697583411
5.6247 35.2601 9.27588 35.762198457
7.32717 34.7687 11.7283 31.5168264072
11.7385 34.3275 8.158 29.8648543594
9.93662 33.7377 10.6852 30.0875075467
6.04102 31.9317 16.2403 30.0673674202
2.48827 32.4559 14.4882 28.6664496495
11.528 28.9924 11.5525 29.8417408829
1.51878 25.7277 4.24722 30.2181496315
2.73399 35.1761 13.8864 28.8736808763
4.38786 30.3379 12.8853 27.5110291065
8.18476 26.3458 14.0187 29.9447542595
4.45646 29.0746 15.4296 35.0939329851
6.66246 25.6446 3.95729 29.435772245
3.60154 28.2855 11.3342 30.2470814002
8.60417 25.1467 8.2941 30.8388221632
9.53905 30.8961 10.8471 30.4362557884
0.0231653 25.6185 8.25227 29.1805185497
10.734 36.627 10.7351 34.9979776134
8.46308 36.1853 3.91247 35.367514477
0.206235 31.0837 23.7382 41.5125689294
3.56592 29.7427 21.5107 32.453290366
4.03949 26.7246 22.1827 30.9002858671
6.21195 35.4548 18.4469 29.274223219
7.60069 26.0029 24.0119 82.5803574023
0.374164 30.5999 21.0851 28.3093544806
4.73494 26.4026 19.2736 31.9373945148
6.68456 24.7983 17.5327 25.6180609431
3.29398 31.8435 17.2278 29.8737068732
2.87721 36.1056 19.3788 31.5848610082
9.67686 28.1007 21.3161 29.3201540333
6.70021 29.5865 21.5242 31.9109471047
2.30054 27.7207 24.4536 110.2685227914
9.12872 32.6856 17.7491 31.031535034
2.94848 30.396 24.3714 92.6032345629
2.45471 34.5806 17.1096 32.7209009479
11.3722 30.0271 18.1675 27.8207417194
6.74394 34.6337 21.0042 29.969113776
3.99389 34.0496 21.2492 32.8404181681
2.13115 28.9786 17.6247 29.6821948096
7.56138 31.3694 24.2426 78.4960283534
0.808469 33.9386 23.8528 57.2404390594
0.13678 26.4914 23.3197 34.4691409599
11.8946 35.0967 24.455 81.4263243732
7.07435 29.2746 17.3892 27.5455891566
1.87306 25.6923 18.4198 28.2513889183
11.666 30.3153 23.9702 62.3011402132
5.2257 32.4227 24.2801 82.1897827664
11.277 25.9711 20.0063 27.916168391
7.03454 26.4168 21.2158 28.2022409705
8.94377 28.8378 23.9695 76.4128544909
10.6471 33.647 21.6685 31.0383704021
8.09899 32.3273 21.5538 31.0419480571
10.7167 27.5244 17.4773 27.8336366006
1.51974 25.2866 21.0873 26.8310484039
10.5264 34.9604 18.9113 29.1045709751
8.91509 30.2006 19.3049 27.8378872073
0.64374 35.7076 21.4097 27.8938069348
2.10383 32.4762 19.9539 28.0008152199
4.8252 35.0325 23.8551 47.6077397361
4.79947 29.2995 19.0026 28.6950185462
10.3011 32.7832 24.3826 83.9862162054
2.44367 36.4535 24.206 98.9184939493
8.37807 26.729 16.8895 28.515683901
12.0979 24.6919 16.9247 28.8362605682
8.74738 24.7265 41.6102 33.7009672015
3.00025 32.8995 40.7716 31.8629818791
1.78295 28.6252 41.4353 34.338628446
11.5427 36.2843 37.0096 30.3704704687
5.37867 26.8862 39.6229 32.2825581001
5.85322 26.7782 35.688 77.4361643874
10.8238 35.1615 39.5712 28.7187335582
0.455718 34.5793 36.1229 47.3646730105
9.92462 26.983 38.6563 30.3782231388
2.56111 24.6161 43.1177 29.7330116526
10.7868 28.9906 35.4674 71.7791180797
0.330233 31.9681 35.389 113.1202868361
5.95799 29.4609 36.8325 30.1027214222
7.24819 30.8719 38.9494 30.218182463
2.93165 27.1321 35.7701 79.2391075525
8.79423 26.6832 35.2616 103.9613509937
8.2738 30.5234 35.6874 77.3809301344
11.5973 31.5986 35.8519 47.519938993
6.51244 32.0236 41.7488 28.2544090034
6.49165 34.4495 40.3137 26.4584735174
1.3815 36.5335 41.9483 31.0696304253
1.89509 30.969 38.824 30.6391674212
3.69262 30.6373 36.1287 57.1893586293
7.33786 33.0804 35.8351 58.787929406
4.19416 34.3548 38.6232 33.1993097416
0.663529 26.7329 43.1643 30.9284606296
1.12418 29.289 35.6944 62.9181288735
9.7212 29.8005 39.6644 30.7312132834
3.11748 28.4303 38.4359 28.9311373651
4.18493 29.1082 43.057 29.0232157592
4.76606 33.5147 35.7416 90.3733817647
6.18428 28.9481 41.2476 30.0122956462
9.89107 27.6027 41.6256 29.1607815175
7.58983 25.7852 38.1612 30.5393174502
2.92776 35.7159 36.2313 63.6068230619
9.17456 36.1348 41.5017 25.0472154068
0.426265 26.8446 38.0993 34.2405628832
8.42169 33.5049 38.7739 28.1411606255
11.1589 30.9169 42.124 30.6839072804
0.624263 33.8992 41.2159 25.9230688028
10.1777 33.9049 35.7302 79.1291449521
12.2541 25.7174 37.6632 28.9673234725
6.22864 36.1324 42.643 29.0160210892
7.33037 35.784 36.44 34.6513866886
11.4922 32.2894 38.7695 28.2992929853
1.6329 24.7525 36.6588 40.0962906098
2.67189 28.2945 47.6626 28.5880975253
6.74002 36.3704 50.0739 33.3576639613
1.71866 27.4475 54.4308 28.5337051672
4.51878 24.9479 44.9172 31.2297062741
9.09386 27.4374 55.2293 30.1686864495
9.19568 28.2883 46.1097 29.2564100872
11.8898 28.0103 46.7243 29.1015126959
8.58105 31.7123 43.4262 24.6935945061
4.66056 27.674 45.3344 33.6550516249
1.65076 30.5908 44.9836 29.5739472667
5.72886 24.7467 54.1628 30.171263939
9.39817 31.0829 46.2317 28.0025979723
6.3349 30.9135 48.329 26.313626266
3.3453 34.8326 48.4891 26.3467453215
5.447 36.3102 47.8372 29.5707872169
4.24432 30.9857 55.1381 31.5135184833
1.75886 35.9844 55.0939 29.369651725
6.51674 32.2317 45.4352 29.7450691838
9.43896 34.421 43.6681 35.2329261532
8.6863 32.7375 48.2572 30.2871285184
2.71624 25.428 48.3318 31.5543119777
0.987037 33.4914 51.0479 28.7249325264
8.38 26.9046 50.4985 30.4740315013
6.76742 28.2322 47.4731 28.6139391581
9.57889 33.8547 55.6413 35.2770994911
12.0139 33.9713 53.9942 32.4720813565
11.0954 30.5496 52.9565 30.8494939804
4.23874 34.654 56.2183 31.0888112235
6.92561 29.2935 50.728 30.5514462291
4.49594 28.2813 51.3337 29.9349706204
1.96146 31.4799 49.3905 27.3919824085
10.8397 33.9069 49.7966 34.3982171082
4.03095 31.7179 43.1971 29.5612144124
8.98276 25.2484 44.7673 32.936915492
3.17698 33.753 46.0335 27.4744641329
3.57783 32.8235 52.2189 30.0789696308
11.9728 31.3988 45.7558 29.8046858599
8.01015 32.6786 53.4744 32.6960233523
11.782 36.4054 48.8798 31.9471611233
3.83185 31.0053 47.0302 26.84129533
4.86575 32.8678 49.8186 27.8545183516
5.34453 26.5433 49.1896 28.966231541
8.08149 35.1584 46.6468 30.9607802109
1.10968 35.1811 44.6686 31.2817671363
2.1001 28.8824 50.325 27.9092133149
1.04668 24.983 53.1648 28.2045070068
7.77538 24.719 52.2293 29.4583956204
8.68536 25.6583 47.8501 28.279931537
5.227 35.8047 52.5592 30.0253728509
4.52078 27.3612 54.108 31.1883616562
10.522 28.5747 51.1776 31.7022226795
10.054 25.143 53.7536 32.5209560171
2.87397 30.3477 53.0341 27.566932557
8.01536 28.9825 43.2032 31.7648166521
11.608 25.5906 47.9651 29.7665024667
6.39217 28.9134 55.4073 29.2822809802
5.55335 33.3821 54.3905 28.4422015035
11.3009 29.1544 55.6191 30.5518319428
8.02806 30.0488 53.2073 31.260004417
7.39407 33.7286 50.741 32.2957357696
5.65573 34.8827 45.0828 30.9438832998
12.1828 26.6227 52.7614 26.2203479734
0.142371 30.2181 54.3961 29.2844460923
1.5397 36.4355 50.1998 28.1764629902
0.259763 34.996 47.5009 27.8088294622
0.50848 24.5801 50.3572 30.2416518752
0.169307 32.1363 47.2406 27.2094687605
0.908895 39.0621 7.82614 28.9111933206
2.14848 40.2558 5.88469 32.1589709041
2.67129 43.6998 6.43458 30.1052715646
7.52844 40.0301 6.32845 31.9003750963
10.6939 48.2079 16.5838 30.7108766923
5.34129 37.991 6.16633 31.1456960465
9.7131 38.1653 5.75225 36.7280351816
7.78472 48.5823 10.5561 27.1596802915
4.3866 48.7394 13.9734 30.2777902007
3.2077 46.8526 6.77172 28.0518841655
4.59334 41.3268 7.14653 29.9213907215
0.78582 42.806 14.6555 29.3069678255
5.72556 43.6656 5.63178 30.116846773
6.7362 41.1901 4.26009 31.4906872489
9.39533 41.3845 8.30007 28.0169710757
11.2808 43.9246 9.61188 30.4848649958
10.9701 42.8951 6.78067 31.3979214626
4.44691 45.3008 10.2422 30.6485407006
2.73097 47.8782 4.16476 27.1002023276
0.67414 48.8657 15.0909 28.4508984633
5.91546 47.2101 8.96823 27.6454354659
9.10197 44.6629 5.25212 31.4570524744
9.42267 46.218 9.37777 28.9038564932
2.46038 38.2503 9.94848 33.5143145517
4.86906 38.0196 8.8987 32.6135163682
2.39108 39.1822 15.4132 34.624353203
6.13327 39.9821 10.443 37.3487273224
9.37143 43.8878 15.6805 34.0911034594
6.22528 47.4769 5.63438 28.2480519047
11.3736 42.565 14.1349 31.3559082876
4.59132 42.3648 9.85819 27.9497203931
5.04651 43.2031 12.8624 31.9819230427
7.65628 43.1524 9.53007 29.447805367
7.55329 45.2391 7.58127 27.0695779143
8.09038 43.9095 12.6092 32.2393144682
6.12686 47.8636 15.9436 26.0166881943
0.875373 37.0722 13.9449 29.47802017
11.4545 47.6918 8.4553 27.3542763021
5.50075 44.7239 15.2311 29.4198937779
11.3938 47.9227 13.9714 31.8211432095
1.77421 46.1405 8.99413 27.3914545993
8.99213 46.6872 12.5264 33.2114843311
8.28593 46.6488 15.2881 27.6760403093
1.87832 41.141 10.6089 29.3417419792
10.1577 42.1888 11.3867 25.5960381506
4.9697 38.1676 15.5466 32.2839699114
8.13867 40.0945 12.1339 31.54315546
9.56111 47.2653 4.47175 30.9718201816
11.0953 39.4223 9.50426 30.5525551482
2.60193 41.2499 13.2538 36.3469937737
0.711837 44.5324 4.29384 33.1146061914
6.82329 40.2958 14.7789 33.494978858
9.09153 39.0476 16.0535 31.1037052588
6.97837 42.8117 16.6261 30.2010850174
3.47671 45.9918 12.7538 31.637579249
3.4352 37.8237 4.07683 34.6935345181
2.8875 44.5531 16.5533 29.0759648591
0.633681 45.1431 12.8632 34.9335013527
2.88593 48.1236 10.6666 26.3435826437
0.888936 43.237 8.62779 30.9303515148
0.502798 41.7355 4.01751 27.6595626769
0.837718 46.1602 15.8789 27.925997646
4.44316 45.4178 3.97377 25.9820487394
8.35449 37.2146 12.4188 32.5074483803
11.6644 40.3528 15.0162 29.9759251389
12.0945 39.1078 7.01125 27.3596440243
5.59042 41.0188 20.52 27.5512700957
10.0626 37.3179 24.1307 58.6046499849
7.44247 39.6737 21.9334 28.6352001186
12.0895 43.4336 24.0968 63.9261572861
3.27193 39.3094 20.186 30.5144136595
6.7848 40.1916 17.9018 29.065654098
9.79554 41.294 21.1944 28.9851670159
1.23435 42.3008 17.6692 31.1287964244
11.9817 39.0183 17.9127 35.3165036443
4.04452 45.3081 21.9669 27.404458744
5.44088 43.483 18.9063 30.9791383246
2.57833 45.4901 19.0901 25.7204109602
7.07842 37.0238 24.364 94.3296004036
11.3525 46.6862 20.992 30.7912807078
1.80597 47.1425 21.8453 25.1129009247
0.251957 47.0231 18.974 24.9531884262
4.85155 46.7859 18.1971 29.7412059065
5.1009 37.9925 18.3188 28.683059094
8.91773 47.3538 18.6976 28.4760912695
1.3357 42.8666 20.3685 27.3953850496
9.34977 39.3133 19.1389 27.5760099772
2.21012 38.7427 22.8762 30.0759049008
4.09629 43.7828 24.4444 64.4266451056
3.90406 40.6121 24.1468 75.5363677382
3.44988 42.2555 21.892 28.2360787683
6.4457 39.8596 24.5251 87.7619729654
7.37308 42.6375 24.3893 83.3338439928
10.0031 41.8036 24.0533 56.1614265393
1.6583 44.7266 24.6803 104.7955262625
5.85003 46.0007 24.3542 74.1949974856
9.8551 44.8393 18.3223 31.4165547336
6.60087 46.1551 20.4382 26.8048246679
7.82741 45.1552 22.8451 30.4747732249
4.2623 48.0578 23.7148 37.5907942627
1.37589 39.651 17.901 28.8469838306
8.07513 43.704 20.2626 30.5206343005
0.979517 47.7999 24.3949 73.7814191276
11.879 46.0974 23.7842 41.8376511361
8.03487 37.0591 21.6024 26.6713421233
12.0704 44.3512 19.6173 33.8789091837
9.28322 47.5081 24.103 75.9454307065
11.7064 39.5041 24.2181 69.8095520775
7.41636 48.9255 21.6555 27.8383480438
11.025 36.8602 21.5044 26.6837569506
8.54914 36.8181 19.029 25.7503050453
4.96943 44.8465 35.5353 88.9984269777
0.978217 41.4901 35.4213 133.2401766186
6.19139 40.2305 35.6796 83.4614172695
3.84559 41.6388 36.0786 49.3198804538
0.313008 39.3489 39.0807 34.793500142
9.10411 46.4953 38.7322 28.6262216598
3.693 41.6606 41.5206 37.2568773266
0.0398824 44.0694 36.0607 56.4533981558
6.20275 47.1035 35.844 64.248118986
6.65547 44.9658 40.0546 27.0281056593
2.50373 44.087 39.6546 34.1690853739
6.29306 40.5807 38.8292 28.5798432158
7.47336 43.0289 36.0102 47.6607898336
4.22935 37.7612 41.9112 30.3555390617
2.11458 45.7943 35.7867 70.934832088
5.21093 37.7532 36.1699 67.3954010723
8.48898 41.5117 42.75 31.2714329738
7.79866 37.0392 38.9659 31.820888858
9.00883 46.9891 35.8807 48.5113654993
10.6458 48.4728 40.1399 25.2218682055
7.23409 44.4937 42.3701 32.2335179199
9.85095 44.4666 35.4622 103.1440890953
2.96455 46.6672 38.3603 28.3655523744
2.90838 40.7939 38.7851 30.0360315382
12.2325 46.7902 36.4085 34.4922651994
4.08129 46.1307 41.5394 31.1022338375
5.95295 40.1361 41.6735 31.0819431738
9.76602 38.5663 41.4875 29.2287400973
4.11764 38.285 38.936 28.8176593894
0.999653 48.3112 35.8585 76.7707056877
9.41835 37.5103 35.4602 118.3271562399
9.04265 40.1304 36.0027 44.1403941195
9.14471 39.93 38.903 26.432685233
11.3283 45.0371 41.0599 29.4871061969
1.96623 47.0987 42.9616 30.1823223414
4.82375 43.4502 38.3414 26.9309636608
11.529 41.4859 35.7062 112.1359344327
5.64646 47.3933 38.3465 26.8648328801
10.1673 41.9417 40.57 27.7372705002
8.40191 43.4839 38.634 27.4183399217
11.3523 44.2072 37.8564 27.1248873742
11.7595 39.0357 37.6187 32.4311059563
12.06 39.7653 42.1876 29.3692482745
1.71227 36.814 38.8651 31.1085096843
11.6736 45.4966 44.096 33.3327982836
5.25367 48.5138 53.931 30.1629202881
7.80432 39.7498 52.8242 32.9181612616
2.88958 37.3595 52.7605 30.3885215173
11.5564 40.9237 48.2174 33.2487074201
4.11594 48.4348 48.9715 26.4109154621
7.58123 47.2516 45.5037 34.5226123523
8.89351 40.335 48.6972 27.4457011389
2.44138 41.4467 44.1474 32.4355900387
11.1202 39.5538 56.06 34.6793274162
4.42869 39.9754 46.6615 31.3095649602
6.90895 46.3473 55.2406 26.7514670653
2.20054 43.9715 47.279 31.8248495122
8.65633 38.5762 50.5906 31.0418437147
7.31275 39.9536 46.6154 29.28510862
9.17248 41.8756 45.3194 31.2286916805
7.67514 38.4937 43.6833 31.6230974144
11.2853 45.4265 48.3655 31.5572096867
4.774 47.4836 46.2092 27.9509173442
5.24971 45.399 44.0624 31.8056928672
5.56757 39.1596 55.4268 30.5454375198
0.380194 40.9466 51.1599 31.97364534
0.770221 38.3471 47.593 30.0643420516
3.64599 40.0524 53.427 28.6327631283
4.264 43.1562 45.7386 29.9686089106
9.08842 46.424 43.4162 31.4711345521
1.78897 46.9101 45.9096 36.6799705143
11.5167 43.4288 46.2292 34.3092630051
1.31935 46.3432 54.9136 27.6140972005
0.0215265 43.6217 52.1084 32.044101829
3.44383 38.3483 48.7505 29.7450771694
11.1922 37.936 51.0837 33.8606550814
6.87019 43.2248 46.8201 30.8269615262
3.04475 40.4121 50.4064 31.0700515277
9.34936 44.2346 50.3617 29.785672624
7.17937 42.4806 49.5082 28.2401788142
2.36431 46.274 49.2918 28.826076191
0.600188 38.0337 44.902 31.0300722789
6.08321 47.7363 50.9787 28.5194010753
6.24221 45.5453 48.1674 26.2852151461
4.14458 42.3823 48.718 29.3517324223
7.78554 45.8789 51.892 27.7972519258
8.6302 47.1041 48.3942 34.0774787477
9.67152 47.086 53.9921 30.4437976407
10.798 42.2513 51.8549 31.6938489533
11.6142 38.3086 46.7286 32.2029567187
6.22318 44.1067 53.5503 27.7680549059
11.2981 44.6164 53.2776 29.7309317909
1.76903 41.5527 54.086 30.2373030621
2.6208 45.4691 52.1922 31.1847157067
8.90219 37.5772 46.2573 32.2091310049
12.1469 40.6984 44.83 29.832198946
7.00708 37.0955 54.216 36.8398551484
9.45896 41.4293 54.48 30.2404928512
3.52056 43.9389 54.4896 31.6606969451
5.68579 41.6589 52.0096 32.3923601724
3.1746 38.8636 44.404 32.6117736203
5.01296 44.9993 50.366 26.1579008197
7.94584 43.3028 55.5646 28.5112462602
2.35625 48.5319 52.7515 30.8776357267
10.6002 48.9558 52.3241 29.769242225
0.1696 48.9171 47.1346 30.5104336039
23.8367 9.50948 15.6228 28.7701140992
13.1968 11.7585 15.8084 32.7178580385
17.3667 1.80123 7.66214 32.1696495245
22.5515 7.67119 4.3917 33.6447719011
23.5732 4.57773 5.84717 30.6686793296
24.107 2.75314 14.2704 30.8899931207
23.9621 5.68109 14.8245 30.371458167
15.0893 6.68638 5.70028 28.9354557588
15.9532 3.92171 5.58277 31.8407857107
21.8052 2.88838 7.34844 32.4504861302
18.3872 5.99802 5.18136 30.1168173894
18.556 8.80052 6.06822 31.3844816814
18.344 4.6386 7.6564 29.535810673
21.985 10.7614 13.724 26.2056918467
20.8453 2.5227 4.7511 29.5390115215
20.1002 0.40836 10.4692 32.9795968156
14.0522 9.38036 7.03948 27.6945186325
16.4333 10.5084 5.68368 30.4896734533
14.1471 4.99425 12.6711 33.9780520707
19.3155 7.91995 12.8299 32.627393132
21.2072 9.67524 5.9664 28.3483855222
21.408 7.78299 14.9242 27.7367505462
16.9563 1.96033 15.3632 31.4495165082
14.5559 1.43927 6.81321 29.350030497
12.8241 7.0575 8.72035 30.6411079273
17.0389 0.358055 10.9148 33.2319163508
20.93 5.2024 4.18047 29.6217960317
14.8856 1.49558 9.66151 31.0664716925
17.7371 9.74012 13.9781 34.7838168257
13.0374 10.294 4.49937 29.2002216637
18.5935 11.7118 9.39632 28.695531969
12.4214 6.13817 5.93477 28.0953208335
14.2982 4.39798 9.99347 32.5509969486
15.6648 8.14878 9.136 28.1018424427
16.6448 5.58329 9.62998 28.9574290493
18.3636 5.28921 11.5776 29.6625818157
20.6379 5.0751 9.09502 28.3382861115
20.0554 7.6095 9.90725 25.1845170105
21.0945 2.88963 11.1114 30.8649138361
16.7091 4.30064 13.5409 34.9456101447
14.9226 9.58586 11.4744 31.6257417518
23.8674 2.86995 11.4952 30.8284310383
18.1759 9.04538 8.86046 28.1792518394
16.8941 11.4859 11.6988 31.1656933678
22.1898 6.12047 12.49 26.185405497
14.1454 2.33926 16.0858 33.144449424
22.0692 8.96239 11.4585 26.8862764575
24.1488 5.656 10.392 27.6400784177
23.3466 10.9464 8.87607 27.1087683546
13.7689 7.80684 13.3116 35.0621875814
13.2901 9.1382 15.7117 31.5975154235
22.2646 7.91259 8.07707 29.8780724504
19.7172 11.5412 14.9062 28.6273349963
21.3728 1.73815 14.6381 34.0475288884
20.3711 4.425 13.6459 30.737063034
23.7195 11.3167 4.67321 27.1831889132
16.2333 5.21238 16.2986 34.3111641471
24.6137 5.9578 7.77214 28.370684273
12.7893 11.6841 7.94098 30.3086208469
24.6394 10.021 6.79013 25.9012127118
21.1174 11.7616 7.79311 30.6217170999
24.6191 8.50587 10.6238 32.1873557269
12.7205 10.7648 10.4717 30.5449477521
21.061 12.2134 11.3496 33.0282685901
21.1153 0.023994 7.62919 27.3421055493
17.3837 9.81096 16.8068 29.7632777158
18.544 1.13899 3.81326 31.5563652934
13.3023 10.8357 20.0712 27.491688835
13.9118 2.06827 21.5366 27.464276417
14.3269 4.06338 18.3852 27.024492322
20.1597 3.60687 19.9434 28.1611947203
18.1253 1.96447 17.8058 28.5893265617
20.8056 1.60282 17.4763 27.5103873508
23.8335 11.8128 17.6562 32.2040146979
20.5343 4.57249 16.9396 30.7468229003
23.4235 2.10877 18.908 29.6462202166
23.9095 1.58441 24.235 54.2927608316
16.6659 7.11415 20.3552 28.107051783
17.6033 4.46652 21.1001 27.1221031737
22.7919 8.47489 18.6454 29.6507400098
22.8726 6.05498 17.2975 27.1953149342
15.0974 11.3683 17.986 30.7450055633
14.5529 8.92135 21.7118 27.4767575132
12.9757 0.333263 17.7767 29.905925855
16.5569 1.15755 24.0999 65.7822407593
18.1526 5.833 18.2648 27.9394232093
22.1091 10.9586 21.5658 31.4512267111
17.6277 3.64309 23.8557 45.9369763422
20.341 3.91855 24.7522 144.3582735051
16.1844 2.66944 20.0278 25.6520180506
12.7126 9.84555 24.3734 84.680408708
21.3982 1.31217 24.1001 57.0698721541
20.4398 1.06695 21.4554 29.6172859148
14.9819 5.40625 24.346 93.4280091841
18.2981 9.94087 19.7335 27.2184552141
19.9241 7.9883 17.4465 29.4469996128
14.9285 8.0899 24.4043 79.2158457262
19.024 7.23894 22.2782 34.3087996615
17.4728 9.04044 23.9869 74.0197685944
18.1466 11.8192 24.4917 107.264710772
22.4503 4.12849 21.1012 33.0130766198
17.5942 0.746542 21.3698 27.7600279635
16.7073 10.8193 21.8391 30.118491714
13.8897 0.915563 23.9697 63.8481164955
20.6728 8.83783 20.6451 31.5217531208
23.1552 10.5315 24.2498 79.1266654357
21.4871 5.80335 23.0369 34.207897893
23.3578 7.53985 24.4489 113.3353170662
13.6555 6.85222 19.7344 29.9703028207
20.616 11.2434 17.629 31.9903556904
15.4377 7.73804 17.4418 31.0760718867
24.5027 1.01176 21.2821 32.1799518575
22.604 12.2326 38.844 28.3344139262
12.9261 6.91611 38.8852 28.5328916551
12.5965 5.7152 42.0719 30.9213546238
24.1605 6.46216 36.057 44.7142823731
17.7883 2.87076 38.0925 29.3472760615
15.8129 1.46165 39.9017 29.7779062673
18.2386 0.884823 36.2045 84.9195970797
20.2062 5.46785 36.0779 76.0558450026
16.7507 9.22445 42.8133 31.0338792543
13.8153 2.21118 41.8718 29.5208499712
14.9021 10.5859 36.1338 56.7994623775
18.558 11.1039 41.6285 30.5888530085
13.516 2.51902 35.8304 74.0676199324
20.1837 8.24597 35.7214 82.6747931311
19.8649 11.1662 36.4792 42.6086151453
22.4861 11.7205 35.8131 76.054829747
15.4286 4.0486 36.9779 34.7351345533
12.5742 7.16898 36.0778 49.1909090311
17.376 8.67522 38.7898 27.4185824161
15.213 6.43799 35.4181 128.9433411385
22.834 8.79498 35.5859 85.5119866899
20.0959 10.391 39.3891 25.4890380245
17.3241 11.5005 38.282 27.0617895777
17.0159 8.63233 36.0884 58.1233773707
12.4024 4.25827 38.1514 31.9450519093
21.8709 9.81968 41.475 28.157094573
20.2443 3.12707 41.8985 30.8830668236
18.213 1.19954 41.1239 29.0052688803
20.0707 4.54369 38.8524 31.7824528275
22.744 7.77739 39.8564 27.3647617758
15.2426 4.71218 41.846 32.209317602
22.5647 4.31664 35.8188 78.1531869081
21.7749 6.39314 41.8808 27.2384526148
19.1536 6.58967 40.8499 28.2007733207
20.438 7.82214 38.367 25.6953354342
14.3148 10.3777 38.8901 27.9603536149
16.55 5.67934 39.567 32.3341182702
23.2519 3.27272 41.6489 26.7013429089
23.1606 3.52044 38.772 30.4323638732
14.9186 8.33786 40.6235 31.5121914597
24.0646 0.824792 42.0352 30.052208073
24.3949 11.1248 40.9032 27.5720415106
21.2867 0.281222 42.595 30.8382267532
15.7261 0.30865 35.8805 67.7386961088
23.9187 1.86324 35.6423 92.4830438968
24.5019 5.72243 38.7857 26.5336165017
20.4095 0.309435 48.8299 30.6583334867
15.5818 6.46732 45.7283 29.4952764232
14.0598 10.5135 43.7119 32.6211233143
21.2385 10.527 49.4961 29.7824853314
15.5455 2.81983 47.686 29.7464821381
19.0109 5.84875 52.2869 27.3385424369
13.9599 5.07137 48.1284 28.6777924937
16.5683 4.46431 44.421 28.4762914117
16.2474 2.85672 55.4341 35.4132685445
16.2229 0.217492 51.7267 32.1495526714
19.4821 4.23052 44.3025 30.3288588591
22.1989 5.19022 45.1816 30.829960922
13.6665 5.90314 53.7134 36.1144736209
23.8938 10.3663 54.7661 30.0455338732
24.3494 3.47205 44.4641 27.8130598436
20.0516 12.1827 46.7885 24.916233102
15.8893 11.4283 48.7632 27.3191584771
19.3188 2.10294 53.9325 30.0199126339
20.6987 8.21644 44.398 26.119456621
13.7717 8.51328 45.8173 31.7010001654
22.9006 6.36654 52.4802 31.7524168778
19.88 10.8561 44.6024 25.9913879508
19.0774 9.71273 54.8524 34.3475818915
19.4937 1.92461 46.5495 29.6113892945
22.6103 1.83447 46.2862 29.7219019667
17.6216 0.492839 44.9101 29.6407278053
23.0154 11.437 44.0057 29.4452713535
17.4697 6.53371 47.7186 27.3438756199
18.1317 8.19859 50.5314 29.2477136889
18.4807 9.72262 48.1003 26.3008800421
20.116 7.60164 46.8827 26.8955606323
21.0121 6.61677 50.2494 30.9462529366
14.7294 9.18255 49.816 31.0209685881
23.172 2.14655 55.6874 30.9028485602
15.7178 6.41523 49.777 26.7456378359
16.7026 11.7113 51.7061 30.0430821527
23.0614 3.12458 48.7605 33.751005073
17.1611 10.3352 45.8702 29.4940801127
22.4981 8.40522 48.4411 30.716419369
12.9412 0.285567 45.4055 36.5260952741
15.7979 10.1055 55.6607 32.2948615254
12.4115 9.90701 48.0595 26.2005735751
14.0461 2.52676 50.3005 34.0780331067
13.8373 1.84108 56.1298 37.1682496735
22.4919 1.2169 51.0398 28.6989009076
18.2534 3.86497 48.212 26.5166445155
20.6644 0.215174 52.5896 29.6828967247
15.3703 1.97268 44.8455 31.7315616107
19.3814 10.1553 51.878 31.5846157174
15.9371 5.49084 52.2338 30.3775247367
16.875 2.72898 52.5408 27.7306964433
15.3733 7.43162 55.8391 29.2945722999
14.1446 10.4451 52.3604 29.5671668079
20.9988 4.65782 54.1423 29.4236256216
21.0087 4.90909 47.9376 27.8985653715
18.8832 3.48395 50.74 32.4010537434
23.1772 12.0722 52.491 33.7302544769
12.9561 8.89705 54.3496 32.6702179367
22.0119 8.69929 54.0799 34.9115082224
23.2906 3.43358 52.9052 31.9136612081
23.6943 7.82592 44.4011 33.8844050786
17.9346 6.88239 54.9195 34.0729117227
18.2778 6.9933 43.5142 28.383448668
16.2992 0.25333 48.7759 31.1787993669
13.8197 14.1921 7.15625 27.9324888964
16.0279 13.1968 5.83333 29.1026306342
21.0407 22.8338 8.62403 31.5650586327
18.4307 20.0972 11.8737 30.2420719524
19.7615 15.9909 5.90469 31.0889803511
21.5575 14.2756 6.71097 33.8693485469
17.2199 13.8258 8.62611 32.4187670803
17.3602 18.8865 5.02454 30.5268577259
15.5243 17.1674 5.99389 28.8884967815
24.1698 19.7075 6.51008 29.912195126
17.3967 20.7403 7.42803 27.8376528153
23.4514 14.3718 16.4031 35.2896405375
14.6829 21.7503 8.00238 32.2722219458
14.42 15.7155 3.73286 27.1812269988
14.0849 19.8041 3.85653 26.920448007
13.7862 19.3597 7.0305 31.239549157
19.5125 22.3608 5.97757 30.1390916573
22.9381 21.3756 12.7385 29.2387872627
21.3094 23.1136 14.5735 38.9126278089
12.5258 17.8402 9.4102 33.5779372894
15.369 13.559 13.0112 32.0406757926
13.5799 15.3474 9.54696 33.7359616696
17.6995 16.4163 7.61847 28.9412214554
20.379 17.946 3.97921 31.0443734196
17.9187 14.6262 4.22874 30.9550341505
14.2579 19.0667 11.1925 31.9092488002
14.2124 21.6524 10.7047 34.7751972942
16.0618 15.2489 10.7818 27.551292821
16.6945 17.8048 11.3544 27.4973620982
20.983 16.2677 11.6392 33.5313980372
20.7781 18.2229 9.78147 34.025879143
23.1901 14.5228 11.5931 31.5448885457
16.9908 22.3657 11.6694 32.9250024443
17.9997 22.9454 9.24868 28.8600658521
18.0446 18.705 8.93074 29.7775050751
21.423 20.3861 5.29595 37.4471193157
21.1574 20.958 10.7741 34.5713456301
23.3363 18.0008 8.484 31.923299877
12.8464 13.4385 13.7295 29.3855270086
16.7186 14.9063 14.9733 30.9776927921
19.3179 14.1246 14.489 29.9787086351
22.0808 13.4037 4.05227 28.3788650668
18.8067 14.3027 11.7517 30.2802677037
20.9376 15.9046 15.9592 32.4242139509
23.8834 13.0742 13.9954 31.7882601919
13.4116 18.3672 13.9174 34.8209216637
16.0388 24.0584 5.27522 28.3920514159
18.8686 19.3318 14.5641 33.2694293272
16.831 17.5995 14.173 29.6671538396
23.2133 19.5765 14.6848 33.1260327057
21.095 17.5664 14.1431 32.1211174766
23.8758 23.8359 8.662 32.9603024118
12.7738 23.3529 14.2869 30.60283956
15.473 22.5698 14.4915 34.4422960415
13.4466 23.8613 6.21498 30.8580774962
24.0281 15.4842 7.57441 33.6899980889
15.1534 18.1611 16.082 28.7180076695
12.4491 20.6737 14.8332 30.8373945057
16.1889 21.4342 4.10054 27.6738492544
19.9436 24.4063 4.22387 29.8326236888
15.3323 16.8701 20.8601 26.4203108736
23.0611 20.5768 17.4242 31.3623828982
17.6858 18.5924 21.5888 29.140857537
18.9251 12.8053 19.1458 29.840265627
14.2455 13.091 21.6223 29.4150066194
21.0676 13.892 20.9078 30.9713111173
19.1752 15.9403 21.2113 26.5149358328
14.3976 12.6686 24.3756 75.5084283124
19.0777 22.5391 19.3431 30.2123923012
12.3284 24.3114 24.2305 74.4163761643
22.0604 18.4999 19.1973 33.7304952101
23.6506 22.119 24.2208 65.0053712662
16.7911 23.5549 24.2238 66.9931054929
14.0222 20.7842 17.4634 29.1169654401
16.2623 21.004 20.0013 30.0389252922
13.8785 19.7529 20.9314 27.572388103
23.359 14.0178 24.6006 108.1445943039
13.8568 23.5495 21.6105 29.4809287419
15.0241 17.1412 23.9207 53.33470213
13.689 19.8011 23.8326 46.6776968326
12.7091 15.831 21.3966 26.9725235659
23.5883 15.175 21.1154 32.6765358189
16.8885 14.4627 24.0224 53.9134531481
16.6847 13.6451 17.6653 31.8459069739
23.2561 16.871 23.3891 41.418467529
12.436 15.5506 17.9446 27.9090926465
17.5571 18.3277 24.3316 100.1943752401
19.6152 15.459 24.2978 74.4303700591
20.6742 18.0468 24.1585 58.5414027121
21.2217 20.7842 24.5677 102.8438443018
20.5472 18.8929 21.6687 28.3916551343
20.3001 21.7095 21.823 29.2437160139
16.7966 23.4835 21.4365 29.4276846313
14.298 22.5568 24.6788 110.0953071708
19.6021 23.4659 24.2506 70.7986463033
20.1508 16.5244 18.5728 32.6517947769
22.9952 21.9292 21.4594 31.5011946854
16.8767 14.4343 20.9228 28.2222882728
17.5194 18.1482 18.4326 31.4987582894
15.1391 16.1025 17.9168 28.4300931551
12.8656 15.302 24.2323 65.3952261868
20.7248 12.9399 23.8365 39.932492388
18.4762 20.3003 17.1467 30.5119627801
21.1782 22.1741 17.0751 28.8427053157
16.3466 22.0974 17.056 27.4707226111
24.6164 17.4666 19.126 32.632565443
22.8908 24.3282 20.4175 27.7210193156
14.3205 15.2882 36.0437 57.8903531949
14.6695 15.6551 38.9116 27.3796601268
15.9393 13.1251 35.461 125.6495217853
13.0191 23.6706 39.5965 31.644487739
20.7538 15.5951 36.0794 60.2359183949
22.9129 14.6171 37.6293 25.5126946964
24.5222 14.0269 35.5404 102.6969531374
14.1789 20.2865 35.7518 73.6950796556
15.6263 17.7859 35.8767 80.8452488132
17.597 18.2537 37.5104 26.3121233597
17.9959 18.4287 41.5382 29.3423753239
14.609 18.6324 38.7168 25.8092348329
23.128 18.834 35.784 85.0169354449
20.6479 20.69 36.1598 43.0903360159
15.5283 22.8845 35.3706 107.4332238213
16.301 14.2998 42.6205 26.8602039333
18.0907 22.1275 35.5992 88.269419453
17.494 21.1999 38.283 29.9191409506
23.087 19.7143 40.6335 28.3999180613
22.7951 22.6775 36.0044 65.391413419
15.4953 20.4946 40.9589 29.5238780654
21.5013 18.3294 42.5632 30.7827518863
13.8334 12.9221 40.0567 32.378191266
18.7629 13.9127 36.2121 57.4274489505
13.6896 18.4101 42.0444 25.7360558387
20.1052 16.7045 40.286 28.4727998041
22.0881 17.6236 38.0838 25.9165746071
19.5681 13.5316 43.1346 26.5683179386
19.7843 18.1604 35.573 100.9718480465
15.7519 16.7204 41.41 25.5497887239
18.9793 23.8808 38.992 29.974078667
18.3005 15.7994 38.433 28.768777632
24.1678 14.2838 41.9394 28.5577774159
13.5111 13.894 42.8408 27.8582631783
15.2743 23.496 41.7333 30.8109756918
21.2875 13.9124 40.8173 32.3346311252
20.0316 19.8182 38.8783 26.7480382442
14.5254 21.8036 38.3377 29.9767025339
17.0978 13.5781 39.9818 29.4963525988
23.9499 16.7566 40.9667 26.8328905478
23.044 23.1545 38.7851 27.5678440811
21.025 21.9436 40.2186 28.5044232117
21.0312 22.7163 42.9239 29.6000080075
13.2355 24.3919 43.1274 28.4064143711
16.3686 19.5111 45.8984 28.6377804025
13.5907 16.0843 50.9878 24.8887375628
15.7596 17.1058 44.6918 27.2924412584
22.2096 14.1671 44.2863 28.6868085035
21.7162 17.8199 48.6218 30.0095509476
19.5811 23.1679 54.3137 38.2985242845
13.8328 19.6116 47.1191 31.6806354155
15.4603 23.2853 46.6871 30.9309868437
19.508 12.4925 56.1737 33.4533092219
12.9012 20.0798 44.2864 29.9015278227
18.7734 19.2793 46.8619 26.6534766258
19.7037 21.7597 47.5932 30.7942361825
23.6616 18.6352 55.2375 27.1382808601
13.9893 13.0025 55.7812 29.5914207658
17.8642 13.6879 45.728 27.4142082253
20.4042 22.485 51.4723 35.3766549459
21.8445 16.6666 54.7029 30.9625505172
23.2116 21.4151 55.9402 31.3421614395
14.9297 22.7394 54.5392 30.7846654532
12.3503 22.7487 50.8602 30.679323184
18.0467 23.9749 47.1655 30.0652348597
24.4443 20.5733 47.5396 31.330125416
17.5828 20.6175 43.3432 33.3895055265
17.5855 13.7064 49.2048 30.2861780534
22.1231 19.1538 46.2986 28.3006920015
15.2717 18.4961 54.4734 26.9304580137
23.6319 12.2934 49.7057 28.1198982573
15.1662 12.4591 45.1484 27.4328251691
22.8109 12.4309 46.9762 27.5932676915
20.1859 17.9792 52.5116 30.1840378859
18.984 18.2379 49.9012 29.975936942
15.9372 21.4864 51.3775 28.3840040631
14.3763 21.8005 48.9721 33.5356559899
16.5957 16.6459 50.2316 32.11763184
23.5094 23.2934 43.6716 31.2803127631
22.2693 22.3343 47.507 31.29267891
23.2587 22.606 50.2323 35.9808600794
18.3384 20.9561 50.1453 32.6624640803
13.983 13.8568 48.8419 27.8056389373
13.8969 13.2472 53.0398 29.0557108848
16.1828 14.4755 52.3293 27.5742729274
20.3944 13.9358 49.2508 30.3903720744
21.6308 20.4144 53.4265 31.9064466325
12.4496 17.4687 54.1399 27.766295736
24.5393 17.1193 48.7324 27.1379551716
15.1872 21.8648 44.124 28.4291308964
24.107 15.2093 50.6208 30.4243455881
16.7142 15.9198 54.5997 30.3451979803
15.6896 16.0125 47.532 29.0824206991
19.0275 13.1361 53.3767 34.3982149392
21.5668 14.0124 53.6821 27.7672970549
18.512 18.4275 54.482 29.1905358787
23.3098 17.0807 44.5337 29.6457729999
21.3688 15.8654 51.1219 30.1759060436
21.246 15.7052 47.1365 26.796747549
24.4193 15.271 46.6815 30.9583924181
13.1304 17.0113 48.1202 29.0663410171
17.4334 21.0751 54.0804 30.8053355981
14.7676 18.75 51.7615 31.7932783737
18.7128 16.4671 46.4891 27.5046725726
18.355 16.1514 43.7243 28.7442550638
24.0635 20.2614 51.9664 30.0819670337
20.3775 20.2343 44.2529 30.0961687916
13.1388 12.2903 46.8539 28.3298088314
15.5445 24.3438 51.0122 29.7985589426
13.1499 16.4463 43.938 28.3596111719
16.676 24.9317 13.3373 31.9449753292
15.8233 29.1207 5.96848 25.224401457
19.9112 25.4862 7.20292 28.6231475675
16.1863 27.363 8.03941 26.9093849394
12.8401 28.3138 6.44361 29.8787423661
22.8706 26.3056 11.3698 32.0541186596
21.865 28.6078 4.31823 29.7483994173
16.2211 36.0522 8.40322 29.0089368657
16.5872 31.3452 7.08577 30.6363097271
13.2905 26.8997 14.9251 28.1887774939
17.3566 24.902 7.52505 28.2361786492
18.3253 29.5522 8.44247 27.7457588603
20.2757 27.9765 6.72645 26.9860630898
20.3425 25.2316 10.2389 33.2507348451
13.6594 25.9212 7.85527 33.6824586036
12.3786 25.9045 10.4386 32.7193000067
18.0426 28.2542 4.68954 29.6561592681
23.4446 29.7861 6.51695 35.2575257223
18.9497 34.4617 16.7998 31.4456746971
20.1581 29.9218 16.1134 31.0016250369
12.9442 31.2184 5.04444 29.2026662266
19.935 32.7225 14.6045 29.8047009737
20.5098 31.1974 6.96954 36.0255522412
13.7045 32.3269 7.55748 31.5524500386
24.5642 29.6481 10.3844 33.2082184326
12.6028 30.9835 16.232 30.3812243993
18.6512 32.5187 5.35527 33.5151411641
13.0041 29.8941 8.84091 32.5866708272
16.0859 28.0966 10.544 29.0929404913
18.4496 26.5325 11.5162 31.2936264273
22.4331 28.3921 9.11287 30.7169130934
24.5856 32.4901 11.3082 33.6881848088
14.0925 30.0088 11.974 27.5652209619
13.6942 32.9288 12.5044 31.4902134679
20.4752 30.1101 10.3137 30.2458509309
17.0478 31.086 11.2198 29.0783542997
19.7881 28.7216 12.6935 30.5527010408
17.2894 32.2619 13.8221 29.7211238856
21.8294 32.7962 12.3702 34.6797084341
21.7173 34.7527 16.5287 29.3864414914
24.3222 24.9388 15.6296 32.3221024981
13.8468 34.4899 10.3615 27.9454405003
16.4189 33.1326 9.55422 30.3115057612
19.9085 32.9407 10.409 29.6441424779
23.7599 34.2035 6.15906 33.303286429
18.1625 34.5283 11.8665 26.5280152047
22.4671 35.2696 13.7323 27.4901600961
20.8704 35.4117 9.52358 28.8208158435
14.4431 29.2022 14.5351 28.6960194886
17.4873 29.1888 14.7019 29.4926281253
14.4481 26.5428 12.3618 31.2489876176
20.6316 25.7347 14.6271 30.2004180074
19.6277 35.9277 13.8208 27.5147855731
18.0663 26.442 15.2581 28.3224983475
22.4891 27.8521 13.5502 33.0026132768
23.123 29.8385 16.2031 31.5661805589
20.7023 34.5637 6.7008 34.4659903768
22.4288 25.9137 4.28317 32.0463937594
15.1913 33.7207 14.5468 28.4530067428
14.1907 36.0222 4.61439 32.5175696666
16.551 36.1807 14.3835 30.1483927863
19.0925 36.1835 4.98624 33.5103410683
23.6372 35.8187 8.57231 29.2829749366
16.483 36.6976 11.3772 26.6528990142
16.3578 36.7333 5.82823 32.4304956499
16.1018 28.626 17.3062 30.6016025152
21.5114 32.1713 21.2374 28.7984071909
14.2987 33.1243 16.9775 32.7286277396
20.9352 25.5049 21.6597 28.5758315361
18.7373 28.001 18.3032 27.3671879967
14.6774 25.911 17.3465 29.6161787157
15.8491 29.7226 21.4871 28.1944392558
20.8333 30.4292 19.1248 25.5176714493
18.4443 31.5248 21.8962 25.2229185821
14.0137 25.9711 20.1367 28.802351986
21.1617 26.7874 17.3171 28.4700765732
12.4484 28.1768 21.7829 27.7254110631
13.6466 33.2079 21.3977 29.0175915736
18.5281 25.5168 20.197 26.9280897174
22.0287 28.3563 21.6241 28.0667251049
17.9172 35.0853 19.6284 28.4447386764
15.5296 30.9335 18.5982 29.7250827697
22.3541 24.5144 17.9231 29.6663022525
16.3489 26.9809 21.2065 26.9343689061
16.4273 26.6019 24.0771 59.7400837545
23.3884 24.7886 24.3721 76.322673597
19.1683 28.6545 21.1026 27.1419037249
21.7607 31.6565 23.9862 59.3798775892
20.8997 26.4719 24.4871 77.0073654013
22.1064 29.1647 24.2686 61.7615544269
13.6574 32.509 24.0479 50.689607014
18.7199 28.1509 24.293 63.9458921692
18.2918 32.1944 18.8083 33.5236009374
17.7886 30.794 24.3966 76.5873054184
16.4206 33.7989 24.542 79.3632937497
19.5653 33.7234 23.9867 49.1881282543
22.9014 28.5311 18.7079 29.1860797251
20.1462 34.6193 21.3342 29.3238862684
23.639 35.3745 23.5734 36.3362661356
13.709 26.9353 24.09 72.5738498601
15.0323 29.7081 24.2152 68.9374545903
16.3993 33.6766 21.8273 27.5552424287
14.9417 36.2329 19.0887 30.6430445266
21.2163 36.1764 24.3945 99.5870230752
14.8395 36.3855 24.3703 64.1644783308
13.8902 36.1394 21.6607 26.2688241808
22.8321 32.5386 17.6462 31.7361995102
13.2905 30.4336 20.2181 30.4287931252
17.9013 36.4964 24.462 76.1861696415
23.5147 36.2766 20.6038 27.5190961588
17.0432 24.6065 17.5663 31.6920263935
12.6992 35.3307 17.6562 29.2231814357
15.9754 26.6741 38.9758 31.7810388025
21.4405 33.9403 42.6747 26.7509817385
14.0652 30.5709 35.3006 97.0915365813
18.1792 35.9563 38.9296 29.6111961962
16.106 25.8739 36.1217 49.1515383192
16.3117 28.665 35.6677 69.8680357744
21.9125 28.1758 35.4549 80.8124978881
23.2118 26.3285 37.9174 25.7954503836
15.7794 27.4339 42.2724 33.5009763639
15.1414 32.8703 36.2264 38.9232604551
13.521 30.0659 38.3964 29.8477082987
19.1836 29.0664 35.6942 79.3852469993
19.7672 31.8103 39.2303 27.6434863763
19.8423 31.6705 36.6142 32.0381151083
20.0648 28.176 38.7841 30.9131431148
