22.0558 24.8446 41.3531 28.4189492759
26.7949 30.0362 46.3116 32.0685792769
25.5699 26.1157 39.8292 32.9060351226
24.2262 26.4724 43.2128 28.2728056963
25.6388 31.5591 42.2886 29.0463979312
23.1139 20.3916 42.4671 31.8779795958
25.3025 18.5773 38.5945 26.6148661931
28.5952 29.0254 39.7605 28.6621807413
20.7839 30.8936 40.9137 30.1832498491
26.1033 28.4235 43.9969 31.7342837073
22.5542 28.5552 41.9791 29.4803105031
24.5571 17.3287 45.6459 28.3705710606
22.8514 17.6183 41.7374 29.6665409172
26.4314 22.0476 45.6549 31.1351775465
20.6301 24.2802 47.1714 29.5508683665
27.6297 20.0444 43.9938 30.4190107609
22.9343 17.3892 38.6372 27.4402411993
20.7623 27.4023 44.1335 32.4529292056
21.4987 22.1228 45.1183 34.8238976789
21.7903 16.4011 44.1263 28.5250614799
26.2428 24.8373 45.0777 29.3663236137
29.5578 25.6507 42.3798 30.6857862403
23.896 30.4804 46.2447 30.3865657106
24.8664 23.7582 42.3896 32.0493093269
22.934 25.9377 46.0463 31.875243861
20.0594 24.5495 43.9436 29.1078496081
28.1361 26.7076 44.7728 29.7394985255
27.9763 30.1238 42.195 32.8220176283
24.1295 20.3561 45.3679 31.5937224715
26.3424 17.8987 43.5375 27.7601675434
21.4182 28.1324 39.0844 26.5331581262
23.314 30.7318 43.4535 29.3954964065
19.7442 26.9257 41.3746 27.006118574
28.6835 22.1554 47.7066 30.7243298101
28.0061 21.101 41.2792 28.1965426592
26.8301 16.3739 46.9624 31.3303074294
19.7506 19.806 44.9509 28.2595671281
26.2262 28.7762 38.8103 29.3367959633
25.096 21.8172 48.6009 29.8905140704
25.2423 24.6642 47.5763 30.8386678786
23.7583 20.5767 52.373 30.5773610614
27.247 19.9065 49.2606 30.6100522403
29.0678 20.1325 53.1257 32.4843063316
25.2205 29.2289 48.8912 29.9521193612
27.4089 29.9521 55.8609 27.9869579474
22.653 20.9048 49.894 27.7877699711
28.8761 21.772 50.8715 28.1824416344
29.1594 25.7741 55.6514 29.5813147542
28.0588 24.5019 51.1499 26.7644719728
21.5139 23.4771 49.4864 29.0362980102
23.0575 18.7713 47.7472 29.7484832329
25.4742 23.2519 51.4395 29.0802536141
21.4122 17.097 52.3978 29.8003204976
20.8794 28.5789 51.1668 28.900762624
23.4472 24.8766 50.441 32.3608346991
24.5342 31.4566 50.4749 29.1825805275
25.1375 21.957 54.1999 28.7809179083
23.6757 27.6728 50.5299 27.2309223158
29.0609 32.0981 49.4802 31.0886376984
20.3096 29.0651 54.7179 26.8042943421
22.4156 25.8694 54.4217 33.928797305
27.7993 24.7696 48.4108 26.3208028866
25.3565 18.8157 50.9884 28.5358099166
22.6237 28.0902 47.7396 31.9403130528
28.4024 31.876 52.8508 31.7168221731
19.8733 28.5305 48.3886 32.8027114377
26.9761 17.5632 55.1753 29.5911618853
23.5207 17.1196 50.1117 28.7845983134
27.5088 27.3912 49.6841 31.5150766347
21.4084 19.6891 53.5581 32.4835297735
27.7452 26.3773 53.2492 25.9360856109
22.1058 31.0305 51.8184 29.1392019382
25.0688 24.6572 54.0549 31.4619027504
23.2215 29.1447 53.7301 28.7446285744
20.3835 26.2967 52.8567 27.3990988075
26.1025 30.7242 53.5275 27.3528588344
22.9352 32.3626 47.837 29.74340548
25.9245 27.9919 52.3046 30.5148889714
29.165 18.076 48.3962 28.8260404299
19.826 20.4251 49.6625 35.5365171285
27.3742 20.7883 55.1499 29.8693483507
28.9092 16.4948 50.9114 30.5610618794
19.7416 31.8587 55.336 31.3943873971
20.1839 21.4853 56.2706 27.6444640167
26.2267 16.8836 52.5592 31.0172421896
23.759 36.5936 7.03636 31.7709908334
28.9902 34.5355 10.0845 29.1881283215
22.0865 49.0964 9.49982 27.491591392
24.7224 34.051 3.87163 30.6093845992
20.612 47.7069 11.8355 30.2241568354
23.8091 40.9035 7.52449 29.7285622304
26.8033 41.6368 7.11165 27.9794159314
25.017 44.3832 6.27546 28.4154721738
25.1379 47.8712 7.03692 32.0036275498
27.5003 34.9505 4.49714 30.4004327167
21.6237 45.1447 11.6162 27.0421807683
22.3556 40.0053 3.71537 29.4284209148
27.5332 41.2637 11.6908 29.6255915254
26.2179 39.4434 5.13368 29.2621368232
21.493 41.7629 5.90261 29.8465682783
25.1664 36.031 12.1378 29.7545995822
22.0806 41.8321 10.503 26.8509272815
20.0133 43.3918 9.61891 35.2763923468
26.4614 33.6582 11.2871 30.00478125
23.4018 38.5738 8.60391 29.1008566292
21.0476 45.4364 8.26958 30.2049974942
28.6745 44.4343 3.84438 28.1862444565
23.5382 46.7531 9.10556 29.6585924114
27.9521 44.0286 6.36476 27.5550318042
23.7311 43.437 8.93981 25.6547894879
27.5835 46.5803 7.78263 29.7115852156
26.0562 35.0612 7.32768 30.3236269005
28.0249 37.4783 5.77008 29.967412765
28.317 36.7377 8.63224 29.8359341771
21.6822 33.5488 4.35753 30.0991685009
26.2457 42.9534 9.8512 27.5845798921
24.8525 38.4955 11.1295 32.5586826071
22.3135 33.1428 9.87978 27.4137466168
24.3902 42.7368 12.2253 28.8631659546
21.4968 48.3303 4.66906 31.1616885755
29.0494 40.3231 7.88958 28.2745328729
27.783 38.9163 10.1264 31.0011425657
27.1632 45.613 10.3157 35.2315708985
24.6437 45.6373 11.7065 29.5336781797
21.7586 35.3818 8.38081 27.5651756237
22.0454 44.4348 5.42137 32.1828874461
24.0801 37.9453 4.45493 31.2270307417
21.1011 37.2442 10.0444 27.7260791925
23.8964 46.8376 4.76978 29.6730348621
20.6591 40.1688 8.58634 33.649080578
19.9985 35.0358 6.24655 32.62266443
25.157 33.0059 8.92207 28.3934678465
23.0052 34.6468 12.2432 29.4725699368
19.7274 39.0276 3.65128 31.79718405
25.064 43.6147 16.1167 30.4832455925
26.65 36.2954 14.3406 32.8559595163
20.1821 48.3401 14.5802 31.3992253485
24.3652 34.0911 16.9361 28.9934603964
21.1664 40.2964 17.0238 29.4958094558
29.2501 46.4491 20.7987 31.4098691957
26.0543 38.8943 15.3377 31.4992499072
26.5354 45.9738 16.4856 31.1301784345
24.8938 44.2077 19.3774 25.2654646439
26.5577 41.5849 14.4603 29.8646261107
25.6444 36.0419 19.61 29.9484442179
26.4704 47.4916 19.5786 26.8920452108
24.7176 48.0605 17.158 29.0791150488
27.6596 39.7763 17.4182 31.9781373888
22.721 44.5105 14.3364 28.1786049268
27.265 38.4757 19.897 32.1526953376
28.4778 47.8565 15.9467 29.1602235271
22.7184 47.0772 15.3734 31.4055954277
28.4783 33.6618 20.9742 31.5650694179
29.0337 43.6305 14.174 35.0453993346
24.0658 39.8783 13.2952 30.1614743208
25.5551 41.7138 18.6116 26.0075267534
28.8031 35.5208 12.7775 26.7920062487
27.3924 48.8358 13.7409 29.122063719
23.4681 36.8364 18.1792 32.0904008151
22.2904 35.5156 15.2653 28.9231173904
27.06 34.4654 16.4608 32.167859482
20.1694 33.2972 18.7424 29.2166586083
22.2909 38.2921 14.8617 29.0005643569
21.4017 41.8602 19.0926 26.3176363629
23.882 39.5115 17.3777 30.3254411965
21.2445 46.7002 20.8178 29.0370192934
20.4113 45.8783 17.8981 29.5194274031
22.4505 44.0733 17.7206 29.4048298093
27.4892 44.5279 19.2024 27.7838765402
28.3983 35.4796 18.8775 29.4193769554
22.2157 37.5787 20.8365 29.9123056841
20.1128 35.6074 17.1175 31.1115121448
20.7536 42.3156 14.7601 30.4320006245
20.3031 40.8464 12.6962 29.8786805261
28.3433 42.7504 17.1021 28.2244418196
20.4931 37.9382 12.918 27.5126446852
22.5499 40.1058 21.0336 27.7227488687
24.5732 47.929 13.2944 30.6405598709
25.8485 40.6719 21.0103 29.8676170291
29.6302 37.9041 21.2235 29.3327884175
20.7199 38.5046 24.1583 68.950599524
28.2157 40.0118 24.3305 91.7529343059
19.4251 46.5838 23.4486 34.7224462889
25.5163 35.0639 24.5716 126.9028887606
23.4868 37.7787 24.0826 84.4087967794
26.633 47.4529 24.2224 64.1452684826
22.5999 40.887 23.6846 48.8988845177
20.1371 35.7682 21.5765 30.4625486999
25.0789 45.5009 23.974 52.2462258944
25.6005 41.3748 24.115 85.3589631395
28.1468 34.8188 23.8229 50.327199316
20.9242 43.3034 23.8486 49.1922696599
21.8535 43.98 21.3863 27.0704240552
22.5418 45.9706 24.4424 96.4373213263
24.3355 43.2457 22.0567 26.729530022
24.2133 35.8632 21.9204 31.3445470854
19.3279 35.6075 24.2796 98.9400750517
27.4474 43.608 23.8751 53.2378777955
27.5993 48.9259 21.839 25.3834631869
29.6577 46.531 24.5552 97.961285958
28.4453 42.3197 21.3648 33.1981559553
23.8208 33.1306 21.6062 33.0317158108
29.2494 37.1761 23.7912 55.9434835509
21.0238 33.1016 21.5862 34.7128548681
23.9763 46.6878 21.1793 29.581436948
23.07 37.945 38.7454 27.4758577199
24.4512 34.5717 36.6287 30.1700044303
22.2729 44.5419 38.9232 31.6498474258
21.9509 34.8587 35.5053 114.533151803
27.5887 41.0218 36.925 35.0355761186
27.0155 48.8335 38.4408 35.4018243213
23.4924 37.6734 36.0749 47.5554221204
25.9874 39.1086 35.5782 94.0775547772
29.4127 38.4855 35.74 73.4012429984
26.5824 36.1781 35.5982 79.9649968763
20.9312 47.8975 36.2923 58.0214622838
23.668 41.0101 35.9472 70.3854607987
23.9389 46.697 36.093 69.157867382
27.3554 48.4278 35.6854 76.5633985738
25.7422 43.1299 36.6515 38.7818417911
20.016 44.4678 35.6761 104.3133812401
20.0742 37.0427 36.4204 33.1515734449
22.7529 43.914 36.1337 59.7715749768
28.4648 36.9329 38.3415 29.9712537501
27.0068 45.4263 35.939 81.1252296665
28.4129 32.8227 35.6904 75.2423893021
28.8027 33.7622 38.3712 31.8020170138
19.9142 45.9796 37.9697 27.7606656478
20.8708 39.5363 35.7611 88.4896541866
22.6492 40.8154 38.5583 29.1511799143
20.1265 42.2452 39.1135 28.2494713123
26.0449 34.5161 42.7396 28.3900231353
22.1059 37.0992 42.0361 30.2113391181
27.7192 46.272 44.7875 29.2354130102
20.972 38.6727 44.4112 30.4733197112
21.0111 33.2905 46.2333 31.5302709028
25.8464 37.4157 39.626 32.5673680229
26.5167 43.1377 46.7125 30.0446820063
23.6562 39.4768 41.259 29.9877078128
25.5043 44.4594 44.1026 27.4648279223
23.317 44.8157 45.5131 31.6713758802
23.2956 47.0692 38.8274 27.2887436724
21.2483 38.3133 47.18 28.4735980372
19.9232 47.9226 40.7684 33.7587551489
27.7774 45.1539 41.2853 32.5140781211
26.7723 39.4027 41.3678 33.7350651911
27.8161 42.3419 41.7269 30.3105633139
21.3613 42.8467 45.4392 32.9899756214
27.6611 36.1772 44.4685 32.6554199952
23.0147 40.7682 44.0884 32.999117783
22.1575 33.2251 43.5915 30.6313236303
24.7328 42.9185 39.3416 33.0639190331
29.2513 39.8921 45.7528 34.2610662143
27.2422 38.9011 44.0689 33.4244825206
21.6321 47.0393 45.6615 31.9829686266
25.1863 42.0781 42.2654 31.97899299
24.914 46.2382 41.7987 35.2281077297
26.8092 32.9698 45.183 28.316203159
20.6472 36.4874 38.8585 27.4393391765
24.5563 34.1124 46.7007 28.7296426571
20.1337 33.6678 41.6978 27.9165878225
23.7471 35.3974 43.4856 30.5017698159
20.144 40.2722 41.1329 30.7569481964
27.9612 35.271 47.0012 27.5595371204
25.5755 48.3302 43.9108 33.4967381838
28.4546 42.1989 44.4923 29.4320323485
23.6356 37.0588 46.0585 29.5586631974
24.9587 39.5842 45.8039 31.7641395206
28.7886 39.4282 38.8935 30.396923551
20.0624 46.5382 43.364 37.2940049106
29.2608 44.6171 46.5406 30.103886878
26.567 34.6936 40.1246 32.6495029806
21.0227 33.5649 39.0391 25.9541666375
20.2365 35.637 47.3609 29.2754710333
24.0664 33.8671 39.1388 32.3984654694
25.954 45.9146 38.7456 29.0121786053
22.0984 48.318 51.887 31.6188983703
28.8949 40.1268 48.4733 29.3314754439
26.5523 33.4775 50.4148 30.5124731986
27.0178 36.5845 54.8044 29.5348065795
21.5509 39.5535 51.4678 29.2292261552
22.9947 36.0559 48.8577 26.7006328001
22.0812 33.9821 50.5688 28.0647410395
25.7346 35.7243 48.8111 26.142784738
28.9684 37.3415 49.0706 30.1001309342
22.7176 43.0864 49.2591 35.0195330417
25.1883 39.0721 48.3479 26.8032881847
28.9367 45.7466 54.146 32.086488725
27.0797 41.4497 55.7015 29.2205236279
24.492 37.614 51.1663 29.0642090367
25.1097 45.382 51.6519 32.8747315093
26.5509 41.3584 48.7307 29.0242516205
26.439 42.7839 51.1234 31.910896679
22.7805 39.8903 49.0303 30.362396752
24.7561 44.7513 47.8687 31.5430001024
22.2154 45.0088 51.6752 30.1894556095
19.7629 48.925 53.2117 29.5632652648
25.3682 47.188 49.2511 30.5186495045
28.7282 43.9769 51.9545 31.5665839229
29.22 45.9578 50.0525 32.0381794662
21.1828 42.3548 52.2025 30.9983179451
21.3254 43.5341 54.954 31.4519260048
24.27 34.8259 52.2851 28.0753748447
24.0816 36.7384 54.6702 27.2362135566
23.398 39.3184 53.4355 29.9315068588
21.7289 34.8212 54.474 27.8013671561
28.0249 35.5671 52.2007 30.8415210818
28.817 39.7 52.6803 27.4422861789
27.3676 37.9395 51.1604 26.4170040838
27.3638 48.4261 51.2116 31.4742413396
23.8634 42.1899 55.1766 31.7892186442
24.6733 46.2058 54.6126 26.1195402353
25.8445 40.9618 53.1036 32.9784573414
22.0078 46.404 54.3043 28.0443597091
26.7979 47.5714 53.9431 28.2713468073
20.2023 33.1724 52.762 27.0340539945
19.9483 47.5369 47.7582 32.4121724832
28.4063 38.9868 55.5352 26.6729947075
24.0316 32.5962 53.9074 29.8576030651
20.1231 46.6337 50.2897 31.5143390405
20.0024 42.8512 48.1529 33.3003821045
25.8237 44.192 56.1863 28.803858011
27.623 47.2895 47.6941 31.8598490694
31.0104 2.4568 9.61368 33.645204897
31.9776 2.41041 4.91642 31.0952950037
30.7212 4.44563 7.49529 32.2217839849
39.1081 2.63525 5.79643 32.3895414401
33.4668 10.8552 9.94903 30.0187357914
29.5538 12.8723 6.84706 28.6681819955
39.4196 10.9405 5.14276 32.8415965935
37.5332 0.328438 5.8444 29.163199922
32.5737 7.78966 4.71166 31.4493075343
33.519 5.58909 6.83464 34.2428729393
33.6761 1.09706 9.79545 36.870853225
37.465 4.63652 6.51725 29.9361947239
32.6928 15.1668 5.29524 27.8821070551
34.6753 1.31746 5.33861 29.6090344879
31.5839 10.1698 6.03837 27.2607692969
29.3202 -0.0445669 9.42867 30.8226814754
36.3018 11.329 8.19994 30.1681041925
38.0558 7.25206 5.68435 32.815562758
34.9865 3.94928 5.32667 30.0410647103
31.8239 14.7517 11.4205 27.7072291641
35.3211 12.4174 5.68659 33.2344514102
36.5012 1.05849 9.05982 33.3458512732
36.7389 5.46656 11.958 34.5606903451
38.7831 7.58312 8.31687 32.4966925549
30.8861 14.2186 3.69397 29.462846152
36.1809 13.4592 10.068 28.3848232592
35.3934 8.51898 4.63568 32.9592161065
32.9954 13.5957 9.47283 31.5447393261
37.1516 14.8876 5.88371 30.8692742891
38.9641 10.2214 7.7169 29.1572097492
31.7993 7.04283 10.3114 32.9516378922
36.6652 10.8141 3.87287 35.5533727407
30.2297 3.80552 11.9229 31.4101882178
36.7507 7.71427 10.2445 34.9696296354
37.2834 3.89191 9.1251 34.5079641961
34.2458 7.22714 8.67496 33.4735772819
37.9493 1.21512 11.698 32.5070667516
32.6399 12.96 6.88959 28.2224863611
33.9757 9.6181 7.41935 27.4552312919
38.075 12.0129 11.4713 29.9631076819
31.3546 9.63261 11.1042 31.4711025599
36.1329 15.657 8.3309 29.9316198408
35.8344 10.19 11.3568 31.5469408203
30.7031 5.05041 3.78523 33.8691264193
35.0355 15.7807 3.95203 27.3106267796
38.2965 8.33947 17.3788 31.800978432
30.6677 1.77769 16.5232 29.5110965971
36.8865 1.16734 17.6198 30.8224550888
35.9738 -0.0277619 13.4024 28.5697992364
35.0525 2.2834 15.574 26.1225309042
32.122 8.14525 17.4613 31.4987600165
38.5463 6.70253 14.2663 31.2613736244
34.7853 5.49583 13.9834 29.3931222112
32.3784 9.40623 13.6129 30.5939462367
36.1996 7.78031 15.0309 29.9002659638
31.4423 13.937 13.9903 29.6637572516
30.5781 11.4127 14.4011 29.1152883413
38.3316 3.50385 13.5075 31.9188884009
32.6595 15.1378 19.7427 32.1184155737
35.0076 10.1898 14.0774 34.0111414738
35.2099 14.6694 12.7774 35.1570634096
38.4692 10.8076 19.0557 32.3829451281
32.1371 5.75425 12.6775 30.5233945025
37.8386 2.54687 19.8727 30.9716313367
36.4165 12.6625 18.8937 29.8135026162
36.5073 4.49203 16.4999 29.7863552883
33.9502 14.1326 15.2776 30.3811128205
30.7222 11.0178 17.2049 29.3876015602
32.7906 0.9607 20.3213 26.9001777583
33.4475 3.68842 19.7493 29.5973531838
39.0348 6.036 20.8005 29.4496926139
37.3169 14.3227 16.7156 33.3105435611
31.0482 1.39856 13.5799 28.905517255
31.1319 6.39261 19.4547 28.5895302842
34.9156 11.8222 16.385 33.9406183907
33.2455 0.680657 17.0372 27.928148065
34.3246 13.3619 20.6311 27.7901463566
34.7512 6.88269 17.2299 29.0963124854
36.5156 7.19279 19.476 29.1192716727
33.4826 4.32422 17.0479 26.941758347
33.057 10.9251 18.4332 30.8272229121
37.7294 13.3228 13.783 35.9817330678
30.7892 5.02988 16.6022 31.2470564232
33.6817 16.2192 17.1267 31.4132027984
34.806 8.88186 20.8934 30.1330490148
30.554 13.2409 18.9777 31.4985623399
31.1767 7.21335 14.6295 27.9623302495
35.9642 4.6483 20.656 29.2803888046
33.5604 2.66599 13.1558 34.3029287193
31.1185 3.95619 21.216 25.6105445694
32.0068 15.2324 24.3245 93.3432639646
37.5157 14.2589 24.1384 60.4237706449
37.3897 2.1906 24.3213 95.2838305227
35.7577 4.49355 23.5708 38.5194153793
32.7528 0.76833 22.9316 31.9108807319
39.1188 11.1269 24.3545 89.1976931554
39.0002 10.101 21.698 29.5748805195
33.2534 6.96162 24.1789 68.6888642776
35.6502 16.5589 21.3684 30.9838634862
32.8351 4.08721 23.8808 73.7537682269
29.9375 4.32933 23.8313 45.1896955954
36.2141 9.46005 23.0264 30.3973940895
30.2308 10.8702 24.3875 89.1792627692
36.2618 6.91699 24.3944 103.9185085674
34.5002 13.8144 23.6551 35.9289036526
39.1108 7.54207 23.6051 34.3279367669
30.2029 7.22196 24.2127 76.2536122806
34.8796 11.3255 24.546 112.9020100081
32.5028 9.77851 23.9777 43.5604523833
36.663 0.800264 21.8376 29.4826855605
32.8013 11.1243 21.4526 30.6704595195
29.7885 11.1634 21.5934 30.6377196866
37.5332 14.1095 21.2883 32.6660108324
35.1532 0.20639 24.3121 89.2063162635
30.1663 0.111254 23.7099 44.9049771146
33.1769 6.75511 21.4262 30.415804998
36.7655 1.30018 36.9994 29.8591725085
34.4185 0.292204 35.8117 60.2571906681
31.6101 15.0236 35.7462 73.5938122804
29.6933 10.7354 36.1196 66.5924401709
35.8137 15.0685 35.6484 72.3142691884
32.4095 2.26171 35.4412 104.8086122172
36.5676 3.87424 35.8375 68.2893084462
33.7045 4.68782 36.0621 60.5485906355
39.2766 10.8164 38.2362 28.2746082141
30.0991 0.290678 35.825 55.3853741949
31.9978 8.76677 36.1474 71.0376128296
38.6329 14.4114 35.9498 63.9011402293
34.4025 7.76158 36.0279 73.1927258818
38.1869 11.4794 35.6262 100.4448110797
35.5507 10.6085 36.197 47.7554067195
37.2064 7.03308 36.3481 50.4611479349
39.0545 4.53594 35.2918 117.8408581339
34.0594 12.8441 35.6655 91.8006622214
34.2215 10.8756 38.8202 27.5102050241
36.7114 15.7522 38.4503 27.8619140818
32.3674 1.88669 38.1871 28.2498722567
29.926 3.65404 36.5558 32.9097603607
29.8026 6.65456 36.1857 73.8982871668
29.61 0.816795 38.6625 30.4259843587
32.8709 13.3001 38.4719 27.7794887967
38.2854 7.26668 41.6848 31.5636966938
34.7824 3.54864 40.0156 31.1930937083
34.0986 3.25698 42.6916 32.7963513702
37.6172 11.9332 43.3504 31.4903373598
36.4823 13.0876 45.779 29.8813500038
31.1615 14.8498 41.7339 29.8522188436
33.0025 3.60785 47.4833 33.0088341277
29.826 3.89533 41.8099 31.8669264077
31.4375 2.52855 43.7704 28.8391071576
29.9219 9.3525 44.5553 29.7280968333
32.7985 7.29718 42.7709 29.065337314
32.7787 12.6554 42.7598 33.2256997335
31.461 9.87797 42.0499 27.5734782425
32.4955 4.66388 38.6685 28.885528358
36.3376 12.0857 40.6922 28.6444760427
38.6347 6.48637 45.8451 29.4422344291
38.823 14.5993 42.9823 30.135090184
29.978 15.9212 46.0905 28.9712841268
38.8604 1.71859 46.9159 28.9809093842
34.1548 13.7013 40.762 29.8282674177
38.3882 13.491 39.2446 31.6798477307
30.0824 0.424422 43.6798 30.1733392582
33.7586 10.8652 46.5194 32.7232236196
37.9939 4.96567 43.5296 32.0571547665
35.3246 1.18325 44.073 33.0631548631
35.1217 5.63313 43.3145 27.7620929746
34.6894 7.113 45.7561 29.3312096097
30.8368 6.1933 40.8676 28.3268050255
30.6629 4.43585 45.8419 29.3488111675
37.1948 2.78085 45.0604 35.3328113954
31.4161 16.1663 39.3767 27.7247506574
31.6381 6.99231 45.3828 27.7783550092
35.729 9.56386 45.0159 30.0213845469
34.7506 9.95957 42.2251 29.5048512738
37.9889 15.3745 45.9917 27.0334328657
38.4934 9.10441 46.1401 27.4012207043
34.1413 13.8534 45.0602 31.7312711916
33.356 1.12016 46.2038 30.1732693773
35.6256 7.56169 41.0857 26.7351436978
35.3932 4.56313 46.8604 31.325232888
29.8025 13.3252 46.896 28.2785839158
38.5215 6.82976 38.7413 27.5206077778
37.2436 4.07602 38.7038 30.2595108039
32.3821 8.99722 39.3212 27.7636350211
36.9151 16.2473 41.3712 30.166283622
34.8713 0.84757 39.172 29.9461304139
39.2777 2.19418 39.7175 33.395379073
30.6178 11.113 39.0078 29.8381502834
37.251 9.43022 38.7991 28.3084574246
34.5014 6.93945 38.7015 27.8477663491
29.9314 0.981722 50.2521 33.3424846421
32.3505 2.58591 50.1077 33.5241434508
31.7958 15.0642 52.3139 25.7675582588
34.8694 -0.0765363 52.5104 32.9978518018
39.1152 4.25987 52.0233 36.5337049905
38.5796 13.3613 49.8338 30.7718765565
33.2631 16.0227 47.8763 28.745419517
32.1279 5.17565 51.2619 28.986786881
31.8941 10.9138 53.8334 32.7580733101
36.2634 11.515 53.6627 35.750669733
38.5353 15.7742 48.4865 28.0654161204
36.7389 4.06423 50.3974 35.2903944153
30.5369 2.76398 52.884 29.1866645625
32.1988 10.5814 50.5822 27.5290117699
30.0238 10.3197 48.2487 29.4009335427
31.2529 0.944791 54.7538 29.6821733725
38.0246 6.92232 52.6287 31.6857218987
34.298 8.33801 50.2545 29.999000236
34.9281 5.83311 52.0501 31.3833726273
32.7031 13.7434 54.2468 30.794985355
30.7231 13.1973 50.6786 27.137188177
36.3518 11.7409 48.3862 30.2090054846
32.3392 8.51228 47.6636 28.0289569924
36.6338 8.89877 48.9519 29.4538773816
38.362 15.1261 54.2833 32.8195421235
34.3034 12.6659 49.7829 30.7961065185
35.5091 7.44873 54.3142 29.196624383
37.3613 5.7765 48.1423 29.2952659095
34.3162 14.9661 51.0847 30.9491436265
30.2849 10.9877 56.1982 30.1924610148
32.1942 4.70429 54.1445 25.758823048
34.0294 1.56983 55.1791 34.6467942117
38.7219 11.4981 52.3088 35.6199229565
38.6532 8.90354 50.8948 28.7966460537
35.3936 14.3711 54.0608 31.6658890334
37.652 0.617314 49.1734 31.4028238808
32.3701 7.52696 54.6353 29.6246335157
34.8668 4.66453 55.1398 39.4683602858
35.0383 1.19455 50.3028 30.6605882097
31.1565 7.55252 50.2141 25.0403981476
34.3912 9.33181 52.7079 29.5111706511
29.8408 6.15154 48.193 30.5004261982
32.486 13.2108 47.6922 27.2578173004
33.8681 20.4546 5.20463 31.0753019169
30.1777 32.0 9.71956 29.7873362595
33.9343 17.6778 8.49999 32.9699010885
38.112 26.8127 10.2583 29.6751466378
38.3104 16.8691 9.14633 27.4659767898
38.9161 28.2479 5.68321 34.218852737
35.544 18.4116 6.0846 31.5731505146
31.8634 30.7676 11.6799 28.1746327105
35.6117 23.6577 8.41558 31.199374315
37.7042 19.3829 7.81253 29.9888402382
31.4415 26.037 7.62863 29.828663201
33.4936 22.8598 6.53657 36.8889760545
32.8363 25.264 5.28316 35.5680393224
29.7874 17.2779 8.67512 27.9103198693
35.0323 28.704 6.40568 29.1492929762
33.8823 27.4907 8.63919 29.3157194986
31.5427 30.3847 5.58259 28.9982482643
35.7028 31.9613 5.07738 29.1084620116
31.2256 19.8993 5.37959 27.5483158564
31.78 17.5211 10.7694 31.052793253
34.5575 31.8607 10.4193 29.1041001347
34.4726 19.5318 10.6471 29.2221610072
39.0845 23.5059 9.50304 28.0515104536
29.8054 27.914 6.97547 27.6550556263
37.9312 18.2214 11.4687 32.6413857513
36.459 21.3107 9.80933 28.8234818597
31.5395 17.2239 6.85163 29.9206929648
35.4997 26.3944 4.63686 30.7244372232
34.5271 25.1996 10.4142 30.122136173
31.6664 29.2557 8.81062 26.4333116621
32.6805 24.3196 12.1701 31.2261492338
34.7012 28.9548 10.8502 27.7289281496
36.8851 25.022 6.26683 28.0242551691
32.2359 21.0711 11.3056 32.7433306145
38.7813 26.3324 7.42079 29.3244753648
30.3009 28.2098 11.1924 31.4630130829
30.5477 24.2124 9.74428 31.689175404
37.4011 29.3286 10.8627 28.1416907605
37.4606 30.3579 6.8248 29.5350958484
34.3124 31.556 7.56376 29.4769405894
36.6812 25.1297 12.1349 28.763377014
38.5364 31.1639 9.26989 29.9862153101
37.9248 22.9509 4.60655 37.0540018143
33.7117 29.5277 4.12591 27.0647097921
39.2153 16.6895 4.4842 32.4830067667
30.3514 22.4044 6.71007 30.5032838572
30.0347 21.2347 9.21573 32.7452227532
37.0285 22.2369 12.4861 31.3297228464
38.8558 21.9568 7.13461 29.9832670425
31.529 32.5272 7.36102 30.8509082076
30.2643 28.0215 4.04079 28.4346166585
33.5248 20.2201 13.786 30.8140617333
32.3456 20.1477 17.1393 28.721139003
38.1345 25.0093 16.3472 29.7892714492
37.1443 22.308 19.7009 31.282875345
33.1112 25.0448 16.3481 28.756734925
36.0794 20.8921 14.621 31.8405736108
31.3256 26.6337 13.1431 26.6932944413
39.1006 25.1089 13.8844 29.9048092179
33.8996 29.5356 19.9831 27.1118074865
37.9897 18.3453 21.5787 28.6858261871
30.214 32.6957 17.747 29.6338849246
30.9121 27.0925 16.0069 28.7230426771
32.5854 17.8388 15.3136 31.2484240975
37.8455 28.8547 15.8931 28.9452289084
33.5742 28.4137 13.3241 28.7449153027
35.2455 28.5722 16.0659 30.9380289914
33.0571 31.8759 18.2067 29.2010788104
34.5159 31.2393 15.8738 26.8198620604
30.793 22.2133 13.8406 26.9567044088
38.0751 18.0191 18.435 30.7588787956
34.748 25.8562 14.2037 30.1247652141
33.2895 26.3009 19.0444 28.6147512141
38.5485 32.1117 13.1826 29.2447053369
33.9606 22.2131 18.8101 27.7052095636
38.283 30.0006 19.421 29.0275330146
36.7918 26.484 21.0438 29.417801521
35.8265 31.4096 13.1132 28.7559220187
37.1529 20.5118 17.5178 30.6537796048
31.455 28.7823 18.1007 32.8894996378
31.4278 22.7155 16.3422 27.4251984709
34.5637 19.1648 18.6676 30.2434633717
37.1465 18.0692 14.3276 29.0267526076
35.7094 23.6512 16.2776 33.8270529587
31.4697 24.4231 20.0258 29.859212814
36.4144 16.8901 16.722 28.1848447601
36.1426 28.2272 18.8694 26.3725171375
31.856 30.9107 14.5658 30.9427234647
34.8557 17.6125 12.733 30.1861114004
30.2162 16.4978 14.4675 29.0157651824
38.5995 27.004 17.999 27.2835274318
29.8284 19.6511 17.7672 31.2098571177
34.9032 24.2838 20.4029 28.4004287248
30.8491 32.126 20.7609 28.4513000045
29.5542 20.2525 20.8125 27.9563360615
38.9771 29.2558 13.2834 29.1528067564
33.7419 19.5352 21.2256 27.2045806381
38.5191 23.2845 24.4236 81.1600302671
31.5632 21.9813 24.2952 70.0339093259
36.001 16.7283 24.257 74.011565629
39.4715 28.8911 23.8772 59.2193464491
33.7567 18.72 24.1327 56.3427925153
34.5044 21.5665 24.5939 87.6482359604
37.1186 20.9643 24.3215 58.4847751812
34.4533 24.3643 23.2106 31.1839274444
36.7368 25.5766 24.6489 115.3562874491
31.9251 27.9431 21.3292 26.9077418162
36.198 27.8663 23.2366 32.9482937649
31.9438 30.2113 24.1175 79.1001634061
33.3022 27.6185 23.9346 64.5796651515
32.5432 16.6039 21.8329 26.7586532145
32.0922 24.8491 24.3815 86.8406127285
38.6866 18.4472 24.4099 82.7685382715
36.7817 31.0151 23.9649 72.9530425343
30.0267 29.5588 22.2198 25.8667077042
30.8572 18.4456 24.3038 77.5599934055
33.4756 31.8471 22.1519 28.4158973492
39.1008 32.5059 21.599 28.559200084
36.1769 20.6654 21.7112 29.2125879723
30.0198 17.826 21.5748 27.7345989912
31.9955 21.8215 21.1472 30.6757292155
36.195 30.7944 21.1189 26.2367235547
30.6483 17.7295 36.0665 63.8862111572
33.7758 17.1521 35.7294 60.1381377228
32.0755 22.6224 35.6402 80.3886625206
33.5623 31.8778 35.7561 97.0109673724
34.5416 27.6916 35.7439 81.6548416213
36.5499 29.3742 38.3904 29.7836096862
31.258 21.9257 38.5646 31.9419671815
32.0876 28.1061 36.8603 30.1896067461
36.2984 18.9118 35.1847 105.1482943362
34.5016 24.9267 35.6789 71.4980618913
30.5702 30.4706 35.8025 84.7282441008
31.847 19.121 37.8271 25.9901394374
37.0106 21.5288 35.5709 67.7184125837
37.3112 24.4879 35.6095 82.5322695661
31.0381 25.7056 35.9757 64.4422210246
38.0472 23.756 38.1646 28.6571618378
33.5962 20.3843 35.8726 57.2842766855
37.9026 17.4795 36.5848 29.5591772176
35.5425 21.525 38.0293 26.9452291829
37.1324 28.8996 35.6266 82.6278375458
39.087 26.9391 36.1326 40.1506266215
38.0193 31.3632 36.0778 55.1968600514
33.5348 24.0248 38.0939 28.148052223
30.1591 31.1842 38.5629 31.0289258745
34.0051 16.6559 38.4848 27.2968737783
38.7231 27.5032 38.6541 27.7359074395
32.9 32.6524 38.4315 29.5287070583
37.7324 19.375 38.6705 26.631577362
37.1782 23.2696 45.8858 32.1947237581
34.6498 19.224 39.559 28.4676942419
31.1124 16.479 43.8578 27.0591877409
35.6417 30.6568 44.7114 29.4580880262
31.0183 21.9783 41.4277 31.1133822383
36.6153 27.6448 44.4279 28.7433515478
34.0516 24.6091 41.3384 29.4587394062
32.6204 26.0828 39.1731 29.2375636221
31.6012 28.9607 45.8701 30.1080306111
35.6738 27.1983 41.5605 29.4171162613
33.7954 28.6931 39.2529 29.715044147
35.256 29.6301 47.2727 30.6695157685
33.299 19.073 46.1576 27.0007340827
30.1431 20.0324 45.2448 30.3091795706
38.6983 18.1846 40.7742 26.7028975157
31.8758 30.095 40.5914 27.540554001
35.1087 17.7452 42.8541 29.3289667898
36.5728 30.0326 41.0353 27.9984643717
38.6904 29.6467 43.9329 30.7432891106
38.9053 19.8088 43.1833 26.0125718995
32.2043 31.3993 44.4819 28.3647886826
32.9396 19.8602 41.8319 29.7247127334
37.8565 25.5945 40.5043 31.1668226827
33.59 28.539 43.3075 30.4614465738
30.2335 25.8122 47.0652 31.228873601
37.1666 17.8138 44.8381 30.1876044219
36.2841 20.542 41.8884 28.7425780993
34.1782 20.9011 44.1477 28.9398776904
33.6892 23.3894 47.0426 31.4466208402
36.0211 23.0452 40.5801 28.7909229341
30.6394 28.5875 42.5996 29.4107227525
35.535 23.5761 43.7716 28.8656977736
31.8474 22.176 45.166 29.4495213102
31.6532 23.9774 43.211 27.8405484194
31.7453 26.3703 44.7507 25.3022253777
32.8753 32.4127 41.6179 30.1612030752
34.3533 25.4977 45.3533 26.0688893767
30.3552 18.8884 42.4681 28.4460703478
38.6279 25.7244 44.757 30.6364669294
35.804 18.6141 47.0337 32.3904878925
29.7088 26.264 39.4845 31.9441198368
29.4783 32.1059 44.1993 31.4211028264
38.2743 32.4557 43.2979 26.5984966868
33.5791 16.6611 44.8127 26.4099795669
38.1204 32.3432 38.9747 27.44238626
31.8938 32.2865 53.4319 32.0449492437
37.1145 19.868 49.4416 31.5807573149
31.4584 19.6683 48.0223 26.4606018804
36.1311 18.1957 51.4545 31.5277881376
38.3704 29.6376 50.6071 27.2883800015
33.3336 18.5486 52.2008 28.1842826967
30.7548 21.4855 55.0578 33.455764635
33.561 21.0977 50.8195 31.3093499189
32.4858 29.5176 53.7125 26.4593636043
35.8909 22.1489 49.7123 31.0701405331
32.7821 26.9962 55.5143 27.5557992773
35.5187 27.1292 53.9105 31.0945030066
30.2211 29.3748 49.2763 30.6410495907
35.3819 26.8587 47.5014 32.4243388782
36.8643 24.6054 48.3616 28.5752017297
38.5478 22.2976 53.3722 27.5164335822
33.1802 29.0237 51.1737 30.0556257525
31.7543 17.2872 49.7978 29.4890973854
35.9092 16.566 48.9175 29.4024433046
30.706 17.7085 52.9482 25.9663016551
37.563 30.5206 48.2485 30.9185622781
31.4324 18.032 55.935 30.3456395247
35.9722 29.0778 51.8915 32.5228753538
34.0644 18.1746 54.7326 27.1900251794
30.1608 27.3663 51.5774 29.4818918861
30.2375 24.0646 53.2956 33.085122981
31.1776 21.7092 49.5131 26.8294832798
37.1067 21.041 55.509 34.9121463724
37.8308 17.7837 53.3208 27.308768993
36.1862 23.0154 52.3925 32.5014878287
33.4816 22.8736 52.9758 33.5067689649
32.8628 30.6102 48.5615 31.4733343276
35.167 30.7806 54.6208 25.43996609
32.5038 25.8506 52.7476 29.0260188797
33.7445 26.3977 50.0024 31.5317563613
38.8235 26.8682 51.057 32.2215606329
36.1911 25.764 51.359 28.7951569098
37.6912 30.1723 54.3732 28.9586092012
37.7342 27.6908 55.5016 31.1546306118
39.5585 31.3638 52.1139 28.7831537915
31.8222 24.3737 48.8081 31.9583216996
34.1572 21.0296 55.0247 32.7644692929
36.5807 18.064 55.6544 26.2355162084
29.5051 29.2274 53.6009 29.9436591635
34.7248 35.9786 8.24316 28.8053920989
32.2181 34.0632 11.7482 30.6434223072
36.9241 33.554 9.34676 29.6596252021
38.7532 35.8137 4.11421 28.5813328833
36.2854 34.4686 6.61405 25.7701038286
33.7878 48.7017 12.0052 24.0881115844
30.1419 39.8047 5.2145 28.5602600726
31.1308 37.8307 8.04972 28.717387868
35.5139 46.4704 11.0786 30.1583750533
36.2536 37.7791 6.65182 30.4360602925
38.767 38.2625 8.16287 34.8853221639
34.6283 39.9013 5.77718 32.9974165765
34.4496 44.8285 9.43 27.175114132
34.451 42.8837 5.38428 32.7486538943
29.6821 44.1728 9.38146 27.9653981202
36.4305 35.335 11.7729 31.0368554348
33.4755 39.175 8.3401 31.402336474
38.0124 46.0811 6.44732 25.9175008643
31.8768 43.4881 5.40684 29.2384882128
38.2258 46.2242 10.7782 27.5112307628
36.1404 42.735 9.11006 37.0873738336
31.9136 45.7403 9.07787 29.6227582813
31.9726 48.3516 7.97278 30.1500703437
32.5933 38.3327 4.46985 29.9921142637
35.4596 45.2042 6.84207 30.7479956088
33.7215 47.3429 5.71775 32.7105909994
38.9364 34.7187 6.56359 26.6432199918
31.5387 46.141 4.69147 32.0744295609
29.5191 48.1652 12.0372 30.3848429301
38.408 44.3304 8.66071 32.0416139076
31.7442 46.9552 11.6589 27.6466318175
32.3201 35.1674 7.01034 32.7792986709
36.2113 39.2988 11.5863 34.2013299591
34.1589 37.218 10.6025 30.8525109497
31.4222 36.7235 10.5434 29.1752026533
29.8324 47.7324 6.32879 33.3774440755
36.2684 36.9549 4.12774 27.7312761701
37.5344 41.9734 11.4497 33.4597296212
33.0767 41.838 9.31839 32.4248135214
32.1919 35.7466 4.43935 32.2625859006
30.7596 42.446 7.70749 27.0237012698
32.612 42.1543 12.1198 30.2412852028
38.3785 48.1105 8.4069 28.0285594844
29.7053 37.9785 12.402 34.4898647843
29.9143 42.5274 11.6547 31.4674996012
30.2642 42.0615 3.69569 27.7876657018
37.1563 40.4908 3.64761 34.9658699527
37.8774 45.2631 3.84322 30.2495341222
34.7433 35.7238 15.4215 31.0725921664
30.867 44.1894 17.7707 31.7652034159
30.6242 34.1194 14.1517 28.4229069463
30.4803 40.0903 16.5982 35.1566240088
36.501 42.7859 13.96 30.4931249465
31.807 36.1017 15.4676 32.3780113074
37.726 37.5252 13.0402 29.3326536748
30.4705 45.9971 15.5231 30.6062170266
34.1061 36.799 18.3557 29.1378743151
36.189 33.134 19.3971 28.4827276678
37.283 41.9195 16.7058 30.0183123391
33.8846 39.9205 13.2573 33.3692743714
39.3448 44.2505 12.5555 31.7936796788
38.8078 34.421 18.3378 26.7057701744
31.4859 38.785 14.3596 32.4914304734
34.0952 41.4779 15.5729 27.7598261326
36.7313 38.5896 19.549 27.0092978486
32.91 40.8672 20.1691 29.9236910573
37.1068 36.9613 15.5658 28.1865447267
37.5595 44.6873 18.4259 32.4901902201
35.0032 44.9828 13.6873 28.804682651
32.4281 44.6186 13.261 27.5512585791
35.2278 46.8011 15.4944 29.9959438474
31.1262 35.7403 18.0554 32.4305880486
38.3707 47.5927 14.6625 30.001322737
38.8529 37.1257 18.1005 27.6933749989
34.4515 33.9108 13.197 28.3922472647
32.9466 39.4129 17.8017 29.8352709319
38.3172 44.8326 15.2329 29.8253465919
33.4783 43.4385 18.0736 30.2180284975
37.7053 40.615 21.1553 29.0172863804
35.7536 33.3129 16.6949 26.1190528255
32.5247 47.9729 14.9746 29.2577030642
35.6727 41.7991 19.3119 26.8457628717
36.0639 39.4211 17.0165 29.6161555128
34.8975 46.1283 18.3078 28.6953056347
31.4327 42.5573 15.3315 26.5172278647
30.5261 48.7502 19.0388 29.2508873694
36.5021 43.5295 21.543 24.9300015576
37.9585 32.5609 15.7996 26.7928011915
32.186 46.4005 19.7149 28.5272912308
33.3323 34.145 20.1878 28.1066993648
32.1729 36.7542 21.0413 29.0067551958
33.3936 43.8128 21.3855 27.4087590688
39.0789 48.8644 16.7738 30.1568881417
35.2058 48.6312 19.3831 27.50355189
39.1206 35.4631 21.2286 26.4091597189
36.1376 35.6817 20.9574 29.7435679048
39.3275 38.8711 24.2295 92.6522964451
32.5272 34.3183 24.1514 86.1143505836
36.4221 35.9556 23.7129 43.9826611301
33.3869 46.7716 22.3045 27.2307221208
35.4658 33.5643 24.3253 92.9487528669
32.0474 37.2396 23.9628 65.3345346527
36.1077 46.615 24.4822 84.2597039198
35.093 38.6357 24.0587 78.0941753358
36.8536 40.5705 24.0359 67.3182801218
30.0784 42.0218 24.4418 84.1190807618
32.2524 40.1413 24.0652 64.24857356
30.7398 40.2293 21.8676 28.1214950314
33.5023 42.8733 23.9537 51.5969065888
36.1049 43.6021 24.2033 74.7758757582
30.4994 44.3057 22.4497 27.6147298827
38.5378 47.5545 21.6107 28.4213761482
30.0359 32.6034 23.8938 52.4264195999
32.2565 45.4733 24.4543 85.1433616272
34.2785 38.5286 21.0674 27.4514595498
39.0289 33.1482 24.3945 80.4644556939
39.3106 43.6178 21.468 28.5784401442
36.1164 46.3497 21.4166 25.6044372218
33.132 47.7294 37.8207 24.6319690481
33.3423 35.4118 36.1389 63.3815082529
39.0402 42.1486 37.8259 27.3144508144
36.0921 33.3942 35.8693 75.1435951525
39.3491 48.9704 35.9651 76.1801289793
35.4964 38.9086 35.9717 64.4839192317
29.5429 35.4947 35.6101 85.9321831467
30.2388 41.9065 35.7084 89.2033324554
38.156 46.3574 35.5828 84.1061297535
36.3063 36.3215 35.9026 76.6585853522
33.1851 41.5725 38.6626 27.8124740904
32.3756 44.2619 38.3866 25.2841296753
32.9504 44.3075 35.6089 71.8364685895
34.9671 46.645 35.3337 94.7426569887
35.3865 42.192 35.7216 73.7533671452
31.3585 46.8454 35.8109 65.7738763148
32.7571 40.7836 36.0703 50.9506566154
32.2113 38.0836 36.1854 52.3508672177
37.9403 40.8862 35.5665 88.5459675633
39.1423 36.3012 36.4504 36.9179266788
36.0857 44.5626 37.0488 27.8545273532
31.391 35.0981 38.1931 25.2622230023
29.6962 44.4222 36.092 48.8741245592
35.6857 33.8014 38.571 29.3935319405
31.1649 40.342 40.0148 31.863017385
31.3991 34.7883 41.1159 36.4641744237
37.5546 38.2113 43.1048 30.0802575854
38.4288 45.7864 40.4537 32.1604337178
30.0546 46.2335 43.0934 29.2909406799
34.6666 41.5137 42.1838 26.7079512832
32.1876 48.1554 42.3024 34.9388424075
36.9809 41.7759 43.8126 29.7631501076
33.5595 43.9555 41.3059 28.0583974174
36.6196 35.9699 41.8913 27.7882120772
35.9048 32.789 41.5218 26.6843269492
37.2871 43.3346 39.4771 30.2934338259
35.8934 41.9164 47.2228 27.3967942584
38.4511 40.1117 40.9573 29.592482634
30.942 36.0726 46.7319 26.4968965214
30.7643 42.8731 40.9856 28.6089889311
31.7502 38.2802 44.8135 31.145868437
38.5448 46.2163 46.2117 29.4370385892
35.7944 47.4759 43.6622 35.6820712564
36.4095 48.0554 40.8875 35.3764995404
31.0609 48.7226 46.0714 28.0945799673
34.8734 45.6886 39.4136 30.4575312603
37.1165 44.8805 44.0895 31.6132945479
33.6591 36.6274 41.5147 29.2505380806
33.6179 45.6316 43.3725 27.0702937782
35.1066 33.3883 44.4482 28.349760145
32.5077 33.7515 46.5272 28.9393729864
37.4037 34.3722 45.769 29.4567182429
31.899 46.1166 45.8073 28.0977357258
33.0307 35.7724 44.1319 26.8535901222
33.0006 39.3793 42.4048 33.5766903639
33.6401 39.3742 46.1677 27.1846067066
35.7724 36.6192 45.2285 27.8591337318
36.743 39.5682 45.8378 27.3226542496
30.1055 34.739 43.9379 31.0990683983
33.0251 41.7352 44.8274 32.3659408934
34.7627 43.9742 45.7855 28.6777079188
36.0353 40.8686 40.0161 27.9265556948
30.9691 43.4994 43.8405 28.0664558065
38.7998 34.2614 41.1104 24.0817898197
31.1936 47.557 39.6715 31.1886840857
29.7515 33.0508 47.1571 28.6913512722
34.9276 38.5563 38.7798 28.3899939149
38.4072 37.3206 47.0889 29.6763515491
38.5095 48.7302 39.041 29.5081861264
32.2908 37.5683 39.2619 28.8175157862
29.9383 45.0814 39.1411 31.8894546286
36.7367 36.551 39.0329 29.2139988712
38.4877 42.3123 47.7349 29.4058092139
35.9689 34.4659 49.8775 32.3777980411
38.574 41.5547 50.5705 29.0877206263
35.3487 40.9031 50.6808 31.438417734
37.1359 47.0183 48.4087 31.1109252638
35.7275 36.4259 48.1938 26.7730683808
38.2259 42.5736 53.1481 28.8192738432
36.5613 38.3898 49.8098 30.9416142206
33.2612 40.1921 48.8525 33.7514119905
38.0264 33.1893 48.3187 27.6071400718
35.3634 38.1439 54.1853 33.6104590209
38.5999 48.8321 55.8218 28.6111154298
30.987 41.5372 49.4054 34.3200223366
35.3317 43.8102 49.7075 32.3560543263
37.938 44.984 50.0348 29.853256238
33.2349 33.2893 49.3242 33.8239106242
35.757 40.8271 53.37 28.6426226782
29.945 33.1436 55.0079 29.3618516293
36.1652 43.0759 55.8195 29.2019294911
35.1761 44.9314 52.4353 34.5997491924
38.1128 45.5044 53.0839 28.240266902
37.7022 33.4064 55.636 27.524789661
29.9357 35.7251 55.1947 29.2741883552
34.7031 34.7027 56.2469 30.6255039649
31.2888 44.401 48.5736 34.9957470573
31.1144 33.3363 50.763 29.3373452743
35.9676 36.5113 52.0373 34.949801171
31.1871 36.1027 50.578 33.8179040877
30.2062 41.7949 52.1068 31.6948595401
32.6288 39.0843 54.2528 34.4158713245
30.571 37.5385 52.9028 32.3930805778
38.8419 36.1859 51.8808 29.2508048381
32.8493 37.1947 48.5044 32.1846695296
37.4116 48.1017 53.2768 30.2796053149
32.0047 41.7254 54.2345 30.6867144411
37.2335 33.7794 52.9477 30.8860467613
34.3378 48.4064 48.2741 31.4630180507
35.8991 47.8664 56.197 34.2811687994
34.1567 43.0451 53.948 33.493282525
31.5528 47.556 49.9688 30.5457588361
32.9635 47.1568 52.0751 34.9411910991
31.2596 47.3043 54.4391 36.7973247702
34.483 33.1741 53.9997 34.3090500278
39.5826 38.4991 49.8739 29.7871847959
33.99 45.6765 47.8272 27.9806629949
44.673 4.03522 9.72123 29.5880441377
43.2344 3.09597 6.79745 30.2578690991
44.8367 9.95928 4.23614 28.6104600506
48.258 6.02559 4.77087 28.8488750735
45.5669 1.72879 7.53367 29.4644735751
43.6808 5.87248 7.21718 31.0382142725
42.5634 7.14857 4.92119 29.22143913
47.5688 7.93501 10.3698 30.6965849927
46.132 6.58902 6.49057 30.387829329
48.4537 11.0675 6.249 35.0112440636
41.6493 14.7493 7.63411 27.6583315047
47.8567 13.9556 9.8426 30.4745435006
44.7811 1.11445 11.1181 32.0574671484
42.1564 9.69816 5.30342 33.6399723694
40.5241 11.9024 9.01233 29.8883813778
39.7955 14.7617 10.1112 29.2901446773
46.3134 9.39568 6.90008 30.8412492858
47.8964 12.6136 4.02368 31.7439128083
47.9861 15.0922 5.21631 34.5701709293
42.7222 2.73283 4.10028 29.8907322042
43.6159 13.2364 8.61749 30.3607459526
40.063 6.33119 4.12695 29.5894695579
41.0641 2.21841 7.9024 33.2200485874
40.7573 3.60195 12.2359 33.1596472212
42.876 5.13066 11.4458 29.7909314157
46.3208 14.7 7.57169 31.3090553306
40.8304 10.5203 11.9619 33.0700612808
40.0051 4.18761 9.44607 30.6731339403
47.4171 2.18205 5.49902 35.1954386943
46.4896 12.0708 11.4829 29.858847833
45.8129 9.94777 9.45387 30.6791637632
47.5095 2.52693 9.86599 29.0463756355
41.6119 6.51426 9.24992 32.0163638215
42.344 9.0944 10.1426 30.6654715937
48.8612 16.0784 11.3347 27.7573582115
43.6823 14.3207 4.7012 31.372785106
47.2916 5.69658 8.83201 29.5782568246
43.329 10.5931 7.79355 31.2468147827
44.5233 9.13298 11.9254 28.4742947117
44.0838 13.9621 11.2888 28.814846758
42.1325 16.1404 11.123 27.8306084398
47.2457 4.46558 11.9283 27.4374442052
39.8255 13.5904 5.8207 30.7345678655
43.1888 6.15696 21.1567 28.9311872221
44.0315 15.2727 17.3384 28.6933620482
42.3583 1.73543 13.682 34.8024154621
41.2396 2.25472 16.2467 30.6208596595
47.7824 5.12419 14.9464 29.9898655738
47.4035 16.0673 18.4728 27.8312438756
48.6909 11.5233 13.299 29.2531052648
41.5656 0.52694 18.3698 28.5207154089
39.5817 4.56577 16.2486 32.7476354123
41.691 11.9918 15.9513 30.8420913012
43.5686 6.82526 13.7921 33.0603747831
47.8606 10.6706 18.1427 32.3559512126
40.54 9.38607 15.9942 32.6079977984
49.0981 13.6825 14.7027 26.8677707097
40.8682 8.08787 13.5948 35.0371718802
45.8719 9.92137 16.043 29.4103363253
44.4396 7.87809 16.9271 29.5989604397
44.5899 0.27942 18.9001 34.8898610873
47.8028 9.20448 14.3019 29.2901423935
46.9806 15.733 13.6087 27.615526288
44.9018 14.2265 14.9466 34.5978975886
43.9991 14.0511 19.9726 28.9445595774
46.7136 1.4416 14.7276 30.5779893435
40.4123 6.04606 18.3274 29.1316208137
46.4052 9.24682 20.9941 30.1315011696
44.9261 2.87355 13.1267 27.911182069
46.3462 2.12706 17.3994 30.7284749763
41.9125 12.7513 13.2153 28.0955392247
44.204 11.7967 17.4261 29.9339277774
43.7678 3.65675 16.9672 34.0985950968
39.9772 14.8766 13.1144 31.7516839096
42.5235 3.90353 19.5943 31.6167928164
45.1633 5.62914 15.683 29.7125037361
47.4336 13.5407 17.1666 30.6573321138
45.4873 2.81919 20.7623 31.9759985585
45.1262 7.32171 19.6139 34.2300006085
40.088 13.2238 17.7038 31.7352644365
42.5385 10.4851 19.473 28.094718478
41.787 8.26505 17.8989 27.0230502232
44.2947 11.5099 13.5319 29.4948792813
40.5351 0.763108 20.8848 32.2202327801
46.6337 7.37729 12.6361 27.4110653715
47.972 3.60051 19.6923 29.5121347174
48.6346 0.151487 18.734 31.2043557433
41.4102 15.6541 18.3961 29.9931430394
40.1175 15.4885 21.5248 27.2075611385
40.8254 12.6695 20.5812 27.4940774615
48.8671 12.8875 20.2778 29.2639909764
47.3694 5.95197 21.1503 30.6450267548
46.5724 14.4623 21.1931 31.7419036785
44.1359 2.49812 23.3585 49.02530172
41.9719 0.782611 23.302 34.8642286808
46.42 0.865355 23.5261 39.238307355
40.8988 5.53942 24.747 127.8471886491
41.3525 9.34548 24.376 91.6842242903
39.9789 15.5597 24.3733 80.8098308558
49.0401 2.19695 24.2747 82.1991862186
43.8423 5.06026 23.6201 40.3943527679
42.7855 15.7653 24.1647 49.8635081302
43.5823 11.4429 23.7235 35.4154655761
40.0104 3.58076 21.4296 28.4736769233
45.9534 6.55275 24.4662 107.883787679
48.9162 12.9216 24.4081 89.7315640888
45.9099 9.325 24.2472 84.7852501508
40.9922 12.7611 23.4118 31.9968622218
47.894 4.91563 23.8942 47.4587358639
48.6412 10.228 23.8236 42.5768132916
44.5222 11.3018 21.0981 30.9517874743
46.9476 14.6901 23.9621 48.2075892516
40.198 2.78406 24.1075 66.7567800786
44.3238 13.7117 24.7626 124.9445525388
41.4506 8.11752 21.4132 30.736906702
42.8292 16.3106 21.3092 28.2537393647
40.4126 2.96477 36.9145 31.0411010784
46.354 13.1999 36.2012 37.3994105617
41.42 14.9691 36.1161 58.4878582334
48.2023 14.0687 38.4322 28.4926753041
44.61 5.92924 35.5858 90.6678084865
43.2617 10.3958 36.0189 65.191622123
40.9995 14.7762 38.5961 29.9792566401
42.4658 5.58519 37.4866 28.509867863
45.6576 16.1208 38.3646 29.338487402
42.8608 3.23227 35.5101 97.4465586003
40.5504 6.88036 36.2788 45.8191850211
47.0653 4.96543 35.7408 88.3018891018
46.5627 -0.0127612 35.8617 76.6916104483
47.3337 10.5897 35.4876 112.8715915828
45.4148 8.54811 36.175 42.5969482422
40.6466 9.73041 35.8548 82.8455949964
43.644 0.830382 35.9632 64.3361302756
47.6406 8.47354 38.321 26.8599447531
43.6531 13.2281 35.8333 75.4078839006
48.9217 7.35855 36.0605 59.8031394428
46.902 4.03778 38.4882 30.6230147661
48.9701 2.15161 36.3043 43.2735817505
44.2101 2.98789 38.4852 30.242939089
45.786 15.9071 35.5954 76.1031559057
44.0093 13.679 38.598 27.6784119607
48.6084 1.98455 39.335 29.4037429704
43.889 5.49169 40.1697 30.5218478412
40.1543 4.31349 41.4085 34.0000385784
43.0576 3.26931 41.9218 29.8173082155
45.4634 14.1186 41.5502 31.5495048748
45.9232 3.21504 44.2257 31.967934696
40.6087 15.1671 45.4195 27.4867144781
42.3888 5.74591 43.5132 30.1838914672
41.8557 2.6572 46.4893 32.3280735262
45.0324 6.00167 44.6023 31.3979912757
46.5003 10.9348 47.2931 30.2159640412
47.8119 1.80989 42.0949 32.7512960628
42.5474 8.73828 43.2523 29.610996182
45.5442 7.71483 40.4378 30.4276818019
40.3179 9.40134 41.9634 28.5882310593
41.9066 1.52139 40.0885 35.7950133439
41.4796 9.98962 39.7281 28.1555514294
42.5765 12.2474 40.7516 28.8416294164
41.1137 14.7279 41.792 28.4587732434
49.0705 3.74257 44.2112 30.0264034885
44.2001 10.8694 42.3596 29.5260480143
43.9166 13.2145 44.2893 27.226490793
47.6154 9.94729 45.0562 29.8209673143
44.0561 1.42961 44.9734 27.3765469302
46.6818 7.71952 43.1844 31.8955222164
43.2102 15.6371 43.4503 29.4164860354
43.3234 0.338982 42.7447 28.5371066177
48.0734 15.0955 46.3617 28.019020231
46.5012 2.83014 47.224 30.5629173292
41.3223 5.4835 46.058 29.6967810788
47.2122 11.9024 42.7739 28.5534103487
48.7947 6.21053 42.4128 31.4334735225
42.6122 9.65642 45.8949 31.8179610376
41.2977 6.62412 40.2751 28.5727105845
47.8372 7.77218 46.7126 28.4117259848
45.3417 0.865913 40.722 32.8529017684
49.3212 10.9185 41.3199 30.0731846408
41.8291 12.5033 45.5306 28.9796219234
45.8371 13.4858 46.3624 32.525831275
44.2883 9.55749 39.0237 28.1867641169
45.858 11.7671 39.4679 27.3600535753
48.149 14.3714 43.5571 30.8224133584
48.2394 6.13276 39.6333 27.7211935847
45.2568 6.60283 47.1724 27.0603863816
39.8174 10.5107 44.2767 29.1644554696
48.5912 11.0346 38.6452 25.1106128304
41.0274 1.40738 49.688 29.3615840488
43.3711 1.33428 51.7039 28.5865845338
44.5502 9.17244 47.8029 28.3914571952
42.9324 13.4343 52.25 27.8064408738
41.948 16.1151 52.2434 26.9972213967
48.0963 14.7335 50.0903 28.2263985752
41.5758 5.26789 50.5143 27.1561927714
46.2137 4.70733 51.0104 29.6886119187
43.1734 0.183425 56.0557 31.4129205122
41.1779 13.8382 55.8602 31.274559235
43.5619 9.69319 50.1573 31.3497132519
48.8082 4.91509 54.9952 30.1051345645
40.6495 12.2221 48.2524 30.9510562802
45.3221 10.0287 52.1346 34.3271392353
47.432 12.311 51.3369 29.9734584455
41.7797 7.54872 48.021 28.1982342553
42.8346 12.5495 49.7546 31.9108365569
48.0237 6.12179 52.2874 32.6581489476
43.8768 14.5725 48.3005 31.4215289949
45.7497 15.7849 53.0007 29.0011318703
41.1907 11.9345 53.8393 33.81150956
43.5894 4.36255 52.1561 30.9792459159
44.0516 4.93064 48.8159 29.2100856155
48.3414 15.1937 53.2889 27.3708284697
46.8568 2.4466 52.4895 25.7508728658
39.7158 4.14512 48.5756 28.3134533351
41.3806 7.95903 50.9448 28.4743194903
44.3433 6.51203 55.4673 32.2086929503
44.1363 3.9624 54.7976 28.6125412995
39.4645 15.3485 51.6237 30.6028954347
47.6158 5.00783 48.7767 29.7622467278
47.783 8.9556 53.1487 32.2572394366
39.9484 7.64816 54.5854 35.7043262287
45.253 0.309366 53.8945 27.4464095823
42.3465 7.49729 53.6221 29.3308848121
45.2337 12.9713 53.3856 28.5443479738
46.789 3.19703 55.1319 28.6899975306
46.938 8.26608 55.6024 29.7231168878
48.6999 11.6155 48.9404 31.2924180727
43.909 2.07415 48.4429 27.1731754344
47.5973 0.244521 55.777 26.3424982375
43.2343 9.90571 53.9767 29.6722122201
39.7615 9.74258 48.3514 27.1145651634
39.5942 1.89303 53.9396 36.6129142446
46.4794 0.495707 50.2748 30.9322330738
45.3639 15.8114 50.1326 27.4724088695
48.4316 0.945614 47.9858 32.7936632028
45.1414 12.5256 56.1137 29.9332582109
40.3042 3.7918 56.0151 33.7935681922
42.0303 20.1104 4.90433 33.4331726256
41.6785 17.5388 8.72189 28.9734607267
45.8974 19.4505 8.28219 29.5655019169
42.1067 29.0682 9.99811 32.0495337694
45.4047 30.8963 6.39863 31.3536130999
41.7361 29.494 6.0115 31.9734657204
42.2708 24.0866 4.80877 36.0923282882
46.1785 16.7973 9.47233 27.0259875695
40.5811 26.6705 11.29 26.1013074812
