29.8819 30.5151 23.7703 48.3238308369
32.5342 31.1795 24.2974 91.3897372781
34.4666 31.6108 21.868 26.827099044
36.1685 31.2378 24.1684 67.0991320459
29.4147 28.0664 35.2512 125.8431272759
33.9701 25.5852 35.3304 110.5752794511
28.5054 19.3881 35.9945 88.7989170801
28.7771 16.4848 36.6758 33.427568336
32.1609 17.0958 36.3466 58.6433081216
35.5814 17.9453 36.4871 32.2558433052
33.2717 19.7739 35.7719 109.4775257778
26.998 24.1584 35.9089 69.475200389
26.2066 21.4839 36.0154 57.944238086
26.9307 23.8039 38.6776 30.8515753098
29.7248 23.8006 35.6602 94.6151093164
30.5857 21.0239 36.0582 58.39744087
30.5165 20.9817 38.7305 29.0135334742
36.2776 23.8689 35.7763 82.2420771528
33.8532 24.1232 37.9878 29.934513234
33.8785 21.311 38.1284 28.8373211693
26.2395 27.8329 38.465 31.8616280779
26.6844 27.0831 35.8066 62.2252154705
31.3055 26.0696 36.4707 32.6608997112
33.7284 27.6088 38.4568 26.9489035657
35.0882 28.1763 35.6355 85.3085276539
28.0199 30.5468 36.2409 38.1162120112
25.2162 30.0997 36.3577 44.4870683974
29.8261 31.3789 38.5727 28.7333672794
31.2123 29.0672 37.316 30.364501888
36.7566 28.846 38.8389 27.2803591187
32.9705 30.8277 35.9587 76.9685617346
34.8657 31.3435 38.2664 28.0850586408
28.3522 19.2346 38.9177 29.0400475627
25.9888 19.6499 41.5845 30.4627322688
27.5462 16.417 39.4789 25.3654975657
26.9619 17.205 42.0373 27.3945627813
30.8496 17.5444 39.1089 30.8998083584
32.5057 19.4332 40.168 30.7074217284
35.4161 18.7029 39.2645 32.6550248036
26.1624 20.9111 38.9089 30.5616728637
29.6936 23.4616 39.452 31.9961812318
28.9109 22.9085 42.2251 33.643279453
35.3689 22.7039 40.3784 28.2833188768
24.8091 24.5732 40.0123 31.4653149858
27.5747 27.3607 41.0979 35.7402565328
26.8256 24.7907 42.2375 30.1219998904
30.278 27.4881 41.4656 32.0269988097
31.3902 25.8392 39.4852 28.8658500318
36.0979 25.8234 39.3608 28.3945470719
33.4008 24.6921 41.2709 30.5063145436
27.1918 31.7745 39.6667 31.0074196858
24.8975 30.3205 39.2801 28.1481660241
30.802 30.2487 40.8745 33.6299965636
33.3731 29.8902 39.8654 27.5627117387
35.3569 29.0368 41.6609 29.9156337415
28.9869 18.1166 43.5328 30.4418766203
31.5382 19.3106 42.628 32.1018085791
29.5968 17.3449 45.9057 27.5513218433
36.3976 19.5499 44.2445 33.9599159482
35.5529 16.9653 43.5167 33.2672350429
32.8393 16.9479 43.8734 34.6944439469
26.1705 20.5067 44.3612 26.4030006569
25.2787 23.0026 44.1736 29.617837517
28.7698 20.8121 44.1423 26.5942755078
32.3605 21.9038 43.6318 30.1609781115
35.9699 23.875 43.9061 28.9275414814
35.0798 21.4978 42.8011 30.0100418602
25.5388 28.3763 42.9282 33.9052287745
26.3916 26.2004 44.7427 30.4656179342
30.7639 26.8171 44.1111 32.8841152513
31.1333 24.5178 43.0325 27.6092369157
35.3185 27.363 45.2529 29.7409796196
35.5599 26.2158 42.458 27.3919058207
26.5668 30.7489 45.6261 30.6407507224
25.2243 31.1387 43.1348 28.5847891259
34.9949 32.2024 44.6172 32.8646667584
33.3155 30.5238 43.0952 31.3128035184
32.8203 28.6046 45.0253 33.6332901314
25.6017 18.5133 46.7486 33.8328480686
28.4635 17.941 48.328 32.7501983103
32.1087 16.86 46.45 30.3593809649
33.2154 19.1028 47.7803 30.6430461454
35.8945 19.2557 47.1209 34.3463245018
27.7387 20.4944 48.6168 31.1723588893
28.3696 24.2999 47.7394 29.6287096732
25.329 21.9597 48.5568 32.185027881
25.6431 24.1132 46.7609 27.5287221002
29.1683 21.5718 46.5557 28.8314816768
32.0677 21.0784 46.2295 32.5100184332
31.7202 21.7863 49.2801 33.4862786948
31.2498 23.9324 46.0999 29.4628023945
36.418 21.6819 48.2868 31.2634751779
26.7254 28.2078 47.0599 27.8688769326
24.7535 27.4134 49.1867 29.3975128411
32.3331 24.7912 48.9146 29.5259537706
29.9526 27.9616 48.4049 29.8413548585
28.9058 26.6089 46.2588 28.1625584061
34.2499 25.0038 46.3453 34.6050723137
36.5944 25.8951 48.0083 27.4088919209
27.8355 29.8027 49.1601 30.2300140062
25.1195 31.8314 47.4465 27.3684106206
31.0764 30.1013 46.8121 34.2970047658
28.9657 31.8567 46.9088 29.8134214303
35.2925 31.5438 47.2315 32.6785078192
32.9397 30.9806 48.4936 34.140400347
26.2809 18.48 52.9254 38.5008980488
28.8047 17.1832 52.5068 34.735620774
32.3283 17.8923 50.0786 31.454039203
30.1315 18.9133 50.9011 33.0557801391
34.0968 17.6561 52.4151 34.4771445256
25.4904 21.5101 52.1933 37.648853435
27.0107 23.9463 52.1165 33.1866372544
29.5316 21.8701 51.1756 31.3846029313
34.6636 22.2528 50.1796 35.2665923191
35.6535 21.6292 53.0003 35.7958684292
28.5082 27.9159 51.3166 28.9618570451
25.9385 26.5317 51.3422 30.5202480774
29.0849 24.7817 50.1359 29.5061229753
31.507 26.7724 50.4722 25.8890907663
34.7499 24.8806 50.1392 26.9272075953
36.2639 28.128 49.6972 31.6998601553
34.8567 25.6226 52.6362 28.9707800859
27.0585 30.2254 52.5397 28.5677056776
26.4673 32.4123 49.8535 28.1145979094
32.6122 29.0724 52.7025 29.1907254678
31.492 31.5457 52.7598 30.7550577025
33.6715 28.7276 49.9559 35.1427552218
26.5077 19.4207 55.8083 34.6392027676
35.2176 18.6506 56.4665 33.1144696373
34.0078 19.5945 54.1635 29.5901069253
28.1377 23.8209 54.79 29.7639401895
25.947 21.9529 54.9808 33.0390968946
30.2972 22.9274 53.4311 32.6723964545
31.6187 20.7498 54.9482 38.7843883114
36.5941 23.8804 54.6689 28.1583347556
26.4296 28.5063 54.5306 28.5481986782
28.4805 26.6436 55.3165 32.2614946515
32.1569 25.1246 53.45 31.7817560135
32.2613 25.9441 56.0415 30.1122193758
30.4038 27.4297 53.423 29.8480031252
35.6751 28.4235 53.5682 31.9420543267
34.6263 24.5984 56.2942 30.4208955582
25.4847 30.7482 56.0509 28.3302765991
32.5888 28.8385 56.2754 30.0986244209
28.9179 31.9083 53.7016 32.9313918454
34.0865 30.544 54.9239 29.3085211907
36.6671 31.8544 56.146 26.3704177981
25.8167 33.5582 6.32986 28.059668734
26.6619 35.712 5.01919 25.0118916007
29.324 34.6277 4.69839 27.7696168288
32.0384 33.0817 4.31976 32.3295018367
33.328 36.2319 3.69774 28.747791666
33.6461 34.8499 6.23064 29.3815179513
27.793 38.1964 6.02528 29.9638687475
26.9915 40.3801 4.2281 29.61025693
31.6091 39.1992 4.06934 28.5363996862
30.4111 38.5703 6.56964 31.6719803568
34.311 38.7437 4.89917 28.6332107317
25.4367 43.1428 6.54786 32.313224769
28.6318 42.3589 5.54492 30.2254296995
27.3252 44.7901 5.89709 30.5990981533
32.7293 41.9024 3.93786 30.6592139436
34.5981 40.9199 6.24082 27.9706451768
34.4617 44.6508 5.12005 26.9463540918
32.8339 43.0555 6.89384 26.2773158968
24.7453 48.7903 4.66714 27.7677915416
25.9436 46.2581 4.09766 32.401503025
31.2946 45.4067 6.61426 30.0166205841
31.4193 46.6132 4.01817 35.6196651975
34.6617 48.0844 6.15765 30.427998356
34.3212 46.9851 3.7657 30.1541712766
27.1291 35.8186 8.57281 28.1807921475
31.7166 34.8949 8.34629 31.1775751621
28.9698 34.5096 7.47842 26.7634929748
35.362 36.667 7.17402 30.2973490517
35.8062 35.2823 9.70884 27.7094486932
25.7945 38.7614 8.10617 30.6801266302
31.3594 37.4663 8.72766 30.7927471643
33.8596 37.9587 9.60371 29.1252772825
34.6201 40.3714 8.89317 30.700572572
26.4122 41.3714 10.1393 33.7877474143
24.6223 43.0616 9.24602 29.808758248
30.4852 41.4197 7.28711 32.5216349342
29.3512 41.7421 9.91031 34.661559064
29.937 44.4511 10.5414 33.860276601
33.7393 42.9016 9.64476 29.8467734165
36.3902 43.9761 10.4388 30.488080489
27.7564 48.0218 8.95712 30.4414006259
25.4546 46.0757 8.05445 31.6637730459
28.8657 45.8545 8.15055 33.9064045737
32.4995 45.5954 10.2513 29.9536956894
32.8026 47.2185 7.83669 34.0634363395
31.7496 48.7671 10.3159 28.9738742705
27.6718 34.3576 10.8823 27.1998977311
25.5395 34.1386 12.7983 28.6772928871
32.0926 35.9694 12.5265 28.1797621143
30.2194 33.7972 11.9148 30.8719227401
34.7102 33.7997 13.9814 26.501640331
33.4426 33.977 10.8649 28.8008464922
28.2295 40.6018 13.9425 39.5266265825
25.7032 38.2797 10.8185 30.7836810001
27.9033 36.7669 12.1237 30.3322713036
30.4302 37.791 11.4964 33.4849269172
30.4412 40.4935 11.942 35.6053928392
34.7584 37.7775 12.3853 28.9104407249
34.5692 40.4271 13.7457 30.6298547434
25.5934 41.166 12.7426 28.7886786644
26.78 44.9241 14.0496 32.8993901113
33.0442 41.5525 12.0899 31.3204028726
33.2676 43.8446 13.9387 30.4501193519
24.6875 46.4233 13.1808 29.9231024656
26.0981 48.7061 11.5155 31.5135614632
29.2267 48.2518 11.598 30.1328775824
29.3073 45.6352 12.7986 32.7422448678
34.2894 47.1012 11.8361 28.9530007861
35.4923 45.0516 12.8462 29.969746823
36.6832 48.4867 10.6357 29.2484952524
26.7385 34.7067 15.1015 31.9087457943
32.0223 36.0105 15.5206 34.1855487275
31.2096 32.8462 14.8167 28.7429470637
34.5725 36.6486 14.8676 28.6599783149
33.1896 33.8797 16.9415 29.1036474907
36.0825 32.8877 16.5089 29.1659299288
36.8945 35.832 17.0343 29.614512925
28.0595 38.0315 17.2874 30.5102539894
27.1161 37.5623 14.7811 31.3314653608
31.1314 37.9292 17.403 35.0605458704
33.6733 39.1223 16.3599 35.149500703
24.9734 42.0947 16.2812 27.8650604666
27.7008 42.3794 15.9396 28.8783572852
30.0317 44.3929 16.5838 32.6265155874
31.1863 41.9117 17.4385 35.73412108
33.6885 42.3059 16.0003 31.6041330591
26.6323 45.688 16.6765 30.5921652573
26.1037 48.6788 16.9152 30.5421401309
31.3116 45.6194 14.3628 28.9565405761
30.9683 47.769 16.9671 29.7061034787
35.7834 48.7487 16.0937 30.3221630414
33.1935 47.658 14.797 30.8672658223
25.7469 34.3488 17.6909 31.6442634875
27.9247 35.7873 18.8916 31.7367936773
30.0309 34.2544 20.0068 28.2270382428
33.4649 35.2413 19.6809 28.3551486321
25.4082 39.9886 17.9727 32.6777977429
28.432 40.6035 18.1397 29.4156018989
26.3698 39.1835 21.0447 28.8340549361
31.2006 36.7695 19.7497 27.5431025201
35.3899 37.7887 18.2087 28.3078416488
34.1114 38.2226 20.7007 31.388297697
26.5799 41.9544 20.3118 27.9098363121
24.8443 44.0364 18.3334 30.354045773
31.6108 42.3193 20.2983 30.9235622057
31.1445 44.9208 20.5748 29.7415663352
34.9375 44.0451 17.7768 33.6286585418
36.0845 42.0333 19.4525 32.1744149837
26.4302 46.0437 20.3579 28.2355254712
28.9178 46.0715 18.3671 29.4619714791
33.5595 47.9348 17.872 29.9851058328
33.7788 45.8086 19.6385 29.7384572668
27.8167 32.8841 21.5065 29.8982554799
25.3306 34.3458 21.5011 25.9685535583
27.8765 35.9046 24.547 88.7652700354
28.4226 33.1284 24.1963 66.407002344
27.5961 36.6614 21.6102 29.011887462
25.4986 34.5527 24.395 73.1019565444
31.0533 33.9159 24.1631 62.0726205048
32.5229 33.6755 21.7554 30.4523915138
33.2906 35.6081 24.3539 100.1772101269
35.9048 34.0555 24.0099 51.7577658859
35.6806 34.8718 21.3351 26.6222160016
28.3822 40.391 24.3913 90.7748731718
25.7206 40.146 23.994 59.2249074948
32.6838 38.1192 23.4033 37.162544793
29.7017 38.3345 21.6491 30.0192191576
29.8124 38.2663 24.4047 85.196241721
36.7398 37.3805 21.9087 29.795311844
33.9129 40.6946 24.1634 95.7865621353
28.3871 44.3616 21.198 28.7778298986
29.6804 42.8375 23.9331 66.2292701724
29.1721 41.1991 21.2371 27.5542437134
32.3788 43.1032 23.5161 39.1402834914
36.1408 42.5462 24.2218 79.9633561779
34.0201 41.2752 21.3302 33.2004737371
25.4001 45.6272 24.2263 77.0325591148
27.0128 48.5032 21.3192 28.8907581129
28.3578 45.3861 24.1402 80.1868738155
26.6771 48.2781 23.9341 54.6235633815
29.8173 47.8535 23.9316 52.0466195098
32.482 47.6198 24.4814 87.4693523439
29.9712 47.5171 21.328 28.0149407331
33.0296 48.193 21.5442 29.0736213426
35.9017 45.45 21.548 31.55389517
33.9896 45.1737 24.3427 84.4365567719
35.863 47.2748 24.14 50.157805065
24.7931 36.0577 36.0433 63.2886008912
27.6926 35.52 35.7517 72.1801672158
26.4902 33.8727 37.9931 31.3946086499
29.6619 36.3799 38.405 27.3249611026
31.1669 34.0361 38.8119 31.4503729263
31.5935 33.3121 35.993 52.1145264689
32.1486 36.159 35.7331 91.8407711685
28.7221 32.9496 35.4068 109.5774255925
34.0521 34.0342 38.5572 33.063461677
34.8976 34.4562 35.8936 65.3883577234
25.606 39.4629 36.0119 77.0779589141
28.3925 39.7218 37.5501 29.7159334617
24.8321 38.0523 38.6313 27.937932082
29.5848 37.2515 36.0747 59.2694415417
33.1709 40.365 36.2013 63.2558397371
36.5202 38.0646 38.381 30.1442125209
34.2458 37.6477 36.6687 33.6796992035
25.3824 43.5315 35.5458 81.9044585599
28.6902 43.8795 36.0517 57.5897749274
26.3062 42.0623 37.6978 26.4721162211
30.2424 41.1002 35.8687 106.9737810717
31.5689 41.9275 38.2835 27.1238382142
34.2594 43.4165 38.5558 27.6928656274
34.8957 42.3581 35.9332 71.1475511858
36.3053 41.0457 38.6573 29.2986848523
26.9632 45.7821 35.4488 88.2672108526
25.8566 47.0501 37.7763 26.0862111939
31.0654 45.6304 36.5816 35.8765799986
29.2722 47.41 35.6831 77.5499760759
34.9996 47.8115 35.7993 77.4338345635
33.7621 45.2836 35.8717 82.1171924509
35.6812 45.8831 38.3998 29.3038869434
26.8552 32.8006 42.1227 32.011132309
26.9889 36.5555 39.0952 27.7222683263
26.0743 35.3635 41.7863 32.4082754819
31.4008 35.3766 41.6064 31.7038436578
35.339 36.0277 40.0804 31.7376875765
33.6799 36.5976 42.3947 29.7546206882
27.8498 38.4509 41.5446 30.6246048239
30.6044 38.6107 39.8187 30.2441129578
33.1205 39.466 39.1192 30.1849556463
24.7896 44.3123 39.1668 30.5659323013
28.4139 43.8678 38.8738 29.1089867496
30.7565 44.8275 39.2389 29.6001597913
29.4143 41.1505 40.0011 30.5902199584
32.6835 44.0374 41.1455 33.2565413995
34.2978 41.3053 40.9043 31.5322405624
25.2208 47.832 41.4223 29.8086880135
27.0612 46.1511 40.0233 28.3643055771
30.1111 47.81 39.1884 31.157897568
33.6613 46.9806 41.9896 32.8252914939
35.0091 48.3272 39.7637 31.9004839249
26.0467 35.5453 44.6768 32.4114228718
31.2323 32.7614 42.7475 37.3696984358
28.8074 35.3323 44.9289 31.9315227795
29.0144 32.7497 44.2725 32.9130370166
34.0402 35.0008 44.7218 36.1618104489
36.8873 34.9836 44.6078 30.3214198381
25.8061 39.5081 43.2989 32.2499491615
25.8334 38.0821 45.5765 30.3462162905
29.9035 37.0283 42.9738 31.1689567409
30.912 39.6155 44.135 31.8427983287
33.8591 39.1929 42.9994 29.2888816714
36.6665 40.0375 42.762 30.0995412124
34.8675 39.2808 45.7345 27.948945923
25.3143 42.2909 43.5173 34.5432237332
27.8774 43.075 44.5694 28.8581011018
30.4173 44.7555 44.0841 28.6405335667
28.8667 40.9623 42.8328 31.6137178589
31.938 42.4103 43.3342 29.9819788235
33.6202 43.0104 45.3355 29.9895919885
36.3138 42.2343 45.0216 28.4748680762
26.6047 46.3674 45.3009 29.493418623
28.0181 45.5865 42.9469 32.7250077917
24.6389 48.3012 45.1354 27.9198157366
31.8592 47.4573 43.9775 27.0379006364
29.2166 48.1927 43.3237 29.1673592723
35.58 46.6056 43.8997 30.3795758723
27.3052 36.599 49.1812 31.0804407887
25.0375 34.9205 48.6035 29.25735554
29.1729 34.689 47.8814 30.4990947495
31.5477 36.3409 48.0982 34.409641919
34.2404 36.6522 46.7634 30.385099406
36.1469 34.1407 47.5647 31.5454231251
27.7169 38.7326 47.4636 29.0576182136
30.1446 38.5705 46.6498 29.2488033637
30.8861 40.365 48.287 25.5012394619
36.6224 38.3042 48.8057 28.1669463788
26.1408 40.9963 49.2001 28.6124844559
28.1632 41.8674 47.2837 33.7571670992
24.8446 44.4378 45.9963 28.1146279452
24.6122 43.4232 48.6834 29.7183478258
32.1093 43.6235 48.3886 31.7704504962
33.3412 40.9514 47.2226 28.1941937042
35.5089 41.0011 49.192 30.8122223209
28.0004 45.1456 47.778 29.9510850158
26.55 48.9213 47.8482 30.9651373716
30.6947 45.3183 46.6544 28.8180426454
30.2856 48.4267 46.8883 29.0476141416
28.8789 47.5586 49.2576 34.6261983152
35.4271 46.9736 47.9326 28.6292361649
33.658 45.7742 45.9559 28.8718771596
28.9638 33.3717 50.1673 28.0542454237
28.872 34.7756 52.6038 28.5010732734
32.7111 35.265 50.6444 30.3506275134
31.852 32.753 50.3528 34.0955350963
35.0801 35.9793 49.7381 27.5067756497
36.5075 35.4181 52.1205 29.4706043285
27.1007 36.9825 51.9914 29.7620156448
27.7915 39.8857 52.0498 30.0802480224
24.9071 39.2219 51.0843 29.7225450307
30.159 37.951 52.0477 29.9234127513
31.9654 38.6076 50.2157 29.6311359859
36.566 40.6108 52.6671 28.5823601756
34.4998 38.5885 51.3129 26.308640463
27.4533 43.659 50.1825 33.116262901
29.4988 41.4464 50.3273 30.3395529694
31.7214 43.168 51.2045 32.7891863788
33.9315 41.7769 51.4884 25.6354045183
35.3631 44.1641 51.3328 28.980242281
25.9819 44.9844 51.9112 29.2572094622
25.7427 47.2979 50.4592 31.165081825
31.6957 45.5142 52.6378 36.7004507271
32.1732 48.616 52.638 33.7059629734
29.4448 48.9776 51.6153 32.6402651978
35.8959 48.8697 50.5976 28.9475793675
33.683 45.6081 49.9251 36.061374676
27.0534 34.3926 54.9052 29.3911755808
24.8258 32.855 54.1974 30.792373672
32.6504 33.4614 54.5465 28.140797626
31.3299 35.743 53.5885 26.2520856852
30.0227 36.5818 55.9727 29.4519722884
35.6965 34.9552 55.6976 27.1183371345
35.4011 33.165 53.6448 35.442024475
27.1096 37.6041 55.6362 30.0190234465
27.989 40.7883 54.865 29.6194939117
24.7593 37.2189 53.8849 28.9271266241
30.4518 39.5919 54.4954 31.611124056
34.3029 36.981 53.6759 29.1608196384
35.5584 39.0236 55.547 27.4972679956
33.5326 40.6701 53.9546 33.6905146651
25.6351 42.6325 53.8622 33.1482861222
29.9705 42.5933 56.2829 31.7891847127
35.2862 43.6884 55.9022 29.0016106209
27.5312 48.4093 53.5921 31.4834222925
27.1224 45.8033 54.5572 34.1794046176
29.9379 44.9742 54.9739 38.3286176352
34.5867 45.5588 54.0819 34.446273417
35.0197 48.4254 53.3774 32.1845148196
40.4231 2.11719 5.39348 35.618744626
37.8201 3.11143 4.23247 32.8131193297
43.4084 2.33326 5.98629 28.8581735561
44.8502 2.78506 3.71073 25.2910730096
47.3757 2.1074 4.47692 30.6649151036
39.613 6.72314 6.66599 32.9607568581
39.828 7.4344 3.75771 33.0805534844
42.6001 6.54477 6.7937 30.0760058862
42.509 6.93297 4.08812 33.9921403477
44.4833 4.4818 6.99979 29.3272783801
47.3273 7.67186 6.93425 34.8977159452
47.2915 4.45066 5.65063 27.2519206964
37.1153 10.8432 4.99178 30.1317151555
39.6405 11.4581 5.79902 30.4458211043
48.6532 9.11792 3.97522 28.4370683849
47.9613 12.2125 6.01051 31.8846544438
46.1408 10.0116 5.60086 30.0570391228
38.6461 14.0401 5.81611 31.8074580548
43.7821 12.7441 4.54556 33.7341399318
45.3752 14.9821 4.89085 31.2248570114
39.6049 2.41006 8.30745 34.005480639
37.2348 3.71776 7.14826 31.6440592249
43.5088 2.33714 9.34739 29.702340681
46.6267 4.06102 8.85942 29.1722993466
46.2603 1.37106 9.98578 28.7413079869
37.1965 4.14676 10.198 30.8371429158
39.4636 5.72888 9.40879 28.6889480757
42.7916 4.94239 10.0428 32.7185265075
48.9855 5.31477 10.5421 27.7105684357
40.6917 9.42822 7.78251 29.3430513449
38.5137 9.64406 9.65137 27.3209724161
38.1323 12.1121 10.5609 27.1633944897
43.4653 8.93186 7.18805 33.5834719388
42.7715 8.51585 10.395 31.5686225368
45.8817 9.26665 8.95725 31.2600296168
46.4305 11.4399 10.195 28.5617720878
40.4272 12.4267 8.57474 31.651055869
40.6584 15.2696 7.3643 32.0747118809
43.5122 12.6987 10.2112 28.9167465085
42.3241 15.1205 9.78206 29.695220201
45.2453 12.9397 7.43792 32.3183990094
46.5492 14.6181 8.98004 27.4286077591
48.5198 15.7476 7.46055 31.9516597788
40.9921 1.29024 10.7265 27.5088662839
37.827 1.71629 11.4645 30.2245609044
40.3809 4.03099 11.4591 27.3709905643
43.7167 2.37743 12.5677 31.0149595282
45.9268 0.252019 12.4829 28.8663218412
39.5252 5.01039 13.9956 30.3293420218
40.0833 7.71959 11.2164 32.2366265759
48.695 4.90042 13.2569 28.8563450128
46.6264 6.93369 10.9374 31.6058874451
45.3421 4.50622 11.4303 26.6128159774
47.3022 7.4843 13.6602 29.034416169
37.2305 10.9321 12.8907 30.4492521054
40.1655 10.6068 13.3738 29.2947769134
44.4042 8.50306 12.8406 31.6842555816
41.3968 11.1656 11.0613 29.2686032229
46.0536 10.7766 12.9548 29.9713328217
48.9221 10.2913 13.7391 30.6073113788
40.4832 15.3412 11.9752 29.8279049373
37.6295 14.9173 10.8214 29.6298567413
37.7798 13.6043 14.0869 30.5638424302
42.392 14.3709 13.9645 28.3090880598
44.6922 13.4576 12.6809 29.3826279517
47.1402 15.0868 11.8025 28.8228959614
41.6929 1.98548 17.2296 29.6159534409
41.2362 2.61226 14.5693 31.5100859325
46.6292 1.73212 17.1455 29.138027465
46.7771 2.75628 14.2965 31.6551922664
37.3663 4.09878 15.5511 30.0583433421
40.3283 7.55842 14.2534 28.1077441204
42.5942 5.20745 15.4225 28.9757917644
43.0244 7.94014 15.1354 27.5311815525
49.1282 4.50413 17.5312 30.1824118054
45.8466 7.10892 16.3361 27.1344982983
45.29 4.97016 14.3652 28.3288348878
38.2557 8.78314 15.3054 27.7648805612
42.0583 10.4964 16.8531 30.4411566099
44.4917 11.4567 15.4945 27.6796464123
45.2922 9.64241 17.4371 28.0777126943
38.887 12.96 17.0168 29.410763152
43.696 13.6167 17.4007 33.6899187744
43.9869 15.7991 15.5559 29.7675442931
41.0488 12.4625 15.1908 27.2977464778
46.4925 15.1185 14.5984 29.9644799234
47.0752 12.6624 16.3087 28.3571506481
38.17 3.3537 20.9862 29.2828458005
39.3693 3.74251 17.8579 31.9925768648
39.7498 1.30749 19.7035 27.3633301366
45.0929 2.38105 20.1601 27.2276727483
44.0504 0.285922 17.9984 31.4458431782
48.7304 1.45558 18.8565 30.6919794714
40.8654 6.50075 18.4297 28.5693357763
40.435 5.47169 20.8584 28.025435475
42.9865 4.47799 17.9226 27.4031954042
43.1469 8.08411 18.8196 28.2578487542
44.7126 7.72016 21.0636 28.1544602834
43.3405 4.75732 21.1209 28.7244934428
45.823 4.64248 18.2165 27.973782585
47.8898 7.21178 18.2213 29.0541704251
46.6942 6.06813 20.7717 26.1448444888
49.2038 7.55171 21.1523 30.5138593663
38.9496 8.78599 18.0348 28.7015186361
39.7769 11.2865 19.2128 28.2846522422
41.5924 10.0852 20.6634 33.7959685078
47.9716 10.4339 17.9812 26.6243508729
45.6892 10.585 20.732 34.0229407566
48.4712 10.1888 20.5468 27.0580312705
37.3411 15.4584 17.7542 29.5824811474
37.178 16.1816 20.4821 27.3596933317
41.3623 15.0949 18.8961 32.1308857172
46.3004 14.2802 18.4885 31.7140878321
37.0143 1.46919 24.3211 89.7462236723
42.8433 2.37963 23.9672 59.5599289755
42.4961 1.57112 21.2172 30.9855527626
48.1079 1.80992 24.5414 92.6242563833
45.2673 0.461491 24.0181 66.0837382129
47.477 3.50594 21.3683 28.3967375433
48.9595 0.616403 21.7638 23.933368029
36.9376 6.59621 24.2682 87.913202133
40.8392 4.56429 23.7836 63.6865618564
39.3151 8.03172 21.3683 27.081293076
38.061 4.10302 23.9536 60.8413127075
43.8283 7.48141 23.7802 45.3640084963
44.3932 4.71546 24.0324 72.4766596364
41.2004 7.46649 23.8516 78.6047465113
48.5762 6.7124 23.7481 40.0438654394
47.2361 4.39369 24.0944 60.3793005991
38.2328 9.33805 23.5103 39.9254996719
39.3896 11.9151 23.9483 70.3205908711
44.9174 10.7745 23.8656 52.6803693939
42.0846 10.6133 23.435 46.9198308073
46.4331 8.56744 24.6534 130.8844940835
40.6636 13.9897 21.6253 31.484003226
38.2082 14.4832 24.1862 65.2888609946
38.2373 12.4942 21.2942 29.9514188973
44.0728 15.6839 24.0617 61.6804601181
41.6554 13.7437 24.0778 78.3125616133
46.0496 13.4733 24.4417 97.3642975137
46.1381 13.4341 21.4899 32.3540691117
48.7154 12.9063 21.4494 28.7739789811
48.7305 13.2299 24.3077 88.8161126804
37.6844 3.76485 38.3824 31.6304433882
41.8218 0.427601 38.0511 28.9626200644
42.0377 2.14807 35.7171 91.4320498011
44.2557 1.84188 38.4101 31.3937326753
44.9097 2.50495 35.6811 83.2202610005
47.4894 2.58488 38.0539 27.5893634473
47.58 1.38689 35.6458 85.9126905148
40.1765 4.95427 38.6002 25.9670136553
38.3454 5.59262 35.5601 93.3500988019
41.1462 4.65673 36.1509 47.5076272255
43.1877 6.44676 35.9921 55.2739071296
43.3768 7.60984 38.6494 27.298123233
45.8194 5.22105 35.7528 66.5627300106
48.9013 5.69582 38.8657 26.6352519005
46.0875 7.67662 38.4478 26.2192402378
46.0339 5.02121 38.7037 27.4340696109
48.6088 5.39921 35.7619 65.0000287371
37.8796 11.2611 36.2015 59.7395985826
40.977 11.769 35.7611 77.1850112615
38.933 8.46788 35.9739 55.6569090438
37.1116 11.9639 38.7056 27.5812042068
41.7942 8.88625 35.4301 101.1509341821
42.6727 10.3304 38.0235 27.9196503841
44.3996 11.008 35.6918 81.6423186098
49.1853 8.44848 36.5611 31.8530576011
46.2015 8.34072 35.8923 71.6930913301
47.4278 11.5109 36.0837 56.6289992451
38.2975 14.6828 37.0415 31.5639723397
40.8633 14.94 35.8581 81.2202579095
43.7311 13.7425 36.1774 47.1485378974
47.5454 14.1605 35.9898 55.8528448394
46.1768 14.5549 38.389 29.1617519373
45.5576 16.2678 35.5337 117.4225206178
40.8779 2.41752 39.9663 30.4713356361
37.3537 0.881669 39.4896 28.2989330068
43.7227 4.03571 39.9882 30.5656290385
48.2366 1.79223 42.2459 30.4487438897
46.5305 0.704111 40.0672 32.9999609538
39.1616 7.5457 38.9613 29.5090707127
39.3816 6.44493 41.7255 26.8812018603
42.2298 6.17405 40.6638 25.8166750216
48.07 5.85835 41.8221 31.6924574513
39.9906 11.7533 38.9135 28.3715493604
39.8691 9.79418 40.9034 31.1809682506
44.5593 11.3758 39.797 29.6701757694
42.5466 8.83978 42.0343 28.7350834329
42.9977 11.9517 41.9676 29.2715257595
47.7962 9.74734 41.4627 31.1086932487
45.3385 8.74903 41.1158 27.8663855801
47.3368 11.9915 39.0081 32.683508698
37.4305 14.0474 40.9525 30.884486778
39.7596 16.0715 40.3924 31.4082012627
41.1504 13.2732 40.8177 29.6260001405
43.0362 14.1142 38.9154 27.9467952131
44.882 16.1609 40.7406 29.0874598598
38.6867 3.92124 42.6848 31.7452663907
41.6368 1.49324 45.3865 30.1394773786
44.1839 0.351251 44.4179 32.2066790295
41.1238 2.82117 42.9721 32.4425762791
45.7526 2.24043 43.6864 33.2936896724
47.0975 3.38016 45.8178 28.2391909695
39.5448 7.37188 44.4719 27.2294967884
43.7372 4.53663 42.894 29.7423979355
42.4507 6.74198 44.4299 29.2280498078
49.0547 4.91118 44.4555 26.2082595273
45.5332 6.73004 43.0597 30.3088088573
45.6673 7.20282 45.8465 28.4900860526
49.1774 8.02894 43.4619 30.6589274262
37.8857 10.1493 42.9396 31.0887200229
39.5236 10.0103 45.4455 29.4214797854
42.3592 10.5766 44.7668 35.3013845008
45.2486 11.41 45.7578 35.5093049045
48.9864 12.1369 42.9404 30.7397875891
36.9811 12.9607 43.3372 29.6719362527
39.5294 12.8828 44.4382 36.5368303478
42.5502 15.8925 44.5659 31.7472037323
44.4522 14.3824 42.8297 30.4460248215
46.5902 13.3495 44.1999 30.8544162077
38.4536 2.84869 48.5653 32.4289646919
39.7169 0.416611 47.1686 29.8943960497
42.1245 0.562665 48.9205 28.613817755
44.5666 1.8406 48.0742 28.4182033889
42.0951 3.71487 46.8367 32.1260825519
48.2087 1.05504 47.1461 27.6901339876
40.4437 6.32469 47.0435 29.8240582927
37.9847 5.66853 47.4901 33.349146603
42.2119 7.5597 48.7663 33.0401126932
44.9826 4.77791 47.2326 31.4301015925
48.741 6.25521 46.8171 28.262618357
37.6842 8.93483 47.8301 30.1253571449
39.5896 10.5957 48.395 32.5177290796
43.4466 8.56368 46.424 30.8621096539
46.6923 9.59092 47.323 27.4858406944
40.6956 13.5816 48.8057 40.1250465483
40.5375 14.7681 46.11 32.1579436769
38.3944 16.2897 46.156 29.7472105047
43.2181 14.5885 48.9435 32.0926841649
48.0488 16.1558 49.0128 28.8461426989
45.3993 13.3727 47.6773 31.4418288342
47.0666 15.2083 46.4899 28.1171928747
37.3315 2.32146 51.0095 32.6508810088
43.712 2.08477 52.6283 28.3235274804
41.0526 3.17209 49.6363 33.036386912
42.2692 0.0164529 51.6501 32.5832963902
48.4018 1.85745 49.8926 29.1542180288
45.7476 1.89334 50.6377 27.7900680791
36.9617 7.01647 49.9346 32.1939822241
44.999 6.63268 49.4928 30.348774269
41.6218 4.75176 51.7135 34.3187707496
49.0494 7.23389 50.1057 29.7464068413
45.793 4.6871 51.1691 29.9372478295
48.2555 5.59954 52.0884 27.4541748883
38.2488 8.35615 52.0586 29.0483818293
40.8922 9.17204 50.479 33.0260918373
39.1281 12.2502 52.7101 28.1629878978
37.6352 11.4691 50.2654 30.2640947866
41.2428 10.5718 52.6692 25.5340920404
43.682 11.8588 52.801 30.5212905693
46.5374 8.66511 49.8204 28.6787176398
46.4169 11.8148 49.5755 30.7192861095
45.3173 9.85424 52.0127 31.8082564007
40.6398 16.2403 52.7149 26.9384705048
39.275 14.6221 51.181 29.7522152585
44.456 14.0867 51.2659 30.0099618142
43.3206 16.0242 52.7592 27.2589196254
47.5172 13.8033 51.1857 30.5111716686
38.5927 1.57442 53.3395 28.0303943416
40.6028 3.27801 54.1335 33.0206021753
42.0282 1.41642 55.8024 33.4154227099
45.3859 1.39299 54.5628 26.6990900312
47.7038 3.18316 54.4258 31.1158235585
48.5388 0.211862 54.0118 30.6044228237
40.3451 6.91714 53.2574 31.0269286361
38.6996 5.21196 55.3146 32.0838642132
44.1751 5.4884 53.3663 32.9697016304
44.7169 5.29747 55.9731 33.4334439644
48.7601 7.44749 54.0722 30.7456630252
47.7464 5.65587 56.0553 31.0954239139
39.8135 9.80745 55.0748 27.1279874275
37.0981 10.7576 55.424 30.7986519214
43.0184 8.29513 53.1911 29.5902541125
43.202 9.28822 55.864 30.672448404
41.3015 11.629 56.515 29.2058004249
48.7499 11.8889 53.0223 34.0473548924
45.6307 10.6058 55.8358 27.5884467736
47.5701 9.84292 53.8425 28.6912463722
38.8145 15.2454 56.181 32.542525955
37.0549 13.3767 54.5894 33.0301071426
44.9572 13.1033 55.0678 27.1277325873
41.0765 13.811 54.8017 29.6025885618
43.3005 15.5102 55.4893 30.4554920519
47.1835 14.9444 55.616 31.5255971215
48.5447 12.6146 56.2263 29.5109379375
37.6345 17.5093 6.2374 27.6177882055
38.3027 18.7296 3.82267 26.4599820527
42.0357 17.4764 6.32901 31.9696553124
44.9173 17.4725 6.35513 33.5482701451
41.2919 17.3262 3.60174 29.256674144
45.895 19.9214 5.8192 32.3958412083
48.8411 16.4204 4.45134 34.2063131699
39.7216 22.8359 6.10316 31.4311952622
40.0025 20.8718 4.08242 29.822391425
37.0219 22.1868 6.46009 30.5845923211
43.7534 21.4766 4.74925 34.7126410277
49.1969 22.9269 6.45056 36.9483911092
48.4039 24.4612 4.21498 34.8909149778
38.6166 27.6855 6.05067 28.1171305937
40.2255 25.7135 5.13541 32.1469497515
42.7719 27.371 4.82506 32.7049598088
45.1472 27.1816 6.36834 32.3635516841
47.5059 27.177 4.99828 32.0674020336
39.5711 30.2876 5.79373 29.6335171144
37.9395 32.6323 6.31038 26.6295346111
42.5086 30.1347 4.71223 30.9309436831
43.4811 31.8067 6.38632 28.5232387208
46.5085 32.1076 6.25187 33.6387308821
37.9869 19.7126 7.28308 25.3907507522
40.7979 19.3516 8.07733 33.8039323514
37.3475 19.5334 9.97678 26.6104406807
38.6753 16.8884 9.02996 29.5649632507
44.5335 16.7224 9.03916 36.2673592424
49.0054 18.6602 8.33222 32.8918108905
38.7011 23.9132 10.2972 29.9484453604
43.551 22.6875 7.25153 35.3951308295
41.1336 22.1575 8.30481 31.1030723197
47.6102 20.862 7.77123 32.6228814141
45.8695 22.7266 9.01334 36.3813976865
39.9311 25.9019 8.30008 29.4096377995
40.7376 28.2081 9.87297 32.9381841402
42.4828 25.2351 7.50872 30.1065267841
43.7417 26.3422 9.80485 30.2143575985
46.2476 25.3605 8.90896 36.6194351247
48.3577 27.2232 8.04162 37.6077317588
39.1217 30.0994 8.91723 27.1119859542
43.5837 28.759 9.97675 33.2918598409
44.9066 29.653 7.72134 31.1371741281
41.1321 31.9455 8.35054 29.9369769193
47.7653 29.9809 8.25648 29.9418828793
40.9342 18.2028 10.7969 33.3375807047
39.1136 19.9817 12.203 27.9063245213
44.5237 19.0758 12.707 37.3506874054
42.0298 18.288 13.8058 31.1570021211
46.4201 17.7099 11.1573 32.8260765556
48.772 18.6989 10.8483 31.0173723937
40.6588 22.3514 11.3738 33.8980915529
42.6619 23.7042 12.677 30.20248057
44.8405 21.9433 12.8411 35.2604492834
48.936 21.3796 11.4593 32.3644075237
47.08 23.2535 11.4162 30.8948983941
38.2616 25.6561 12.486 33.7966631292
39.5155 28.1673 12.3811 31.88942611
43.557 26.1438 12.7195 28.7578084576
47.9319 25.1635 13.2874 33.1814250312
38.7731 32.3289 11.3227 29.3084071704
37.9564 30.2274 12.6874 28.0100089282
44.2969 29.4453 13.0964 30.2598221416
47.9429 30.778 10.96 31.02934358
45.4 31.856 11.9027 33.5524452173
48.3429 28.8826 13.0017 33.7759394222
39.9191 16.8652 17.3793 29.7941748607
39.4274 16.3954 14.5022 30.1891936166
37.5453 18.5322 14.1957 30.6914465445
41.8767 19.1453 16.5203 30.282577768
48.1815 17.2079 15.683 31.2804875824
46.5608 19.0537 17.5686 30.5080037494
46.5462 19.8862 14.6824 33.5290188273
38.9015 24.4398 14.9061 33.6365371787
37.6631 21.6367 15.2007 29.2308658533
40.4148 21.1848 14.6087 28.6808268864
43.6569 21.4287 15.7534 34.398372725
41.728 24.1087 15.0378 27.2504935059
47.1794 24.1047 17.5637 32.4713453268
49.1048 21.4812 14.3055 31.6449383825
39.6603 25.2447 17.5905 30.3121439705
44.8672 25.361 16.9807 29.4037502922
41.6431 26.9222 16.7969 28.2182332424
41.6386 27.713 14.1283 29.5423632244
47.9204 28.4106 17.6008 34.2286184374
45.6477 26.0479 14.3855 29.9924410809
46.3832 28.5592 14.9947 29.7639730227
37.9438 30.8654 15.2709 30.2961288193
40.1058 29.5093 16.6782 35.4034165027
44.8052 31.0811 16.0243 29.3018081285
42.3949 31.5357 17.4292 31.8518089131
42.1965 30.7051 14.402 31.5682479727
47.6859 32.6788 17.3258 30.562268394
39.3262 18.9113 19.3396 29.3351558266
43.3989 16.8136 20.1461 31.796510128
44.1529 17.6777 17.7324 31.0132032402
47.3175 16.8994 18.9935 27.0697596213
40.67 23.0627 19.1857 27.7211184132
39.5862 21.0192 17.8252 28.9325230631
38.4313 23.3011 21.1803 28.3002292929
43.0909 23.3493 17.7256 28.2084971579
45.0342 22.9642 19.6659 28.4821664831
47.5659 21.4676 18.4567 30.7627221132
49.1061 21.3231 21.0365 29.6826658291
40.1572 26.3415 20.7274 31.8211042737
43.6157 27.3186 18.7215 29.3815448162
49.0651 26.1464 18.6225 32.8216799515
40.6871 29.2894 19.4093 29.2527851432
42.8403 31.0567 20.7281 27.0820479714
45.2433 29.4769 18.2048 28.7363278782
45.4621 30.7681 20.796 26.6036799082
37.0471 18.829 21.7265 27.5616375804
39.7714 16.9434 24.4513 72.1485046352
37.4651 18.3526 24.5229 66.4372899421
39.8585 16.7155 21.5971 27.2086672206
41.936 19.0558 21.2884 30.9434890066
42.127 18.2749 24.0553 51.2987624004
48.908 19.0377 24.3684 85.3484147169
45.7711 18.3051 24.3625 88.5425286757
47.5076 18.776 22.0776 30.5156761365
45.7343 16.4454 21.6625 30.8041433147
39.2176 20.5991 21.9597 28.5104629065
38.5192 24.1343 23.6842 40.9640124409
37.742 21.5294 24.6978 87.9371754943
42.2541 23.6207 21.6556 28.3958449505
43.9945 21.1233 21.6138 34.6502644185
44.7411 20.9193 24.1563 59.3159936814
42.1947 22.2206 24.5342 72.9183087631
46.3958 23.4242 24.1046 71.1884221672
47.2511 23.53 21.5897 29.8282465275
48.9672 21.7161 23.9318 58.7351159957
40.5537 26.5327 23.8371 46.9240607869
37.5138 27.7333 22.0672 30.8021469101
44.0347 25.4995 21.2756 30.1663686229
42.4307 28.0161 21.3475 28.8576487466
44.9163 25.7358 23.8513 36.7455520115
42.4666 24.9319 24.5097 91.5656249831
49.0579 25.6782 24.2501 87.263473326
45.1979 28.2793 24.4644 100.4423258071
47.8103 27.9471 24.0084 43.8440157403
47.462 28.5251 21.2727 32.2970330345
49.1076 25.7832 21.4578 28.9595441197
38.899 30.7061 24.1707 65.9312036552
38.8344 30.1288 21.2234 27.6581027682
41.2988 29.2537 24.4857 104.3279499954
42.5559 31.342 23.345 31.4463120234
45.2184 30.8095 23.6389 34.5739124854
49.0452 32.497 24.1444 63.0684192299
40.2459 20.3969 24.7294 76.0925531816
39.3153 19.1003 38.2517 28.0826368825
40.5983 18.0051 35.7707 71.63812574
37.8536 16.8265 38.5643 25.661271779
37.9626 19.12 35.5727 92.3157248873
43.5496 18.7486 38.1438 26.6677207801
42.7576 19.8984 35.7691 77.3170313056
41.6303 16.6364 38.3418 28.1483834746
46.1011 18.4271 37.1391 28.5682507677
41.0138 22.4199 36.1719 54.890867879
38.3014 21.9378 35.9647 63.9873031832
36.9835 20.8937 38.4963 28.4274964549
44.1698 24.33 36.2614 50.0576193295
44.9011 21.9137 35.6275 98.6959495117
47.2557 20.477 35.9467 76.6773051441
40.0653 27.2505 36.0943 55.854960509
37.3988 26.3207 36.2778 48.1639815667
43.7111 27.6524 36.6809 41.7162984179
41.4584 25.2252 35.9603 83.2586161488
46.8403 25.6082 36.5403 41.0760878078
46.3492 28.301 36.0406 81.2410152956
40.4184 29.9693 35.6759 102.1826676363
37.6219 29.9118 36.1119 47.297206827
37.6372 32.1377 38.5738 26.6715234995
40.1477 32.1638 37.7332 25.5751041993
37.1117 32.5616 35.8001 79.7935529741
44.3998 32.3999 35.3864 102.4928876927
43.0206 30.2593 36.654 31.6456942232
45.8135 32.0198 38.1322 28.6935552922
47.4215 29.3964 38.735 27.8357871469
47.0898 30.9729 35.7974 69.9512064606
43.3519 18.5285 41.1601 31.2037906565
47.4522 17.0729 39.1925 29.4723789566
47.7971 19.5111 40.846 28.6399100249
47.3943 16.7722 42.3665 31.5577182222
38.7829 22.4524 40.3241 29.2855915551
41.6886 23.7949 38.8977 28.067829905
41.1663 20.7167 39.4378 28.8991836629
44.4907 21.6102 39.0093 29.5715094894
44.2778 21.1435 42.2151 31.5651220486
41.372 23.3525 41.8595 26.2096363647
47.25 21.2727 38.9023 29.238233796
46.3123 23.9797 42.045 29.1522692127
46.9121 24.1898 39.2746 26.8896580428
40.7647 27.6054 39.0459 31.6376839635
38.9384 25.373 39.8691 31.6148395121
44.2793 24.722 38.9249 25.6153998426
43.4462 27.4035 39.4347 26.048525046
43.2022 26.948 42.1725 32.1183447788
47.7291 26.6673 39.6806 28.6678370162
46.0074 27.2019 42.0129 30.2729924892
39.0499 29.7021 40.0989 29.9434920511
41.4946 31.9914 40.1784 33.4917525528
43.7154 30.4202 39.3839 30.8174418224
48.0471 31.5253 41.1387 28.8332907282
45.9477 29.7128 41.4188 35.5348761365
39.3538 18.5034 44.5298 31.2975941521
40.9164 17.2393 42.6928 33.0233954857
46.2777 19.6699 43.6094 27.4037836138
45.6088 16.6529 44.5314 28.7130105736
48.0944 18.6843 45.857 29.2586728268
39.9147 23.987 44.1552 27.5363996801
38.3834 21.8132 43.0241 31.2507005624
41.1205 20.5171 42.6368 33.3783118932
43.4544 24.1281 43.0998 29.3842554548
48.8551 21.2921 45.4868 28.5880310087
48.0717 21.9497 42.9506 28.6046043101
38.3954 25.735 42.701 28.8066572064
37.9403 28.0175 45.3495 30.3598637528
42.0873 27.4052 45.6556 34.0084241969
43.8634 25.0652 45.6633 34.3396171816
47.5077 25.7697 44.1674 31.206959756
37.105 31.0736 43.0042 36.2858012477
38.9889 28.6114 42.7735 29.5373760054
41.6799 29.0216 43.3219 35.4612462864
42.688 31.6455 44.4164 31.8930949978
48.9088 28.5975 44.2749 31.9077841503
45.305 32.3026 45.071 35.2510205506
47.3386 30.5437 45.9157 33.8126626296
39.5929 19.057 49.1858 31.4966758815
37.6443 17.2796 48.3976 34.3071350123
40.6279 19.7131 46.7855 33.5134705205
43.3343 17.3653 49.0779 32.8139959851
43.0341 18.1971 46.2064 32.1561444286
44.7843 20.3445 46.1703 33.2703787228
46.7043 19.6615 48.0508 29.9133047406
37.4783 23.4415 46.5127 30.9749010946
40.6894 22.5871 46.9791 31.3083794409
43.6051 22.6814 47.2139 34.1669865309
47.8686 22.9083 47.5233 27.2752457885
39.5202 25.7632 48.9336 29.595956328
39.7228 25.9655 46.2869 27.695050353
46.4289 25.1726 46.6237 31.4796872387
46.8668 27.0576 48.8188 35.6257327576
39.3032 31.4365 47.9372 35.6908193201
37.1664 29.6778 47.4738 31.3679366769
42.0182 31.5406 46.9686 32.2757420753
43.0543 29.1578 47.5307 34.8304045217
49.1407 31.8666 49.228 31.6399608723
45.8428 29.5442 48.0671 34.4676407905
46.3581 31.9848 49.4523 30.7215319052
41.4483 18.3602 50.947 33.0400000103
45.7968 17.9315 49.7921 32.7632231092
45.2008 17.8911 52.5419 33.7143954682
40.5263 23.4405 49.6462 29.5411057598
38.6205 21.5066 50.0131 34.8781998152
40.1269 24.3675 52.5664 30.7036579332
44.5312 23.6493 49.7652 33.1532491873
42.8299 22.3224 51.5903 33.0981383157
47.7953 22.601 52.3948 31.8034072178
46.9759 21.9444 49.6178 32.9977751521
37.8402 25.9964 51.5919 32.1108623251
42.6709 27.7198 52.1186 31.4499764554
41.287 28.1287 49.7416 35.8244382299
42.9136 24.732 52.9155 30.926671951
45.1353 26.195 51.0269 36.1441348504
38.2959 28.8619 52.274 28.6995681622
39.9851 30.4836 50.487 29.4038570085
42.3288 31.8956 51.3596 31.8821250841
45.3218 31.2786 51.8112 28.6832816531
47.5062 29.6485 52.5196 32.8362569398
38.2453 20.3399 53.3026 34.3487951981
38.7681 17.5345 54.2248 27.9825673057
41.3286 20.3002 53.4361 33.3509169629
42.4097 19.5854 56.0001 27.4006286518
44.7845 19.6113 54.8193 31.4569753062
49.0928 18.3995 55.5256 29.5813536931
47.1724 19.9596 56.4184 30.3377053734
47.9629 17.0036 53.4774 33.4057490657
39.3382 22.5091 54.8622 30.2736713004
44.8976 23.3851 55.7555 40.2606818855
45.1861 22.019 53.2325 31.2249235175
47.8217 22.4053 55.442 29.5391158769
37.1672 27.0957 55.5796 28.1220907337
40.4037 28.0443 54.2607 31.5907500163
39.4449 25.4828 55.4058 30.447223383
43.8016 26.2995 55.3894 34.7007735967
47.2467 27.0457 53.1144 33.9937704581
46.1987 27.8383 55.5921 32.5970010477
49.0391 25.0971 53.172 34.1377475716
40.7566 30.8466 54.8961 29.5781978195
38.5158 31.5162 53.3394 29.4742177193
38.3639 29.8199 56.4729 29.7098859684
44.8422 30.339 55.9872 33.3724247125
43.4095 30.1848 53.4031 30.097042836
46.4339 32.5046 56.5378 35.1638703402
48.1443 31.8658 54.3907 30.4426141073
37.9365 36.2438 6.03553 30.4025461615
38.383 34.2518 3.84391 31.0406811474
42.345 34.4194 6.21707 33.248298813
42.6635 34.9093 3.55186 31.8060585265
39.0482 38.508 6.71574 28.5288484094
39.8028 38.4029 3.81155 30.2255178802
44.4524 38.58 6.26055 31.2931057071
42.9555 40.7762 5.28541 29.5659399253
42.5175 37.6268 4.17553 30.4592894863
47.2112 38.0244 5.01367 35.6470041429
48.5884 40.5001 4.89987 29.7661951863
40.2291 43.0984 4.42817 26.479345188
37.1669 44.2926 5.60093 28.1007077067
40.6332 41.2233 6.56635 27.988827702
37.5811 41.3565 5.44762 29.8031848193
44.1528 43.317 4.97075 30.512851219
46.9936 44.8598 4.80496 28.4943049264
38.9584 48.631 6.34308 29.94735908
38.3488 47.9129 3.77864 31.2576014327
42.4292 45.5542 5.07354 28.4954175994
43.7962 48.9058 6.81537 31.7920732601
44.9411 46.9558 5.11985 28.8190061469
47.8662 48.5203 6.25558 33.0969100652
49.1556 46.7839 4.49715 34.6562386278
37.035 32.9841 9.04429 28.9497988769
39.7608 34.4996 7.40032 26.9461289445
39.7156 35.8814 9.86708 30.6557335397
43.4399 36.5843 7.92685 33.4560842056
44.954 35.0257 9.66852 29.772024388
43.4733 32.8156 10.1003 30.9607921961
47.2585 33.8659 8.3182 32.8351902586
37.4432 40.124 8.20973 34.0011278775
42.558 40.3378 9.31831 31.1683475945
41.3243 37.8515 8.69738 28.9254420206
48.3342 36.8485 8.51218 36.6023582455
45.189 40.7484 8.06787 29.8761788674
40.3517 44.4638 7.35823 32.59056618
40.664 42.5443 9.37547 31.6727939864
38.0813 41.7609 10.3587 33.5028771942
47.9338 43.9932 7.25165 29.4237461777
49.2038 44.1166 10.5193 26.9140246053
48.1907 40.8786 7.51398 29.4347380725
45.2899 43.4399 7.48515 30.4959872332
46.7232 41.2647 10.3353 31.3165074191
37.4676 45.1843 8.0228 31.570715879
40.6983 47.6049 9.89695 31.1566778538
36.9417 47.8188 7.93636 31.4124800092
41.2604 47.2872 7.0581 30.6012622243
45.1805 45.6248 9.16615 31.1714060144
46.0008 48.1223 8.41222 28.9161564871
37.0978 36.6559 11.6547 29.3707338866
37.1023 34.039 12.8825 29.9936025611
41.2738 33.8695 10.9743 25.6832823708
42.182 35.9966 12.313 27.2108075291
44.9591 36.1746 12.0611 30.0573531509
41.6453 33.365 13.907 30.0295089083
46.3706 34.4136 13.0757 31.1811838555
49.1447 34.536 12.7895 32.5901087787
38.6377 38.4363 13.0815 31.4833330313
37.2473 40.6929 12.8903 33.2526872113
41.1558 38.4 11.7738 37.2270729036
44.2575 40.5091 11.8094 32.5181963531
46.3785 38.526 12.3311 31.9352400262
48.8794 38.4358 10.6751 29.0477839686
40.3771 43.8485 13.883 34.8480052795
41.9739 43.7762 11.6779 33.139374234
44.3931 43.0209 13.0648 29.3848593264
46.4665 44.0368 11.1772 31.958982396
39.3081 46.6176 13.7882 28.3396909321
38.364 46.3439 11.2465 30.9622387557
40.9442 48.8342 13.5853 30.1103719653
43.4711 48.0008 13.1137 31.3639913336
42.7918 46.2363 10.8918 33.2053468766
47.5062 47.1528 11.1688 29.9739971779
47.9525 47.4124 13.9627 29.7957690758
39.1054 34.0241 15.0538 32.706590092
42.7592 34.7416 16.1592 29.9078189879
45.5739 33.8798 15.7565 31.5616070223
39.2024 37.2555 15.5014 27.9853070766
39.2283 39.8074 16.689 34.2949838223
42.0046 37.0986 14.9764 28.5972328281
43.5247 38.9391 15.9679 29.7857597667
45.5688 36.8237 16.3924 31.5474185035
48.5054 38.073 14.4788 31.753988088
48.3024 36.8376 17.1453 27.7690597298
45.223 40.4423 14.6209 34.1267693972
37.6226 44.4332 16.8401 32.9598058046
38.4087 42.2836 15.1479 35.188167604
43.724 44.3422 15.4454 30.8664438402
41.4679 43.2305 16.4022 32.4278117087
46.7461 43.2584 15.3637 29.9204951828
47.8555 41.5036 17.311 29.53971231
48.7653 44.9299 14.6384 28.3717614422
40.4374 47.8083 16.5658 29.1530448357
37.055 46.4402 14.9726 30.9808217973
43.2697 47.0691 15.5718 28.2982813832
46.1989 47.7499 16.2549 33.2887036359
46.5315 45.003 17.4334 29.7668460784
39.9955 35.4835 17.8436 27.9564440174
39.8394 32.9813 21.1107 28.0591547263
37.5214 34.0472 19.5145 29.9107203591
39.5871 36.1238 21.18 26.5686030034
41.9648 33.8209 19.2276 30.338483538
46.673 32.8066 19.8503 31.9406823211
38.8981 38.9463 20.6049 31.0036040865
40.9633 37.9324 18.912 27.3555621935
37.1483 39.7491 18.6135 31.170413996
42.9059 37.9842 20.8835 25.2425998391
44.9538 38.0365 18.7313 29.6693306898
41.9848 40.4212 17.7285 30.1698934877
47.213 37.0959 19.7829 31.726062592
44.0923 44.7824 19.1183 28.2889687084
43.3256 42.0079 19.5017 31.3377156515
45.7003 41.0146 18.8527 31.2796559785
48.4172 43.4454 21.1381 30.407119211
49.1031 43.8758 18.1921 26.8740498563
39.5675 45.069 20.4019 27.7187696193
40.1321 45.2586 17.9069 28.4523662968
38.1491 48.945 17.9535 29.7121304007
37.3117 47.7195 20.3606 30.2908643073
42.7084 46.997 18.6294 27.3222532109
49.0839 47.5464 18.9074 30.6201401056
37.96 35.7237 24.4402 93.2697587889
39.5958 33.3968 23.6808 38.2838732336
42.635 35.3011 21.3768 26.3712546107
42.2972 34.1832 24.1743 84.9177699782
46.3426 33.0235 24.5702 105.7083299971
45.5582 35.1584 21.2109 34.7651155391
46.1682 35.6308 24.1028 52.951627098
40.858 39.7881 24.3599 83.0668656427
37.6318 38.6637 24.3585 91.6925560816
40.7334 36.892 23.7457 40.004922449
43.8645 37.0069 24.3279 89.2130187702
44.7483 39.1682 22.6671 32.2892711402
41.6199 40.4569 21.6403 31.0582028435
48.974 39.8951 23.9613 62.8550300738
48.7804 36.8711 24.1564 82.8677415432
37.9451 43.1392 21.3729 32.2075956052
39.7963 43.803 24.3805 88.621607467
38.6366 41.3957 23.5361 30.9962485021
43.5167 41.0013 24.3154 87.9091917722
41.7759 44.2485 21.2589 30.2127135424
42.4735 43.5263 23.7825 44.056344847
47.2638 40.8633 21.235 29.4842685521
46.6637 41.4764 24.0532 72.1967405462
48.1008 43.6853 24.181 66.4811143802
38.4749 46.1866 24.5221 91.9361633578
39.9969 48.0259 21.3043 28.9189317479
39.245 48.5794 24.0115 47.1484977617
41.9209 48.7325 24.3597 90.6213492469
43.149 47.534 21.6637 26.4445893181
43.5268 46.0732 24.054 71.5590764355
48.9433 47.7163 23.8925 49.0688221163
46.1578 48.7793 21.6117 28.5578472217
45.7018 45.9147 21.2322 31.4711632339
46.4253 46.0356 24.0976 74.9995138871
48.5484 46.3325 21.3168 25.032161787
38.9272 34.8516 35.8879 68.4423581551
39.7628 35.4446 38.628 27.1024527123
42.801 35.3242 37.8804 30.6204787309
41.8271 33.8351 36.208 46.4059822694
48.3952 35.8441 35.7992 76.521854588
45.2982 34.8559 35.623 67.5913949128
45.8552 35.1695 38.664 28.8489994492
48.2171 33.6917 37.4086 28.9293858623
39.3636 38.3272 38.3273 30.782766317
39.0098 38.7056 35.6387 75.8836611094
36.9896 36.8717 35.4536 97.9267451698
43.0994 36.9979 35.4756 109.480126199
43.7627 39.0795 38.5233 32.1029132228
41.7893 39.5491 36.0979 53.6302051588
48.464 37.2863 38.258 28.0334987672
46.5064 40.7644 36.1503 56.2797140019
46.1139 37.942 36.3196 48.5800958118
38.6518 43.2799 36.2102 55.9389172669
40.6695 41.2478 38.7316 25.6852225205
37.397 40.9778 35.7936 78.2538988284
41.5525 42.3319 36.3354 49.365888153
44.3323 42.5796 35.6613 97.1314348282
43.864 42.9459 38.5732 31.3289364541
48.979 42.0376 35.4608 110.9808551319
38.6261 47.7383 36.4861 36.2464779754
37.1315 45.5127 35.7451 87.6480132592
41.0961 47.947 35.5779 121.1979980268
42.1044 45.4582 36.4248 46.835374897
42.138 46.768 38.8126 29.3619741497
45.1318 45.2676 35.7396 95.3423207812
48.0028 45.5899 35.7579 87.2304234667
45.497 45.298 38.4822 31.3048290179
48.828 48.0272 36.4731 36.6659863997
37.7669 34.3974 40.2722 31.5433899594
40.3602 36.6757 41.447 29.8917674595
42.0044 34.4657 41.0103 29.1653692759
46.8214 34.2588 41.2072 31.8394426102
41.6531 39.3488 40.3933 28.6122809975
43.8438 38.2436 42.0971 31.8525152522
45.8887 38.1959 39.9496 25.0907708005
47.2453 40.373 39.259 31.1840683025
47.1826 37.5313 42.3372 29.9758779748
38.5323 42.7006 39.3298 28.1177607517
38.608 42.2215 42.2264 30.6531184957
41.876 43.0905 40.7883 30.6868253726
48.3361 44.5083 41.7996 27.7130059755
46.3382 42.8629 40.8192 30.7228929919
38.9564 47.7138 39.2407 26.4182256924
37.664 45.1213 40.3535 33.8764369841
40.4369 45.6861 41.0534 29.8340899513
40.1389 48.9957 41.212 32.5918385357
44.567 47.4568 40.2068 36.5729855615
48.2416 45.3618 39.2115 27.3911203657
48.9825 48.0034 39.4799 29.9672884956
38.4063 33.4643 42.9319 31.991635933
41.0457 36.1012 45.2344 33.3351981365
44.4485 34.1653 42.7832 33.4275604157
43.752 36.4153 44.6357 32.2176035185
41.1021 33.7078 43.6628 31.0906443412
37.6909 39.5766 45.6035 25.3104435487
37.1307 37.1302 42.4778 31.5712308327
39.6764 38.155 43.7645 29.8483726204
44.0931 40.3754 43.8865 26.9507727609
46.7972 40.4263 42.5664 26.5561960568
47.8253 37.4596 45.3221 30.4693388287
37.3863 44.2975 43.801 29.5843049555
40.8286 40.8754 42.978 28.1258397903
41.5696 44.2185 45.4171 33.3407420426
41.3501 41.5264 45.6302 31.5300910941
43.9865 42.8062 42.6389 31.651184724
49.0682 42.9066 44.557 28.9535652592
47.3146 40.9622 45.3528 29.5801067152
39.2873 48.5907 43.9988 34.463616382
39.8899 45.7921 43.7444 32.9602044952
44.1749 44.9712 44.4327 31.4495981404
44.5044 47.0775 43.0938 33.2792914342
48.157 45.4458 45.5546 32.9121478059
47.4801 46.8066 43.1097 33.7713749763
40.6012 35.7782 48.0747 32.7357330352
38.5938 33.8988 48.8941 30.8476506079
45.033 34.3658 48.7996 31.5429407059
42.3969 33.668 48.9484 31.6780929175
45.8473 35.0011 46.1964 32.0291420949
49.2099 35.3129 46.651 31.4929201813
39.2967 40.74 47.5284 28.795335271
