10.4087 19.6532 19.8577 25.2359367254
6.51701 13.0013 17.7013 30.6827604761
2.22303 16.0826 21.3354 25.5147203485
5.27814 19.9271 24.2785 73.2514226763
6.48945 16.7164 24.471 81.3125832631
3.4837 17.249 23.959 54.7493155515
0.385601 23.7514 24.2129 72.851351193
11.9323 21.9085 18.8684 30.9357466078
9.66403 14.1131 24.3291 95.0502770187
1.54469 21.061 24.0053 76.2622907649
3.11373 20.042 22.0122 29.2725755733
8.20042 19.5118 24.2103 66.4866397438
6.25198 20.0277 21.443 27.6729777783
9.21308 17.5447 20.6261 25.2981650653
10.0384 16.8429 23.6358 40.5338879266
4.33341 22.5951 24.1834 68.6692385006
7.36483 22.6647 24.1117 65.9281144094
11.7401 19.2149 24.098 70.0091067422
12.0064 12.8888 18.879 25.1171334492
3.55101 13.5355 21.682 30.2741557077
10.7853 18.9039 40.8455 29.6124873602
2.11985 14.0209 38.4928 29.4752832365
4.19422 17.0552 37.1229 27.6790563845
7.013 20.4479 35.983 61.44945702
6.74657 17.2915 35.8038 79.6546971527
2.19124 14.5362 41.3853 29.4963012295
11.9552 16.7949 36.0864 75.3542294036
2.31488 18.4673 41.7207 30.0307241183
3.27826 19.1668 35.9334 65.517658051
1.28261 19.5006 37.6359 29.3361226395
1.9061 17.0371 39.1484 31.293907245
4.66589 21.8285 35.9715 58.9484330608
6.34015 17.505 39.2774 34.8853698289
9.59775 18.3952 35.9759 84.1809378521
7.14771 20.1138 38.794 27.5332444398
1.73097 22.8554 36.3154 40.7700935254
4.23458 20.3131 42.1687 28.5127965888
4.58738 22.3102 38.6104 31.7115604768
4.5291 12.6643 38.6134 29.2338920381
12.4047 21.3695 41.548 27.063604187
10.2298 12.3394 42.0904 34.1990187039
8.86894 23.0248 35.6148 78.1934254765
11.4431 22.9435 35.5621 93.5576797712
2.74812 22.5058 41.2699 26.539728158
10.8272 15.5258 38.4993 31.4424731263
8.04001 15.2389 38.4968 30.6717000329
5.08993 12.8551 35.7341 80.0557864613
10.1542 19.7451 38.3528 30.8859336405
8.86791 22.6511 38.9722 28.4106178417
3.15303 14.9636 36.0401 56.9372058447
9.40616 12.441 35.5496 87.7120248725
8.24036 19.7552 42.874 28.4594989858
11.5414 22.2542 38.2847 26.9570831995
-0.0419013 12.0194 38.3094 28.581703072
6.72216 13.5294 40.311 29.4059675322
1.41466 21.8803 38.9869 27.2647014108
6.52793 21.5031 41.0306 30.4087567755
6.18607 17.966 42.0713 30.2191009707
7.4359 14.4633 35.7504 71.4559648616
9.50558 22.3065 41.9762 33.0521863907
1.23287 17.1164 35.1919 129.4908137739
0.30896 22.5969 42.4544 28.2958017767
-0.227544 18.645 50.2251 27.4940981304
10.266 17.6339 43.4794 30.1573652654
9.27118 12.815 46.1563 31.3501146749
9.78055 14.7105 43.7448 30.1911392919
1.05942 13.3301 43.9618 27.1559316405
9.46913 24.5197 43.7044 31.0422437123
6.24536 17.3683 45.5108 26.9445829301
2.25844 16.4503 43.5667 27.3634058264
4.19956 17.6808 48.6086 29.113618661
11.4367 16.689 55.8638 28.7400150592
7.69833 14.9185 53.1879 27.2636275125
2.22334 23.4995 55.3446 27.7046199922
9.92476 24.3116 51.9349 28.2815340707
4.98873 21.6995 49.3465 29.3125344857
9.2959 20.033 55.5877 28.8430071748
0.873551 13.7021 52.004 32.617522915
3.75778 22.5383 45.6925 31.8332130456
2.37357 17.6277 53.411 31.8444597911
7.84136 20.4556 45.6412 26.6047720999
11.1929 23.0399 45.6707 29.7188307066
11.6615 16.3638 50.1723 26.1008287504
11.4817 20.1493 54.1678 30.54477989
8.28049 18.8319 49.1335 28.4762801249
2.89483 13.6524 45.989 27.8217696011
3.98626 16.5514 51.3452 27.5830674674
12.1625 14.322 52.1156 28.2360563035
5.39436 15.2848 47.2792 31.15356293
7.18607 14.2944 43.0397 30.7459102074
6.411 22.8568 45.9122 26.9355112198
7.87244 14.1884 55.9697 29.2088498399
9.13343 17.6624 46.0285 25.2829828158
0.485704 13.2151 54.922 34.4994206593
2.07469 20.4015 51.9307 37.9182692495
1.9248 19.7201 48.4248 30.3880919493
8.75353 22.5758 54.2466 30.0350936898
4.94729 13.8868 49.9574 31.6895171138
4.72445 19.7365 44.8084 28.4717093627
2.49389 22.6728 48.4087 26.5323261642
3.14374 24.1705 52.5847 28.7667500125
10.3776 20.6441 49.5572 25.9127506264
6.13871 19.5951 47.9283 25.8879769485
7.56328 12.8565 49.9553 28.6794800062
8.5047 22.2387 50.4785 27.2280121454
8.61078 15.8163 50.1399 30.5163093389
11.4811 15.9668 47.6188 32.8516371773
1.91637 16.3477 46.8207 27.7631986965
7.58238 18.2102 54.4623 33.0398437126
6.9179 23.5191 48.7924 27.6163986493
3.53922 19.5945 55.1276 31.460212983
10.3064 20.7409 46.8646 26.937461333
1.27816 16.2052 49.892 30.5207696345
10.0122 16.4673 53.3724 29.0629524611
6.501 20.7907 51.6238 32.0897295516
6.51338 17.8711 51.6305 31.6599547901
6.11193 23.092 53.2765 30.3547177707
11.8739 23.4099 53.6454 29.8525963111
11.0658 18.5739 51.6237 30.0785722695
3.75174 15.8232 55.4018 27.0358493566
1.85946 18.8881 45.7229 32.1913815274
4.76441 14.4635 53.3989 28.9831173309
8.27406 15.3276 47.3967 27.9696350853
0.234937 21.128 54.0795 29.0828062072
-0.105348 21.1345 45.0686 34.4918273091
4.6366 22.3405 55.6608 31.5264263179
0.125055 23.8804 53.1443 32.2065791497
5.02565 15.9296 43.4456 28.3396169832
12.0119 28.508 13.4808 27.41812421
1.4154 25.5947 5.37252 31.7215795438
7.4305 26.3797 6.36541 28.9871983225
5.23149 27.91 5.92121 31.2064804995
1.69369 35.5761 13.3808 25.8765393741
11.9352 31.8475 16.3731 28.8732720968
2.23073 30.8554 10.1741 28.8340188138
3.2267 31.6611 7.22419 29.6235923539
9.07633 26.816 13.4836 28.5566775516
4.71034 32.5665 4.86058 32.8805577035
11.7414 30.5872 7.57462 27.3447734347
0.439258 29.2429 11.2943 28.5912482043
9.41993 33.8613 7.85033 29.7776824915
9.34683 29.6536 14.2521 30.4863179363
5.99241 35.1106 14.1416 29.6590273565
3.4121 35.8951 6.59427 30.385530966
6.94741 33.8162 6.40665 29.1630557735
6.04068 36.4259 6.57435 30.1779752721
5.79623 29.8422 4.14454 31.5127132105
8.35334 30.1927 4.49583 27.2440602367
1.39181 26.9633 8.09705 32.9554143229
7.11023 33.2731 16.3689 27.4026500183
3.3508 28.7708 7.99953 31.1511615085
4.78102 29.4927 10.2556 29.0864736737
7.29473 28.8138 8.60946 32.7892853816
8.97453 30.9535 7.28712 28.3771434559
9.14245 27.7941 10.7253 31.9811010577
3.08498 34.572 9.10491 28.857165748
11.0794 32.7359 11.5572 28.7676832457
5.84397 32.1822 8.41189 29.3298329051
6.01144 31.3966 12.1896 27.1457278852
2.09411 35.401 4.01494 31.1209608583
10.1529 35.9628 11.7836 30.3232116862
3.89733 25.7351 4.40693 29.5242520301
4.00782 36.2449 12.0964 30.4356780457
-2.49317e-04 27.9854 4.83183 33.1439953377
5.43905 33.9369 10.6993 27.202425408
8.14216 34.572 10.3262 26.2417211581
9.80137 27.7307 5.21954 29.3827874711
6.30787 27.197 14.097 29.2307888422
2.70173 25.7408 12.9079 32.2572980071
1.23266 30.557 4.67327 36.9830030909
4.95812 26.9227 11.667 35.7134594062
6.68866 30.0352 14.4699 28.0619916224
10.2998 33.7391 15.504 29.4870089807
11.0161 29.8404 10.798 29.4621679919
7.93559 24.9842 8.91775 29.2996007481
2.7606 32.9615 12.1592 29.4061713773
4.0576 31.8659 14.6277 30.6121258653
2.20971 34.2665 15.7628 29.3362799602
8.39124 31.4036 10.6887 28.1432422179
11.1043 35.6416 6.24829 29.6981540853
7.9406 36.8972 8.6831 28.3810971137
8.41191 33.3387 13.3542 27.5547274628
7.10987 25.4889 16.1929 33.088063694
3.26838 24.6776 15.9015 34.23748147
2.33796 29.4518 15.6386 30.0498203124
4.34396 27.4338 16.2562 30.9928231623
10.8226 25.5111 9.59714 29.4121062613
10.9081 26.5184 16.0282 30.0096214912
1.08791 27.7569 13.5454 31.6506635219
0.594702 32.9508 8.62118 26.5915387084
11.4688 31.5069 4.89879 28.0940505834
11.7072 26.1113 6.85697 34.5080647851
9.10879 28.5306 16.9556 28.0421306368
11.791 26.8968 23.8628 44.9671488037
1.1007 30.8181 24.323 75.5509755841
7.54261 27.1506 18.6697 32.2473103882
3.91529 25.9496 21.5664 32.0587713548
1.37371 28.1961 18.108 29.5422628824
11.0841 36.486 21.3842 28.5062854444
2.69442 30.9841 18.9449 29.7304667051
1.25351 25.2261 17.78 31.0265754065
-0.137607 28.5067 20.76 28.5725901028
8.7991 34.3973 18.3489 27.0823822841
7.8689 29.4186 21.3898 32.5682066696
5.0749 28.7747 21.041 30.5044437996
7.09081 30.5899 17.4204 27.4804735933
11.8713 26.5751 21.0068 30.8523638913
11.0665 30.4389 18.3782 33.567241885
8.8397 31.8922 19.5923 30.7013758033
5.07225 35.2015 18.5911 28.1501424674
4.76007 34.0789 21.8521 28.1069967395
0.324924 36.0779 21.4375 28.6701265262
9.94247 33.5017 21.6952 27.4069711322
5.05925 29.1535 18.3675 27.4629479873
1.43218 26.1883 20.824 28.5097701108
1.22525 26.361 23.905 57.9425739803
7.17015 25.3858 23.6499 36.2781553991
1.05397 31.009 21.4775 32.6947963672
9.16281 26.9835 21.8039 30.745067107
7.37583 24.9407 20.7613 31.9780232612
3.11494 36.3357 24.3723 72.0294730833
4.27726 26.0627 24.468 93.2521724617
7.57409 29.9568 24.1547 70.8584975154
4.94488 28.8369 24.2496 68.2231100666
11.6479 35.2904 18.6694 30.6497527447
8.89635 27.438 24.752 127.313344713
3.98135 31.5602 24.2907 71.7343448564
4.06799 31.4808 21.406 30.9803817597
4.82254 34.2482 24.4198 86.1184241714
7.84958 35.1222 24.0349 65.1377305079
7.18544 34.8002 20.5196 26.7439956423
2.00538 34.7522 19.0447 29.3720259556
9.98409 31.4374 23.557 40.5187503938
10.8908 33.8622 24.6091 108.753307401
11.4754 25.0489 18.3816 31.1888420996
3.35683 36.1311 21.5358 29.2441360258
0.173415 36.2264 24.1763 61.446656465
12.5018 29.643 24.0786 72.8544770211
4.5316 32.7612 17.3181 27.7316792265
6.09656 27.8989 35.7081 65.3294838805
7.93574 32.3465 40.0973 26.7047747683
5.5586 24.8867 35.2993 100.9540721401
8.45674 25.712 35.9988 45.6795094779
8.02094 25.3904 38.7534 30.7809783983
7.7205 35.4486 41.5206 30.5318378538
3.36046 35.7297 41.0313 36.5721597339
6.18885 33.8137 37.9898 29.8814310942
4.62724 25.0722 42.3394 30.437324629
9.95473 28.852 37.98 30.5716449674
11.3745 35.7636 38.7615 25.2232221535
7.45352 30.2354 38.0715 29.1482817135
5.87551 30.9802 35.6374 90.201318951
2.95545 28.5302 35.4918 89.8738404628
11.9992 24.9772 39.3285 29.2961368313
10.6332 27.9445 35.5319 105.0123845842
10.0265 26.7231 39.7785 27.7253092846
-0.360029 29.6283 38.3754 32.1520315941
7.63162 33.0237 35.4276 98.965787256
4.71958 31.6035 40.2456 27.1076828388
2.30652 31.0295 41.5691 31.9248241783
10.1181 33.0744 38.5682 30.0111436974
10.2269 33.9521 35.8251 50.7496074295
0.247884 29.2197 35.6863 66.1046086853
10.3839 35.2056 41.0361 26.412046373
4.11294 31.6349 37.6967 29.1581203414
5.33924 34.007 41.656 29.7829436551
2.75952 26.1182 38.488 29.7170318526
12.4137 25.69 35.9396 54.5393718251
1.68216 28.7439 40.6946 26.5856086581
1.66473 33.1779 37.5877 35.5532340535
0.568985 27.1434 42.6273 31.6174388025
6.25127 29.2969 40.8759 30.7632108183
8.71847 28.6556 41.9387 28.9154036422
3.31549 28.8907 38.2746 25.3228702811
5.70557 27.8277 38.251 25.3283298035
3.88003 36.4931 35.7429 83.5101408516
9.34734 31.2475 42.2674 32.5952158262
11.9391 33.3322 42.157 26.6417792606
2.42662 25.3379 35.5844 74.454720545
2.4764 35.7162 38.4102 31.5453443556
4.08946 27.9416 42.0571 29.6124757932
6.56107 35.8415 35.7695 65.4951393459
0.92564 36.2861 35.4052 96.3818394645
0.878072 25.0715 40.1148 31.0376597214
10.9246 26.8733 43.0009 28.0643705826
11.8707 30.7289 38.7667 29.6520399685
7.08136 36.4447 38.8264 29.4965278387
5.24167 25.0491 39.495 29.8639811839
2.92526 30.444 44.4622 34.1993130491
9.85765 28.7113 49.5966 29.360890475
1.47187 31.4479 54.33 27.5993879142
6.70485 24.8365 44.2094 28.3472921843
4.72559 25.7612 46.481 30.8427572886
9.06584 24.5765 47.2257 29.4217634907
1.88737 27.7386 46.4486 31.7613744431
6.15374 25.737 51.9863 30.0264289323
5.972 33.5779 44.3308 33.1288703002
10.9752 34.8383 55.929 32.8894207991
3.47656 33.0344 45.7105 33.4278525037
0.517116 35.9584 44.6383 29.6540080106
12.3339 27.2383 49.844 31.716443945
3.22982 33.2836 54.9411 30.2636259301
12.2863 30.5066 52.604 30.9060603079
5.75726 28.6461 54.1438 28.3108401913
8.3755 32.3218 44.8197 35.361271382
12.172 30.5009 45.275 30.4822171568
1.08056 27.415 50.1138 28.0297326804
1.7268 24.7478 46.0716 29.0116121383
5.14005 25.8818 49.3609 29.9079657995
9.25616 27.2597 47.4456 29.2633884271
4.86777 36.5327 54.9637 30.7818219328
11.4094 27.8728 45.7648 30.7773378205
2.48739 31.5905 50.3926 26.5654819385
10.8887 27.6509 54.8537 30.1785276262
4.83762 32.383 48.3491 29.6902418715
7.06355 29.1413 46.8196 31.515494553
4.99167 28.2525 44.9518 31.9773442211
7.83417 34.3317 49.8217 30.4692790416
7.59815 31.6811 47.6759 31.0660032034
9.46274 32.3748 51.1551 26.9688488046
10.9984 33.0312 44.6561 29.8184486325
2.55867 24.8341 50.0643 30.0905074185
1.98185 34.6498 48.3148 30.1603360794
4.86237 34.9849 48.4703 28.4354466901
10.5639 35.4868 46.8213 29.6563880595
0.765759 33.1199 44.5186 31.9102876961
10.0435 36.193 49.3637 32.1579075727
7.90021 27.3709 44.1351 30.9785655686
1.45127 27.6856 52.707 28.0312363108
2.10034 24.8996 43.266 27.2655884454
7.60045 33.3925 53.5734 34.2639400405
3.88046 26.5769 54.0158 30.8243112868
5.43847 28.8414 49.2074 30.8536863348
8.55131 26.4832 52.5732 29.4725932265
10.1446 31.0654 48.8322 29.6024967792
8.41418 29.3696 52.0167 28.2791925976
2.7983 29.069 48.882 28.4335813407
2.86024 29.9817 52.5087 29.2373446927
8.8051 33.1807 56.1833 32.2647941844
5.64752 33.054 51.5266 28.264430872
9.95251 30.5871 54.1494 30.0170812039
5.86755 30.1026 51.7462 28.7260675783
1.1786 34.874 51.0774 32.8470468516
3.79419 34.8108 52.6977 32.0544751243
7.07064 36.0415 53.2158 30.6204287715
7.82051 26.98 55.3988 29.5119587025
11.3699 34.1882 51.4876 31.9840927997
6.08306 35.6404 46.0741 31.9660220771
12.197 36.2549 44.8153 29.8995265457
11.8999 36.2082 53.4298 31.8353311136
11.0878 24.7414 49.359 29.0443437868
9.78994 38.3392 15.3626 29.0044198646
10.0216 40.4846 11.3204 32.5352948422
6.80392 41.343 13.7175 27.1066325806
2.54279 38.2591 7.34755 26.0709878524
6.04855 38.2774 4.69801 30.9642562676
-0.0430839 38.6598 6.25636 29.2510359299
11.4722 45.2141 6.0789 36.902810898
7.27029 38.8639 12.1886 29.7434269021
1.27501 47.5193 9.00811 30.8755485581
11.4505 42.6434 5.12376 34.8775573145
3.683 40.4263 9.75013 28.4866509894
2.89083 44.145 6.19462 31.737858185
10.6851 48.404 10.8598 28.9686507657
4.73829 44.0746 16.1477 30.2565849965
8.53485 47.5866 9.46036 28.9003888805
1.13311 46.6502 6.03199 30.0191086244
4.65393 46.6474 16.7651 31.3679283224
6.82009 47.8211 6.26004 42.8988883334
6.9551 39.1977 9.18658 30.3750915317
5.0287 39.6292 15.2623 28.4199591558
10.5357 45.0729 14.1133 27.3210828257
0.401952 43.0775 10.9435 31.4313221598
1.17507 40.5173 4.09663 30.4282008009
9.32786 48.9858 15.6722 29.8580137862
4.57182 39.8521 7.15101 27.2533297766
0.72485 37.8567 14.4257 27.9924419666
2.63496 37.1866 16.5577 31.4348947928
2.08289 37.4847 9.92863 29.4027763173
9.14769 40.8001 8.33305 37.8715759133
8.83692 38.6949 4.26779 33.0650246308
1.33956 41.7508 6.64568 26.8735484504
4.65592 44.8735 10.6845 30.7797281188
1.04405 40.7689 9.09521 26.426099655
4.9803 48.0895 14.0901 29.4390017111
6.78996 42.6739 8.75564 36.1599792853
11.7191 40.1529 6.60017 27.5192327736
2.16341 44.8386 12.3723 30.1225789017
3.43821 42.8512 13.9254 30.3941143343
2.36949 48.3256 14.1804 27.5164948453
2.37163 44.7563 8.89034 32.6656904419
5.44421 42.7398 6.19837 33.5528359333
7.82699 44.9333 10.3876 34.4319325721
4.78023 48.0149 11.0306 30.7595868996
9.20723 47.4553 13.2774 30.2655251796
5.41765 42.3475 11.4472 28.8510040092
10.6425 44.3518 11.2 33.8754302083
9.83773 38.0315 6.57756 27.7937524952
1.44074 39.4735 12.1988 29.8653522494
7.16131 44.0648 14.5962 28.2912006745
4.35935 39.1682 12.2081 27.4937273807
8.30502 36.7649 13.6543 27.979279687
10.7026 38.0302 10.1715 32.7529485219
11.6627 42.6961 13.9092 29.8564616618
9.53762 47.5366 7.0554 33.7149207103
2.65102 40.4052 15.6082 27.6254387466
9.45831 40.9771 14.1841 30.3328477776
6.72801 46.1334 12.9123 27.8954880819
7.10647 43.7608 4.29576 40.3695435462
0.604353 42.7643 15.3293 29.2170057164
0.665282 46.3409 13.7052 33.8989945218
12.1806 46.7036 4.08204 30.0155826447
5.56887 36.98 16.3347 27.254958879
12.3357 42.1108 11.0086 33.8860095026
8.86705 44.9834 16.4481 32.5135362157
9.01519 41.6354 3.87004 34.0124564758
2.25857 38.2385 19.5281 27.8247175215
5.34969 38.9284 19.8755 31.6233316887
10.1611 47.9373 21.2854 28.0030113199
6.84861 39.9984 17.6835 28.3794847053
4.62537 41.2317 21.3947 32.2139053769
9.9507 41.3238 23.8094 42.9705007373
5.36484 48.5924 24.2935 94.8260350736
7.00105 42.7677 18.184 32.948144874
1.78548 41.8515 21.2418 29.8002053952
6.94584 43.0594 21.0914 25.6814435781
9.06141 41.407 21.1279 32.658581162
1.36373 46.1077 21.6853 30.1225649541
2.32566 47.3696 18.293 27.2532920266
11.2791 45.9911 24.0269 61.7730742827
2.03285 40.8047 18.2737 27.2489633316
7.94504 48.0722 19.9075 32.1004368457
10.0847 40.3171 17.4773 27.6716775529
3.90789 42.8331 18.6087 29.3885071622
0.676112 47.3284 24.5438 93.4165073363
5.85016 45.9437 21.2902 30.6681813121
7.31729 37.5825 23.7442 33.7791432998
4.8702 38.5756 24.5057 96.5525797391
9.46381 38.6112 19.8643 28.2802492365
10.6368 42.8571 17.6942 27.8684683519
11.9534 37.2734 24.0211 43.2109467963
9.52029 38.5859 24.5743 112.9736713797
0.412996 39.5768 21.4356 26.8664553059
0.19805 39.273 24.1059 66.6881713397
7.36162 37.3397 20.9086 27.3223150785
1.27885 42.1435 24.0827 51.7150850719
6.40117 43.128 23.9762 54.2414996988
4.34887 41.4147 24.3704 83.2769576438
5.03858 45.484 23.9198 55.3454134509
7.2376 47.5326 17.0742 34.0180986738
9.07858 43.9277 24.3798 104.3960990512
3.52637 45.2627 19.7781 31.5722761293
2.32042 48.8171 20.814 26.877178795
8.9498 45.2048 21.6377 30.7230595387
2.50621 45.029 24.3592 79.5924849956
8.1221 37.6465 17.275 27.5219896572
10.9684 43.7206 20.242 28.0116731511
12.0377 48.4441 16.6903 33.5803800145
11.9956 46.2564 19.1582 32.4327167332
9.76125 48.8669 24.2005 89.6763229535
10.9892 37.582 42.5143 28.4519480259
3.84113 39.3778 36.4042 31.8850127224
10.8116 41.0329 40.8279 30.8251337594
6.31209 40.2562 35.7704 72.5894594055
9.16867 38.2598 38.5901 31.4236022303
8.3561 38.3835 35.6066 73.9525748313
2.427 41.4971 35.3878 110.5273776346
2.96817 39.9688 38.9056 30.6542584978
6.51277 43.2186 35.9831 51.6066898219
6.44069 43.8122 38.7678 27.8068480895
4.11915 44.8576 35.6588 95.5427450713
9.85154 40.6703 35.7476 79.5545785241
9.72702 43.0948 37.4601 27.6740090864
8.70539 44.776 35.5606 110.6895944975
0.720159 41.7904 39.5342 28.5308480858
3.47378 42.4022 40.9879 28.0666250518
5.35504 47.1621 37.2309 30.3941389735
10.9999 46.999 39.3958 30.9564926152
8.36586 46.5299 37.3351 29.5228793338
3.41813 48.6984 35.5787 94.0745482998
4.40174 49.0905 39.5449 28.4515781107
2.28837 46.5341 42.2497 27.8765076463
8.97735 43.1684 40.284 28.1519411536
0.696859 38.9332 35.9463 40.1491346527
4.95186 37.8873 39.8644 30.4669038678
0.763223 38.0231 38.8299 30.6241300745
4.49721 44.9879 41.4269 28.9723860821
7.13375 46.9139 40.0749 31.4184088005
1.87647 48.4821 40.3489 29.428169539
11.9002 38.3712 40.0057 25.8546222253
5.8808 38.9924 42.361 32.802237211
1.19304 44.8714 39.8307 29.1774393773
8.34118 37.7954 43.2725 28.9219915272
7.81877 40.7647 38.1288 27.7192966005
6.0272 41.2278 40.5054 28.6164928276
7.48677 42.3257 42.8016 29.1074697984
4.0272 45.1575 38.7204 28.3055969704
1.22354 43.3246 37.0144 28.062620183
9.3758 45.9423 41.522 28.4177933732
-0.0258266 39.2988 41.6619 31.0536890956
1.72716 37.3476 42.7433 33.2791767939
10.9969 48.0839 36.7449 31.7896909955
0.529405 48.425 35.4279 87.2321551359
12.3362 45.6732 35.6165 97.4319200863
0.229753 47.4396 38.3935 30.7014078617
10.7842 36.6039 35.9689 59.127500123
11.0684 48.0979 42.6266 26.9562439608
2.07384 43.8148 45.9031 32.7629880196
-0.0591061 36.9819 52.4589 33.4037547881
4.24171 40.253 56.4901 29.6113954776
9.94955 47.5781 54.833 30.0661485683
0.797099 41.7996 47.3178 33.4944218449
9.4688 40.7358 43.7264 31.8600888884
9.38241 44.7264 54.3436 30.7013342168
9.25499 37.4653 54.2517 31.5845028822
4.78727 42.8832 55.1119 32.9331154882
7.52337 46.3146 52.6004 33.3875608447
5.94306 44.3052 43.8853 31.9120548096
11.968 39.1585 51.6129 33.2420764569
4.0249 37.7849 46.0502 33.7423381316
10.6658 41.8187 46.1948 30.3684275873
3.61574 39.134 43.7149 32.7703526633
11.5545 40.1423 48.9115 29.0696285797
1.90065 46.5524 45.8543 28.2125204807
6.3196 46.9795 45.0522 31.0965686289
9.2165 46.914 44.8892 28.4240681503
1.04748 43.2676 51.6404 27.1193640777
3.93621 47.0519 55.3082 31.7082542495
11.929 47.7008 51.6403 28.1493765973
2.67059 44.5686 55.764 27.887038182
3.30366 44.8856 52.1169 35.7950630535
2.20616 39.5651 48.4757 36.2859376937
5.13511 40.1595 47.3458 31.9110507433
7.61567 39.4356 46.5684 32.976721704
8.16667 43.6056 49.2358 31.6023302086
6.21469 40.9391 50.1953 30.0347386226
7.16856 43.205 52.1657 30.2359754518
8.96023 40.7521 48.3782 27.4002955146
9.40469 44.1404 43.9027 27.9629924696
4.68127 42.7265 45.9073 33.8824371133
10.7126 44.8143 50.3768 28.3263075323
3.00754 47.6665 47.983 28.4404209745
8.59612 47.3643 48.345 29.0346311318
5.30827 44.3017 48.5011 33.7238282156
8.32142 38.6019 50.1304 29.4014982586
1.07866 36.9903 47.099 31.6531502093
9.87601 44.5711 47.0052 30.2034422502
0.511855 48.9393 48.9936 31.047997584
12.0628 45.0837 52.992 27.2448888435
5.99372 36.8035 50.556 32.9939078436
6.5234 47.6883 54.5168 29.42217988
5.86521 46.8497 47.891 30.464500374
11.1205 48.6457 46.6445 30.2009519317
2.40709 40.7663 50.9996 28.99304213
9.0727 47.6747 51.1577 28.0169446026
-0.0528627 47.9583 51.5563 30.6747889778
4.65986 39.2117 51.913 34.5522598186
9.13887 42.0352 53.5639 28.8889436769
2.80699 45.0951 49.3564 31.9615498379
2.71679 42.0031 43.4625 31.4763833106
9.30041 39.4787 52.6255 32.1340949956
0.708349 37.8582 55.1718 29.119192625
3.61614 38.7202 54.3097 31.1941939676
4.44973 42.5196 52.3224 27.8957082035
8.40813 36.9915 45.7644 31.1738919224
2.30137 48.7006 53.5437 35.0505778767
3.61091 48.0558 44.1319 30.5071669994
0.214862 43.0518 55.4772 29.7873091545
11.8604 46.3605 48.2825 26.5598985592
12.3623 6.95066 13.3097 31.077784236
12.4933 11.0171 5.69743 27.9932507337
16.2748 3.25702 5.47113 25.8656305054
16.2225 0.558791 10.5025 29.501485693
22.5854 0.80718 7.12067 30.3616214147
15.5579 6.2281 5.54459 28.2288350168
12.5245 3.76396 15.011 27.607449386
14.7751 3.89442 7.79541 29.2080759492
14.4913 0.69502 13.0021 33.8577590244
14.0247 5.1382 11.8205 29.6565662629
16.8002 7.87275 11.1725 29.2467446792
18.606 6.99564 5.86198 30.4950242169
22.3601 3.27771 5.20748 30.8809077436
12.5441 2.81152 12.5631 28.8706589585
24.3577 0.450018 15.3062 31.0519413269
21.0275 7.9833 4.93605 30.4131688357
23.3822 11.1698 11.4157 27.7024724402
18.8202 11.6767 14.8163 31.4136685393
18.2611 4.70508 4.26104 30.5083551957
14.6762 10.3181 15.3352 26.7338775409
22.6708 5.93797 5.84199 30.6441910848
17.0759 0.696366 14.3772 27.4323687906
20.5576 6.9683 16.0638 29.5505952406
14.5678 1.23448 8.56146 30.4496583096
23.4878 10.3008 15.4654 30.1288228114
19.333 3.49638 8.68516 34.6386468709
18.7475 11.7609 6.56599 26.6748966158
22.0714 3.22743 8.52904 31.4292366064
20.0137 2.4366 15.3433 27.3001202909
21.3301 7.68495 9.63471 30.0325126968
18.7714 6.43975 8.74428 29.6870570912
18.2549 1.80586 6.6229 31.3350353175
23.2691 5.93242 8.55152 31.6850784015
20.9779 10.9339 5.25502 30.3437434663
22.6581 2.52956 11.2628 35.289533441
13.8427 9.07894 11.5891 28.5333437287
19.4546 6.40351 12.1594 29.2323101668
15.4016 8.01437 16.5255 30.6690972166
15.6789 6.10167 9.17365 27.8849230018
22.0921 7.79737 12.2289 27.2430370132
20.7451 10.189 8.27859 30.6440151157
15.5863 12.0943 5.44748 27.618854164
16.7001 10.1447 13.3696 30.774710857
17.7221 9.3574 8.76456 28.3309020859
16.8311 11.554 10.5501 31.3022845416
14.6131 8.32518 7.65515 26.9839845485
23.713 11.7913 4.84783 37.6764688466
14.4782 10.6926 9.46287 29.9634067907
17.4186 3.5432 15.0296 31.398618817
20.1717 1.81862 4.47964 27.6382627501
21.6134 10.4205 13.5079 29.4844786867
21.6762 0.131322 15.6064 27.2299420484
14.7462 5.48111 15.1617 31.5336501837
16.7501 4.95843 12.5358 31.0195657841
16.6512 9.40245 6.06486 26.3352634641
18.0677 2.54875 11.0438 32.9454032566
20.6481 3.82165 12.9033 31.7580231523
22.4397 5.66596 14.5026 27.6497307625
19.2701 8.56687 14.0037 31.5045475761
12.5467 10.99 13.4019 28.3074814919
12.753 0.0458031 5.53824 27.0608832031
12.426 4.55775 6.50533 26.0481321858
14.9601 1.12938 4.07857 29.1234099924
18.2312 1.01466 24.2521 66.3577433314
14.141 5.67526 21.583 27.8064801245
16.8669 3.65147 17.6577 29.9182833358
24.5397 11.49 20.1972 29.4892455305
21.4168 3.93824 17.119 29.6883072335
18.5134 10.6838 17.4367 28.2278551175
14.4772 3.76175 18.769 25.3285782086
22.175 8.817 17.3898 30.408883906
19.0583 5.03105 18.5082 33.2519405074
24.3974 3.53107 21.1638 31.6318358747
18.4157 4.80644 21.6762 29.8280539487
21.5068 1.00106 18.3012 31.231480871
20.7894 10.7657 18.8356 30.5312039472
13.1487 10.331 19.641 29.6941617462
14.3252 10.3957 22.3345 26.9903301846
21.2045 1.40683 24.3315 65.7328345476
16.2532 10.26 19.3455 29.619239605
19.0105 1.30784 21.3945 31.8878783076
24.0372 8.72944 19.5487 28.5800666074
15.7862 3.37643 21.2981 29.3152519312
16.8275 3.70814 24.3759 85.4736515058
17.1678 0.924295 18.9079 29.3585168917
19.7875 5.93019 24.081 60.165166283
21.6969 1.4404 21.4029 29.6394127085
21.6513 4.52253 21.7872 30.595823006
18.4997 7.46343 20.2631 30.6756400862
24.3008 4.8486 18.8536 33.5098662383
14.129 2.33698 24.0496 56.4182384108
14.2145 5.5291 24.4187 78.1256442244
15.8218 7.91319 21.369 29.9828094715
17.4782 7.58687 24.0302 57.3541133368
22.3482 7.50294 21.5595 33.1449087701
22.0236 3.95488 24.4626 90.6863297019
14.2517 8.23021 24.2976 80.7587548795
24.0145 2.43284 17.2251 26.698641975
17.916 10.0289 24.2323 80.9466233774
20.4025 9.34178 21.3062 31.7821963397
20.7165 10.1707 24.1801 65.7547464914
13.7293 6.22428 18.4213 31.1276146187
22.0954 7.66538 24.2386 69.1803793565
18.1024 7.94031 17.3178 29.6811132963
14.5844 0.518227 18.8563 27.3466099006
14.0661 0.507111 21.6244 27.8914772882
14.6517 12.0977 17.4125 26.7938565144
12.3578 9.10208 16.8117 30.3192031382
22.0781 8.21107 36.9644 28.0646566272
14.4703 2.97922 38.186 30.8476090493
22.3587 3.26072 38.823 28.9936038236
16.1911 3.46524 35.8032 62.2189102562
17.4856 1.38878 35.6297 84.8717308326
20.3898 1.44385 35.6619 85.9791020997
17.5131 6.16454 35.7588 89.215219944
13.9883 2.42259 42.4119 32.1990284206
18.8625 7.33591 42.4346 26.307045935
14.1608 7.63519 38.8073 33.6172991603
13.1803 3.17626 35.59 101.8016722485
21.2714 7.88961 40.3719 27.3392653781
16.7459 1.71571 43.0097 29.079202483
15.2927 8.23046 35.8725 77.1768572789
12.7363 9.14399 35.8792 73.8117094414
17.4747 4.35124 38.789 30.6403822958
20.2176 5.6827 38.7581 28.4783592883
17.5412 7.46607 38.3014 28.1004196954
19.7566 9.52327 38.5724 25.6517773572
19.0294 11.3995 40.4495 26.2453546213
16.7331 11.5958 38.8628 29.9353620123
22.1492 3.58336 35.9828 56.8530604544
23.201 0.303563 38.745 31.0393911478
18.9935 10.8052 35.9918 62.6111808774
18.4021 3.97421 42.0697 29.415364941
12.9265 0.36462 40.7329 30.4906957899
22.3272 10.4938 35.3643 104.1462006673
16.4001 11.1303 35.727 71.9886916795
15.2628 0.222343 38.6582 29.1146226621
16.0486 9.15433 40.358 27.465389461
24.2809 6.64488 36.2675 52.527850753
19.2303 2.27336 39.5627 30.5126372901
18.3257 9.95007 42.6593 25.7553214562
21.3493 4.18597 41.5619 28.1456799883
20.4646 5.94565 35.9722 80.2080166052
13.5225 5.14437 39.5839 28.5822383528
14.2547 5.06398 42.1318 28.1383714646
16.7133 6.17682 41.0716 25.80141533
13.2158 0.221234 35.6382 80.3797428381
23.3294 10.6532 41.3901 26.7283311894
24.5433 5.55436 42.1618 29.7220952952
13.9259 11.0512 41.0523 28.4796757191
23.8212 10.064 38.5202 26.0745444982
17.5364 0.347646 40.6961 29.1677904077
24.0537 7.58367 40.3605 26.0956995877
21.449 11.9528 38.6093 26.3556901871
15.5934 2.37398 46.4498 27.9788064035
13.4072 2.17401 48.0821 27.2139186099
17.2064 2.23513 48.8267 28.8450755768
15.1061 5.62529 46.0906 30.6196579405
14.9015 9.59483 48.1467 32.8711457555
15.3997 11.1406 51.0022 32.0587517743
22.4627 5.83911 50.0078 28.5745919357
18.2001 12.4558 51.4864 28.7340512356
22.2173 3.74084 45.8686 28.9817258332
13.2584 10.4825 52.4019 30.5232279255
14.4979 5.65021 48.8086 30.1918061119
18.4737 10.6953 47.0706 30.8105260955
16.2629 7.86172 44.0167 28.7769732886
17.8927 3.92486 44.9643 29.0555844845
21.4476 6.41393 47.18 29.3816850177
22.4637 10.6186 46.8492 26.9047794978
20.4926 10.2839 45.1162 29.6117873116
12.9148 11.9745 43.5915 28.5878643087
12.4212 5.57818 45.341 26.8470290194
12.9824 1.46757 44.8679 29.3042091557
14.0052 7.83213 52.5115 31.8095841094
23.0104 4.02464 54.0147 29.9621284428
22.5515 8.88929 53.9833 26.7554799252
22.1123 8.89932 43.2141 28.4924999051
14.154 1.50088 53.1488 28.3462168017
16.1288 11.1671 43.557 27.9848126458
18.6994 2.38322 54.412 26.2969428945
18.2837 9.40757 51.4774 32.5857441531
22.6865 3.45902 48.769 28.7987129565
18.8687 6.01342 54.1256 27.6929612383
13.9966 3.13501 50.7258 30.5424442678
22.4512 10.4363 51.4276 31.974453615
22.6056 -0.20996 52.734 27.4079949305
16.1505 7.95223 50.1224 26.6165752748
17.3254 7.77572 46.6938 28.3860480921
16.6232 4.81868 50.3123 25.3778745511
13.8501 11.3832 55.1255 29.1704501669
19.7691 3.04661 50.7787 24.3754343784
13.0055 4.39426 56.2001 29.0712468939
23.7767 6.82672 52.3018 29.0807225779
15.9211 9.35325 55.7178 28.6780582224
21.0867 2.16958 53.0332 29.9712528403
19.9576 5.80083 51.3033 29.9752645295
23.2094 0.349228 49.8489 28.4152568805
19.9197 2.51086 46.4575 27.2063583912
19.1003 4.65495 48.3759 26.3208921551
18.8869 7.47647 49.2401 24.7172909629
19.2574 6.28441 45.1705 26.1003132295
15.0385 3.35905 54.5611 27.7339326447
22.4089 2.23907 43.2448 30.6704884488
12.8851 9.32804 46.1773 28.1133366397
14.1726 7.18144 55.5697 27.1482221727
15.9871 11.5539 46.3564 31.181301834
21.7031 5.96089 43.7506 28.0506927823
18.3618 8.73075 54.3489 31.3706473031
20.4487 10.459 55.0862 29.2066442404
21.7681 6.35993 54.7521 29.2339639474
20.578 9.77807 49.0536 28.4693221516
16.2291 5.74529 53.0401 31.2793756198
23.5596 8.07878 48.1833 28.997054211
17.2029 2.15627 52.2635 26.696717199
18.9494 0.0450166 51.2471 27.6312144735
24.5028 9.47724 44.8537 28.5850906999
20.6493 1.02198 48.7817 26.9142318732
13.7052 9.06574 43.5271 29.6394465512
18.1572 21.6574 13.6809 30.4277924316
18.4603 13.0912 8.97293 30.2842904706
22.6931 19.9161 7.8179 27.7102998478
20.3105 23.476 13.3176 32.5887440541
24.3354 19.5309 10.2827 30.0456878874
19.157 23.4638 8.71434 28.1513207634
21.557 20.3005 14.2876 31.2729675733
13.2175 19.242 6.87161 28.591317259
18.5657 19.1858 14.8782 28.4445119059
17.4511 20.221 6.14949 31.7132935953
13.1915 18.6745 9.80002 27.7278382939
21.3001 12.3105 9.95344 34.3027884838
18.7369 16.0135 8.39522 33.2920085764
14.1144 14.0339 15.3429 26.2356173655
15.8073 17.9923 7.1954 30.0802713839
12.7424 22.1528 7.18414 31.5920954126
12.2246 13.9473 12.4819 28.5123725949
15.8697 18.7098 14.0933 27.0617779036
21.1071 16.0289 5.96195 33.3236327809
15.8895 22.8013 6.68913 31.8961591663
23.9411 13.6548 9.05803 31.477924645
19.0053 14.3207 5.20879 30.4702072772
15.8658 13.9912 7.7663 31.1664571861
15.7625 23.0105 14.8235 32.9205607054
20.3455 21.8354 16.4657 27.7917636376
18.806 15.0471 13.5164 30.6253588765
22.0471 22.6155 10.7246 31.93197964
15.2133 13.5687 12.3793 32.2175440184
16.6966 15.9372 5.82666 27.8314984651
16.716 16.3114 12.0868 32.0224655343
22.291 16.1103 12.9223 30.7238873435
16.9288 17.9763 9.71456 28.5371864747
13.6423 15.1806 5.31018 29.7410205429
21.2702 17.2321 8.53863 30.7431734086
13.0246 23.069 4.08927 32.0488843434
23.8152 16.6963 10.3204 30.0688148985
12.9442 17.4415 13.1692 30.0816525708
16.294 23.6784 9.42353 31.7597053962
22.3738 17.8756 15.4701 30.0700370486
17.6792 21.0071 10.8782 32.4313480174
19.6691 19.0544 10.2068 29.1417237215
19.7098 20.5021 7.53849 30.3589198372
21.104 22.5801 6.08203 32.6006912933
17.0075 13.7857 14.8907 27.3600166796
15.0252 20.0628 11.6166 28.2445895433
14.536 16.6082 15.7776 26.9385074169
13.9608 16.2026 10.8562 27.5326294026
23.7403 15.5161 6.86332 30.5051669528
23.1161 21.7865 4.04259 27.9140479511
20.8865 15.1403 15.7708 33.9701572293
14.3852 22.5074 11.0103 27.6104706191
23.6224 19.2453 5.0322 28.0704448871
23.3139 22.8031 8.02765 25.7787937231
14.8977 20.4975 16.1556 32.2269024721
23.8085 14.509 15.8184 30.9987093752
20.2988 18.0946 12.6506 31.2782229218
13.9587 24.1152 12.9502 28.7026659258
20.9774 13.3755 12.8072 31.6190315849
23.6379 21.2074 12.558 30.1671210358
13.0476 14.8244 8.22515 29.1989967138
21.1876 18.0768 4.1768 30.7850254202
24.3569 13.5089 12.9757 26.8091049774
24.2673 23.8945 13.3612 28.4184840065
15.1245 21.1551 4.34921 28.3847129253
24.0955 20.4795 19.3392 30.907887546
17.2872 13.4968 18.034 28.9899047506
12.5484 17.628 17.3498 29.0043073123
16.1682 15.7519 19.3781 29.6323862423
13.9208 17.0799 19.8792 30.8541497142
20.9909 13.2899 19.9467 31.1168930584
13.8756 14.3195 24.3782 108.2292095246
18.8039 13.6744 21.6884 31.0509806491
22.7361 12.4122 21.9071 28.226587449
24.0963 22.5434 23.801 46.1220178061
17.6026 24.0578 23.9847 43.0794251783
21.3417 17.2777 21.4543 28.4223110054
19.811 23.8381 19.6864 27.3808367045
19.3892 19.6323 17.6724 26.4655444715
21.8339 12.9515 24.3504 74.5404984921
17.8212 23.4743 17.3002 28.8274480508
24.3829 24.4774 20.0837 30.1843279549
16.3661 22.7494 19.4218 27.3952983526
23.4741 15.565 21.4909 32.314919093
19.7243 20.9916 20.219 29.5188175751
19.9232 15.5166 18.5104 27.8291067008
16.5581 19.6467 18.3056 28.4492223879
18.4473 16.6798 23.7865 59.3518215371
14.0359 17.166 24.2463 87.682976492
15.3323 19.8862 20.9133 29.5890807847
22.1147 22.3225 18.5272 28.6356314156
21.3444 17.681 18.2367 32.6181086971
19.3269 13.5789 24.3265 88.8224569019
13.8214 22.4678 20.9208 29.1767411393
18.5122 16.5136 20.8869 26.1712970196
16.0625 21.8333 24.4961 103.5483062716
16.416 19.0652 24.018 68.9773722342
21.0743 17.3613 24.2839 77.7748573263
20.2337 22.4145 24.197 81.3668267669
13.3087 22.5324 24.0669 55.33219654
13.4856 13.6668 21.246 28.4410875775
21.9569 20.1221 24.2447 75.348296308
17.9646 19.1541 21.4016 30.884006908
23.3608 15.5219 24.5244 91.4520074923
16.9263 17.0708 16.9622 29.928461094
22.1756 19.993 21.344 31.3975293236
16.2028 12.7598 20.7662 27.0870896698
12.3575 19.3402 21.4481 27.6821760937
12.2037 16.207 22.1966 25.848676933
24.3134 12.2571 17.3276 30.3628389
16.1634 12.2117 23.6081 47.8301731246
16.3273 14.1121 35.1802 128.3517785466
18.3108 14.6129 42.5757 32.0021466264
12.4534 16.9615 40.0359 27.2398611845
18.91 14.3766 39.7731 25.4340212132
16.5854 16.0057 38.4269 29.4036693153
22.6659 15.9773 35.5784 86.9904174739
24.261 13.4256 35.5569 80.9716069575
17.7845 24.2563 36.3425 39.8020382141
14.5626 18.1899 38.8474 27.1393176829
16.6789 17.0435 35.9725 45.1135791914
18.384 19.095 35.2754 116.6822910813
20.1754 15.9975 36.9761 34.3586208085
17.2592 18.7314 39.5883 27.8672317085
19.8571 17.5758 40.1729 29.5374876394
14.2269 18.437 36.2169 58.4786253721
14.2579 21.4131 35.945 74.9760323186
21.3229 13.0393 35.6721 67.0843138457
17.0685 21.5211 35.9171 62.9168543348
20.9769 19.0838 35.6954 71.5081698111
13.4066 23.8617 41.2976 28.2439930493
21.7811 18.6969 38.4068 29.411227045
15.0613 13.7503 39.7667 30.2706402221
13.8231 18.9232 42.283 29.2547408549
21.5401 20.0571 41.1763 30.286712998
24.5573 13.8229 43.2744 28.8641593805
20.7006 24.4059 35.6632 95.0244500211
12.5715 13.2411 38.3595 28.7279216036
15.8663 23.1192 40.3492 26.5174850656
21.6635 15.2009 40.0324 25.4030454181
24.1994 21.5165 41.6032 30.657012029
16.5736 19.4531 42.0702 33.2404959271
23.5308 14.1553 38.2823 26.768033741
23.3761 16.6483 41.9584 32.6148107439
18.6583 13.4664 37.1872 25.8431452832
19.7916 22.3789 42.0388 28.8947609943
16.8405 22.3161 42.8326 30.1950001998
14.4197 21.1482 38.8617 29.5397630917
13.705 14.3444 36.0493 48.65525653
17.6279 21.2396 38.633 28.9300916811
19.5511 22.9193 39.1895 28.3603221558
21.859 21.8722 35.835 77.4965564455
22.6653 21.8945 38.8637 30.1966530739
15.4301 13.9552 42.873 29.3896306434
22.308 13.0896 41.6551 26.7371141635
24.023 17.3897 38.0623 30.0671890242
12.5436 14.838 42.0066 29.8575987925
21.8269 23.1171 54.1271 30.8568079983
15.1888 23.9266 49.4879 30.7112069523
19.8387 12.8817 53.6824 31.140625381
18.3685 15.6814 49.1349 31.8857439113
12.9549 21.0042 44.4902 31.2446416883
23.5758 13.5283 45.8332 28.7937300791
22.5504 18.7629 43.4995 29.5403097008
13.3128 24.1511 47.072 29.0636365531
15.1977 22.1187 45.221 30.9305537291
14.9788 13.6744 47.6345 31.2154899901
16.4431 16.0309 47.2978 35.4377630443
17.254 24.1639 47.1504 29.2177311276
23.3253 17.5549 49.8777 31.2839676517
23.0194 20.3973 50.7202 34.4061988939
13.4812 15.2807 54.3931 27.4464855087
16.1603 18.8876 48.2726 33.6377991802
14.4492 17.8824 54.3635 29.2799920385
16.3809 14.7182 54.1489 27.7911786033
20.9354 14.569 45.4176 35.3197972012
19.9548 20.1296 46.2789 39.1994957692
20.1865 12.7237 43.2617 29.122577139
16.5992 14.8368 51.512 25.5057169691
16.9733 12.4406 55.6585 30.818717981
14.2961 13.5977 50.6018 29.8504538203
18.5462 16.9451 52.1673 32.047924007
21.2771 16.0469 51.4062 32.008852023
20.4475 17.3952 44.794 31.8392326982
21.9469 13.2099 51.8512 29.0483430035
17.1055 20.9585 46.7836 33.7816497978
13.5889 19.5943 48.6973 32.2323003501
18.35 20.3764 53.5182 30.7922012828
17.2121 21.8983 49.8541 34.2217162812
19.8135 23.0318 50.7358 33.5647307332
22.1461 17.2341 53.8961 32.184019801
13.1367 19.063 56.347 27.9147527238
12.7184 22.3671 49.6659 27.9442496182
20.8619 15.7275 48.0391 29.6052406398
22.0629 18.3515 47.5478 29.4470427127
23.6297 20.1369 53.8975 28.1098137991
15.8616 16.2021 44.4287 34.1636786245
22.798 21.2517 47.4328 29.7202166831
20.7795 21.1082 52.4461 32.515550672
22.0916 13.002 48.6632 30.1000390612
17.1865 16.9824 55.2645 27.6439572809
12.8875 14.2109 45.8371 28.0866128237
18.6181 19.2827 56.0435 33.9229331456
19.7659 15.6 54.7346 30.126925835
16.881 19.3304 51.3919 31.5396029023
14.4258 16.8551 50.4232 29.9833625279
24.003 22.4048 44.3697 29.0658165064
21.1423 23.5676 47.9895 30.2809698908
16.1243 22.1034 54.3412 30.4812766754
14.096 19.1448 52.0431 25.0611895825
18.2855 17.3702 43.1161 32.6393175135
18.0713 24.4117 54.9082 34.7506825579
14.0467 22.0232 52.2097 28.3154344558
19.2876 12.7266 49.0058 30.7593054429
24.5806 15.5687 54.65 35.4186766558
13.1083 16.8744 44.0581 26.9828092636
21.2908 22.0086 44.4031 27.7777777466
24.1085 17.9002 45.8979 31.5888912107
12.0326 18.6427 46.2995 28.7352684183
18.0249 24.4701 44.3987 27.2089864283
13.5717 27.3386 8.74388 28.8856087076
17.5045 32.6815 4.06708 30.3744597446
19.9839 25.7117 7.35842 25.5673288976
19.1107 28.1802 8.16568 30.6397788289
12.8045 33.4037 7.70345 28.8664243807
22.2244 25.701 9.27218 27.4050079681
13.5857 32.9824 10.1509 28.0143205713
15.0106 32.8133 6.36847 25.6751166553
17.932 36.5135 13.4512 31.9760679749
23.51 26.523 6.95687 28.0339333469
15.6952 26.8926 6.22534 26.0129405259
20.5572 29.9636 6.41479 30.0678087043
22.6826 30.5433 8.43747 32.6080634109
14.5156 33.4522 13.8408 27.8574708023
18.2039 28.1569 5.07019 28.6707203726
20.1206 33.7636 12.4079 26.8405877231
13.8676 25.5452 4.63891 29.89164953
16.434 26.4236 8.94749 31.6221281131
16.0925 30.2872 6.08122 28.1627473887
18.8557 32.1319 6.62341 29.4688195546
21.7504 25.2987 5.25483 27.6625358946
22.2874 29.5652 4.40472 30.2456539435
13.2792 26.562 11.6305 33.8489060765
17.8839 27.0321 11.6567 33.8122039068
23.9834 35.0887 14.7217 28.4012570677
23.7055 34.598 10.5603 29.85461034
24.0862 32.9971 4.40418 28.9653739483
16.0212 35.6557 6.84032 29.7126277237
18.1554 31.8577 15.7469 27.8524515839
16.8781 31.788 8.74915 29.3492045699
20.2747 33.4145 15.4217 27.3831125271
20.764 30.9937 12.5617 30.747049468
14.1111 30.3157 9.54262 29.1551071103
19.7675 28.8108 10.9238 27.5223056938
23.458 28.9304 12.749 29.4735266151
22.3289 28.3832 10.04 30.3674678869
19.2607 35.9891 10.0985 26.9549144171
16.8411 34.5762 9.04274 28.8437309801
20.1594 34.1115 7.99876 30.0311284926
21.458 32.7111 9.9447 31.9745402496
23.7068 35.8962 8.07385 26.7956843798
22.2459 34.666 6.11055 30.8167368122
16.243 25.3821 16.1372 25.8286943001
13.4238 28.8003 6.47592 24.1997267098
15.0657 29.9887 12.3464 31.4340674306
19.7311 24.9815 10.992 32.029874259
12.9156 31.2436 13.826 28.6382617017
21.8752 25.1583 14.9481 31.9711048649
21.6493 28.1574 14.8969 30.9801119924
17.6274 31.0373 11.4615 30.3653657547
16.3283 27.8776 13.7612 30.513660013
17.5272 33.1969 13.1924 28.2212552825
18.9944 29.1763 14.2217 28.0739046955
18.497 27.1322 16.0043 28.8522429563
23.2595 32.381 15.6426 32.0570496662
13.6958 26.7621 15.0036 29.6841105813
15.0557 34.7414 11.4156 31.4946125132
11.9728 34.6972 13.7821 26.7409204572
20.2691 36.1292 15.3452 27.9729167955
21.7794 36.181 12.5852 27.1335012727
15.1688 34.7876 16.3003 30.4193529241
12.7165 29.1716 3.76332 28.1462895871
24.6504 28.0903 16.5603 31.0345963841
21.3362 36.9691 4.30615 29.482901217
17.5481 24.8695 5.51504 31.5544105204
16.0162 35.024 4.05971 27.5165204386
20.5264 34.0205 3.7108 29.8502757122
16.576 26.8199 24.7171 92.1447424602
24.5979 35.8892 24.6814 85.6087776151
18.2385 28.7169 18.155 26.5554193457
13.8098 33.0396 18.0201 28.971813226
16.6439 26.6734 19.6536 26.5922163898
17.3722 24.4004 21.1996 27.3650814087
23.4166 24.5488 17.528 29.191131741
20.5373 25.3923 17.3558 27.861779275
21.7796 24.7579 24.2366 80.0478549899
16.439 31.2401 19.978 28.2931708645
20.882 27.8152 19.5813 30.4421971657
20.7071 30.9713 21.0495 27.792221965
17.0415 33.4001 23.641 42.3235195677
13.7626 34.2778 24.2646 52.0192525439
15.9591 30.724 17.41 31.46027382
13.9737 25.3728 24.4079 82.1424219169
23.9086 28.7236 24.3544 97.3644047065
20.7236 33.8784 18.6706 31.7418757992
22.8042 29.0282 21.6067 25.8300804902
20.0061 31.2192 18.1445 27.2730456614
17.4914 33.996 17.8583 30.2941532674
17.0623 29.6485 24.4836 81.1170030618
18.3087 29.5723 21.2931 24.9123525665
19.0526 27.1456 21.7141 25.6049644162
21.9362 25.4956 21.1954 32.1991733631
14.8663 36.886 24.6105 92.7933599275
16.7808 34.0034 20.8968 29.2772179817
14.7422 31.5402 24.4533 81.2715993071
19.3178 31.3099 23.8568 47.573121018
21.0467 28.9959 24.0221 59.5719453061
14.7821 28.1006 17.653 29.9362459084
14.138 25.0456 21.4698 26.5306154686
24.3154 31.4479 21.4293 27.3809577938
13.5546 35.2494 21.8094 26.036102072
15.5783 27.8701 22.0215 28.6136129818
19.6504 26.4059 24.3362 69.434316793
22.6642 33.1585 24.451 83.9833084464
19.8813 34.146 21.525 28.0572912673
22.9096 33.5975 20.9878 31.1680974395
14.1262 30.5117 21.5773 28.3163702223
20.2438 34.4403 24.3788 79.0686371805
19.1959 36.5772 18.0368 30.3380593079
15.9783 36.7054 21.244 29.1406864762
17.4422 36.3185 24.0171 48.9515373148
13.1224 28.6974 19.6267 30.5221122642
22.2942 30.0127 17.0577 29.2185315278
14.4518 25.0297 18.2391 29.9717956369
12.791 33.0266 20.6958 29.1680299859
13.3605 36.9548 17.3805 26.1883871266
15.2262 25.5952 35.7001 82.6690109433
13.439 30.362 42.8381 28.1128991888
18.7456 27.4606 36.1949 50.9686974681
17.4785 34.8782 36.3596 35.2192219927
12.3961 28.7751 40.8209 29.4085022678
18.8045 27.976 39.5541 27.106474582
22.947 26.8183 36.1828 42.4607011747
12.8735 29.9377 36.0154 41.6810609978
21.6665 31.7711 39.3393 29.9218386615
12.7076 32.5203 35.0835 120.8075295983
18.6075 25.8164 41.4912 29.5592757796
16.4171 28.1923 38.2598 27.0622484758
15.5939 28.4485 35.4183 94.0653841954
20.1968 35.1585 42.4156 31.0181432298
18.3386 32.0918 35.956 64.3311424695
19.7413 29.8043 35.8622 66.0276777637
23.4931 31.9538 36.5338 47.7953220318
15.8437 31.4204 35.6441 65.2883357576
14.6786 34.6419 35.8891 57.5365277368
23.856 28.5658 41.8229 32.9220068256
20.1166 35.7014 35.5923 101.9042483335
22.1979 34.4839 37.1155 31.4010515601
22.4858 29.6756 35.5418 99.9641398314
14.6199 26.1341 38.8766 29.0607275173
17.1386 35.4012 39.0594 27.2311802852
19.907 34.5992 39.5932 28.6945416398
23.1265 24.6873 39.7922 31.8649465991
13.8632 32.35 40.5085 25.728386248
23.4009 27.3849 39.0931 29.1083377813
14.8182 27.6137 41.2041 30.5197231381
23.0375 35.6833 42.6329 29.9578800857
18.5589 32.0861 38.9431 29.4821000673
19.1679 30.0611 41.2314 30.6112431271
15.6404 30.9447 38.5154 32.7568772008
16.4031 33.4951 41.1572 27.037684411
21.2331 29.1286 38.4473 27.804060415
22.1043 30.7122 41.8752 29.5808404235
20.4755 25.6219 38.0531 26.8257825028
24.508 32.5168 41.2475 30.6938525968
13.9408 34.5245 38.5519 29.446089622
17.2252 31.31 42.6532 30.4280285681
23.5253 36.6106 35.7173 90.1162382407
23.2524 35.0806 39.6054 27.862307045
21.1792 24.8125 42.061 30.7235962295
17.2853 24.9084 39.0442 24.4675948491
16.9624 35.8151 42.8337 27.7151949008
18.9113 32.8395 44.1362 35.5650133012
17.7954 27.2964 43.8199 30.8541071321
22.6797 26.9291 43.7671 29.6694023232
23.8897 32.345 52.9964 28.8808877509
13.1765 26.0587 54.0583 28.8738706385
15.3857 25.7948 45.336 28.1112970672
21.1817 25.7174 53.3754 26.8290391737
14.724 33.9928 46.482 28.7477642971
15.5944 28.6905 46.656 29.143418728
12.6025 32.1441 48.7179 29.8990116581
13.8359 28.138 52.0148 28.2321967252
20.33 27.8935 45.1159 29.9534632864
23.0771 31.3317 45.5347 29.6415846939
20.7656 24.6401 45.2966 29.1089778208
20.8622 27.3669 55.8837 29.2285420438
15.9929 26.7718 50.7742 27.5320458708
21.8586 33.649 52.0201 28.6430833379
18.3186 33.5037 46.8068 37.3666545137
12.9843 35.1836 48.5422 31.4052713648
15.6431 29.3439 43.9391 29.1880836146
24.1799 33.3449 44.2234 31.4333309345
13.6294 33.1222 56.0832 29.2951542393
15.8021 30.4202 51.6268 31.6570506543
15.607 24.6333 52.9359 27.5036344224
20.7643 27.6844 47.7303 30.7296599238
22.8665 26.1236 51.0527 29.9043915954
13.2504 27.3198 47.4302 28.6433110219
23.887 25.8921 55.2527 28.8062134643
18.5453 25.441 52.1871 29.0504946366
14.7682 34.6056 53.4013 32.1974946062
17.3411 28.215 48.7444 32.6176148641
14.3077 31.0515 47.0257 27.7030369267
19.4236 30.991 54.2041 29.3567737012
20.986 29.7962 49.4106 31.1803480443
22.1816 28.7042 51.5849 29.1501282513
22.4819 31.4395 47.9971 31.784936875
14.3042 30.9648 54.4579 27.8577010345
18.3772 30.3954 50.1989 28.4488580533
17.5221 35.0379 52.5048 28.041484847
16.5943 31.9623 48.3772 29.736299937
16.7616 30.0601 55.604 26.9730945309
18.8489 35.1865 49.4328 31.9626882478
21.7971 31.9354 55.0256 26.5957450415
17.1684 35.8139 46.4499 26.239285319
23.2871 34.0516 48.4841 32.2657206727
19.3031 32.8437 51.8671 30.8327470901
19.9504 28.6874 53.1653 27.4935445092
17.2967 28.3867 52.9055 24.7862893143
20.306 35.3433 53.829 27.8222724403
15.9279 34.2148 49.8585 30.7081807619
22.6438 25.6644 48.4694 26.4830156698
21.6271 35.8876 49.827 28.3890023657
13.9404 32.7334 51.0601 25.5662190018
24.0412 35.4642 46.0789 31.1210328455
20.7143 30.3621 44.2849 32.483622698
14.3594 34.1306 43.7492 32.4373529557
18.8961 25.5856 48.8611 30.0636673603
16.2747 26.7241 54.8959 28.7726505375
23.3463 36.3882 52.49 28.4446066975
24.4462 26.7361 46.296 29.955303036
24.4922 29.4486 52.6987 29.6320055331
13.7088 25.9733 43.1358 31.6108498637
13.5289 45.728 7.84547 32.3574044984
17.4608 38.9713 10.4211 30.2695557665
18.5088 49.0109 16.719 26.6832606782
15.4028 46.7197 4.06067 29.9247544404
23.0911 43.7063 4.88967 26.7861521579
21.6515 48.5221 4.80342 34.2098491661
19.934 38.4361 12.1672 26.7154561418
24.5526 45.8617 5.66738 29.943018675
23.7905 39.3026 12.4628 29.0718267878
18.7374 38.5535 5.06507 28.8774838951
20.7338 45.1188 9.66276 28.3988484505
23.7411 39.7353 6.40049 28.4012546063
16.232 39.9125 5.51538 30.0051374009
14.717 41.8925 14.4831 31.3494250031
23.3913 41.9661 8.3636 25.7712717133
17.743 44.6078 9.55426 31.5166321079
13.7848 40.9711 8.35242 31.0676919826
16.8647 40.9685 7.9284 30.1041379382
16.5184 46.3647 16.8809 26.829077924
12.4929 37.2178 14.9475 32.2183387133
13.283 38.4968 9.14704 30.4462898398
19.9882 46.5206 6.36335 35.7355384526
19.0256 43.9651 5.23377 27.6647005666
18.3135 39.4528 16.6415 36.368916364
14.9644 47.6378 6.76295 27.9184974384
19.6312 42.2611 12.3548 25.8551484433
20.2876 40.6496 10.2576 29.0106858195
24.1581 46.0973 9.40579 28.3777634174
16.7458 45.6558 12.7966 27.3881925436
17.6449 48.1348 7.84713 32.5548684387
22.9531 39.6967 9.91954 25.4175067623
21.0943 38.7531 6.9204 24.780343582
17.28 43.2251 11.885 29.2234020576
15.1102 41.254 11.4214 31.6572594461
21.3916 44.3977 12.3222 29.7766760447
21.4853 43.7911 7.20419 27.5932767191
13.5956 36.866 6.89522 31.3148276825
23.5276 43.5404 10.7575 28.1386461262
14.1792 46.8811 12.6718 32.3337539652
18.4694 47.0705 14.1323 26.8286763734
23.4942 41.735 16.5154 31.5279708123
21.5653 47.5955 9.03223 32.443301967
13.6394 39.0319 4.77833 32.0818131314
23.9997 45.2369 13.9575 27.0127194224
15.0986 37.804 11.2613 30.5886559136
