12.593 14.9276 17.5175 27.2795320298
16.9259 13.3997 13.6122 30.1672205877
13.9693 13.0221 18.5843 28.1464422032
12.0509 11.1098 15.1581 28.5610389552
14.4929 7.51307 15.1161 28.8550525233
16.4533 10.6731 13.4126 28.0935230998
19.8091 14.1569 13.7817 34.2590999195
15.6344 0.798022 13.95 32.3963831427
16.0505 11.0922 16.1664 29.4340738563
14.3055 15.7935 13.8041 32.3510543996
15.6992 13.9622 15.9602 30.5171064084
17.5737 15.761 17.3071 35.4827329702
10.8533 13.5722 15.9368 27.1925967682
11.6406 15.5781 13.3664 28.9490449042
13.3322 7.37382 18.832 27.4350453977
13.8319 4.39943 18.7781 27.8012331987
18.4363 10.8762 17.5813 34.1123724311
17.7507 15.5841 20.2895 28.3649733466
15.6818 5.9689 17.0543 30.5392857323
14.6259 9.84893 19.659 25.2981942345
18.2663 5.91763 18.7665 29.0403809815
11.1474 4.21459 16.8961 30.6086267328
17.2541 8.46497 19.24 29.8603462728
10.7961 12.7548 12.8979 31.88007801
10.5482 7.32674 17.6089 26.9515412079
16.8079 6.03107 13.7379 30.5280604017
11.5201 12.0125 19.329 27.7595765139
12.6226 4.04626 21.5948 28.1020912751
12.6049 0.95154 20.9993 30.7334390831
17.225 2.27535 23.9378 71.1781059436
15.7232 16.493 21.7376 28.3526625696
14.1275 3.96857 24.0268 72.4111718017
11.5308 1.01951 24.0879 81.8038607092
13.0597 6.51796 24.2984 72.0639346771
19.1526 9.84299 23.9982 41.6238044483
17.0054 4.92634 22.8187 28.2316210712
17.6834 7.55133 24.568 103.0294822046
12.0456 9.94769 21.1564 29.3138676145
12.1518 10.5041 23.9771 60.9111528617
14.8381 8.65221 24.2804 65.5758270148
16.5751 11.1659 24.4432 79.8770645907
10.1616 3.61782 23.9056 57.2232837719
10.3814 15.3775 24.4266 87.6419610408
12.6985 13.3175 24.5641 87.5960089428
15.5063 13.8457 24.4194 57.7310943093
14.5735 0.849103 24.2292 83.9283416402
15.6357 7.58123 21.7468 29.9476824859
12.5554 6.97087 21.5649 25.337607146
10.2238 6.57182 24.4281 92.448667291
18.65 14.16 23.9812 48.2669108951
19.5201 5.69393 21.4585 27.1200927464
11.7373 14.733 21.82 28.0893294494
16.1708 11.2921 21.5409 28.2829610378
18.8651 9.72378 21.1302 26.9863282067
14.6427 13.8595 21.5564 29.42958612
19.5962 14.0783 21.4543 28.0947268542
10.6467 1.57289 35.8392 80.0331751626
18.0234 4.64518 35.9603 91.4758170454
9.85142 2.47265 38.2837 25.9194732993
10.5491 10.355 38.6884 28.0211743272
15.8687 2.54911 36.0719 74.9703048427
14.088 15.5591 35.7724 74.42704075
11.9766 5.58761 35.5884 115.8324770805
19.3241 15.959 36.0551 76.6816409714
10.8511 12.6032 36.1954 46.8979055635
13.0114 2.74925 36.1093 58.9387613102
15.8006 8.88524 36.0792 75.4239445381
18.3946 3.99603 38.706 32.4151381432
17.9173 7.30896 36.6168 42.5046680847
11.1309 9.55335 36.0053 72.6976974982
18.4534 13.1719 36.2836 43.003143502
17.8706 11.6993 39.0481 31.1591469925
15.6115 10.2154 38.4869 29.8029478852
13.5249 12.9301 35.6648 80.7952119972
15.9908 11.6752 35.6792 91.4654837638
13.2704 7.92667 36.2554 48.3276606337
13.5089 4.69068 38.295 31.2739762987
15.9557 3.04452 38.763 25.2714973042
13.6637 12.1582 38.449 27.68472282
15.2307 16.1411 38.5247 30.4676569664
10.5808 5.57162 38.7213 29.5051143712
13.9561 7.57492 39.0747 27.852266733
10.2439 2.45286 41.3965 30.7107966261
14.5016 12.1231 46.3596 28.8869655026
13.2339 2.41246 42.0312 30.9778307485
11.5653 6.96973 43.184 33.0227645052
12.6068 1.77334 39.2948 29.4274123482
10.4561 1.69925 45.3804 30.3482699321
15.7951 3.61449 41.4471 28.3817673223
10.1769 14.236 43.1884 30.5711235869
15.7212 6.26674 40.6504 29.9420097498
17.717 2.79198 42.9966 28.0756011447
12.6225 9.80356 40.2431 28.1599503555
18.4758 10.2984 46.0353 31.5218469118
18.1326 12.4474 44.4188 29.0115555258
11.7173 14.971 45.9372 34.2065597747
13.9745 5.69167e-04 43.4524 28.5507185149
14.0016 14.6684 43.9817 29.5931888525
19.3826 8.56061 42.6618 29.5232925277
19.2795 14.4751 45.5471 26.3024156749
10.6283 12.1378 45.3054 31.1200880949
15.9332 -0.0107055 45.1332 27.7043805706
14.7266 14.1308 40.051 30.0234359625
11.1719 9.2158 47.027 31.9507872685
15.323 2.00363 47.1028 31.451538171
11.0602 7.40728 40.5355 27.0834568298
15.414 12.4459 43.6943 29.0378367356
13.0394 2.98899 46.1755 33.4464881944
16.9271 15.9219 46.3569 37.6342007595
17.2393 3.701 45.6994 29.7687741862
17.2736 13.2331 41.291 29.9753981415
12.4389 14.9525 41.6937 27.5465108616
13.498 4.79664 43.7701 34.6155624845
12.1153 9.59022 44.415 32.3817560805
15.8476 5.90396 44.944 32.1276638497
16.4887 7.70305 42.9036 35.7843378491
18.1323 0.287109 42.5386 28.9675488311
14.5184 9.94487 42.6714 37.8635317185
18.8055 15.4978 41.6638 30.6384410413
16.1347 9.68458 47.3502 32.6999728027
19.7085 11.342 41.9902 31.1797851243
15.5475 7.05997 47.2442 31.0604113649
9.66839 12.4657 41.3187 25.6771653029
18.2211 7.03625 39.3776 29.580647562
16.4744 0.129022 38.7276 29.3345386487
11.2722 13.5282 39.5282 28.1076889053
11.3704 3.30027 50.5685 29.0560603957
19.7336 7.13206 50.1173 33.1017286995
14.6936 -0.366308 56.0874 33.2088044489
10.2978 6.02292 51.0029 27.4482112319
11.9362 0.598901 49.6559 31.6907108684
16.627 2.97917 49.7921 30.7672447711
12.8714 7.15386 50.582 26.7154845778
15.2222 15.2662 50.0105 30.5294732364
12.9878 7.30924 48.0086 30.1605942338
15.1911 5.48771 51.1557 32.2271512029
17.3197 5.99971 49.2043 34.0958065463
12.6525 10.5201 55.3734 28.7323010136
14.3464 12.1384 53.9824 28.6019366395
13.02 8.76465 52.9776 28.596817315
13.0088 10.227 50.163 27.1268717081
12.7573 12.5641 51.8633 31.1049435516
17.0731 11.425 53.8789 28.7488755247
15.6707 9.78849 50.2833 32.7151074943
16.1695 14.4713 52.3409 31.1911170408
18.2676 4.41131 54.8378 30.8175600927
17.5154 7.71488 55.7052 27.4389531083
12.6449 14.7237 50.2004 28.8609864962
11.6258 4.71756 47.9193 33.143737452
17.6502 11.7285 49.9639 31.6002810172
12.3347 12.17 47.7089 27.4608969374
13.6268 3.42133 52.7 29.3951424268
19.0977 3.2182 48.3071 28.6898746255
11.2103 2.888 54.9195 28.7289137999
16.4172 15.9432 56.4995 33.9679657564
18.7247 13.0077 52.2147 28.7687298602
15.7353 2.88448 56.2497 29.2737512911
14.8434 0.470811 49.6037 33.2268682657
19.038 1.36764 51.4209 32.3707371399
10.1819 6.58205 53.8309 27.4536756865
12.7564 5.62263 54.2985 26.3082732771
16.6976 2.91641 52.8292 30.3464577473
15.2274 6.66164 54.0395 26.4023265179
14.2243 8.42403 56.119 28.8817252097
14.0054 14.4807 55.7355 32.0217278735
17.0523 8.78075 52.9945 30.7331455803
10.1304 10.1115 49.4983 27.5261829649
14.7506 0.706137 53.2466 29.2331376953
10.6735 16.1354 52.1243 30.8887836271
18.3457 1.21713 55.7184 30.5060565003
10.052 0.761547 56.3782 28.3230917575
16.0405 13.4892 48.1204 34.5294958065
10.3106 9.51636 53.966 30.9317916008
19.3552 15.9869 56.5744 30.383698653
10.4614 14.7748 48.4985 28.8371304164
10.0481 13.0252 53.067 31.7700346333
10.0721 1.34799 52.7165 31.6339705166
18.7757 11.8869 55.9893 30.1145269737
12.7437 32.5126 6.27786 30.4480197569
14.4807 19.6086 6.41295 32.6863144104
12.3206 19.2787 4.6178 34.7660867669
11.6173 24.2523 8.67002 26.6187869843
12.6007 31.4466 10.5319 30.4222730646
18.5842 19.5536 4.82362 28.62764915
10.2922 22.2934 7.24645 32.1059691855
13.7113 19.2938 9.01145 30.5576497921
14.8198 22.2886 6.88996 28.1356238592
17.0516 22.1713 5.64793 27.1534243617
11.7003 26.3901 5.08584 29.152345153
12.7919 23.8026 5.77353 28.9546237449
16.9371 25.997 7.92946 31.2584219394
15.724 28.0723 5.63671 31.0880483021
10.9175 22.7744 11.3124 29.0254820717
17.2463 27.2852 3.31816 30.4289971967
18.9903 18.0188 11.4874 30.5190691002
11.0735 30.1305 6.22674 30.4643780307
19.4933 30.8571 3.49433 31.5057455785
15.8687 20.0489 10.4409 36.7267595944
19.1256 24.7669 11.0297 28.842848835
17.1258 28.9162 8.44311 30.4096321903
17.5803 30.5713 5.82724 34.9755210896
19.4686 20.8121 7.12834 28.2292362862
13.0223 24.4782 11.2291 25.8695543953
15.68 31.2718 10.1039 31.0192664296
18.2676 18.9171 8.98548 32.0666110916
18.427 24.279 6.16858 30.3409271256
11.004 20.4968 9.40248 33.7460911251
18.1367 32.458 11.1574 28.7984579566
16.6909 17.9159 5.8773 33.5049005045
14.2216 26.1528 7.22297 30.6242726286
15.0193 22.8517 9.48909 33.5025704302
9.90248 19.9693 5.6464 33.2892510668
12.9602 27.0446 9.60217 31.9549125306
16.4808 25.3999 10.5846 27.9889116317
11.2677 29.8499 8.84652 29.0866689295
15.4952 28.4972 10.405 32.6334419857
13.3925 28.6884 4.6688 30.7860136349
10.3811 31.9421 3.37188 30.0263209156
19.6423 30.603 11.5006 26.8849997326
13.1143 16.6768 8.99592 31.8846224033
11.0171 18.0971 15.8897 30.4790194318
11.1939 19.5331 18.1982 35.1825073335
17.8653 23.4176 13.212 30.6706669308
11.8413 29.0881 17.3894 31.1764246991
15.8165 32.2651 13.1412 27.7559100365
15.0549 23.0375 12.9357 29.3225260999
14.5135 20.7334 14.5547 32.8543782515
17.9686 24.7434 15.4862 29.5520196442
12.0175 19.2159 13.6579 36.0803132508
15.9952 20.3491 16.95 32.7965483657
15.7522 29.7625 14.5335 30.3114965266
14.5702 22.7641 17.3272 30.6094172898
13.1203 28.5447 14.7062 31.8247029091
15.398 26.5462 17.4408 29.6115743037
15.2174 25.6298 14.5947 26.8684005015
11.6312 30.4938 13.173 30.3809116748
13.7245 32.5021 15.3814 30.8157888796
11.1136 25.0874 16.353 27.976747861
12.3367 26.0702 13.5194 29.0864788014
18.1576 20.6307 21.193 28.5665913143
14.8564 18.3718 12.6105 35.5325188517
14.1624 23.097 21.2284 30.4348460733
18.3286 21.7019 16.5024 32.1086972436
11.9094 18.2457 20.5072 29.5358440905
16.0557 29.4769 17.4039 31.1643782957
19.8503 21.443 13.9265 28.1900911334
16.0283 17.836 17.7091 33.2623679733
11.6467 29.3378 20.234 25.8844437832
15.9669 32.0296 19.7501 28.4664880298
13.6964 17.1361 16.2284 29.5774743055
16.8534 24.3304 18.3429 32.56610324
12.8013 26.4791 18.4042 29.596176464
16.705 27.2532 13.0183 29.3898598257
12.2505 22.317 19.1022 29.8560687882
12.9943 23.4103 15.1525 25.8214252308
19.3567 28.4573 20.051 30.5634470683
16.793 27.6583 20.0973 30.5448804025
13.8981 31.1421 18.0785 25.7859762435
17.9155 31.7679 17.5239 27.0950361663
14.7494 18.4865 20.1286 30.2699558113
16.4821 24.8699 21.3959 28.0415920153
18.9464 28.8885 13.709 33.6824053096
10.7873 21.8087 14.0945 30.600305061
13.8379 26.5609 21.2064 28.9077807689
10.4781 21.1384 21.048 32.2116777258
10.6209 26.7135 20.6968 28.952260357
14.4113 18.2485 24.4615 86.8956022036
11.0311 21.8665 23.9244 65.8007327979
18.838 17.4595 24.4636 82.40777847
13.6723 22.6298 23.8848 56.2502492731
14.0021 25.7512 24.0775 62.816211571
15.7106 20.6793 24.4646 90.4206998265
16.2509 16.2805 24.5938 72.9030502479
12.055 17.5099 23.2423 30.754726381
18.5414 20.3112 24.2119 61.7659008504
19.7296 23.0331 24.3975 86.5620587712
11.4452 26.8138 23.5385 38.107621249
11.3022 29.5732 24.1786 96.7461524833
16.0509 27.6462 24.9334 135.4421435651
11.4054 31.7709 21.2967 28.424089936
13.4217 31.1226 23.2926 34.4579608775
16.3057 30.353 23.9482 45.2114171955
17.4624 25.4272 24.0835 52.5554412206
19.2187 32.2003 23.4882 33.0801602899
17.4481 30.3824 21.4836 28.5524650165
14.2668 29.6 21.0016 28.123144314
19.0501 29.3333 24.2969 76.5993230164
18.9911 23.5934 21.5041 27.6892893454
15.4765 20.5932 21.4463 31.3432405054
9.79821 23.9637 21.4635 29.2147525371
18.8277 18.0379 21.5286 32.0109711834
12.1946 17.9434 35.7972 63.9214137658
18.4985 30.1951 35.8172 74.5875735282
12.2837 25.724 35.8908 68.2250371363
11.2017 22.9845 36.0447 52.0535286451
12.2508 30.9054 38.2386 27.1962933453
18.9913 23.2841 38.9045 26.9580690803
14.0544 29.1337 36.2398 49.2988489735
12.9397 20.6691 35.4625 89.3748058862
11.1025 28.1177 35.5345 94.4745099273
18.2171 23.1293 35.9708 60.9013602822
15.7793 19.6036 35.7307 67.9238522011
16.6899 16.7867 35.8416 72.2327644285
16.3267 19.1798 38.5539 27.2133161185
14.9092 25.632 36.0402 58.9212791488
15.3204 22.7203 35.5227 89.4160838491
18.3467 26.4646 38.3439 26.0813235757
15.6914 22.1083 38.4836 27.7947841605
17.0276 32.7353 35.9176 58.2219886958
14.5416 31.6847 35.8788 70.5917942646
16.8856 27.5784 36.1786 57.0255059915
12.9781 21.1519 38.4402 27.7965830476
11.0897 31.0462 35.8543 66.6553398146
18.9043 20.3103 35.9582 65.6675434721
18.7949 31.6062 38.3136 30.5297963633
16.1213 25.059 38.9437 29.1486786539
11.6559 18.8448 38.4164 30.1384486562
10.9889 23.2042 38.7293 33.9656654631
14.973 17.6472 40.9894 28.9097488432
11.9279 21.7649 42.1234 28.2303246862
18.1038 17.3559 43.6072 29.0101314752
13.8832 19.216 44.2263 29.4507642525
15.3643 16.9772 43.758 29.4908793255
12.7907 19.8427 47.149 28.2362085678
11.4161 18.8553 42.8018 29.5184913979
19.0031 25.8998 43.0486 34.2430599011
11.8661 24.4658 42.5234 33.3941014219
14.4645 26.6352 40.7207 27.6155497289
17.602 23.9769 41.375 30.7628488274
16.666 21.5131 41.4515 26.869046016
12.245 29.1234 40.5366 28.1690085332
12.2577 17.4596 40.7668 28.1861678747
16.9386 32.3395 40.9327 32.9778703026
15.2071 31.8315 44.7821 30.6924472335
15.2204 24.4222 42.6555 31.5125276529
12.8834 31.1607 46.3271 31.1414705583
14.6514 30.7666 42.0858 28.5275351948
15.4893 28.1213 42.7897 28.9429673879
12.4016 28.4527 45.7382 32.2575447138
11.2328 17.9029 45.8296 35.3581007785
18.1684 28.3319 42.1689 27.9341994836
18.2461 25.7647 45.8639 31.4126512416
12.5749 21.98 45.1851 28.5421732624
15.5617 21.8944 43.9445 29.5411233624
17.8819 18.4917 47.6666 30.3309179058
17.9795 29.0606 39.5236 30.7553181616
19.0367 19.8642 42.8514 33.0798933052
17.5935 30.6798 45.4885 31.8416193825
9.66774 25.5092 43.7138 31.0215002937
14.6356 26.9762 45.1294 29.556074463
10.282 32.307 46.0636 32.4675688935
16.7784 28.1546 46.6019 33.4966312791
14.1924 20.4731 41.2006 25.9324349891
11.8738 25.8432 39.8912 34.0289921737
14.1936 24.3836 46.1556 30.0889787973
9.92924 22.9092 45.3956 28.485684728
11.6997 29.8907 43.2606 31.9195253821
19.5244 30.2155 43.6441 32.3842478429
17.2647 21.0739 46.1547 29.1261070948
9.96379 27.2009 46.2383 28.9803377238
16.6516 23.7883 47.5364 28.8562951123
19.631 22.8983 46.5828 30.8453129213
12.387 32.589 41.7377 29.6382881297
11.4111 24.8096 47.5731 29.7763348214
18.2927 16.7289 38.8119 30.8852086945
15.0223 29.0052 38.8865 31.8275565035
18.565 20.6262 38.5245 26.1864344401
15.611 20.4933 48.0933 31.1841818958
10.1737 18.7999 50.167 30.349608008
16.1051 17.978 50.1984 30.6681815278
16.1537 22.6171 55.8888 37.4746788435
17.3767 32.5888 53.5328 29.4629287324
13.2106 18.501 49.7945 33.2036614565
13.8195 19.8217 52.7414 30.0573126913
12.8844 21.679 51.082 28.8095871365
16.0587 16.7786 53.7559 31.3733244459
15.1169 22.841 49.9869 31.2895127228
19.5147 19.0321 49.9769 32.9642703553
13.1039 26.703 51.4546 28.7294057277
11.2143 27.5544 49.2062 31.2990414201
10.46 23.0861 54.5141 26.9097253655
11.1915 21.2438 48.8699 29.9439828906
17.6085 27.0643 50.5854 27.1058209931
15.4816 27.6448 49.0867 29.3636900822
10.3926 29.91 50.9174 30.0041662631
17.4169 29.6692 54.73 28.1177061424
16.0423 31.6766 56.2852 29.1446277084
12.8058 30.4414 52.1545 29.8108283562
10.6531 27.9644 54.0047 27.2742311184
13.1492 28.624 54.3575 28.1794603161
15.7033 27.7008 52.7982 28.9128320943
13.8321 25.3266 49.1286 27.8444403367
9.99302 24.5486 50.1628 27.0708069948
13.3818 31.4007 56.1917 26.5670467039
18.56 20.8622 55.0452 30.4039796558
12.387 20.7225 54.7721 28.9477960285
13.2615 16.809 53.289 30.0138924816
19.152 29.184 52.248 29.6523568254
16.7392 19.9895 52.9008 31.7389642821
17.5756 24.9839 52.6103 30.9589788262
14.9919 30.082 50.2873 31.4699952418
15.9834 25.3705 54.8553 29.2085110811
17.5261 22.3764 51.5286 33.1278915755
13.3044 25.3953 54.4909 28.1453145438
17.4265 31.1515 51.1725 31.2421518839
11.9398 23.9703 52.2988 28.5079284593
13.2085 23.0431 55.9885 28.4178051379
13.6519 32.031 48.8686 33.0839552492
10.3132 25.6348 55.7742 30.8215988889
10.0305 19.0415 54.1987 29.0452004545
18.588 17.6026 52.1038 27.8715479161
19.4413 22.0978 49.4773 29.8228914129
19.213 24.9855 49.3263 27.6737963227
12.2705 16.7156 55.9457 30.4439888465
10.0254 32.179 48.9848 31.255008171
13.7379 36.8127 5.82924 31.193993951
12.6921 36.8333 8.46078 30.9063699762
18.1726 48.2253 8.26404 29.4456876836
16.6682 37.567 5.58707 32.7570742655
12.1142 44.9825 6.37129 30.9845520387
17.2088 37.6048 8.55812 31.6473554676
11.8383 38.846 5.73331 27.9488763513
19.3389 42.8875 9.67202 32.6042724959
12.2116 40.3896 9.35371 29.4407552026
13.3764 45.7721 4.02599 28.4877865935
18.8653 40.0626 7.69139 31.2038101141
11.4718 46.8449 10.4593 31.5329354491
12.7487 42.2943 7.29773 30.3137358979
13.6256 45.0417 8.96729 29.6324709923
14.3753 40.7831 10.7667 25.9997835775
15.6487 36.4709 12.4149 28.987371712
15.8978 41.6112 6.40926 35.0848781815
10.1206 47.3651 5.5359 32.1640643605
12.4634 44.4544 11.7638 27.9930456318
10.0211 41.3129 6.64132 28.4305838634
17.36 43.7706 5.51405 34.4237489003
10.5378 37.6262 3.50193 27.6722497897
10.5721 33.862 7.78054 28.1354613781
9.33535 42.9839 4.48738 28.3707338599
17.7399 35.1887 11.471 27.9389095584
12.5313 34.2066 9.72061 27.0011984051
12.6013 34.8394 4.38172 27.8093017471
13.4733 40.9991 4.78944 29.2576280745
18.569 49.0992 11.0706 31.6041259627
17.532 34.9354 4.46858 33.0733575607
15.26 46.9744 8.08681 33.7247970706
16.1256 46.2221 5.41295 33.6392604536
17.7485 45.3642 9.76436 29.2305947736
14.8617 38.1177 9.95608 33.236128795
17.9007 46.4191 12.1625 31.2628291412
17.1406 34.7047 8.47915 31.5398592559
10.014 46.1932 8.2057 31.8991016756
10.327 41.3095 11.783 29.0009832094
16.6353 41.4583 9.04053 32.7240819517
15.4908 43.8932 10.5336 29.6514298258
14.6383 33.2569 8.15375 34.1227669919
9.64962 33.9527 4.93122 26.0258295004
10.1632 38.3703 11.0072 29.4241414746
19.3106 34.099 7.00406 31.8484031863
13.7331 34.4663 12.2145 30.4138340791
19.5945 35.5914 16.0125 31.0353634914
10.7016 37.8204 13.7156 29.274571286
13.6926 35.5632 17.9798 32.1347168674
15.2129 46.5528 17.0732 28.33677535
15.5065 34.5992 15.697 29.4627380149
17.7156 32.9452 15.0131 29.3183372198
18.0917 47.4644 16.5795 30.381302521
10.1805 41.3987 17.4391 30.0438625872
12.9549 39.0985 14.2878 32.140576671
16.9477 36.8843 14.82 28.3650152668
11.7247 41.2457 20.9339 31.6423240906
9.97172 33.9278 17.7679 31.3557295297
12.7578 40.6109 17.0281 25.9497557078
10.6864 32.8285 14.7428 30.900084549
16.8802 44.0034 16.0222 36.055905362
15.4018 44.2909 13.3239 32.0661017141
13.103 48.6794 14.851 30.453942379
13.5759 42.8489 15.2626 29.9244572386
17.0637 39.7867 17.4625 27.999997702
19.5637 46.7002 21.0267 30.6690905789
16.3673 47.6782 19.5255 28.8529176044
12.974 48.6273 17.6114 28.9897795616
19.7183 43.9337 14.9881 39.8896750667
15.9689 46.9024 14.2085 29.4935020289
14.6599 34.3641 20.9915 31.1037802243
16.4881 35.6329 18.8493 30.5676759634
13.9727 44.2585 19.784 26.6414228882
18.8347 34.1526 18.2037 28.1559616205
12.1326 38.0656 18.0131 30.1097441933
18.2053 39.6423 14.7431 36.4078416738
16.3393 42.1422 18.4406 29.5159422074
14.9418 38.358 16.457 29.9714685681
12.5704 45.8724 14.2268 28.7357118986
17.0377 38.3838 20.1793 30.1921217071
13.8921 41.4983 19.4583 26.922243378
12.9871 44.6986 17.2908 26.4991303629
11.4431 35.1738 13.4491 33.7578417849
10.5664 43.7942 18.9003 26.9779147899
10.6174 46.4629 17.0223 27.8057393179
12.9167 41.8094 12.9101 26.143393562
18.3183 42.7566 20.6329 26.4071241339
12.424 33.276 19.028 28.7438090288
15.6626 39.5232 13.1416 37.2219829146
9.93759 44.5149 14.3397 28.5511347182
19.5359 40.2196 20.2192 29.901703901
19.1492 49.0118 18.925 27.0940180578
11.0829 47.1082 21.2959 28.2001699235
16.5052 45.0122 21.2452 30.4015991165
12.1168 38.2312 21.1035 32.9548716129
12.9241 35.5496 24.7515 111.4385072941
14.5542 33.3643 23.6734 37.4785304417
19.4937 37.4629 21.7662 26.6285058455
18.7196 35.7202 24.4431 77.9290286093
16.0991 40.889 21.5848 30.8716700319
11.5753 42.044 23.7044 40.7518574885
13.528 38.0673 23.9854 54.5095175179
19.839 46.7545 24.0098 71.5879436682
16.7345 38.3439 24.0918 65.2553168383
16.4584 41.2208 24.2311 92.3558872934
13.9474 42.8929 23.979 64.3159177948
12.0114 44.3898 21.6031 25.6829285494
18.6985 42.6851 23.5697 37.2045695393
13.1703 45.4868 24.4497 96.3038568498
10.9702 39.1178 24.119 83.1036540316
11.061 47.3075 24.0411 56.6877896722
17.541 45.3561 23.8557 64.0921432959
10.3246 34.1857 24.6827 90.9644149617
14.2754 47.1258 21.4369 29.1824657009
15.1913 47.1645 24.1304 70.0622411549
17.0527 33.4945 24.4876 96.5642490827
18.8559 34.7225 21.2225 32.0668508112
14.8482 37.1976 21.7891 30.9174073828
12.4729 33.6718 35.7253 75.846670684
11.5888 44.8862 38.5176 27.9551538365
12.3604 44.5172 35.9065 67.7858816488
17.6248 42.2977 36.9337 28.1579854769
18.0813 35.3918 35.377 108.6908989336
19.3267 48.2533 35.4974 96.0297305383
16.4539 48.8741 36.1086 60.1564345828
18.6183 45.4652 35.6672 74.7019013136
13.9489 47.2675 36.2073 54.2557629476
13.6012 36.2989 38.4516 27.0753077466
12.3597 36.5377 35.5544 109.815898898
16.4723 39.6673 35.979 86.6290253378
16.537 35.8677 38.0243 29.8132069155
12.0352 41.4473 35.8267 80.5115187585
18.9639 38.0218 35.8515 59.065889848
13.8815 47.8532 39.0363 27.7529464307
14.7497 42.2264 36.1698 56.0616932594
15.8748 33.1809 38.7087 29.7763906091
13.6713 38.7926 36.8897 31.3992457248
15.7239 45.1406 36.0163 67.8739855383
10.9063 39.5135 37.922 30.0417312242
11.0536 48.0327 38.7993 29.8264773498
11.1993 47.6423 35.8134 75.3807202655
19.0904 48.4277 38.457 31.0070730481
18.4896 44.7573 38.4294 30.8988837503
12.9026 38.1358 40.1528 28.498123328
11.2024 41.7406 46.0596 33.5113237442
18.2089 45.572 44.8549 29.5006190478
15.1091 38.5188 46.3989 32.6181968185
18.6742 41.4763 43.5795 29.0915998144
13.5822 35.2872 41.7223 29.4330743831
9.89261 41.8047 41.4936 31.7546414782
13.4602 45.6484 40.5787 33.1691011385
15.2858 38.5519 42.5646 26.7486562803
17.715 38.3465 45.8314 29.095211785
17.6811 34.6912 42.3433 31.3496892746
19.4438 45.2431 41.9476 33.2294480082
13.5909 46.0798 43.5116 26.7916966377
18.0327 38.8934 43.2074 28.6700391347
14.7124 43.3586 43.5108 30.6919376944
12.2271 44.3303 46.9878 31.2831068687
10.2027 38.3061 43.1725 31.623653172
11.3782 42.1885 39.093 28.7814005751
19.1448 38.1196 38.7883 26.9266553498
16.9844 42.9378 45.2825 27.4040027883
16.5758 45.3822 41.9264 27.0866210581
11.1673 48.5689 44.0189 32.2010269999
18.3945 40.9175 39.2058 27.1378927115
16.1836 36.5249 40.9706 25.9911851255
15.9352 48.05 41.6333 28.4223833078
18.3238 33.3887 46.8051 29.0777668901
14.0904 36.6325 44.1884 27.5665331513
14.3395 40.9379 41.7561 26.9915204402
19.1188 35.133 39.6824 26.6185549195
14.6613 34.1692 45.4749 30.5678820169
17.1514 35.3003 45.3698 28.4683455809
11.3887 36.7128 45.2146 32.5121955564
11.8803 40.7141 43.1503 31.9998111937
11.0338 45.498 44.6 31.8163977477
14.1015 41.1457 45.5106 29.4206443965
14.3618 41.792 38.8718 27.6388046255
15.4627 46.441 45.6755 26.8140181527
16.9193 42.1631 41.1126 27.4324828116
10.9511 36.4909 41.1951 29.3282148867
12.5965 33.4714 39.0064 25.4737375728
14.7178 42.4959 47.7041 27.4760323469
18.5976 48.2944 45.1526 37.026728865
19.7988 39.9016 47.634 31.0599208317
15.7959 44.3361 39.2745 28.0750193765
16.0488 38.9966 39.0229 27.2916370069
13.9407 47.0137 47.772 35.6642484917
13.5313 36.6316 48.9981 32.8950051893
10.3449 44.9295 51.717 34.3077866775
17.2962 40.2112 54.7853 29.4849146071
14.7507 37.2391 54.5884 28.5900185475
16.0643 47.5505 51.5692 28.8215925694
15.188 34.1731 48.2467 31.7725253022
15.5452 38.5085 49.597 32.2550461046
14.0979 40.7926 49.6438 30.6265608146
16.5459 38.1261 52.4312 32.1870835155
18.5129 37.4051 48.6104 33.0331771
17.651 34.6845 49.2464 28.3365675409
9.97791 44.6866 48.5975 30.1382439981
11.4529 40.5731 48.7756 29.4809440611
11.1217 37.6941 47.8048 33.1796040056
17.5251 42.9296 50.7988 27.8207877305
17.3332 46.2716 53.8972 33.6639447243
14.9751 42.1717 51.6991 29.6358006299
18.4914 40.3548 51.7604 31.2374696081
16.1874 44.8745 48.2232 28.2162508604
17.9989 42.9964 55.5359 33.9796105072
15.5312 44.5591 55.1104 32.0483203489
11.8622 47.7007 55.2653 29.618368599
14.8709 45.2479 50.9213 29.8302017585
13.2547 32.9631 53.6031 29.021108765
11.8468 33.4705 51.1359 30.2897709664
13.2079 43.9403 53.262 33.5902956429
15.5353 39.019 56.502 27.2761150944
12.2301 43.2337 56.1425 31.5762216591
18.3253 46.3823 50.1084 32.9812355252
18.8956 44.5337 52.3943 28.325073481
13.9661 40.8942 54.0718 32.9371257866
18.0185 42.1366 47.7048 30.3114047721
12.3419 48.6045 52.5046 28.418397789
12.175 37.3262 53.9076 28.5086478864
11.1017 40.2315 53.46 31.2543512803
11.0318 34.6162 54.4503 28.0220743846
18.121 35.3895 51.9251 28.4124659982
12.214 46.566 50.5506 30.9077411873
19.2454 48.4341 53.6685 31.0356505161
12.1674 36.5886 51.2893 30.4912506698
10.336 38.9409 50.8353 29.219893914
15.3234 34.4546 55.9923 26.8298956298
15.465 34.767 53.1171 32.2519007475
19.6182 44.2818 48.2953 30.998556198
19.4732 38.7799 55.608 29.5152661118
9.89306 40.3272 55.9821 27.3416022845
19.725 37.7162 51.3442 29.0807114016
19.9164 35.9675 55.9811 31.2586119121
22.3654 13.546 11.0056 32.7471673043
29.1202 1.37257 7.46555 31.1153118464
20.2094 15.5354 11.0562 26.1633376104
20.4904 1.22838 4.63875 27.9192273342
27.3338 13.3779 11.7571 28.7101940409
20.184 9.278 4.00578 32.629771249
23.861 5.38009 4.8889 33.182642352
26.7591 4.28714 5.7696 31.951339978
26.471 6.44554 7.4442 28.6617320376
21.0477 1.54535 11.301 33.1582230484
29.3114 9.98476 10.1135 32.4445430431
25.9386 8.49838 5.84349 33.2198391241
22.7495 4.4399 9.30477 28.2832607547
27.054 3.93935 11.8964 36.8127172486
22.0407 10.5423 7.14751 31.2538683063
29.3863 7.05291 10.6826 30.8080853751
23.922 0.724935 11.4091 30.441932474
26.6769 10.7275 10.6171 32.5234950732
22.7731 15.276 7.57979 31.8815303148
28.4973 13.7573 7.96337 27.5107364998
28.055 14.856 5.63672 30.4433146035
29.1569 6.66295 7.93997 30.2777578507
20.076 8.08797 6.70888 36.0052108218
23.3531 2.60736 4.75164 26.3513968931
28.6384 5.79204 3.66707 34.0238954516
26.4375 1.79665 7.38753 30.5947556777
21.6399 8.32128 11.4938 32.451682501
22.3491 2.19464 7.69542 27.7641494483
19.9555 10.5171 11.7179 26.2254008685
25.052 2.68716 9.76525 32.7072592861
20.9522 5.55602 11.0037 26.0475914916
23.7095 13.7643 3.5121 35.5504809407
28.9441 1.74683 12.5813 31.2718384709
28.4547 8.43166 4.65088 28.1432983004
24.8213 6.29981 9.27957 32.5167107584
24.6837 14.6566 9.42759 26.1905299298
21.7481 5.51577 6.75709 31.8687164487
20.9717 13.1054 6.44128 31.9687285345
25.9253 12.3891 8.27667 36.6146277292
24.0909 8.73903 9.94717 31.4247053627
24.699 10.2072 7.72173 30.5414151232
28.3338 15.5721 10.1044 28.0286559344
24.5713 0.455015 5.7191 25.3849636676
23.7543 16.0033 5.06332 32.9552308579
19.9929 4.20106 4.82392 31.2139107559
20.4304 12.1312 9.26053 27.449636256
22.3724 11.2195 4.48203 29.4921452956
19.6189 1.60206 7.40599 29.5585995126
24.8603 7.75225 12.5268 30.7579542567
20.7336 10.0359 16.3942 31.6871171093
27.6176 4.59437 15.3938 26.1465659246
27.0147 2.0523 15.7763 26.6098751126
25.3775 2.29501 13.4817 30.5768535764
23.3784 13.6528 16.1331 32.1345126431
21.162 0.0886227 13.8632 31.4245293881
24.6831 6.90652 18.568 28.0036789842
25.7231 13.8752 17.382 31.5422850594
25.8177 6.49179 15.0369 29.2621186956
20.1847 5.63434 16.7668 29.9492889522
29.3655 1.04851 14.9229 27.6194824846
24.5637 10.0404 18.8525 30.1581701004
28.8225 15.6863 14.7404 26.4485965595
26.9549 11.5093 18.1519 26.5339983407
20.4939 0.961617 21.0969 26.3254316093
23.7214 3.85107 15.0109 30.324894049
22.8306 6.03531 13.6967 33.1926693892
23.4567 12.4293 13.7125 32.3897608042
24.5142 1.20105 20.6003 33.4775399498
25.4407 10.3714 13.3351 34.0713613751
22.6716 1.20036 16.3361 29.064552284
25.1867 1.08097 17.6956 29.8503452825
20.8321 11.506 13.9072 30.142110075
20.1535 11.6944 19.8881 29.4686321858
22.0771 4.15843 18.2329 29.7271667438
28.7417 5.61754 18.1433 27.6705254648
24.7106 4.13663 17.519 26.6446108828
29.4299 1.45139 19.6877 28.5887907264
26.7233 8.23519 17.1449 27.4932971355
24.7055 13.5921 20.1309 27.5748804952
27.092 10.6978 15.378 29.4939874793
27.3967 3.11264 18.4843 26.4557826267
28.2649 6.87064 13.127 28.5544141635
22.0734 7.91765 17.6328 32.9527045185
22.5562 11.7573 18.3251 32.3435042885
21.1864 3.59527 21.0044 28.3132694584
20.7798 7.80061 20.3623 30.8367678422
28.2784 8.36044 19.5256 28.3752935627
22.8253 16.2911 16.3325 30.6801915048
20.096 1.9505 17.4589 33.4180254759
20.4328 7.73288 14.4664 31.2919930458
28.6268 12.9615 14.2109 31.3279121545
26.9479 16.1789 16.525 28.2031361124
19.8886 16.1116 15.8046 37.2911632891
25.2972 14.9238 12.4702 28.557848985
19.9018 5.38513 24.3474 78.4708089279
21.2025 2.82321 24.2896 73.3807962411
26.7667 8.99373 24.1089 67.3987057937
26.6423 11.7395 21.1993 29.0618265775
28.619 1.05475 24.3083 87.2072079679
24.0096 2.88378 24.5533 84.2015410247
29.1937 7.30524 23.5079 40.2988949914
22.71 6.53214 24.1064 54.6210841842
25.2945 0.669128 24.3325 78.864659409
19.4121 0.650533 23.8209 56.808630268
26.831 3.89356 24.1669 53.2436514861
25.2722 14.7032 24.0466 44.6290022693
20.4943 12.425 24.2369 60.4671917772
22.58 12.1623 21.8838 30.0152658673
25.0965 9.28358 21.7109 28.4097739433
25.6842 6.22005 24.2269 71.9376929967
22.4319 14.4583 24.4796 86.216358992
23.964 11.4246 24.4274 76.1581108073
26.6899 6.92439 21.3665 27.6100733953
26.6173 12.3185 24.1493 63.666773599
22.1086 9.20841 24.4833 90.2048672243
23.8475 3.91217 22.0027 27.5493979133
27.4025 0.817325 21.8679 28.3230353713
26.7799 3.85525 21.2798 27.5197693191
23.2386 6.86062 21.1727 28.0074025675
28.8869 15.8935 24.0901 49.7760200874
25.8774 15.6897 21.5136 28.155265723
28.6094 15.7724 21.4881 26.7079409437
22.2753 14.9572 21.3102 29.4443259972
29.4084 10.4047 24.2504 67.2517402841
20.8211 4.36742 35.9214 68.3119643841
20.9915 1.54225 35.6907 80.8341153677
20.3733 8.8525 36.3931 47.3086595022
21.0023 14.523 38.0227 33.5737809455
27.8652 1.22216 35.3549 108.5015660012
21.4739 11.7438 38.3368 27.6417371509
27.5401 12.2351 38.8292 28.5624075169
27.3972 11.6294 35.9827 69.350351285
25.0689 1.93129 35.8109 72.2587515297
24.1902 9.61479 38.6816 29.9256344595
25.305 1.81469 38.7014 27.0112480065
22.5937 7.2025 35.5917 102.464145561
25.2623 4.9223 36.1068 57.5057409505
28.0458 6.42383 35.474 112.236374532
24.137 9.38105 35.9358 60.2584480134
20.4711 11.6563 35.493 118.8628547857
26.8111 8.91485 36.0129 56.8292565248
20.7247 2.30168 38.392 28.4738194032
23.285 12.1306 36.0025 67.4168080434
25.5982 13.7117 36.0547 61.4338012546
26.0773 16.4517 35.7119 107.2118888615
23.014 5.23482 37.6708 28.1377223103
28.5519 3.6972 36.4725 32.739383004
26.789 4.27859 38.6556 29.5313240498
29.1614 1.39603 43.9805 30.6855208088
29.1155 14.7285 41.3354 26.648720371
28.6404 3.21668 40.5988 27.0432437606
21.1012 15.0281 43.6105 27.3706159055
27.1501 8.48943 43.8019 30.7209874879
25.3983 6.63672 39.8528 31.9330672163
19.9567 4.13743 42.7008 31.9211967336
23.2211 8.20456 42.9325 32.5670599535
22.1936 2.22476 42.3898 31.7134256457
23.7927 3.4538 46.6507 26.7250785569
26.5012 0.959186 40.8214 28.5055955476
29.0276 5.16761 42.4508 29.0263128255
27.3744 8.2274 38.7166 30.9194407286
28.541 13.5626 45.8294 36.2378252485
20.4762 6.53957 41.3315 30.6887869598
20.9351 8.86599 44.7653 27.1231448457
26.6543 10.3514 40.6666 25.4973427814
22.3497 7.38127 39.5338 31.8225065126
24.7267 1.05328 43.6251 30.3199171544
25.938 13.5637 44.5173 29.8318769367
24.993 15.721 45.6873 30.9369737428
22.4455 11.5574 45.2562 32.7324078543
26.4158 6.1659 42.6088 31.1057501914
20.8093 13.2364 47.2508 30.1713904444
26.6032 13.2425 41.8293 33.2555904892
20.5382 0.499332 40.9749 27.6748136683
22.1398 2.31585 45.3101 29.5015797849
20.193 0.897032 46.9929 35.1050298876
28.8171 5.26051 46.9921 32.1539978467
26.6696 8.78896 46.4713 29.4719281283
22.0656 12.5664 42.7183 30.9896521696
20.0476 4.05978 45.3855 28.1144876169
23.6822 5.99285 44.4287 33.0214783201
25.1626 11.4121 46.0605 30.8803584526
26.8779 2.83371 43.4751 29.1000702332
21.5363 6.36161 45.9531 27.5940791621
23.5817 12.0579 40.1844 30.1504802727
24.9736 10.2765 43.0306 28.912493792
26.1747 4.55411 45.5429 33.7060768092
19.5165 9.58039 39.495 28.668687558
23.0577 3.00068 39.7202 33.4053835647
25.1719 13.8866 38.6594 30.7279638555
29.5503 15.5442 44.1517 31.056797719
23.944 8.42173 47.2648 31.6722896322
28.9832 10.3259 42.2211 26.7624883924
21.5387 15.7611 40.5313 29.5982052872
28.3865 0.286245 46.5175 35.698249912
20.3851 6.44516 55.5396 27.8934472769
24.2909 2.04615 52.4887 30.9471633622
21.6973 15.3026 54.842 30.9228543211
24.4159 9.4099 56.4081 34.0580319774
25.7383 2.66209 50.1039 37.5783273621
20.9134 4.73468 49.5434 32.308088842
23.1888 5.57115 48.3525 28.9928919397
19.7005 7.83518 52.6204 36.36956445
25.4106 5.8215 49.8309 32.9921846913
27.7807 16.4005 52.1325 27.7279025777
22.987 15.7245 52.2994 31.4037512692
25.9291 13.2427 54.5839 29.9904768938
20.5015 8.42954 47.8136 32.4393661218
24.0888 9.1247 52.7786 31.5136389312
21.9909 11.6805 50.4217 33.5887420194
26.6777 9.04708 50.5548 26.2938189267
28.3126 12.3343 52.678 26.6026155955
28.6232 10.9777 50.6563 26.1993127499
21.6817 14.694 49.271 31.2059591168
26.3561 3.11995 55.8235 29.4487138214
25.707 10.646 54.425 29.9036703673
24.4295 14.5175 49.8559 27.843899479
27.3224 7.06189 48.5423 27.6969298995
24.1742 9.89758 49.8455 30.8351848486
29.7261 2.57372 47.8362 30.9284573052
21.382 2.985 51.8132 37.1903658233
24.4314 1.13549 48.087 35.567271225
28.5172 2.92251 54.1993 30.5853019911
23.1909 7.01738 55.1167 33.104809595
25.8884 14.5782 52.2867 31.8868880312
21.2548 3.67724 54.4451 30.0380911515
25.5536 12.2808 49.1243 31.8015053116
25.517 6.36665 52.6595 34.8985237717
27.9293 7.99872 52.6802 28.6637533188
24.4634 4.31081 54.1469 29.3887488239
27.8185 1.69885 51.7464 30.3801420277
21.4512 10.1874 52.7108 32.9960246145
28.2613 12.8529 48.7372 31.644631396
28.3809 9.97813 54.8516 29.1562278884
22.6476 1.12699 54.9289 27.7467977772
20.9709 12.51 54.1242 31.6098712187
20.3471 15.205 51.8505 31.6988871136
29.3851 5.55907 53.5449 29.7392800177
28.2341 13.3206 56.0527 30.2051448604
19.8321 11.1453 48.4961 27.6414638864
25.5236 0.293282 55.7519 30.2971555629
23.6632 24.4919 5.63536 25.5803219209
19.9282 31.3098 7.90659 27.7582226729
22.0556 19.8944 9.16411 30.6670972078
25.2315 21.9482 5.91225 31.1250845717
22.3203 32.3673 8.68781 30.3569673614
20.1971 27.1283 11.9219 31.8792926584
20.5315 17.6159 5.89458 26.6928730346
23.5255 31.0801 6.69195 29.4152877697
27.5253 18.2335 4.42261 33.0872524642
22.0226 31.4835 11.2579 30.2210009782
27.8165 31.8766 9.96814 29.497844863
21.0568 17.3773 8.81 26.5377082938
25.5228 26.8222 6.34779 29.3726288315
22.8907 18.6368 5.2175 31.5243123032
22.2878 27.6176 7.97163 32.2848899349
21.8161 26.8973 5.10461 28.8263780574
26.2974 16.5264 6.33007 31.37703456
23.2048 16.6559 11.5798 27.7088400001
26.225 25.3777 10.7916 25.9395968152
26.1383 30.452 11.7887 35.6978318341
27.8765 30.8592 5.28098 31.5385530741
27.9857 24.6558 4.96585 30.5890704635
24.8943 29.1915 8.10657 29.6115467103
19.7536 23.5562 8.45389 32.0922842882
27.2723 26.8473 8.54671 29.906860618
26.2354 21.0449 10.0384 32.9321218164
25.4644 22.657 12.15 31.0933686107
21.0543 29.7667 5.85357 30.4304698551
22.4382 21.2155 6.78687 30.8659628539
24.9459 23.8156 8.88115 29.4981481606
29.0895 23.9854 10.7771 27.3963447484
29.6866 18.3549 11.9973 32.6162310013
24.5647 26.7848 12.3205 28.821468718
27.6567 30.0496 7.92425 29.5505364804
24.3866 18.7041 10.2802 32.4545628912
26.0415 28.7274 4.24267 28.9589310117
20.8227 21.7442 11.2806 31.3105529862
27.4222 21.444 7.42872 30.6334848045
19.6581 25.8653 3.68023 31.7170870167
20.0044 28.9461 9.42078 30.1297342892
22.4105 24.7897 8.61374 29.7540838143
23.6804 29.2402 11.0879 33.9310147841
28.1184 24.1887 7.6083 26.2518345813
21.0719 23.4983 4.88992 28.1376639946
26.3176 16.9442 9.06529 32.4305265609
29.1351 20.9942 10.7469 28.8419728847
22.4795 23.9223 11.2849 27.6073018773
29.2804 19.845 5.86955 29.7750611013
25.2923 20.2281 15.7724 31.7998024315
23.165 21.1144 13.0178 29.546813665
24.8777 17.9579 20.1816 30.5734593818
27.0909 16.9384 12.9711 32.0298676432
21.6919 23.0176 14.7637 29.6005049364
25.53 26.8911 14.8054 32.010851417
27.8125 23.4338 19.9268 29.6557046292
26.4268 18.5026 17.7518 31.736876572
29.0055 19.3179 16.3872 32.748996468
25.7868 23.1639 17.868 33.1709323988
20.2686 30.5208 17.8318 32.174684122
22.4596 31.9212 16.4756 34.5059995399
19.7241 18.4982 14.0914 36.5647686754
27.3888 31.3952 19.6856 28.8377833105
22.4583 17.0353 19.0514 33.5499725453
25.1498 25.8941 17.3628 32.8348318157
20.6677 24.3652 19.0076 31.2065139985
20.5643 28.1751 15.9263 39.131815593
27.715 24.6405 15.9624 29.2948624482
29.3529 21.2803 20.7871 28.7955737506
20.5281 25.339 16.0839 32.0990124915
21.7045 19.7224 18.0551 37.7054182142
27.5815 28.9406 18.5794 29.7644163422
28.8633 17.6473 19.5186 27.7602813333
25.0312 31.3172 14.3685 32.5962713777
22.4193 18.4223 13.6153 29.5986584594
23.3123 28.4254 20.6779 28.3208805112
26.9542 22.379 14.6326 30.71576424
22.984 21.7436 16.9364 31.3173755811
21.0939 30.5355 21.1887 30.1919652419
23.1798 28.2029 17.8703 33.4877247757
22.381 25.8391 13.3384 31.7069101789
24.7832 17.5536 14.7496 27.7009312921
27.1895 29.1088 15.4299 30.2329392563
27.801 25.548 13.0582 27.1496505758
23.1364 23.3155 19.7071 29.2628697278
26.1438 27.0491 19.8462 29.3757274391
29.173 20.9424 13.9711 31.9050185842
24.5125 30.4597 17.1911 31.8973336617
19.7609 21.4905 18.7639 29.3289129251
28.5749 28.9342 12.9318 30.1960445028
22.5923 32.0382 24.3258 89.6448641996
21.6553 17.1097 23.9424 41.2164205997
20.461 26.329 21.1431 29.1365239082
27.7512 28.7795 22.2514 27.4270007709
26.1143 29.5742 24.1914 64.1609315368
23.7013 19.079 24.61 91.5686611903
28.3621 32.1653 24.0713 58.5845796676
26.5108 20.7553 24.1434 63.4423260548
29.2407 24.3164 24.2379 75.1864670753
19.8814 26.3694 24.261 68.8604483699
25.9062 17.2958 24.631 92.2721707142
22.412 24.8739 24.0236 51.3179125745
22.6174 21.5937 24.1327 56.5750874777
27.5427 19.0562 22.0863 28.3188473418
29.551 29.0718 24.4964 103.603851537
26.6119 25.5802 24.1967 68.4765185542
24.9719 23.2974 24.0765 58.6833466213
24.2757 27.2877 24.4577 94.2773788473
24.6197 20.3472 21.8645 30.2704621443
29.1353 21.4636 23.9115 46.2265874688
21.8819 29.4347 23.7007 40.3513267264
23.3512 25.645 21.5888 28.0862001212
21.3028 21.4504 21.6941 27.8154282593
25.2441 30.4739 21.4455 29.8418232584
28.0936 25.7685 21.4899 26.9393141553
25.2733 32.5708 24.3491 73.552475634
25.4162 23.2429 21.4431 28.0026888071
21.6229 18.5941 21.5075 28.1196941481
21.4995 18.0902 36.2442 60.5460516093
28.6391 19.4137 36.2766 38.2932960002
26.8189 21.3187 35.7451 93.7778347606
24.408 20.1927 36.3988 41.627047856
27.4679 32.1137 36.5507 34.9902218641
21.608 23.6611 36.3211 39.6336891633
24.8397 30.9635 35.8357 77.9588341172
23.9201 25.2466 35.5526 107.2080112491
24.5593 28.3352 35.8656 60.6214419265
21.9484 20.7266 35.6068 107.6274981925
28.6667 16.8454 35.9569 61.4530392841
22.3707 32.7191 35.7968 58.0253859315
27.8695 23.9201 36.1562 48.4387082211
29.2125 28.3905 36.0791 57.477576594
24.1556 25.4526 38.1316 26.4336637105
21.9367 27.8569 36.2502 36.2856438936
23.8816 17.3044 37.0911 34.0817098541
21.0981 30.187 35.548 92.0302644899
26.936 26.6725 35.891 70.2853364783
24.1301 30.8332 38.621 28.1020914833
19.7756 25.7404 35.7997 88.3181179961
27.4978 22.2981 38.7709 28.1598632545
28.4458 28.1989 44.319 30.6942208543
20.7048 18.1589 38.9611 29.5516403364
23.2498 18.4804 42.3491 31.3168013427
24.148 16.4651 39.8169 32.88610195
22.6046 22.4393 40.4748 32.4360956748
28.8163 20.09 46.006 31.7588468328
25.503 20.3841 41.8499 28.1455717606
22.819 28.8875 41.7825 29.6073017699
29.4036 19.254 43.5693 30.0163950109
20.4093 30.7936 47.2407 31.9481616795
23.9004 23.2279 42.9822 32.8490247434
26.3537 17.7209 41.3043 30.5328345751
21.797 24.4658 46.963 32.6861078896
28.3496 21.0254 41.7528 27.5145867495
25.547 27.3871 45.0621 33.2706742208
25.4833 28.3884 41.7384 29.5180328068
24.085 29.4868 46.1499 31.4571116142
26.5702 25.8207 42.4352 31.2699270683
21.5388 24.4424 39.0501 27.8007682439
27.1044 17.0674 43.9299 31.7332961174
25.3373 31.3122 44.7254 31.5941004327
26.3015 18.7982 46.4706 33.0788186003
20.5125 27.1992 47.212 30.6710846867
21.5696 31.821 39.2334 29.3384126525
27.4537 30.3549 43.0212 29.3502803682
26.6501 30.7709 40.2401 28.8349381113
19.8674 17.9248 45.8587 28.1775445331
20.3792 20.61 44.9843 33.4522240845
23.7701 25.3058 44.8786 34.3913065907
24.0584 20.2725 46.7887 30.7286496241
20.8646 20.2004 40.8977 31.9213879676
28.1094 27.5754 47.1953 35.1431768496
27.705 22.6557 45.8683 36.9240417054
23.1896 20.631 44.2144 31.1809934163
21.4688 28.7909 45.2739 27.6573157309
26.8236 22.8513 43.0261 30.4519898088
20.4164 26.9138 40.3178 28.561803029
25.5103 24.1012 40.0843 31.1701580942
29.344 25.6941 41.2538 31.5774552574
21.8764 26.7415 43.2389 32.7685778926
21.6243 31.4384 41.9431 31.437115466
28.6448 17.2253 39.9016 33.6553944818
22.0122 16.7823 47.2862 28.9685828627
29.2858 30.6136 39.1072 28.1434954821
29.278 19.8286 38.8948 27.626935174
25.8631 32.3527 47.2939 30.9090087603
28.689 27.3385 38.8295 29.8854983502
22.8961 16.6498 44.5522 29.8869590674
25.812 27.5531 38.7326 28.3550912068
24.7773 21.0562 39.0652 34.8329450233
22.6817 27.9186 38.9066 28.120911928
26.3387 31.3728 55.232 27.7614154861
22.042 19.7613 50.8 33.516428226
26.7283 18.381 50.5351 29.9988180328
20.8813 22.1167 55.4347 30.1357518171
23.4529 23.9676 49.0301 33.6165588522
21.8472 22.7081 50.8735 33.1892559268
27.3223 21.2431 49.9556 32.8112521462
25.2519 20.0037 56.0777 32.8315007237
23.2986 18.4916 52.7315 31.8917674527
24.5019 26.3257 50.5362 32.4490483378
21.4565 25.8199 50.8792 29.8794094874
22.0621 32.1928 51.4154 28.4683724155
23.2151 18.7274 48.5331 30.3955624048
28.6552 29.05 50.8978 33.5587917817
29.0824 22.0736 54.2436 30.1178707508
25.7173 22.2456 47.9487 36.352198956
26.0064 29.8135 52.8281 30.2062604519
23.753 31.562 56.4482 30.9615268415
24.7609 31.9723 51.0354 26.379794012
22.2481 19.6164 55.2631 31.6544773718
22.6806 28.8349 50.5237 28.2779222545
19.9107 28.9127 49.4532 28.3596250673
25.9451 19.1579 53.351 31.2029988547
28.0196 31.672 49.2986 31.1353207392
26.7422 22.5683 55.9763 29.870655552
28.8668 29.9472 53.965 31.2979980698
25.4662 16.7452 48.4683 31.5480754691
28.3896 17.6584 54.5954 31.2444467171
27.7502 26.8039 56.0293 31.0792698242
24.6468 29.9003 48.8811 29.5674153127
26.7454 21.8282 52.5608 34.1831819529
26.9014 24.5302 51.5888 33.2450911831
24.3856 24.3333 55.6817 30.1472174266
22.2254 23.686 53.6637 34.7062022503
23.8782 27.1306 56.0467 26.090297401
19.9011 18.3056 54.402 30.7491667126
26.2906 25.8213 53.8848 31.7082592279
24.3968 27.8816 53.2867 28.7422171494
21.7334 29.9944 52.8552 28.856223536
22.0574 29.3964 55.526 29.8651558369
20.2426 25.436 53.6656 33.64167051
26.5936 28.0207 49.4928 30.9238528345
19.4494 32.2743 49.7617 27.8127269926
28.9245 41.7824 11.3804 34.11543809
22.3166 35.0779 8.40101 34.8700916061
21.3302 35.5803 5.3126 30.5148596378
22.2028 47.3806 5.36265 30.643082919
20.8935 40.629 10.8794 33.2179425688
22.3241 37.9122 6.17704 33.4235838256
23.6331 39.1553 10.6415 30.6776136822
24.8207 39.1714 5.66864 28.2163874867
26.4836 37.8053 4.13522 30.1666268496
25.8006 32.9781 5.71442 30.61134925
24.5027 41.4279 4.97435 28.6473918945
21.5351 42.1445 5.19329 31.8136841581
26.649 43.2168 5.05867 30.0275306321
23.0715 48.5257 8.50637 29.8612365842
28.6393 39.1988 5.08653 29.9863210584
29.1512 41.8357 4.42718 31.9161013672
24.2716 45.4151 4.94704 29.0999198053
27.8093 47.5445 3.52912 29.4663450125
29.0135 35.5527 4.65587 28.6250210746
26.2539 46.9509 6.20179 30.8447252001
20.8921 44.9788 10.9799 30.3068368894
19.9313 43.9 7.07018 30.3693050892
24.8063 35.3332 10.1519 38.5248895859
26.5628 33.6007 8.22779 32.2385574432
20.258 39.5558 5.23877 31.5295127876
26.5359 37.4379 9.066 31.6250744723
21.2636 38.7643 8.82027 28.998265635
24.1096 42.0969 9.55704 30.4057887364
23.0328 43.7094 7.39815 31.8718076962
20.2517 36.4304 12.0413 32.3912991805
25.5885 35.1648 3.83545 33.4497016715
25.2233 39.5912 8.19492 33.5130023609
26.697 43.2215 10.1323 30.7074125709
28.2257 35.5925 7.54078 31.1081878094
22.6551 45.6905 9.31588 27.5393312403
25.1481 45.9405 10.6181 29.5106028251
22.5397 42.7687 11.7603 32.1895316025
29.4963 41.8616 8.06016 30.3369807564
27.5654 44.0943 7.63392 31.9195689289
28.6362 47.8875 9.32935 31.2405139578
20.5054 46.5931 7.23759 32.8899781195
19.9407 36.5309 9.10646 28.3217549783
25.8525 47.9051 8.68576 27.1449571128
28.5932 36.7382 11.098 30.3593102858
28.1097 47.4157 12.1471 30.6207445324
29.2234 38.9927 7.97785 29.4788564815
26.0293 36.3625 21.03 29.0344877648
24.1987 46.2068 20.1394 31.2199322932
27.0226 41.6522 13.4115 28.9648922115
25.2446 35.5547 14.2137 29.6816520672
29.3085 43.8383 16.3868 31.3984333197
22.5619 38.0968 14.6165 28.6038913156
23.5158 42.1748 16.3942 34.0170125096
27.2748 40.3969 17.8209 30.181703823
28.4066 45.8009 19.9502 29.4759004278
24.6207 39.7584 15.5848 28.8652212787
19.7974 40.2077 17.4383 30.5819996066
22.3229 44.3508 21.2167 29.7900575791
20.5266 46.4275 17.0592 30.1949461787
19.9423 34.1661 13.6878 28.2029998518
26.6492 44.5327 12.9999 26.5835837306
25.2417 46.9674 17.6674 31.2465756278
20.9784 42.9287 17.2111 32.8675464998
27.5801 37.8219 16.4604 29.8338235851
23.4565 33.6266 18.6783 31.4181610612
23.3559 46.1314 14.2578 31.1013306617
27.0028 35.7339 18.1295 31.6289300439
25.4678 42.5142 18.2537 30.9602599452
29.1529 39.3638 19.7571 31.5070237027
27.1604 44.5516 17.9344 30.2944410172
25.5117 39.5644 12.6989 32.0042684122
21.5097 35.4468 19.0008 29.0097453803
29.4517 33.1675 13.9035 29.5030091609
23.8836 38.0225 17.587 28.2430132707
20.4753 46.2849 13.6308 27.7979126911
27.1794 37.4827 13.4183 30.624041326
26.8651 46.4557 15.3218 30.4122064451
26.8037 33.3766 14.6853 31.9122241321
20.1703 44.5455 19.4799 29.3849366413
21.0179 37.7633 16.9461 30.0951840848
22.8483 47.6743 16.6224 28.6993741743
24.437 38.3805 20.2845 27.816066276
20.6669 39.23 13.3574 34.5413006854
24.6122 35.6014 17.0476 28.648445831
24.1419 43.5434 13.9378 30.7863857952
28.6981 41.3385 15.6707 30.6790006132
29.3569 47.5483 15.9399 30.1152511582
25.3736 47.7402 12.7813 29.4281341638
22.3894 32.8971 13.5081 32.6295524634
27.4815 33.1972 17.3999 31.1418356188
23.9475 42.0689 20.5178 29.6417945249
23.1273 35.729 12.6172 30.5476590211
21.3196 42.4048 24.6496 117.3407693633
22.5411 48.1086 21.3534 29.5362370534
28.1799 38.0832 21.687 25.4308452101
22.1352 39.8652 21.192 31.3377266706
28.1074 34.0848 21.5799 28.7278771329
21.0776 34.9371 23.9411 41.3577068233
27.9705 41.6376 23.7374 49.1163986963
28.4123 35.2017 24.4405 97.1793809303
25.8587 39.8138 24.3569 84.8642715735
23.0515 47.984 24.1388 80.0854570766
25.5972 35.4918 24.0696 55.0275195826
27.5396 44.1849 23.4867 52.4673481633
22.8937 36.8734 24.4188 89.152439715
22.6314 39.9216 24.2306 56.5541917655
22.046 44.8644 23.9543 54.1332516215
28.1896 38.4699 24.4456 74.72782693
24.5981 42.5682 23.4604 45.3880134421
25.2277 45.8206 23.46 57.9520690461
21.7532 33.4208 21.2764 26.5553332917
22.1304 36.7712 21.5993 27.0604659498
26.4663 47.077 21.4827 30.596093219
25.9292 40.4991 21.2398 29.8545081815
19.6447 38.7959 24.249 72.8354841049
24.5287 33.2644 21.7297 28.8587116461
22.8999 37.1141 36.4256 32.4384777364
21.7966 46.1901 36.2401 43.6852213171
28.4479 45.1395 35.6442 87.6732074719
27.3107 47.6693 36.5398 32.6028280302
24.5182 34.8993 35.8315 63.439423795
20.0434 42.6946 35.4806 100.9829325371
23.2585 48.8156 36.0712 55.2789122289
26.9856 39.066 35.4259 96.4005544036
20.9119 35.1779 35.5801 81.559969417
26.7773 36.964 37.1484 27.6894294269
20.793 39.9852 35.9082 61.81977941
24.8856 37.637 39.189 26.0123998813
24.392 39.2596 35.57 90.6493715517
24.2966 41.4134 37.4868 28.0448766328
24.773 45.8221 35.8029 80.9237327403
28.2771 41.3973 36.0919 41.0307191213
26.0736 43.2361 35.6293 85.345958338
22.3738 43.5642 36.1056 50.1107840205
29.3631 45.3576 38.3186 27.1613157499
27.314 34.7623 35.4493 103.2461404462
26.9353 43.1598 38.5738 27.812078504
21.2188 34.6209 38.4344 25.5828504247
23.0919 48.5756 39.0965 27.0666054569
21.425 40.4849 38.7867 31.0112277336
29.3026 36.2998 38.8449 29.4786500894
25.0128 46.4712 38.552 27.8153797738
24.2397 33.6713 38.4579 27.5599598711
25.2016 34.731 43.5508 28.7011418248
28.9861 39.0751 42.4586 28.9365392796
23.0195 36.3611 44.8312 31.7257067406
20.3842 35.6097 44.7469 31.2650489292
27.8598 34.1964 46.5513 31.3327551872
28.6122 46.3718 47.1864 31.9545738884
25.7531 48.8071 45.8874 32.1990396982
20.9482 40.3243 44.9344 27.6878910383
20.7913 34.7186 42.1245 27.1557319975
