31.7108 22.02 44.1304 27.3451574171
32.8298 24.3845 43.5301 28.3681337539
24.7546 14.129 47.0665 29.9721024863
29.1926 21.8418 55.8381 31.9287694784
24.9873 23.1345 55.766 28.8506246212
32.9114 15.3034 56.3161 27.2952396647
34.9898 20.5282 56.2797 32.2778050818
31.7853 15.9207 48.4187 31.5528978314
26.1102 19.8722 46.9872 30.4425489419
29.5608 17.042 52.1535 30.5413348213
29.0048 16.3029 49.2753 34.0289804584
28.5583 18.5636 47.6612 31.23055388
26.2167 24.6209 49.3421 31.6301819374
26.1176 21.7872 49.5027 31.5525579352
29.3631 19.7608 51.9675 33.1983927757
30.1542 22.63 48.4232 32.1387610519
30.6233 17.4364 43.3716 27.9043676278
32.3128 23.0185 52.5437 31.9997536674
28.7419 20.8224 49.556 30.7084551111
26.8584 15.8577 44.1164 26.300770903
32.1363 21.4348 46.7224 31.6457154467
34.62 16.2741 45.09 31.6669665218
31.5048 18.7786 47.809 30.2422226284
33.5562 19.6362 49.9123 34.0712082808
29.8092 24.0374 45.9941 31.4678891932
27.0865 17.4201 53.856 31.6044394736
32.7293 15.8713 51.4419 30.47481171
33.5958 20.0503 44.1031 27.2509464956
28.2016 13.5149 52.7028 28.3738817141
31.6544 16.541 54.174 28.1706420435
35.2346 23.8409 49.5291 29.5383469797
34.9535 24.1782 52.8976 29.4736011847
29.1178 15.428 55.0051 30.684267083
26.9493 20.159 55.1304 27.4804600253
26.3746 20.5432 52.6124 30.1849123304
34.7772 15.1556 49.4085 31.9852767454
24.9648 16.8151 46.1553 29.798084968
35.4473 13.6932 56.1437 29.4003957927
24.7707 23.392 45.1341 28.9135490727
30.8104 19.4007 56.0394 29.3718150935
36.1563 17.9924 49.1053 28.7749540435
36.9558 17.0784 53.0631 32.6300023363
31.3838 24.0827 50.3487 29.8556021439
25.457 16.2729 56.6081 29.7620519828
35.5394 12.1747 46.7203 28.66416368
33.1235 12.7749 54.5806 28.4378010324
26.9828 24.6236 4.00909 27.667294034
27.2348 26.2134 6.24712 30.6544375459
33.459 29.5541 16.3148 29.9658913668
35.9248 27.9303 15.1777 26.1466037066
33.6712 33.0741 4.88998 28.3461145646
29.6144 27.1109 8.7561 28.8300848081
33.5233 36.8639 3.89011 31.8142333215
25.2379 33.9335 15.3701 28.6803945561
30.3116 31.801 14.3965 26.6923504688
33.9911 26.1086 14.2064 30.7065153672
25.6104 28.6305 10.158 28.0033898365
29.9581 28.8164 6.46976 27.4551559728
29.5397 30.3819 11.7804 31.8378297738
27.1701 29.1431 7.69062 31.7031414182
31.952 29.5613 8.33613 28.9197080953
33.1415 29.3303 11.3583 30.2056477352
33.2369 27.7062 6.43734 34.4761340716
35.1208 31.8558 14.0197 31.1670444387
27.6157 34.0751 6.65047 30.3427358103
26.6033 31.0663 11.2501 28.9470385017
30.4434 32.069 9.49348 31.4377021418
28.3712 30.2985 15.5759 27.8124867736
30.1777 35.3629 6.70787 30.7312463638
35.0821 35.0588 14.7581 28.3304274371
34.0258 31.3021 7.44149 29.5420897861
31.6107 32.9499 6.8253 27.7049417573
24.8558 36.3274 16.8417 32.5117052864
26.3788 28.8285 14.6223 29.2265200827
27.8596 26.9236 11.093 30.6778616198
36.2707 27.4728 8.1961 31.4301478035
34.723 25.9388 11.1339 30.2096841669
31.8881 26.4485 10.5282 28.4366697333
24.8095 26.4289 14.9467 30.2450555131
26.8598 32.2838 8.59669 28.6292201643
31.166 27.7392 4.37213 31.0799220961
27.5322 34.5359 10.2629 31.3887683824
35.231 35.2985 5.47919 29.8245473371
32.6147 31.8029 12.6703 28.5686199268
34.7212 33.3723 9.20024 32.3995338319
25.2554 29.3479 5.44787 31.3080540145
36.0229 29.8543 11.294 29.4786083945
30.7322 25.2836 12.6771 30.5624019731
25.7114 35.849 5.7476 32.4754238325
29.3345 34.2673 14.2917 29.5648678207
29.8955 31.4301 5.46888 33.6789932322
32.8613 33.7953 10.9829 27.5398633362
33.6052 35.8022 12.7886 27.6427547771
35.1728 35.9698 8.05137 30.6776303194
30.7147 36.0528 12.7856 30.1971623541
28.7774 26.3546 15.6602 29.5042308459
25.0111 35.5545 12.4341 31.8663374265
32.2988 28.2831 13.8344 29.1976530087
26.9866 33.4998 13.1069 28.2081563674
29.3094 27.985 13.1435 26.2547857565
25.1266 31.0508 13.5632 27.1350214179
36.5071 30.3024 8.34867 31.1496440923
31.5758 31.5367 16.9031 28.4672602346
31.2928 24.9636 15.92 28.2506673932
30.375 34.8467 10.1103 28.8729858395
30.7707 36.4187 4.23412 28.9108194219
34.6809 28.7968 4.11355 31.5934915751
32.8295 25.4602 3.78736 32.84032566
33.7616 33.2959 16.5779 31.0731431453
28.0878 33.2042 3.85113 33.2301188168
35.255 35.2074 24.452 91.707091715
32.2578 25.8334 21.3327 28.911713499
36.4381 30.3864 24.1344 92.4100855147
29.3043 28.4841 17.673 30.5540608667
24.4429 28.6487 24.3836 76.2192616163
33.0242 27.8994 20.0474 30.4706959646
36.6336 25.4525 18.3001 27.6342728002
26.5736 31.1213 21.9246 27.7634309634
28.081 26.876 19.8076 32.8648303819
29.7114 33.3512 19.1172 28.7418440195
35.6379 28.7673 21.8198 29.0593270032
35.4547 32.6904 18.7748 34.1261288256
33.7013 25.1957 24.3441 86.478107001
24.696 30.1005 16.8193 31.6706183446
25.2174 27.3471 19.672 32.1400190002
27.0479 32.4415 17.1142 29.5827858721
34.6778 32.8332 23.5867 39.3172256917
28.748 29.3725 21.3612 34.8351485959
32.523 30.6935 21.1786 31.8826444158
31.8631 30.0211 23.9594 55.6169885862
30.9707 25.9894 24.2239 81.7014906549
29.6923 28.4198 23.8073 56.3739108643
34.1268 28.5299 24.2967 78.8056491242
36.9074 26.0154 21.091 27.5063202269
26.9597 29.9938 24.3652 98.400785706
26.0429 32.7354 24.2275 98.4770766669
26.7096 35.4948 21.5333 31.181503015
27.1153 33.0413 20.0627 29.9754349726
30.381 30.6885 19.2997 27.8241436751
27.8926 34.8095 23.9135 63.768860769
30.7652 34.9856 23.7645 47.5700711737
33.586 33.2003 20.899 32.1382558156
31.2723 34.7528 21.1257 32.330419458
32.0513 32.6778 24.3019 101.0376877582
28.6739 34.9039 16.8305 28.5687468512
29.5136 25.086 21.3959 31.6433334657
36.3845 26.6003 24.0452 71.4063031038
35.4327 28.0171 18.1828 31.4229494022
31.9256 27.4919 17.3445 28.777416014
27.0462 24.6794 17.8131 29.8723503189
31.4957 35.3013 17.0884 32.8458808817
29.2008 26.8174 43.1868 26.6861462269
31.2652 25.9058 41.8813 28.7754352871
27.3072 25.2129 42.1339 27.2669599115
26.0634 35.1965 40.714 28.3988087771
30.3044 27.5026 35.8999 76.5276045468
32.5427 26.2021 36.9724 27.7452785523
25.8626 32.2013 40.9681 28.4237828569
29.4317 28.3982 39.0515 27.2970676194
35.8325 25.8474 35.9416 64.2508939706
32.8882 28.1562 41.9369 30.3139731687
25.4326 31.4643 35.3589 116.0224812401
28.6705 34.1244 35.6119 97.7361599049
31.4634 30.3895 38.8205 30.4081564326
34.1843 28.283 35.8238 68.2217678039
30.0163 30.2911 36.2995 45.7353631043
34.7435 31.7277 36.8055 30.7559507732
32.6811 30.4347 35.4254 113.3207656327
27.6324 35.6319 38.2725 30.1700708413
26.6211 36.0171 35.8868 60.7386631208
27.7365 31.9338 36.9824 28.280272684
31.0459 33.3932 38.3236 30.3170408801
31.1612 34.9127 35.9969 60.9941412706
32.2857 34.8859 40.2733 29.8720840944
34.2159 31.4108 39.4431 31.7588804617
28.4164 25.3532 36.0679 52.450096519
28.3888 35.5092 42.2762 28.565448686
29.4915 32.374 42.2055 30.3443525957
29.2117 25.819 38.6113 26.8967613038
26.1446 29.2145 41.1255 27.1702468002
26.7454 29.2738 37.829 27.766878589
26.764 27.854 35.502 94.6070856738
28.841 29.3834 41.5935 29.1330807616
35.4181 26.1589 38.8781 26.9059579181
35.7103 36.2602 35.8285 62.5570715102
33.7613 28.2657 39.2411 29.5219434799
34.5414 33.8099 40.6435 32.4862731837
36.7711 29.8474 38.445 24.9891443023
36.2794 32.5808 42.9974 32.1508180607
28.3779 32.9091 39.543 28.227145445
26.5536 26.689 39.8056 27.8398350715
33.8017 34.1755 35.6533 95.3913302761
24.6154 26.1285 35.7816 65.0390822593
31.485 33.9442 43.4279 32.5869518807
24.6537 26.4733 42.8767 29.1061791291
25.0246 29.3559 43.811 26.6436881343
24.7366 26.061 46.025 29.3406008199
27.1285 25.2548 52.1436 32.4449748021
35.4391 30.0664 52.0667 32.4942810434
31.1705 26.3839 45.4213 30.816593242
29.5465 29.0879 45.599 28.3273792721
32.9836 27.3704 47.6189 30.7260890883
35.8521 31.9438 54.0649 31.9004156917
34.6152 25.587 45.3486 35.5452893642
28.0631 31.4306 46.2028 29.5281597022
25.8563 31.8632 55.7178 31.3922438052
29.3666 33.1205 48.147 31.7371905453
26.1411 35.3961 47.4594 28.1046246344
32.6172 31.9041 45.0012 30.8262641675
35.2989 30.4722 44.9875 29.9714395722
33.1654 30.176 50.1424 29.7524375712
28.7634 25.1844 54.6306 30.6953827874
28.1041 35.8743 45.4874 28.0029623231
33.0533 35.4272 47.3459 32.2968712424
34.6834 33.9852 45.1716 30.6528826252
25.9472 30.5679 47.6587 28.6379487785
35.6288 31.2804 56.7663 26.443715616
27.6155 25.7785 47.2282 30.5821229598
28.7786 27.4789 49.2571 32.5641618859
26.8398 28.081 45.2608 28.7403115612
29.8509 25.8961 51.4907 30.7358694988
33.3912 25.6904 49.8094 29.8460480733
26.585 28.8872 50.3084 30.6358819639
27.8738 30.6886 52.0942 32.4925720101
29.0408 33.0996 50.8149 30.08716854
31.5468 31.6647 47.559 27.5365918011
33.5736 33.0892 48.9691 33.0563303163
34.7872 29.4933 47.8495 30.508442447
33.608 33.2777 54.0 27.7281950177
27.1857 29.6379 54.6365 30.5645306192
33.9419 27.3385 52.0696 30.2101214241
24.991 33.8109 53.5474 28.4316521583
34.5925 35.7227 54.1011 33.2057365927
26.0105 27.8908 52.6705 31.6087064411
36.4289 33.0181 48.68 29.8338512583
35.228 28.3666 43.3261 34.9498649009
26.1591 32.7709 50.0295 28.598241966
29.3597 28.0395 54.9348 30.7597215143
31.354 28.094 52.7868 30.1996615515
27.4103 35.442 53.9192 29.6667568309
34.8439 26.3926 54.6343 29.5993809519
24.8653 32.4077 43.6949 28.4069519188
30.5889 30.8754 52.9011 30.8728035634
30.3052 34.5617 55.0028 29.366260715
31.6873 32.15 55.753 27.4250216766
30.8794 29.0477 48.2897 30.863434256
36.7958 25.3956 47.6784 32.7251275306
32.615 29.5788 55.0346 29.8179836027
30.7254 35.5669 52.2872 35.4422479322
28.1897 36.1815 51.1375 29.6255567129
32.1372 32.9523 51.6248 31.135648857
25.7457 35.6753 50.2419 28.8079413928
30.2551 36.1313 47.4866 34.0972138593
27.6284 33.3036 44.3698 29.6578883985
33.9007 36.6254 44.2525 32.5876518211
25.9386 27.3438 56.516 31.1821835563
31.2309 29.8081 43.2497 31.7409661925
34.8257 47.8033 16.1562 33.9313188492
29.9714 39.1681 4.39117 28.1145734154
27.4998 42.1448 4.74192 29.9575255461
25.4397 37.4371 7.98266 30.0515114861
30.3017 38.9795 12.301 28.1185820989
36.2676 38.3585 14.4728 26.5139874278
32.7404 40.5026 16.576 28.1967565092
34.6717 39.4412 4.58986 33.0127291836
27.7063 41.1004 8.47705 27.8580031823
32.1908 46.9284 6.54049 27.4798078319
33.7188 48.9467 12.476 32.570816562
30.2016 46.685 15.052 30.8770523624
33.4764 46.4483 8.79004 31.5359555214
32.1569 39.2629 6.09262 28.8271799939
31.6331 37.6787 15.1996 27.769763731
35.3703 40.2045 7.43265 32.7440944008
29.1343 38.6778 15.4989 28.1784612679
27.1842 39.4986 5.3837 26.5551444926
29.4774 48.1307 10.2583 36.1067407358
35.022 43.1513 7.95086 30.5136183648
34.7531 47.4887 5.05654 28.8506656829
29.9274 46.284 5.3104 28.9964807665
34.3879 46.651 13.7176 27.8399078402
28.3684 38.5359 7.87598 31.5363249186
26.0698 39.8616 14.8392 31.3505834697
31.1872 40.2439 10.0836 32.5071813648
33.4341 39.2975 13.3872 28.6606942026
35.4761 48.677 7.89873 25.9873405786
27.9177 47.582 13.9663 26.4959686382
25.9583 44.0425 8.04245 31.3584277233
31.78 44.5517 9.67705 30.5437215906
30.1932 42.5612 8.24384 30.2025758434
35.5874 43.3024 10.7833 31.8677950004
25.4348 42.463 14.0404 31.4340048496
28.2863 44.0097 6.73287 32.0806915853
30.0597 45.5206 11.7104 33.458604453
26.3752 37.1487 10.6575 32.2728942801
32.2938 45.1416 13.8104 30.003187721
32.842 42.4424 10.962 31.5533489706
28.8727 47.8305 7.4884 34.1298321314
36.5293 45.3752 12.6614 31.688078533
24.6326 41.7704 8.25323 30.4456893493
31.3279 41.9406 5.95116 27.521762143
27.5093 39.2701 12.48 30.4507580559
26.7611 41.2847 10.9764 29.6471058591
24.724 39.6901 6.30936 32.0177268353
30.127 41.6274 13.7774 30.7393820389
32.2669 48.4214 10.3724 29.2755679923
33.2339 43.8848 5.81411 30.9837180196
29.4272 42.5936 16.4179 32.3096897447
36.0938 44.8651 4.48876 31.4247668504
27.7696 43.1188 12.9127 31.7972535363
27.1894 45.7965 12.3178 33.5466371428
35.7753 40.9555 14.7469 26.5464779198
32.9633 42.0208 13.8408 26.3439321723
34.7704 37.6193 11.2344 31.2600176305
33.5635 38.2412 8.58342 29.3060115761
30.8253 37.4986 8.59859 29.4358704986
25.042 45.7989 10.2229 35.7890033952
26.176 48.4883 7.23851 31.886565997
32.6769 43.7548 16.3095 30.6537494288
25.9182 47.5109 15.878 31.4103489104
27.7931 37.8115 24.4469 105.6807459037
35.4829 44.8079 16.9955 32.1186948563
30.0795 40.2422 17.5868 28.514929649
33.875 38.0385 17.6829 29.2159590071
33.9189 42.2256 19.145 26.3548448874
27.1882 45.9058 17.5474 32.8235719912
27.254 46.8235 20.0937 29.5681497052
33.5692 47.1894 24.0758 64.3417763284
31.4642 43.3672 19.931 29.5416096084
36.663 41.3218 21.3981 26.1846057659
25.3787 38.9443 23.8385 54.8690453637
31.6709 46.7862 19.5276 28.9256186767
35.7943 39.5855 18.994 28.3302214509
33.1434 40.0832 21.1225 30.470229856
36.2977 48.2125 23.6944 45.8642315829
25.1417 38.9788 18.7582 32.4158405562
35.967 48.2661 18.9812 30.0878276011
24.7577 41.3104 24.4133 100.7603977424
27.1102 42.27 23.9456 37.4913460011
27.9756 42.3851 20.9518 32.3284016586
29.0362 40.2243 24.4548 84.3042342205
31.5015 41.6252 24.3717 74.8574127968
26.4638 44.6448 21.5379 26.8106276037
26.347 48.3353 23.926 48.5254671724
33.4505 39.6741 24.0483 60.460113582
27.8661 44.9679 24.7201 116.2338127097
29.6379 48.2646 20.9298 31.9195565047
32.565 44.2095 24.4022 75.9557515242
29.5601 45.1097 21.6028 28.7268907743
35.3727 43.6409 24.0743 70.6061439122
25.608 43.4234 17.4452 31.225673741
35.4525 43.8265 20.8363 28.1775964863
29.2371 48.7037 23.8761 47.4727831263
36.9991 45.8195 19.4915 29.0400473373
33.1006 45.1791 21.6731 28.8268200824
30.4308 45.9168 24.1434 50.8930590791
34.3694 37.0689 21.7246 32.3840907142
27.649 37.7427 20.5083 32.0542728207
25.8839 40.1791 21.1926 29.6422950725
35.9912 40.6589 23.9413 64.8579446266
30.5772 41.1317 21.707 28.2098486021
30.2276 38.6453 20.1428 33.4573449614
25.555 45.8801 23.9109 46.6128412473
30.1061 45.287 17.5823 29.6250006949
32.4827 36.9904 19.7673 27.8908992497
36.3933 41.9476 17.2701 27.5978984922
26.972 40.8131 17.3548 29.2056566304
27.7044 37.5256 17.4077 29.2124016585
25.3445 48.9527 20.6699 33.0130407617
33.6099 48.4297 21.06 27.7952000366
32.9769 36.7804 24.343 91.2268067795
36.305 36.7701 16.6687 29.0188087012
26.7922 38.913 35.7548 64.4791016813
25.0308 38.5216 39.0921 29.8755994618
29.0023 42.9613 35.9932 54.0663279285
28.3903 42.4408 38.5297 26.5816182629
29.7688 45.9904 35.5795 89.4619557133
32.2511 40.5593 38.6196 27.1272670882
29.1953 45.3744 40.4817 32.8453211891
34.724 46.915 42.6274 30.493252072
33.147 38.2512 37.5113 28.5648917954
30.1222 40.8735 42.2086 27.3110012232
25.9236 43.5474 38.8685 27.2947481475
27.6756 39.8099 38.3805 28.2234430643
26.1501 41.2207 40.9248 29.2940397065
31.1163 47.1047 42.4651 29.4072912455
31.9916 41.1913 35.8014 64.1079990169
31.8989 44.066 35.7069 67.5422292959
34.5744 41.9163 38.8015 29.5440144923
28.8048 48.9239 37.8764 30.4365406402
27.6347 42.5284 42.8501 30.7956079992
30.6773 37.6076 36.5549 42.7143703329
34.8277 46.8049 38.3604 30.0182706025
30.7063 42.784 40.1138 26.5036923981
31.7317 47.8918 36.362 40.0012696383
26.5126 44.6903 35.9088 69.4275309486
32.6229 44.3268 38.487 27.471865349
25.0442 45.2819 41.8273 30.0099667227
32.776 44.5958 41.5454 26.3583143869
29.4661 40.1804 35.6363 86.3109861713
29.4599 37.9545 39.093 30.5276800371
34.4919 48.3171 35.7877 87.3039236303
32.4919 39.1959 41.365 28.5795220493
34.7771 44.3242 35.7368 78.6186403224
24.6552 47.0391 36.1745 43.0579947249
25.0534 46.485 39.1514 28.9727203167
35.6308 38.1633 42.2749 32.1835008369
30.7618 36.8862 41.5115 25.780106128
34.7965 39.161 35.5259 99.9994157681
27.795 45.9845 38.0086 26.757650795
35.6619 41.6003 36.0343 38.3721152854
35.4088 43.2813 41.1233 32.0377442853
31.5348 46.9549 39.017 28.0983631237
25.6412 38.0309 41.6861 29.4946494301
27.4126 45.1768 42.8301 30.6644192373
34.6002 40.9302 42.581 30.4257459556
33.6158 48.2385 40.4315 27.3342193267
26.8109 48.6556 35.7625 79.3340573878
34.2492 37.1851 39.9118 29.5908484765
28.3779 38.6671 42.6945 28.7002633204
36.2508 40.222 44.8678 29.8592799761
30.8101 39.4678 44.914 31.4254335167
36.6639 42.6322 50.6441 32.1530947172
33.2459 42.1338 47.6138 31.8183544113
25.4927 44.6163 48.8672 26.4941996786
31.987 48.099 51.0092 29.7627892677
25.4688 44.4475 51.643 28.3666408641
30.26 45.8386 50.6837 29.5933447156
26.4964 45.3142 45.9065 28.9677736822
32.9837 37.6627 52.8346 38.4927941644
31.0918 36.7466 44.6504 26.5039114774
30.3303 43.0173 47.9826 28.2009891075
33.0477 40.9189 44.9989 31.3543886792
25.4248 48.1096 45.911 29.4211337185
33.6256 44.9934 48.0307 28.0361486996
26.8177 40.8912 45.1583 31.1823653082
34.8745 37.1551 48.5508 38.8465451383
32.8678 46.3441 44.7916 32.0717073936
30.9447 44.0749 45.4656 30.6629039051
30.3719 40.607 54.4433 31.6883078898
33.7378 46.8435 53.2374 32.6169975142
24.6354 42.8772 45.5049 27.4317499965
32.0417 42.8026 43.1967 27.9608236364
34.8804 48.2882 55.2967 30.094460612
29.0646 45.7152 53.6218 34.6850864139
29.135 38.5722 48.4233 45.0545707864
25.4799 41.1372 51.5717 32.4325639348
29.0994 46.5029 44.9181 30.2955640291
34.5187 41.045 49.6699 30.6038932688
34.1747 41.703 55.62 32.4382691036
34.7214 38.4957 50.8325 34.0549632274
25.8252 43.1534 55.788 32.7633045824
36.1377 37.604 45.9464 33.492347234
29.0905 40.7852 46.8745 30.1387171228
30.2956 43.0972 50.9899 36.7532186909
28.4487 41.2775 52.7368 34.4797144473
32.9567 42.2999 51.5274 33.5972147698
28.5195 47.5483 55.9067 34.1493217693
26.3541 38.7409 48.0207 29.3337505047
31.1454 46.2772 47.7344 27.7106207776
27.4858 46.5483 50.6083 29.6834341955
28.3002 45.0829 48.0751 29.5494228951
26.3467 38.1723 45.1666 28.990418408
28.8331 37.8152 54.7711 28.2075516971
36.1173 48.2636 46.6034 28.7269155704
34.2401 47.2305 49.6869 27.3872472552
34.7446 44.0658 52.4839 29.1586428326
27.2365 38.6414 52.5663 31.7623862021
25.6272 48.2461 48.8418 26.2391029143
33.7407 44.4155 55.4257 28.5548656779
32.9662 40.3685 53.6765 33.1348452134
30.9331 45.0352 55.7071 33.6215404952
27.1173 43.7657 53.4972 29.0679142706
26.1535 41.4291 48.786 31.4074745934
25.4968 48.1205 55.992 32.6079437214
36.1416 47.1616 51.9227 26.6753462182
35.4781 45.5682 46.334 31.8262779263
36.6181 43.0348 54.3123 31.2104311477
36.6569 45.0735 49.3492 29.6496333979
30.0212 42.603 56.5588 28.1077925771
26.6086 37.3427 56.2601 29.7575698009
41.55 2.91549 4.27563 27.6963706241
38.5725 11.5879 15.5889 29.2419930859
43.8132 3.23913 5.7855 30.5920992166
44.7739 10.6877 8.94158 34.8787624661
36.9809 2.73274 14.8414 31.8490270405
47.7697 1.64085 7.69208 31.5584391998
38.3176 3.99348 7.79527 27.7103018342
45.841 2.56857 3.99711 32.1262668347
39.4065 4.69455 5.07094 30.596298957
38.0722 8.54205 9.82094 30.7893529858
38.4098 11.4512 8.28742 29.2388958033
43.9283 6.10735 5.95936 32.3679717917
45.7142 7.25183 4.16331 29.579627996
47.8249 7.88896 5.53744 30.0014912436
47.8644 12.068 6.61578 29.4390199121
39.164 0.653636 16.4129 30.8654142471
41.6559 6.53338 4.15152 30.6937149535
42.9215 10.7992 6.69724 30.8363875377
40.7861 0.233136 4.82433 29.7140949475
45.0426 9.89638 4.64781 33.8905463833
44.4817 11.6862 11.5075 29.5873000968
39.2703 1.62738 6.73271 26.3570145326
44.128 1.00813 8.07509 34.8746324711
41.5265 1.87763 8.96569 31.7353897093
39.5012 9.08808 14.1601 30.9596774982
44.2855 0.872018 11.2107 37.8225715938
43.4519 3.54929 10.9125 31.46456346
48.0187 2.62298 13.5812 29.6414813811
47.9769 4.59765 8.3003 31.7346976233
40.9564 4.8906 9.42647 33.0164145652
46.7612 8.39847 13.4803 30.8557588731
43.0032 6.33054 8.71016 29.3084298872
44.034 4.98521 13.7272 31.9225949912
44.7609 4.13783 8.50944 30.1352388566
42.4112 8.41822 14.7481 26.8696243319
48.6477 6.95143 11.9413 30.3631415603
39.7746 8.01472 5.7152 28.6597105688
40.5005 10.0546 9.88096 31.1864582802
41.5355 8.5224 7.67663 30.2703973867
44.5436 6.51755 11.3302 30.557030373
46.9174 6.77395 9.90427 29.9790616694
47.2354 10.8351 14.8434 28.3042382759
47.0782 8.86662 8.28684 33.9922040478
38.5293 4.13635 16.5713 25.5454147321
47.3711 11.3203 4.20379 29.401020593
37.2447 3.09864 10.3126 31.1400408385
41.3657 2.50368 15.1332 27.5738734623
39.1295 2.90034 12.7989 30.0375079983
43.7642 8.90094 12.6711 31.7849458955
43.8213 1.55353 15.4121 30.09195564
46.2876 6.53975 15.523 28.9375843097
40.2499 0.735532 11.481 28.9493088894
38.1675 7.48091 12.2981 31.8730123915
48.4135 3.35469 4.21042 30.9533735037
40.1154 5.44323 12.1924 34.0787812195
41.4537 5.50012 14.7582 28.9480832972
37.9004 7.14503 7.53816 30.2228806339
37.8111 10.4341 5.5217 30.6828323707
49.0972 7.47334 15.5849 33.388543839
41.3096 10.7173 12.4628 29.8808554916
45.9347 3.41204 15.1892 30.262174793
47.1146 0.796179 12.1541 35.5344127743
38.4826 8.11279 16.6721 34.649670072
49.0449 5.39367 6.024 33.9826414149
49.2846 0.693881 9.97481 34.8071729439
42.5966 -0.1354 13.1763 30.1395225261
42.0881 10.7217 16.6085 30.8617572709
42.234 11.3838 3.87444 30.9696060706
39.1514 5.05937 19.8858 29.9321422217
46.9057 8.10385 24.072 54.2499666077
44.2238 4.18245 18.7605 28.1789837072
48.5166 1.93246 18.9962 30.9451626843
44.5513 8.29457 16.6393 31.1554747536
46.8036 3.87117 17.8525 27.5959585546
41.775 6.77459 22.9174 27.7631128564
40.9234 3.42348 21.109 29.1120091472
43.5515 4.39298 21.531 27.3375310499
43.0107 7.47072 20.6482 27.285537258
49.0808 9.66383 24.4531 82.4678529083
49.132 5.71673 17.997 28.2596092919
41.3114 3.09795 17.6326 26.6300540812
44.1882 1.19298 18.4942 30.2897399077
38.2713 11.9091 24.3903 79.0624372065
42.8047 6.69731 18.2453 27.9189588714
42.1722 10.3042 19.661 32.4357256556
46.4266 11.4812 17.8852 30.0700152192
40.0178 12.1271 17.6734 32.2646923786
39.0999 0.352385 24.4285 82.3960357921
39.08 0.574597 21.833 29.1049832897
37.6964 3.11542 24.3901 77.6886513309
47.2163 2.12441 24.0428 77.8475990136
38.2718 6.39595 24.296 70.7163444031
46.1676 2.98131 21.2918 31.7308759557
47.1938 5.51767 21.0778 27.8112070438
40.6316 4.26333 23.9777 53.4076017565
40.2426 11.6313 21.1458 30.3305693998
45.4689 8.24427 21.5418 29.8282869906
39.6765 8.79222 24.4908 85.614604101
42.8514 2.69332 24.5529 107.53169612
45.0644 4.34274 24.0813 51.0777625995
44.1412 7.15375 24.5345 101.4618629055
48.0032 5.51548 24.0353 68.791358413
38.0951 1.06967 18.707 29.0975071758
48.0236 9.48602 19.1413 29.0197123193
42.3298 9.70506 24.344 72.6233560115
46.6852 7.05802 18.7332 26.9122382543
44.637 10.989 22.1513 29.9968133905
39.3632 8.65082 21.6271 33.5689585797
37.1053 10.1979 22.4875 28.5613860513
41.1478 1.0619 19.5166 25.999325522
37.6077 6.05762 21.4672 26.5670961383
49.2739 10.341 21.6289 27.0771047612
45.9662 12.2771 24.4893 113.4210977963
40.3817 6.21993 17.463 26.6441050624
40.7275 2.22035 42.2254 29.8865047657
44.3499 1.72519 36.3115 57.1784926618
38.898 1.66386 38.1545 31.0699603901
42.0003 3.36849 36.7259 40.7072542598
47.4887 8.61793 36.2916 41.4924787048
47.1733 2.23306 35.3856 117.2024663794
45.4823 1.57316 39.0836 27.3850802776
43.9479 5.64431 42.1728 30.2637781153
37.9427 7.42053 39.3952 33.4217235182
37.7182 4.65424 35.6464 65.4508533734
45.6394 7.9779 42.7568 31.4602988744
43.1491 5.95169 35.9868 86.3592222069
46.107 6.1778 35.8962 79.7797857326
40.7402 10.3147 39.9693 31.6957736755
37.9702 7.50903 35.314 124.4499441814
48.2826 3.30344 37.9887 28.5863387084
48.6015 8.2383 38.8973 31.6827309695
41.0221 7.92696 36.0017 60.7981675052
44.351 6.71892 38.6567 30.8294222367
42.4647 10.3468 35.7786 83.6393929506
43.4491 11.6549 39.7777 28.3436788663
45.349 10.4027 35.8556 79.8575755357
40.1677 9.5531 42.601 31.3894015766
40.3066 5.55257 42.5852 28.2224542288
40.7204 7.82288 38.7883 31.4311574755
38.2775 3.25129 42.4143 37.91596466
37.1345 2.8092 39.8602 33.7772238687
47.875 11.4117 40.6862 27.4939493581
41.5757 3.15648 39.4802 33.00828383
39.3856 2.53501 35.6656 88.0743554326
48.408 5.19961 40.9632 31.2100750202
46.5354 9.10186 40.2671 30.1104800289
38.4239 7.50153 41.9892 32.1819969579
48.8218 4.82724 35.7864 74.9642739573
43.785 1.57008 41.1302 27.7303013923
47.8364 0.120693 38.6115 28.9555653017
45.5842 3.29676 42.0526 30.8894104013
44.4239 9.61577 38.4346 28.9966375666
41.95 5.68101 40.1021 29.2722789236
38.6015 11.6288 38.7845 30.3166724335
43.7271 12.3222 42.5349 31.3742710952
46.2256 4.40502 39.2786 29.9731509766
37.996 12.2239 36.0846 58.0477218593
39.7431 3.79841 54.1915 31.064257002
47.0512 1.81745 44.1235 30.26625643
41.5471 2.67303 49.348 29.7284882863
37.2853 4.28957 44.898 28.5127060803
46.5991 2.06756 49.2333 29.2474734218
46.1241 0.543948 46.9766 33.0632064254
45.5231 0.996233 51.705 31.2876444153
40.0159 11.363 47.0408 31.765577747
40.4681 6.85388 46.7401 31.8076187641
48.9908 3.86356 54.0471 32.7536677817
39.5498 4.1375 46.0272 32.4072210368
45.494 5.09416 46.2521 30.0014871845
39.0227 11.9518 44.2837 36.4162178842
43.8462 4.63114 48.4033 29.1641325297
47.362 8.28592 44.669 27.5415897549
40.803 9.27207 55.6995 30.4179163282
42.3016 12.1441 51.0676 30.9897183449
39.4623 10.3908 50.043 27.4817128302
44.3522 9.77693 45.9854 29.7699662856
49.2233 10.6477 44.4791 29.0351450889
41.2892 7.45694 44.3074 30.2200809767
42.9162 0.574313 50.7491 30.4907860374
47.6971 12.4117 49.2863 33.073760019
47.6319 4.276 45.3278 27.0973404967
43.0082 4.91233 44.6851 30.5315780853
39.1705 1.60096 50.0667 27.7302982326
43.143 1.61509 46.9458 35.9669199678
49.0522 10.1274 52.6138 32.046781879
45.0926 4.79661 55.1091 31.0279749168
47.1559 8.69821 54.309 31.4513106881
38.2472 1.85189 47.4661 35.452415141
40.4509 6.08558 51.0369 30.7581395234
45.0725 4.08561 50.7876 31.2485065492
42.1106 6.8534 48.9158 30.9854422038
42.3097 9.29353 49.9605 26.5077109696
47.2889 5.63624 50.7716 34.3287599773
45.6418 7.71438 46.895 30.2998469013
46.8973 8.12104 49.4807 32.9157044968
38.681 8.7243 47.5211 32.5886603528
38.176 9.6379 55.03 27.195568028
44.8337 9.69154 50.8949 35.4676544888
41.7365 0.183193 53.2643 28.0667042818
44.3754 10.0062 53.7971 35.550637971
39.5397 11.8225 52.7324 31.2050951878
42.8859 2.60224 54.4734 28.2469443342
45.32 0.863853 54.493 29.325300894
39.2991 1.07367 54.9672 28.4679641909
42.403 4.17014 51.5797 28.1855294858
46.5912 11.4737 45.118 31.6096931285
47.2728 6.04489 53.653 32.5088438001
39.0938 8.55425 52.4292 30.6424466866
43.3125 9.61874 43.3354 32.9048891243
41.5356 2.62774 44.9058 30.5569330082
38.7282 3.97602 51.6423 32.0903117857
42.5137 5.78931 54.3354 30.7416412976
41.8501 8.22837 53.0352 30.8517202867
42.7497 11.0787 47.5267 30.2594844828
37.5131 4.62237 55.9756 33.8170466259
48.7744 6.05926 43.6652 31.1504898385
48.9449 3.21791 47.4134 30.8273631343
37.6094 15.6736 14.7361 31.8027080087
44.0125 18.5641 3.80898 32.5091868346
43.2359 14.2272 7.0736 32.8723364652
45.8555 13.464 8.07883 29.2044304993
41.747 14.0557 4.47567 31.6800189943
41.1653 16.6965 11.0542 28.759342138
46.6604 15.6605 6.46872 32.7576379724
44.5612 21.5071 13.686 27.7606786036
41.3779 12.6197 9.04199 27.3728072192
37.2369 22.9391 13.4087 32.8484177524
39.9047 18.2321 7.23224 29.3198982687
36.9969 20.9448 9.253 28.9427752036
47.0263 12.4342 12.6466 29.6948305895
45.0845 18.021 6.46281 33.8335475115
39.1365 20.3654 5.82761 32.0837280098
39.9074 24.0246 7.89053 29.232706496
41.5181 21.6628 5.06726 28.9727293178
44.5547 12.519 15.589 30.620868313
41.541 18.4149 15.8672 29.5214451408
42.2304 22.1729 7.76333 32.314145461
38.8918 23.5653 10.3948 26.9845650462
37.4197 24.2235 4.56234 31.6605571524
39.7566 13.5155 6.52451 27.6532216771
45.6726 14.5519 10.5247 28.5585044163
48.7131 17.6943 15.6662 30.1739496175
40.5966 21.7336 11.765 31.5188635061
37.327 22.603 7.07283 27.9871719144
42.4613 13.8022 11.4253 26.5859968899
38.8883 20.7774 13.9 36.3806866979
42.4827 17.0605 7.35253 33.2703176316
43.7149 16.7203 9.83626 30.9040782639
46.0195 16.7485 16.2574 28.3026678895
38.8013 15.958 4.44388 31.3733134651
47.2627 18.3342 12.9671 28.363935068
46.4252 19.8142 10.1083 31.0386193078
46.3943 20.0847 7.47956 33.9926815815
48.8072 13.4858 15.7092 28.7517555115
43.7823 20.2986 15.8703 27.2104190655
41.8181 20.0911 10.0117 30.972902664
39.3091 19.0126 9.62325 29.077877622
44.9655 22.4466 7.40726 33.4355795853
38.2334 15.9534 7.23906 28.0502450864
42.3393 23.4948 13.1213 31.9693765047
44.1165 19.3184 11.2873 28.8034261922
39.4132 14.9089 9.67179 27.1213554593
44.0247 15.0695 13.9259 28.7429433957
47.7113 23.4082 14.9732 29.3109618819
46.9005 14.9385 14.0794 26.8826629128
47.2661 21.4652 12.9595 27.457180497
47.6206 16.2337 11.4962 31.3845131681
49.0503 23.1061 9.42985 31.1966198084
46.6106 22.4137 10.3396 29.7187826451
41.5563 13.0317 14.2963 26.7078915699
44.265 18.0472 13.8041 29.1713421932
40.2052 23.8553 3.94597 29.9109452976
39.3028 13.9317 12.8605 29.3357112515
43.6548 21.3066 3.63167 28.2992249907
37.5457 17.1882 11.0542 30.1269781351
47.6729 16.0378 3.85735 31.0807196846
41.1915 16.5225 13.8392 30.8170226945
40.7278 24.7615 15.4827 31.1156115827
45.1275 23.5741 15.7759 28.7430347138
40.5159 21.3803 16.2105 30.9204702443
37.1618 18.4138 13.4861 32.4517199359
45.7244 23.2696 3.4704 29.807039617
40.5398 14.9861 16.7487 30.5776450098
39.458 18.2075 17.8759 32.0511073031
39.7056 14.2712 20.1266 27.591623685
47.1011 12.2762 21.3554 29.3031834927
42.3993 14.3087 21.9334 30.1476047283
46.6053 24.5363 24.1228 74.2435254135
39.6596 24.1493 23.9801 53.7385561109
44.071 23.1058 21.4734 28.5252254637
44.5556 14.2346 17.8095 27.8324079388
44.4539 14.5574 23.77 48.9487661338
43.5451 18.7406 19.8307 27.8761103099
46.6532 15.0985 19.5215 27.0186054133
47.4039 17.6979 18.7545 29.7528861462
45.5243 19.6191 17.9594 29.6466419291
38.6863 21.081 18.712 30.331114155
42.5108 21.3491 20.0014 29.2272551156
43.9537 22.3088 24.2826 89.4564771287
41.1122 12.1689 24.0938 67.61241477
47.2543 21.6438 18.834 31.004445815
43.0676 16.6818 17.8474 29.4438382712
48.3555 13.2358 18.4001 25.975650306
42.6818 22.3732 17.6053 23.8767442896
40.5706 15.7995 24.0338 66.5808453171
43.5865 17.2866 24.3026 90.9176804442
46.4051 15.5727 22.2764 30.5785217633
37.7358 15.5717 17.8475 31.5542785329
41.7728 17.9909 22.165 27.9449871808
40.7738 16.6712 19.7488 26.6461071578
38.853 18.6451 21.8194 30.5816172208
45.5432 18.212 21.628 28.4372318601
47.6854 19.8634 21.2744 31.9211950887
48.2711 20.1128 24.2115 92.4594413349
45.4526 19.7252 24.1406 72.3208174462
40.0613 21.218 21.2964 26.7634957141
41.1579 21.9913 23.893 41.6129047929
40.6352 19.5797 24.64 106.4435138108
47.0835 23.7245 21.4245 28.8061463074
37.9144 14.8276 24.3459 67.2864929268
37.8282 19.4762 24.3579 78.1098357214
37.5477 14.204 21.7931 27.8562212601
37.4974 22.7868 21.3703 27.3521196067
48.8824 15.6398 24.0766 87.3043471011
45.173 23.5245 18.7388 26.2314614239
48.5967 12.6108 23.8778 44.7377529322
37.1445 22.3564 24.2531 83.4378670427
43.7557 12.6693 19.9914 29.6998453156
39.0009 23.7856 18.5902 30.1055071345
37.7045 21.3167 41.7743 29.8762247559
39.7568 14.24 38.3079 28.4738472723
42.849 14.8182 35.7247 78.0350884509
46.6 20.7552 42.6338 29.6676002502
45.7133 15.4902 35.5065 91.3103455628
44.7706 21.3119 39.2285 28.7758520224
37.6676 15.687 35.3706 95.8122814421
48.516 15.0793 42.335 28.2472568349
48.7256 19.1392 36.0243 42.619370158
40.3214 16.3023 35.9214 53.7392894508
40.6707 18.9309 36.0558 55.4828594629
40.518 18.4802 38.8031 28.0061347803
49.2954 19.7609 42.6667 28.9524043871
38.4492 23.049 35.8899 63.826514033
43.601 19.2649 36.0199 61.339536787
40.1857 14.8777 41.3377 28.9904886331
45.891 13.1869 38.7467 28.8001707551
47.7053 14.9948 39.5381 29.5142556318
38.0179 20.1698 35.9099 59.2604942154
40.4561 21.505 38.5456 26.6876248094
37.6444 21.0772 38.688 27.7311101934
41.1914 22.01 36.0844 66.9162926416
46.7275 12.763 35.9906 59.0146179235
48.6258 18.5668 38.7616 30.7741118104
44.1933 21.7811 36.4453 40.598826238
46.012 23.087 41.521 30.7266345478
47.4986 22.6553 38.4851 28.3235115935
42.3918 22.579 40.216 25.9969277572
42.603 16.2357 40.3757 31.8697935155
44.4551 19.227 41.6343 28.592799537
43.044 13.9779 38.3697 30.1607986278
46.3935 23.2813 35.9357 71.17195664
49.0678 21.109 39.8256 28.8405714073
37.9079 16.6126 38.2265 28.6689925341
38.2847 12.4761 41.4431 30.5398252305
43.6697 18.6789 38.8317 28.2947792857
46.2108 17.2477 38.1671 32.4688455098
44.9147 15.0635 41.5097 29.7841465293
39.3535 23.6671 40.9469 33.2443170831
46.6738 12.8088 42.6531 28.7629161114
46.0631 18.1865 35.438 98.2822796804
40.0205 19.1635 41.3563 30.3093323162
39.4274 16.9721 43.1565 35.1273632253
48.8985 21.8528 35.5957 96.5326154761
40.8865 12.8539 35.7442 76.0510869836
37.1754 15.0659 40.7077 29.9869481426
42.0952 20.8211 42.4833 28.0732033092
43.5555 24.1653 42.7022 28.2648225635
47.3661 13.6289 55.3702 34.3488380083
48.3614 17.727 48.2947 33.555317901
48.4602 14.0186 51.3129 32.1725503089
37.0164 18.1931 46.5185 29.804226675
44.6857 15.3066 47.4555 33.8756082297
48.7277 22.0262 46.5172 35.5492641782
46.9116 13.7039 46.7874 32.6491652199
37.6958 12.5744 48.4712 29.0662103734
40.7764 24.2185 43.5334 31.1081426163
41.0724 16.934 45.2154 29.7782957333
37.2417 15.0507 50.9113 29.8500744615
42.9614 18.6089 44.2797 31.0165896807
38.6856 12.7139 55.7309 29.081808094
38.529 21.8499 53.3185 32.8953964449
47.82 17.9478 52.5559 30.510369002
47.956 17.5615 43.6814 32.3942060666
46.6163 20.4944 54.6197 32.0773470134
37.829 22.1045 45.0872 30.3527696115
46.428 24.288 49.8865 29.9925619136
40.4781 21.7912 44.4962 29.9833045719
37.0163 13.1979 53.2865 30.1663177322
48.8056 22.2645 51.0664 32.2752739764
40.7564 23.2206 54.1997 26.2218340977
45.8886 17.5905 54.8708 28.549247421
49.0912 12.5267 53.421 31.812702011
38.8974 19.2391 53.2361 28.0346105283
44.2387 14.9145 50.0272 28.9553832536
42.3112 14.2064 46.5399 34.8235877411
41.3833 19.1945 51.9793 28.9055857861
46.1726 21.5415 45.3819 34.3709106267
39.7401 16.4988 50.3048 31.2398695368
38.2601 18.8733 50.2706 29.5324928476
41.5319 13.7305 43.7308 34.7088257205
39.6852 15.4345 47.7014 35.3819719821
45.5282 17.9417 48.392 32.6352943249
39.8892 18.6121 47.0568 34.5560510617
37.5659 23.3196 51.2855 31.66713652
44.3575 18.6566 50.6095 28.9695347108
46.453 20.1518 51.5919 30.5864606522
41.5631 16.9283 55.7412 30.9923741648
37.4833 21.1253 47.7759 28.5406516314
40.6647 20.6714 49.24 32.2479057305
42.4603 21.9892 46.69 28.4408877134
43.5011 20.6433 49.443 28.9394971559
44.6141 22.1983 53.2648 29.271285199
38.8783 23.3586 48.7248 30.1054268746
44.4322 22.9495 50.5766 28.0002472097
42.2507 21.1171 53.7423 27.6438547413
40.5466 19.4332 55.7019 28.9661123045
49.531 16.8453 45.8302 30.7974713585
44.3624 19.7975 46.4398 32.1770461068
41.7363 15.0817 51.5654 30.378618869
40.97 14.2145 54.4232 29.9591778193
43.0973 16.8761 53.2308 28.7922058044
45.2092 14.8481 53.9525 30.4576344321
46.2431 15.5428 51.7113 28.2541183886
48.5289 22.8231 55.9223 30.3841915917
44.905 12.261 49.2954 30.014335139
44.3485 23.8039 45.3556 30.3777672812
43.3713 12.6425 53.8183 31.6967064447
37.4151 19.3313 56.2886 33.7261341589
45.4207 17.072 43.2558 35.0194580675
46.1752 31.7194 7.42778 30.4882231569
37.7745 36.3965 8.60235 27.9565605769
38.4981 36.5487 11.4838 28.9919746873
41.4387 35.5604 4.83486 26.946496847
37.8795 32.4968 4.69268 31.3702733581
44.1545 26.5399 5.64001 32.2987662514
42.6853 27.2862 7.82717 29.3694701663
46.7052 29.1587 3.7565 30.4186724151
41.6058 27.7011 15.5763 30.3996906221
46.9918 26.8559 7.34409 31.6734056069
40.553 31.1221 10.1027 28.8233673784
45.0202 26.6202 14.3483 28.1911648816
40.1856 29.74 6.48549 27.9370019046
43.2713 33.0915 6.71421 28.909232184
45.2044 34.8729 14.4504 31.5439635037
37.3784 32.4364 10.7809 28.718026758
38.3455 26.5598 10.1202 28.3353023546
41.5521 31.1233 4.37263 29.6354658568
36.5825 27.4177 12.2551 26.1929154106
45.4153 35.2841 5.87431 27.939225749
48.4181 24.6328 12.0454 29.3506532123
38.7107 32.1066 7.4567 32.0532628784
41.4179 34.9986 7.4557 29.7073824982
39.3686 34.1362 9.33635 25.8526584501
44.8684 33.8488 9.06928 29.2950331188
48.1125 33.7646 6.61214 30.0639658595
38.105 26.715 16.1261 28.9745767236
42.8526 32.037 15.2643 29.9608596936
47.6982 36.2083 15.3464 30.6731019279
47.3304 27.5478 14.7186 25.9191899161
48.2952 32.7201 11.4891 29.0553925386
40.1053 28.4331 9.06398 30.3819362644
47.2005 26.7273 10.2522 31.766443179
43.639 28.7956 12.7065 28.7616091697
44.3779 26.8318 10.8285 32.1301723641
41.1688 36.9731 11.8785 30.8074200286
37.6884 26.6999 5.77257 29.5255558263
47.8785 29.8213 13.6682 30.2937804634
41.4046 33.8948 11.4181 27.6886570166
40.6869 32.8648 13.7458 28.1870900885
43.2788 30.3281 10.1179 32.5637153096
43.0507 30.3388 7.09123 26.7764921572
45.0946 30.3502 14.4504 27.5344742384
39.0993 34.5944 14.7359 27.0572290585
37.5116 35.7525 4.33419 28.4288788563
46.2261 36.2135 10.3955 29.5984368526
37.2071 34.2726 12.88 29.7414781582
44.0141 35.8081 12.0839 29.7170339963
43.8693 32.5963 11.3012 26.6899088279
46.0292 32.5434 12.9097 30.0719020037
42.1293 26.2196 3.88058 31.0934690956
40.1813 26.3675 6.33191 27.6720538331
40.7641 25.8729 11.9091 27.8821171165
38.4805 25.4332 13.5575 27.970787374
45.3948 29.1317 6.38622 30.1482180055
40.5608 36.8747 14.5647 30.9421021994
40.9575 28.3371 13.0758 28.2563128076
39.5594 30.5598 12.8184 28.8057253655
48.5359 28.8486 11.047 28.5366312406
48.9697 31.3313 16.3033 32.1250968119
48.0969 31.1895 9.34698 30.0511520526
42.5857 24.6244 9.57726 34.9153533323
48.8196 36.7816 6.93428 28.7583650844
48.8402 33.1513 4.01802 32.3345576388
46.0141 24.4439 6.01243 33.6146498919
43.713 34.8909 3.61478 28.293879381
37.4005 30.3134 14.5399 29.8266072951
49.1346 30.2945 3.76873 30.6166128335
48.9928 35.1033 10.3056 31.3917351181
45.4535 24.4636 12.4547 27.6705224391
43.6176 34.5253 16.7237 26.3788370401
38.1628 29.1383 4.15912 30.1045628488
41.8224 30.6206 17.2675 31.1800696075
48.2966 27.8828 21.5851 27.7303216388
39.7227 24.9039 21.1422 27.3253879695
43.9267 26.3098 17.0213 26.4501568552
45.6789 34.6684 20.771 28.7337523272
43.7932 28.6359 18.3247 28.5724469081
39.7557 31.4948 20.8866 29.1758058546
46.0571 30.9545 17.2513 30.2033727595
39.4166 28.836 17.6306 31.2263408803
42.5126 31.2676 21.3896 29.0362527638
48.006 26.7805 24.1933 65.1998855052
42.0043 33.3758 18.8183 28.9176346453
42.89 34.7797 21.0719 27.6811870824
48.9745 25.9968 19.9864 27.7230679973
40.9168 26.62 24.6394 130.2630489536
41.9469 36.6397 16.9697 31.4083949603
45.9375 33.9686 18.0741 27.6203267411
40.5599 36.7194 19.564 30.0115736926
39.1635 28.4329 23.5567 39.2534965745
42.4678 28.5746 20.8716 25.3626520166
42.9709 28.334 23.7073 35.1424039929
45.3903 28.4794 21.3894 26.5830604782
39.5463 34.3785 21.2398 31.4655090026
39.4169 31.3696 23.7279 50.136501838
48.697 33.3436 17.7906 28.2839988291
44.0165 25.4345 23.8652 51.0102798175
39.5867 28.2929 20.6951 29.8633774973
42.4511 31.1312 24.1585 70.093845788
42.5581 25.5391 21.2085 28.7679423026
45.8921 28.6026 24.2052 75.3598707281
47.1971 30.9747 24.0547 52.8887429961
39.9667 33.9783 24.2111 88.198717922
46.1438 26.0214 19.7609 28.3619667778
42.3187 34.6522 23.8315 44.853029615
47.2902 32.6769 21.5859 26.4520160213
44.8115 32.6749 24.738 117.7177793786
39.3664 34.2424 17.4064 29.8124021477
45.5936 30.9265 20.227 31.7568657844
47.5053 34.3582 23.9793 57.7043018777
37.6295 35.999 24.2115 71.067096158
37.2444 30.3231 19.7702 31.4450730889
46.971 27.9883 17.4743 30.0164118085
41.8528 24.7794 18.4359 28.6238979812
47.0609 36.8555 18.1013 26.5697170502
37.1704 35.0304 19.0922 32.9813295313
38.2346 31.4738 17.1479 33.004148955
39.9171 35.6196 38.0847 27.2465137201
43.1565 33.016 42.6251 29.8601467668
41.5555 27.4089 36.129 68.2548303216
44.4128 26.4664 41.5282 29.1053530808
41.4367 34.8146 41.2043 32.1543099173
44.3065 28.7686 36.0146 61.8516805205
45.4916 25.9842 36.0071 70.0505805279
47.9609 30.333 40.3031 30.4759681762
37.5159 32.3606 36.3547 56.341857805
40.0409 29.1684 39.2784 29.2290480061
43.7835 31.7949 38.5723 28.0030697328
39.748 29.7409 36.4262 45.28057458
43.4749 31.8287 35.8266 61.2033949928
47.6086 32.8147 38.5708 31.3757770086
46.7459 30.2151 35.4664 106.3261494305
45.7919 26.8846 38.7266 31.8429194992
40.9886 32.9869 38.5515 27.4769599891
40.6518 32.5155 35.7536 81.1045698714
44.3465 34.5284 35.3211 106.0540457651
41.494 35.2139 35.5718 75.9842356196
43.3739 24.8986 39.0252 27.9527677323
45.2649 33.7918 39.6298 29.1091064084
46.7039 33.0484 35.9613 49.7538119212
38.6666 24.8897 38.5502 27.6804459316
37.7364 27.583 42.5037 30.688257299
41.1992 26.3301 38.6926 28.9798679604
42.0404 27.9902 41.2784 30.0033673417
38.7494 35.3476 42.1624 30.4966761472
37.6045 27.3521 39.8027 27.8546640318
37.2697 28.6165 35.9857 74.1280769034
38.1523 32.5506 38.9595 26.2000440391
38.7332 25.8389 35.6824 89.8812984177
48.7115 26.0794 35.978 74.0292667975
38.2026 35.2514 35.9639 61.5116284845
40.6924 31.4123 41.0503 28.6851805329
45.7624 29.7402 38.6227 28.1599186195
45.7234 34.4028 42.0558 25.7251861754
43.6355 30.3331 41.0763 28.3937931701
37.7383 30.5771 41.2311 29.3376637925
45.9628 30.0509 42.4279 28.9237099317
42.8699 24.4986 36.2601 60.9143411243
49.2398 28.799 36.1269 49.5331648945
49.1356 28.0631 38.8926 28.2558607153
37.2707 34.8906 39.9243 27.957143705
48.3177 35.207 41.4721 30.4639807929
48.5105 25.1529 39.2396 26.8451668909
48.4295 24.9418 42.1351 35.810053439
44.9877 36.716 38.865 28.6279974095
38.4127 35.864 46.1185 26.6443183108
39.9044 26.4679 47.2588 32.4169370931
41.3668 33.1003 45.012 28.4823767428
43.4093 26.1699 47.0308 33.6169343451
47.5286 28.6634 49.3183 33.6150153235
42.2061 36.46 50.3766 29.2681974098
46.4089 26.6979 51.0952 26.0354184027
49.0538 27.2699 47.4447 30.5181370542
39.6698 33.1866 48.8237 28.2300026591
40.0525 30.4299 50.5182 29.2321102615
46.4122 31.1024 48.4209 29.5082231374
44.831 31.2377 46.2696 29.9994671711
38.8169 29.7613 46.8245 31.5900951369
43.6825 28.7347 45.5868 33.2817177017
37.479 31.616 51.0619 31.6442005133
46.3511 32.2157 43.939 27.0665813398
40.351 29.754 55.3784 33.8945812614
41.3139 34.8215 46.9179 27.9118488309
43.6257 26.9793 50.1679 31.4640249052
43.7019 34.9258 48.1628 25.0229187409
41.4859 24.0801 48.0399 26.6556922575
46.5245 24.8289 47.1019 32.0817607512
43.7183 31.9811 55.6749 31.3936573813
47.1479 36.0253 45.4375 28.9189701151
37.9032 25.9316 52.3809 32.6037080224
41.2801 28.8356 48.5694 31.7077673298
38.7676 33.9854 44.4183 25.8062631884
48.7185 30.0653 51.9149 33.980000198
44.0187 30.0652 50.0427 32.4685645039
49.0189 32.1408 47.7257 32.8916738851
39.5553 30.6968 44.1046 30.4262602132
41.8082 30.5924 52.6536 29.1152700652
42.3791 31.7176 47.3513 28.0913763081
42.4742 32.5367 50.1952 27.8861371503
41.8381 27.5225 54.3108 32.0613978203
46.6935 33.8383 55.3801 28.9635541059
48.1691 35.986 50.774 27.8601490937
39.8321 33.741 55.7751 28.972277967
47.4372 26.7975 44.8407 34.5554707149
43.5976 34.9529 52.3462 29.9083395003
48.0613 34.8275 48.024 27.4699676985
46.0668 33.8309 49.3718 29.2450654154
40.6366 25.3895 52.7376 32.66509483
44.116 28.8796 52.8562 27.5758338378
37.3806 35.5346 48.6498 28.8356410105
45.5837 26.7286 53.5797 32.3811930836
37.7275 26.7916 55.1785 35.4333363373
48.728 31.6179 44.7285 32.0281803645
41.8522 33.1795 53.6127 28.0167510447
45.6053 30.581 54.5874 28.7275280443
47.7999 27.0916 55.4591 29.1229127323
47.4253 32.0057 53.1307 30.7855710283
38.5043 33.4158 53.4332 29.6381257681
46.3478 34.2169 52.0765 28.2356351612
40.115 34.6995 51.239 30.1204460236
37.702 28.4461 50.7218 35.6964566655
43.8333 24.6725 54.8622 29.8728348365
44.5076 34.5534 45.3465 30.338821937
42.4228 24.636 50.4957 31.166529081
46.4188 36.4584 54.7602 27.9588966417
39.2142 26.3237 44.423 28.7591129408
49.3208 34.594 44.2063 29.1155491828
37.0843 28.198 48.1329 28.535116869
49.1151 26.0035 51.871 28.8578832811
45.2361 27.8411 43.8101 28.0768992349
41.0456 28.3709 43.7343 32.0325867357
36.8416 24.4996 43.8893 30.9626206942
37.2322 32.1722 46.1993 26.2262964891
37.206 35.8504 53.7556 31.3465104637
44.9555 47.972 16.2072 29.5707494091
43.648 46.4268 14.2056 27.7723022903
42.0232 39.8856 8.81302 29.1185075565
44.0894 36.6957 7.8319 31.7294335592
45.7476 46.855 5.54864 32.0990358116
46.7122 38.0692 8.05326 30.7778412882
47.9385 48.6519 5.93862 30.416911842
47.7246 47.5994 15.9443 28.3154176142
37.448 46.7314 7.55307 27.4952918109
47.9753 38.8505 10.6068 30.4439920455
39.5258 42.6996 6.65838 31.0350780877
41.3914 44.5109 6.16353 30.7062593707
39.5523 41.0129 8.8819 29.5859060469
43.9789 41.2414 7.22429 32.5761311046
43.9199 43.4524 5.55622 28.5808586863
39.7141 46.5181 15.5457 30.7815602838
37.0161 48.9447 14.7118 29.9268989058
39.136 41.6046 15.0106 28.3588036477
36.9972 41.3773 12.4014 29.3030275065
44.5058 44.6735 9.6834 32.1049415518
42.3279 45.8961 8.28981 32.877402416
48.8444 38.4365 13.8368 31.3000222956
37.6646 39.4776 5.10479 31.7367463205
37.7954 44.3952 15.2851 31.1332710468
42.6567 39.1028 11.5594 31.03744708
45.7618 38.4187 14.9594 28.6812913891
45.0238 38.6641 12.19 27.1561734479
46.1501 44.4239 6.03658 28.3756305273
45.8178 40.0115 5.34775 31.1677537615
47.3104 47.046 13.4281 33.0457335936
37.1559 38.9637 11.3875 29.4265898632
39.5959 42.5471 11.0725 32.1928864664
44.2072 41.9341 10.0591 33.336967888
41.9559 44.5364 11.7077 29.2897351414
45.1484 42.7002 13.5974 28.8730484124
46.4421 41.0287 11.7191 26.4321841009
48.2184 42.6843 9.85698 32.6986851771
42.3366 39.6033 4.61223 31.2292986153
40.2121 46.5507 9.78638 28.1093634502
37.3375 44.2215 7.29988 27.6476644446
48.7767 47.0905 8.0931 37.0322008046
45.1498 45.2329 12.3722 32.1068656155
38.3553 44.6962 10.2115 28.3946978505
37.9639 47.781 12.4076 27.5385781767
47.1913 44.9457 8.5255 34.5137204824
41.6206 38.1618 6.98897 28.6897556725
47.0287 37.2801 4.72884 28.4283578339
38.766 38.7244 15.1438 29.5171462393
43.2765 47.8859 6.42171 34.3231314766
48.1296 42.9985 4.70038 31.6960492716
42.9 41.09 13.8936 32.6707734271
37.6419 39.341 8.43436 28.1313071545
37.9494 47.2102 5.03497 26.9039676125
39.7659 41.32 4.3001 34.2526078915
40.9685 43.0055 13.8379 26.1419369667
41.8019 44.9239 15.7102 27.6309707729
48.6583 41.1083 14.4791 26.1851979155
40.6175 46.5351 4.40292 29.5658011156
40.7409 46.7911 12.6833 26.3054477836
38.8075 48.9412 8.86507 27.354257545
49.0271 43.1511 12.5016 31.264640484
48.493 40.8472 6.33297 29.1739624288
39.0012 37.0104 6.39492 26.7107959432
46.6297 40.8239 16.2686 27.3479985968
46.3281 43.6063 16.1889 32.0892853042
43.663 40.5789 16.6738 34.3155992793
39.2317 41.61 17.7585 33.1205295599
47.7492 39.7348 18.8207 28.9610559298
44.7888 38.6494 20.2467 27.7538617971
43.3974 41.7433 19.1959 31.1639046631
44.5173 37.8395 17.3662 27.7026404475
41.0119 42.9573 20.1451 27.7364093421
38.7556 43.0751 21.9021 29.947696266
41.0674 47.0618 21.7501 25.7799148579
39.5745 44.8527 18.406 29.7835930534
44.1168 46.5308 18.5073 27.7268029609
47.6007 43.2081 19.5239 29.9116743544
48.8154 48.0758 21.9269 27.052571526
38.1613 45.1301 24.2818 89.0504021727
38.1658 46.4614 21.9138 28.5730795328
41.3616 46.8963 18.5928 31.5714833598
38.1131 38.8572 24.1003 75.126460768
47.0394 48.5437 18.8284 28.9521336732
38.5107 39.2098 20.9736 26.6097417761
49.3662 36.9898 20.9012 29.6536423043
45.6171 44.3782 21.3727 28.1004731896
40.8055 40.2267 21.7191 30.4963631055
40.7225 40.3792 24.2922 79.8602304563
40.5655 43.4424 24.2303 73.7122476349
43.2899 39.8751 24.3419 86.5943184916
45.5627 41.2095 23.4303 34.6376878472
45.7872 41.2719 20.5242 27.1048591348
47.5888 39.4346 24.5171 102.5364967977
38.5974 38.9012 17.836 30.5944955594
42.4887 37.7517 21.3497 29.999000636
42.7468 45.0595 24.1998 66.9716300845
43.5314 37.1658 24.0056 67.7560861304
42.77 45.0778 21.2173 28.548119756
45.1654 43.8054 24.1037 69.1471802009
47.2822 45.6821 24.357 100.6285757158
46.4237 36.9748 24.0619 60.7959212791
43.5174 49.1444 23.8154 44.0204242435
45.955 47.3744 21.0795 28.6834070222
41.3124 47.5581 24.4934 86.21048739
46.6005 37.1312 21.39 25.7386029119
43.7864 44.0547 17.5881 29.2349209108
48.6972 43.8661 22.5342 29.0807211457
46.2537 48.3252 23.7665 54.6663657825
43.2682 48.9363 21.2121 28.7177073287
37.3549 36.6199 21.5243 29.4252313196
48.5375 45.1945 17.2284 29.7977214252
46.5507 37.8725 41.3642 27.9043116169
44.9364 48.3326 42.3802 30.6427163246
38.6861 38.6992 35.6878 73.1292088509
44.3113 41.8873 37.9019 26.8554977146
47.8349 37.0749 38.4518 32.3949144488
48.1925 48.7813 35.8488 58.4248111811
38.3901 41.6565 35.2109 107.6944090719
40.7414 42.9546 42.2037 32.9775599299
43.4107 48.0443 36.0693 56.3291093582
41.6831 38.2299 35.9235 49.8443302118
38.7665 44.3403 35.8327 50.3109078595
41.9838 40.9773 40.0788 28.0433812125
45.9323 41.6692 35.4021 94.4175021181
