26.0903 23.2645 42.4931 28.1500980379
26.017 30.6244 46.5594 28.8964918019
22.207 23.9101 42.4684 31.3800685986
20.4306 21.9005 43.3045 26.3629258548
27.9195 27.0118 46.4686 27.896606389
26.255 28.9232 41.2417 30.5383694776
28.9147 24.1115 45.1658 29.0855359511
26.909 27.3984 43.3255 30.7773452069
21.2313 28.3203 41.5091 32.1697884707
28.2352 24.9583 42.747 27.9325671493
21.7601 19.346 44.003 27.2286235166
29.3337 23.1752 38.9395 29.0887238396
21.573 24.5751 46.0481 31.8145549431
22.3292 29.9946 43.4693 31.7067777282
24.9321 30.9879 42.5423 31.1252014683
21.3288 22.5274 38.9311 30.2939432138
20.8512 32.2565 44.4086 33.6254062623
23.1943 28.9416 45.8352 29.9360950979
25.2778 17.0322 41.9676 29.9320484481
28.8494 29.2393 44.2386 28.5904530674
24.0076 24.0494 44.3845 29.4461619355
22.8736 26.3718 40.2953 31.3858949792
27.7323 30.9093 39.647 27.9736783057
29.3747 19.1631 46.9103 30.8781147028
26.8274 21.1654 44.9961 34.0988787537
23.9369 21.4184 45.3074 31.3731907173
20.8426 20.3427 40.8585 26.4381682999
20.0004 29.7983 39.3812 32.6807718944
29.0526 31.9402 41.8287 27.5327365869
25.6816 25.4846 40.5903 28.9983316129
23.766 16.9982 44.3975 30.2084295395
23.2168 16.6172 47.3246 30.0945175571
23.6411 18.6086 38.9796 26.1076989813
27.6933 18.4603 54.4018 33.1896415629
21.3957 30.3259 55.8917 28.5948755746
25.7958 28.3201 48.1619 29.4490762156
24.0646 19.9115 51.2516 33.5872117944
26.6929 23.6081 51.5648 32.1225137482
23.9551 20.3137 56.147 32.7895904121
21.4145 29.0318 47.7355 30.0615065614
22.0868 32.0818 52.0146 28.9825221659
27.2241 20.8 51.1345 38.5272468264
20.1123 29.187 51.715 32.4022377181
22.267 29.6212 53.3671 27.9064408969
21.3479 21.2022 48.2269 25.6560434517
20.4053 24.12 50.6291 28.0205064943
22.4483 24.4051 48.782 30.693982155
28.394 20.8939 53.5702 30.1016195185
25.3763 23.3983 48.5849 37.5665771843
24.8237 18.5034 48.6065 29.497867562
23.936 16.9775 51.7984 32.0752112504
22.067 31.5826 49.259 34.6033976118
28.3007 25.9309 50.325 28.1814508774
23.0308 27.2188 49.222 29.9342451983
28.826 29.5201 53.8132 31.8425428455
21.8834 23.1317 52.9906 32.9006573784
28.4562 32.3017 54.3067 29.3759949359
20.2423 19.4437 54.1833 28.6716431906
26.2176 32.0825 56.1688 27.1939405155
24.0863 21.1484 47.9482 27.1944605627
20.1817 17.6626 50.4505 29.4417098706
27.5088 30.8897 50.1469 30.1226644932
27.3096 23.4772 54.3933 31.4443235564
27.9615 24.6705 48.0644 28.5770396762
22.5099 20.5945 53.5817 28.3481648672
25.7957 29.6819 53.5539 30.0547388081
21.0484 20.4584 50.7675 27.4782841765
24.6484 32.2556 53.2541 28.6001999976
24.8215 17.7763 54.3735 35.7903833434
25.1364 25.205 55.3936 35.6121839337
24.0217 27.6815 51.8088 33.1946375118
26.713 28.4028 50.6644 29.2367109023
24.2511 24.9127 52.6886 36.7748037244
20.0174 23.1041 54.8458 32.1803959952
24.1891 28.1506 55.3946 27.8244047735
20.3033 27.0957 49.8038 30.8915894682
24.0768 32.5248 47.5554 31.09684782
29.4011 32.4022 51.5921 29.578154113
21.5834 27.174 56.4028 34.8431037748
28.7639 30.2436 47.8962 26.2700512831
23.0035 36.2751 7.79857 30.5070983076
26.0352 36.3437 7.51855 28.4521385163
27.9889 37.7239 5.08212 25.1880700193
27.921 48.4183 5.67275 29.4072467433
25.6316 41.1954 9.64358 29.8160921059
21.5837 38.9066 7.33866 30.6884776923
22.8732 42.4296 7.08611 28.9712067079
24.2738 40.003 7.13397 29.8093906042
22.7393 46.7107 5.30709 29.1177103627
25.771 39.6328 4.8859 29.8739183633
28.9031 35.3385 6.21732 30.4028529274
27.5148 41.6001 6.37727 33.340669131
20.1639 48.1732 7.98184 31.2655805344
22.0655 43.3071 9.80611 32.7167782363
25.6007 43.9749 7.63207 31.510597546
21.1565 45.8329 8.00896 26.1830741959
26.1356 35.5735 10.1004 28.3925462316
22.3838 35.8855 10.7223 29.5526260198
28.5514 45.1586 8.21837 28.8553452293
27.8279 47.781 8.22723 29.0287480474
21.5686 38.5234 10.4052 36.468978564
23.2361 44.1378 4.67121 27.6564476239
22.1713 36.5747 4.84064 30.2098935348
19.7083 45.8216 10.6639 29.9768481016
26.8633 38.8501 7.7423 25.697761568
24.689 48.5543 8.25161 30.705175488
20.3605 41.2633 6.23154 28.3737997885
19.9001 48.7868 10.8388 29.3359879282
27.65 46.7519 12.3378 32.4658218816
20.8617 48.0746 3.90548 32.3067356252
27.6067 43.1759 10.0663 27.7334848103
26.5245 34.4361 5.22204 29.752512721
23.8317 45.9718 8.89453 30.0116790717
23.9724 42.0619 11.8544 28.1718601202
24.4487 46.045 11.7019 29.1339022298
24.9045 48.6199 5.22724 34.1392887998
22.6797 32.6298 4.79691 30.726764874
21.4648 33.8099 7.03626 30.4056639626
20.2284 33.8537 11.0769 30.8973541165
28.5963 34.505 11.176 32.2845824958
24.3888 33.7074 9.16137 26.2633949176
26.6547 38.7004 10.9003 29.6520051397
27.5541 45.7197 4.19689 27.9291604991
26.1047 43.5754 4.55815 28.4480918134
29.4162 39.2446 11.6479 30.1109326611
24.6685 48.8294 11.457 27.3920739429
26.174 43.8241 12.2187 28.5618178156
27.6532 37.2797 17.4168 28.1556893386
27.0366 37.742 19.998 26.2411361113
21.9999 33.5214 15.5685 32.5743861198
26.9701 34.6786 19.769 28.2761574914
24.1237 34.4146 13.9842 26.7611899549
21.0068 42.0898 20.2419 28.1116169286
25.0323 41.774 15.3539 28.3548870227
21.8326 36.8453 14.6495 27.4626047294
21.7285 45.4562 12.5897 26.7044292013
26.3053 37.3993 15.0037 27.6210786959
29.3376 34.8471 17.1267 26.1331151242
28.1321 43.4326 14.6695 27.8785422322
23.228 39.1913 12.9311 29.3637803273
22.2798 41.7481 16.0121 29.620257166
28.4751 47.1993 16.5799 32.8868200475
21.0612 44.3309 15.8484 24.6053433027
20.4241 47.7286 13.7375 26.2494467932
25.3059 44.5024 16.0514 33.2007024246
20.9548 36.3494 20.991 27.3903316733
28.5028 36.6951 13.0767 31.866383114
26.5439 46.8039 14.7996 28.8974346147
21.4733 42.7957 13.1568 27.4355440499
22.1195 40.1989 18.2967 29.7610131532
26.2098 34.4021 15.57 30.6457587279
22.9705 45.9946 15.1967 28.8179295344
22.5967 46.6781 19.4187 28.342083657
28.5227 40.6052 14.5387 29.8782157352
24.724 45.1701 21.3893 34.0590459084
28.8634 39.9999 17.1521 29.3675815112
20.9624 39.5446 14.8111 28.638963094
23.9892 36.811 16.8061 30.5320893016
22.3388 48.086 17.1533 28.8656043032
20.9893 44.4576 18.7186 31.8038004037
24.4455 34.9076 18.8308 28.4596701421
26.4399 40.8609 17.6717 28.8588289823
24.465 38.9117 18.5121 27.6284451346
20.1985 35.0483 17.8522 34.0794843239
25.9215 43.5758 19.1349 32.833426649
27.2745 47.4487 19.1365 30.7396654354
24.9781 47.9729 20.0772 31.4186278616
26.047 40.0015 13.4993 26.2245838609
28.3495 44.4013 19.3248 29.178127688
20.1396 38.2192 18.6318 31.0004049427
28.4011 40.1102 20.8477 27.1883704817
22.8844 34.6797 21.3894 28.4391592171
25.985 41.2833 20.9215 30.2668865313
29.2742 44.433 16.7829 31.3447552831
24.734 37.1221 21.3531 25.7241879432
20.8319 47.8588 21.0549 26.9905291607
24.4696 36.6353 12.3904 26.2895965949
29.6224 36.2885 21.5056 29.7188071911
28.4832 39.8593 23.7171 44.0498383882
28.5211 44.1948 24.4551 87.6530698512
25.2694 33.4553 24.3056 87.1329993806
26.5229 42.2876 23.8546 52.2560020715
23.122 35.2039 24.2735 74.0952489162
20.559 36.097 24.2175 62.8679866246
21.2264 41.8345 24.4744 72.282256411
29.1023 46.6226 21.1362 30.0277658915
26.7263 34.991 22.6263 28.4480657797
25.0166 44.506 24.0793 54.9892132409
24.2598 37.6801 24.0402 50.5694647456
27.1548 37.3885 24.2974 82.3700797441
23.5868 39.7558 21.4827 27.5806114481
21.9147 45.3238 24.4706 85.4809563402
28.311 46.8324 23.9328 36.9515522112
22.2284 43.4747 22.2937 30.9745084222
20.8875 47.5076 23.6425 29.6119176679
23.8812 40.4016 24.2127 74.2901886129
20.6278 38.9788 21.9197 26.8373210755
25.8872 47.0541 24.5384 96.7473060453
20.7004 38.9238 24.5646 79.4810252662
24.1645 33.3114 35.6338 76.1815968709
23.4695 35.9566 35.5559 91.6308832569
26.7511 44.0622 35.5541 86.8754600153
26.6513 33.5066 36.1712 33.0666177826
23.2658 47.9469 36.2388 53.2450129576
25.6988 48.945 35.5839 97.4434543163
27.4017 36.0263 35.6936 92.0473708348
23.4125 40.2006 35.4472 117.9226967077
20.2507 43.2028 38.5183 31.7483707321
28.3592 47.7913 35.7607 61.9043589279
21.6052 38.2042 36.7599 35.5273444835
28.7485 43.3606 38.3477 25.1358322821
25.9432 41.3121 36.3586 38.4978605631
24.2988 45.1584 35.7661 84.9154255736
25.6457 38.0367 36.2004 43.3849726404
29.3646 45.3621 35.7574 62.2910461642
22.8817 42.9366 36.3335 38.9541262322
25.5215 45.0918 38.4372 25.1195505005
20.6948 34.7926 36.1044 58.5216218825
28.3836 39.5362 36.2529 59.5166150124
22.4372 35.377 38.4347 27.7587082738
27.3013 47.2274 38.4409 30.5535964072
29.2025 42.0886 35.9199 67.2732551259
28.3571 42.7732 45.5307 30.9174178848
23.9848 38.0454 43.0678 29.7864200617
23.5685 47.2808 38.9702 29.8009437999
25.5471 36.9964 39.0927 32.3421353203
21.3762 43.855 45.8256 29.2048535612
24.3626 38.5186 45.9648 28.3170513725
27.7877 35.1094 39.9198 29.1547903328
27.1628 35.1012 42.5937 28.6091861528
28.723 45.8201 45.8945 28.5252721659
23.8747 40.6947 41.212 28.7731839553
25.2164 45.3504 41.4995 26.273510312
22.0702 45.2156 40.3575 29.880385643
27.4096 43.7733 41.4379 28.036580575
21.9152 45.2263 43.2137 28.7720552296
22.7155 37.3678 40.2088 26.0182991831
26.1861 36.0527 46.4037 29.2519769577
27.7551 38.5014 46.4972 29.7064086443
29.2867 46.2261 43.079 29.0001996244
23.7712 32.8112 39.7547 31.3453953834
21.1571 47.8509 46.775 30.7571839026
22.4768 47.8295 44.157 29.0942500546
21.3852 40.0651 42.6506 28.7771936952
28.8977 34.042 44.5179 27.1046693995
22.2353 35.7527 42.3163 24.709249125
24.2679 33.9114 42.2841 30.2365029712
26.6579 47.2906 42.849 26.7477385922
23.9949 43.3463 46.7778 32.2860813195
26.7295 37.9317 42.5193 30.0779066621
21.0302 36.9856 44.6396 25.7895008679
25.0031 33.6784 45.3022 27.4172220225
21.6874 39.5746 45.4228 31.2704189737
24.0496 43.2136 42.9782 32.3287017409
26.1577 42.333 39.0712 26.815885422
28.5779 34.0445 47.339 27.7059039705
27.6555 41.3784 43.1543 32.3933376175
28.882 39.0453 44.0809 28.4430537052
25.8258 44.2042 44.7497 27.5493777359
25.1271 46.7987 44.8865 27.7280358667
25.5087 48.881 40.5121 29.6413727954
21.3099 49.1566 39.7703 29.7555894546
22.3168 34.5256 45.3368 28.8934445744
26.5707 39.2331 40.0614 28.4195807215
21.9923 39.9389 39.0762 29.1828418616
19.8516 42.1502 44.0751 31.006684245
26.297 32.8664 38.7507 29.9947248168
24.6668 40.8328 47.5431 29.8574957821
25.319 47.6507 47.5264 29.9540902098
28.9959 39.599 38.9544 25.634666114
19.896 34.4869 39.4139 26.5792810553
19.7828 33.959 42.0428 28.3185072676
23.1464 42.8773 39.3501 26.6296642561
24.6049 35.739 52.3831 29.6745885018
22.9172 42.6946 54.2994 28.7952231245
21.3674 34.9531 55.2476 29.0555883898
23.1523 37.2556 47.8581 28.6671121898
20.452 32.6666 54.0607 26.6870694453
20.2423 47.123 52.1631 29.7363569528
20.6593 43.3456 56.0711 27.8190731896
27.3891 43.5434 53.196 32.689474329
21.9175 39.2254 49.4383 27.4679912459
20.0752 45.8337 54.7621 28.8751836483
25.6246 36.4259 49.246 30.5814059709
26.2784 33.61 49.1366 29.9816825543
27.2719 37.6033 50.935 28.7036988993
23.0599 45.4355 50.9023 33.7246575926
28.5813 41.0824 52.9135 30.3065543599
24.9103 45.394 48.9327 33.8459905612
24.046 40.4224 50.2013 30.1007361867
24.1321 34.0575 55.2532 25.7076403607
20.3643 35.1505 50.6802 28.903589139
29.3789 44.7878 55.1181 31.5005595457
25.5649 47.064 55.2934 29.6812617754
28.4002 38.3211 55.0667 29.6805701967
23.1895 45.737 54.8828 28.5206943217
27.0355 45.1407 50.9344 34.470520636
21.9133 36.3321 52.7045 32.5034924109
29.258 39.9591 50.4908 30.0541116759
22.4841 39.7388 54.1345 29.9511691671
28.4248 43.4397 49.1033 31.43701348
23.9694 38.0614 56.0983 31.037041642
26.4492 33.891 51.8849 27.1513757071
23.8548 47.9063 52.377 33.5666756302
20.7457 39.1374 52.0319 28.9008614512
27.9513 36.2349 53.3301 27.8745948289
24.8332 38.87 52.258 29.3010407518
23.0102 42.6083 51.3569 32.5202840136
25.4713 42.8355 54.8534 27.854872116
25.9396 35.9415 55.4853 28.4619405438
21.2806 35.0192 48.1731 29.9278072802
26.0611 40.1073 54.3936 29.2365171656
19.9723 44.5227 50.4528 33.3936265423
20.2045 41.7574 51.4143 27.5325751234
27.7394 48.1259 51.0064 32.0214027436
19.8853 45.475 47.5139 31.5224165923
26.8283 48.7635 53.7722 30.2290218602
20.3546 40.1556 56.445 33.6954579978
21.3957 41.3639 47.9073 29.2327023052
28.2037 47.8475 47.7035 28.1288102939
27.5418 40.8371 48.076 32.306154363
31.8318 2.37336 8.56526 29.0639588418
36.9631 3.07422 11.1288 29.4211667431
36.3537 0.836278 7.66421 29.2434180258
37.7853 0.655387 12.4462 31.9951091977
29.7225 4.31862 5.98767 30.4029057813
31.8932 5.01216 7.80447 27.6142755922
37.9157 15.7146 4.3464 30.9798278068
34.7814 5.5855 8.274 32.5307285809
35.4679 7.22983 5.8737 30.3010464131
37.3413 10.2362 4.33027 32.0983830696
31.6136 9.64425 9.11539 31.1504107994
34.2939 15.0162 7.61033 32.0058276774
31.9248 13.3587 7.87017 31.6197090753
33.6601 10.1143 5.82315 34.5911019914
38.6072 7.5875 5.13979 31.4788892192
36.7301 10.432 8.91948 35.6452585684
35.8605 11.4936 6.17956 31.313532603
30.8724 11.4376 6.39141 29.1805037097
35.7624 14.0692 5.34474 32.2883506225
30.8041 5.49846 10.3412 26.3445350482
36.1176 15.5162 9.86853 34.1100820167
34.2354 0.613707 3.88396 32.8506907125
33.3307 2.99258 5.06851 31.2556042326
30.1211 15.2543 8.71189 31.55442091
36.8655 1.29661 5.07657 33.5977289575
29.6452 3.53828 11.4692 28.9834436833
36.9608 3.7631 8.03756 33.2774007728
34.4977 2.22608 10.5661 30.2747155198
33.3732 15.2136 3.65491 31.266598596
39.1509 13.7871 8.09386 31.2561571054
37.5667 9.13351 11.5723 33.5203247478
33.0287 5.91098 5.07948 33.0421200459
39.1887 4.82913 6.52221 32.791410407
30.8006 1.71259 5.92128 29.2534483475
30.6539 8.21384 11.2483 33.327223519
30.7817 13.9707 4.06827 27.8277979023
34.2149 8.50831 8.75144 34.5441418653
39.2614 2.54862 4.88644 25.6875311436
30.9766 12.1236 10.1004 28.7741976488
36.8644 12.8961 10.6476 32.6203912428
30.1873 0.990551 10.4314 31.3211396935
36.299 4.49757 4.97808 29.6726308659
33.2872 5.11059 11.3157 31.1060774104
35.2068 7.43481 11.6552 32.3824251666
33.6723 -0.0373816 8.29999 34.9085277283
32.4356 12.955 12.3483 31.4242513823
32.322 -0.0237334 17.8398 32.2203767173
32.5004 15.0054 16.9473 30.501941092
38.3448 6.92664 16.9288 32.0869847143
35.0088 12.1279 12.7575 35.4372050174
36.0556 16.1478 15.6254 33.8301053037
36.1441 5.06849 12.9986 31.0841910182
37.6943 10.7331 16.4673 28.330275373
38.2755 10.5636 13.7405 30.142848228
34.6184 12.9058 17.9057 31.8235737713
31.2213 4.28904 18.4406 29.1398180143
33.4409 4.10666 14.1205 29.6257878538
30.5308 13.1507 21.2353 28.1054973367
32.0367 5.42262 16.0581 31.8575077285
31.78 10.0609 12.7303 30.3156862619
34.1973 9.42684 13.5853 34.5898201641
34.8183 7.45819 15.5879 34.5540975593
32.3657 10.8935 17.5858 31.6821606944
30.797 13.1796 14.873 30.4528266715
38.65 12.0582 18.7338 28.6136094532
33.9649 1.55046 13.0173 31.2811668447
36.302 12.8765 15.3294 31.2093013338
31.6938 15.8943 19.2073 25.1896981258
38.9576 13.0697 12.4272 34.8533772721
33.2252 2.4356 18.594 29.9113234644
38.5742 14.33 15.2133 32.3319214335
31.3135 0.454559 13.0282 34.5217894484
36.2886 0.564038 16.57 30.3876543202
38.9016 5.7834 19.4774 32.9528812307
32.3588 6.29316 20.3026 26.9358630947
34.7174 2.06997 20.9655 28.8282596256
35.0534 3.07747 16.5682 36.533307953
29.9291 4.14873 14.2915 31.0972461331
35.4051 9.03862 20.075 27.8076582544
30.2388 10.3911 15.2831 28.0526511618
30.25 8.38015 17.0714 30.8661999526
36.3407 8.71617 17.4868 29.6065757306
32.9833 7.7542 17.8688 29.0075088993
32.7664 10.0552 20.2054 27.9845275563
37.2809 4.6473 15.5259 35.3729536466
30.3224 12.9431 18.0811 27.3975548325
35.628 12.4829 20.4525 27.001973933
39.0218 0.860091 17.3026 29.0891374644
36.4997 4.2843 21.0719 33.8894744368
38.3619 1.58408 21.027 29.6521025568
37.5526 10.2457 21.1004 26.4571716029
35.1825 15.7552 18.5327 26.4775080284
39.092 15.2752 20.7047 28.1933046689
31.9638 15.7098 12.6778 29.5515751464
38.6472 2.32913 23.6179 40.5046053379
39.2094 7.74664 21.4675 30.7944836879
31.8681 3.12998 21.6713 24.9348124698
29.8421 4.04866 24.0887 41.5428746977
34.7254 2.00298 23.793 45.2411927446
30.3601 13.8114 24.0623 61.1537564138
31.0423 6.76983 24.5717 92.3522883451
33.0548 4.8475 23.3544 32.2663115886
32.571 15.4259 24.4542 88.0414661655
36.4514 4.27933 23.9494 81.4316089917
35.1324 7.1345 23.9897 66.4620044079
31.8432 2.02345 24.7911 111.434477484
34.9164 6.62591 21.1985 29.7535636342
33.3777 12.445 21.9945 27.04529553
31.6287 8.16727 21.8615 24.4095856858
38.0051 7.87451 24.1385 85.848809382
30.319 0.944828 21.7936 27.7886941013
33.0281 9.25998 24.3085 74.5191159902
30.72 11.0297 24.1663 73.7532970348
34.8763 11.5377 24.1549 72.1779837451
35.2755 14.4237 24.2853 84.5542160474
37.3518 10.597 23.8473 54.8026823071
33.0105 15.4912 21.6643 28.5909265907
36.1222 14.8919 21.3445 27.6539515718
35.2386 4.22884 35.9315 99.7389960543
34.7335 1.27943 36.8981 39.026759248
38.3532 4.82359 35.9198 82.6198554884
30.4312 3.50151 36.5543 37.2385702177
35.0983 13.7479 35.5341 107.3593577446
32.7162 13.0903 36.4883 33.8276480649
32.3758 5.62526 35.8952 83.0359425117
39.1439 -3.6902e-04 36.3684 47.8824899555
38.8866 7.95147 35.4763 116.0914240275
36.4678 13.3483 38.3324 29.0076737515
31.2209 15.3188 35.9126 75.6206424405
37.3927 15.9241 38.6409 33.0443628951
29.7904 7.02981 35.8699 66.9096698621
34.1089 8.26388 36.1963 68.4696398907
31.873 10.4371 36.2196 67.649177028
30.244 0.830457 35.6445 110.0119650552
37.7125 12.1839 36.0723 70.2674987159
36.6969 9.58764 35.8311 77.1091638311
31.5937 15.7939 38.593 25.3341122987
37.1284 8.94123 38.4941 30.2140766789
33.117 4.33225 38.5695 30.6246424753
31.566 9.59946 38.823 27.87467916
36.2866 4.22613 38.6255 36.0273426046
31.0704 9.66326 41.7268 32.7350623227
31.4527 2.09652 45.0387 31.0855219717
37.783 1.84092 44.4925 29.6036032976
36.436 3.77044 41.6291 30.5495652379
33.7535 2.49752 43.1189 32.7947636734
35.3142 12.6735 43.1545 30.3767725279
30.3576 3.44608 39.3232 29.0465690333
33.1486 4.71389 41.3938 31.2426547405
29.7536 3.92055 44.103 31.8823886318
35.5001 6.48991 41.8256 32.4798939563
36.3931 15.6256 43.811 31.8554516808
35.7271 0.932816 41.5047 29.3051682851
35.3545 8.91496 40.4214 30.768883681
33.817 11.088 41.1518 29.5421442459
31.9691 12.0511 43.1675 29.0965259127
37.7655 5.69632 45.9117 29.7896157629
37.6073 11.7134 42.1618 29.9369715608
37.9601 9.34135 43.5687 31.256148762
31.9427 0.711761 41.9263 30.713299351
32.8469 14.6779 41.4967 30.4925527523
39.1774 7.16966 39.1938 32.4507322228
39.2356 16.0884 43.9373 28.9138690078
32.4443 13.2728 45.7244 31.1007323851
36.0044 16.3203 47.0216 31.3589427339
30.6919 5.66344 42.0054 31.6942533241
35.1622 1.03612 45.2941 32.2823906357
30.6887 7.79897 43.84 33.5220931157
38.0362 11.391 39.5101 29.1713381018
35.0892 11.8039 45.8793 28.5605088318
31.8815 8.42888 46.3765 30.6225343714
34.0681 9.33535 45.3213 33.7540060856
35.7804 16.2157 40.9796 28.7436015383
29.9277 13.921 42.417 28.1981428141
33.8354 13.1792 39.0402 31.1045622475
38.5527 4.50668 43.3694 29.776166905
39.2465 7.02531 42.057 36.9226199052
38.3339 10.3953 46.1234 29.3517134034
35.9708 7.58224 44.3671 32.3096748309
37.4333 13.1225 47.2988 31.2572368481
35.2092 6.68461 47.4115 33.8324600665
33.3984 16.0844 45.2711 31.5547438228
32.3631 3.16364 47.5338 33.4886760819
33.5146 7.24087 38.8294 32.5016861663
39.1283 8.29612 53.3586 29.203313824
36.9936 5.11759 52.3135 29.5263163471
36.2162 14.8156 52.1905 29.1887517946
34.5544 6.94324 55.2079 29.8903897075
31.4887 0.863688 50.1726 33.5518051055
31.3291 5.84165 52.6901 32.7019772173
39.0113 6.70336 50.4854 28.399922101
35.2117 4.80038 49.6413 33.4250909719
32.7901 4.78135 55.154 29.9278326018
35.7551 9.4988 51.9693 30.5817544324
34.4196 14.0768 50.1409 32.589857477
33.9267 11.6103 48.6171 28.9958678685
38.1838 16.0924 54.0525 27.745158139
38.6148 12.9143 53.9042 27.2291340222
34.96 6.79944 52.4215 30.248000311
30.0438 8.61769 50.3535 28.5157558241
35.6179 1.15083 52.6395 33.7907315759
39.1884 0.846763 48.2485 35.0149255971
34.3507 0.652059 50.2164 33.9747026467
31.3634 13.3472 51.0307 26.9894581499
31.6227 10.866 52.2831 29.4730025299
32.5711 6.93023 50.5634 27.5373213441
38.8211 10.6968 52.1303 27.3215258167
37.3969 3.46049 47.7334 28.1226374611
32.7058 11.5069 54.6944 31.5220676212
30.0574 5.3973 56.2322 30.9103090062
33.4623 1.92483 54.2576 35.3629704141
37.8025 13.4236 50.0939 30.3023688103
36.8158 10.6414 49.6404 28.8913617604
37.7395 4.33436 54.9214 36.0889172124
34.4548 9.61314 56.0752 30.201815227
31.1551 1.482 52.7829 31.9223407661
30.0716 3.0979 49.1163 30.8778307647
31.3686 12.975 48.2647 26.0836873261
37.4483 6.95764 55.2919 28.4190121501
33.2732 9.74373 50.4758 29.7923375604
37.4701 7.90529 48.5221 30.2749800403
32.2911 14.6235 53.3043 28.9302701055
34.8184 13.5353 54.4392 30.59022076
36.2146 11.1032 54.2201 28.7792872995
34.848 2.25204 47.9206 29.9655675142
37.2324 2.75691 50.8678 28.1778160444
29.7909 15.6527 47.9055 28.6937372184
32.392 6.13306 48.0148 29.4389865886
30.2864 10.0067 47.8197 29.8202232772
39.5024 0.601924 51.3273 28.321952245
30.1364 11.3861 56.1072 32.7768630968
33.4574 17.3542 6.39982 29.3825920652
31.0627 30.1572 8.91205 32.7015465214
30.3274 26.06 3.82025 30.1413684647
33.5378 16.9966 10.6384 32.4459697395
36.599 23.4929 12.0828 32.0900087183
31.791 21.3971 11.3171 30.6092318415
31.7482 22.3659 4.78499 31.4448371661
33.4389 27.3477 6.66392 32.5777913853
34.8382 28.3435 4.59023 25.9061092654
38.3387 28.7854 7.81281 28.4345455282
36.9928 24.5183 5.39598 24.9499348597
33.202 31.8719 9.17135 34.0095836898
32.7984 24.8338 5.16351 31.2307168994
32.3159 25.7332 10.4294 30.6197526324
38.1838 27.6074 11.2022 27.7828398303
35.0167 24.2967 7.51091 27.2706154603
34.0817 20.7496 4.68509 31.0757650136
29.7196 26.401 11.143 25.9670924588
32.8625 30.2118 4.49854 28.5211177787
30.5984 23.4102 9.71195 31.452376918
38.7206 26.2502 6.82306 27.4312787115
36.3931 28.8931 9.59011 32.6402872084
29.879 21.6497 6.89887 29.2243101314
36.5821 17.6321 5.95399 27.3234271123
38.5533 21.1806 12.5004 30.020833693
33.8949 20.146 7.51246 29.9755655365
37.9912 19.2371 4.21755 31.4111503853
31.8302 19.0875 9.46748 31.3206567051
36.3018 18.2049 10.8516 31.6393088882
37.7059 22.2403 7.43488 30.6048527045
34.5166 31.674 6.44726 36.283375178
38.1802 16.6353 8.24989 28.6587138417
37.4321 24.8362 9.19093 28.6044570144
35.2912 31.1238 10.9648 31.3316275058
32.6605 22.7182 7.94519 27.3279397255
34.1419 23.3988 10.5655 33.024846825
37.0109 29.4351 5.67468 29.1576177629
30.4023 28.9613 11.4819 31.2497313978
34.6697 26.5831 9.06558 29.6159344493
36.4986 19.7457 8.40877 32.7819850976
30.5158 16.7797 6.2205 29.3692859605
30.7976 28.6226 6.57149 27.5340284976
38.683 26.9825 4.00327 28.6678952446
39.2807 18.5456 9.94071 29.3389623369
29.5545 32.1807 7.7293 33.2385289229
29.7363 18.7359 7.95769 28.512386236
37.0684 32.3076 4.86354 33.527127351
29.7601 25.1773 13.6168 31.6581842433
35.7265 21.2511 13.8532 32.1297249889
38.5063 21.0171 17.9732 29.3935835846
35.0401 20.0103 18.1503 28.7977137188
36.5514 21.4639 20.266 25.5169047151
32.9049 21.584 17.0191 28.5857189771
38.7759 27.7129 19.2219 30.0690719366
34.2871 31.0199 13.5536 29.7670314563
33.2562 27.082 17.2785 30.3625538689
34.9305 23.7243 18.2583 26.6447407831
31.5265 28.9462 15.4421 29.8037118213
36.8667 22.6349 16.5826 31.2207965084
34.0934 26.5125 12.6812 33.2014360115
38.5386 29.0758 16.7233 27.1270267321
37.716 16.8387 18.6382 29.0843990468
38.5194 24.7985 15.2752 27.7708493036
33.781 31.0556 18.1182 29.7900656943
35.4384 29.9105 16.2382 32.5718831567
31.0024 31.7283 15.952 30.2711593996
33.7554 23.4757 20.9235 28.86216896
38.5636 29.3645 13.6048 33.125011388
37.1459 18.8988 16.8061 26.9213432311
34.1207 18.0243 19.6781 25.685562642
31.2236 29.2682 18.4254 27.647349382
31.6267 19.2999 15.3107 29.2852802669
29.8379 32.5405 18.6135 25.7978538623
36.879 18.5785 13.8026 29.4965230527
30.4893 22.106 18.9849 27.7086170485
32.6977 22.0448 14.2029 31.0020316402
31.4382 18.857 18.0581 32.0410739011
37.0277 31.8175 14.7389 28.2959640696
32.1871 24.5759 17.4621 26.6533289584
32.7565 29.0874 12.7037 32.1546175416
36.9232 25.6879 18.5811 26.7672948634
38.2532 31.2453 19.5806 30.3263776257
36.0606 26.8702 16.2861 31.3017968334
32.7018 26.2349 20.0276 28.4819029714
39.3543 23.6826 21.0622 29.2344010494
32.3874 24.7371 14.5194 33.3483284839
33.0145 16.9908 14.7932 30.8892000751
32.9129 29.264 20.9108 27.8825767736
39.2798 17.0171 15.7552 27.8749986445
36.9185 26.3357 13.3335 29.8286868712
32.1345 21.074 21.2756 28.9751827993
33.7863 18.913 12.9606 30.764188174
31.577 18.3193 21.4406 27.5493794549
31.9649 18.0853 24.2427 67.8418440189
37.1951 16.5638 23.6933 42.8893750496
34.935 31.1682 21.2676 25.9244194581
37.1956 29.2879 21.3361 30.2176398005
33.4224 23.488 23.9254 37.1174282592
30.9878 21.4442 24.0462 48.8400520628
33.86 20.8257 24.7118 95.4174796679
36.0287 19.0953 24.6789 106.7588545769
35.7715 24.854 24.4844 87.6778804629
38.4144 28.9321 23.9427 55.1817872073
36.4774 24.1802 21.5118 26.7715432098
31.8451 25.8235 24.4338 99.2502217857
34.992 19.8204 21.807 28.2161894037
35.9539 27.5694 24.2793 77.1661399106
33.3662 28.0335 23.6936 38.9010255915
35.7803 30.8014 24.0019 54.2120204332
30.169 29.8349 23.8874 56.0311919764
32.9425 30.9608 23.9876 69.9676122588
37.8901 23.1267 24.1685 69.6462911097
38.4278 20.5134 23.8372 44.0427349062
30.4046 30.619 21.2325 27.2776799001
30.1204 26.1136 21.3534 30.9928042092
37.4071 18.4256 21.3361 30.9720781771
29.4157 23.7779 23.846 45.4646768428
35.4957 26.8329 21.4173 30.4301132103
32.1711 23.7338 38.5668 29.2862201995
30.0635 27.9065 35.818 75.843086301
30.4488 18.2156 36.4665 37.223931027
38.2762 32.798 35.8467 72.9094040009
34.1922 20.8056 36.3878 37.6484186159
36.7594 20.3235 35.4142 105.5501299835
32.6046 22.9375 36.0177 67.1772442367
34.1687 25.221 35.5923 110.2075604646
32.8473 27.729 36.0394 50.0821069175
38.321 22.4325 35.8989 70.1348429281
35.4493 32.0291 36.1228 45.051426929
37.5675 17.856 36.3301 33.5795112782
33.013 18.5235 35.6485 90.1917442629
32.8316 26.3022 38.6562 30.412646303
37.246 27.3348 36.3953 50.8172686774
36.8179 24.7614 36.7537 37.9831005373
35.0533 29.3072 35.6919 99.7135813698
34.1996 16.7845 38.305 29.0077429364
31.0173 31.0995 35.7894 72.0400689113
35.244 16.6663 35.5028 86.3481738461
29.9152 29.7161 38.0878 26.7728059968
29.7968 23.626 36.0858 70.0675115143
39.2654 32.1165 38.44 28.2241344942
34.909 29.8394 38.662 30.5421842851
32.4507 18.7709 43.738 27.3718929582
33.999 22.6021 40.625 29.7687215662
33.01 17.5968 41.3384 29.5284669931
39.2632 32.5944 41.8281 30.5112282198
38.193 22.4352 39.0767 29.2075648363
31.5751 26.9937 42.9964 26.3436213548
34.9789 27.2016 46.1234 32.0696858878
32.4219 23.1861 42.7925 26.5075286832
32.4247 30.5311 39.7289 30.111795759
30.3028 27.2587 39.6211 27.9448135
38.3748 22.837 41.998 30.2387932204
36.1249 19.0125 40.913 28.3837058055
35.0754 30.1851 45.5798 31.3980363663
29.8839 21.5432 45.6822 26.9760703312
30.5028 29.4767 41.6313 25.9475071934
35.4042 26.9553 39.9511 28.3113521748
35.392 24.5042 43.8508 29.3902692934
30.7053 24.9074 41.435 27.1735367092
31.1868 29.2591 45.8927 29.0932155128
32.6134 21.9206 46.5142 26.2986816709
38.5886 28.2934 42.9461 35.2934399228
36.0764 29.4892 42.9352 30.4890568686
32.8955 29.7717 43.5198 26.3025844911
34.9736 31.8956 41.2477 27.6895695124
35.7643 19.0728 46.0149 28.0381210775
34.3968 27.1674 42.516 30.4813569853
31.9953 16.935 47.512 28.4737079414
35.5115 22.5142 47.2825 27.5873285499
37.5559 30.2841 40.1859 27.8574816036
30.7912 18.4904 39.2536 29.7022923366
37.1022 18.7219 43.575 29.9497505084
30.253 17.9 44.8168 26.9506184433
30.7203 20.9217 43.0133 32.1145766337
34.0613 20.6751 44.6089 25.1957587458
30.5288 32.1143 47.1855 27.9121857158
39.3126 20.5347 43.5765 31.4654745736
35.7896 21.7061 42.7529 28.3019524557
33.0356 24.2243 45.1946 25.7440839148
30.9282 26.1428 45.4016 27.1700025945
33.8221 19.9657 39.3392 33.373768948
36.7192 24.9493 46.2601 30.3871776645
38.4088 25.6922 41.4104 30.5110426765
37.8478 31.668 46.6078 33.526906247
38.0465 19.7407 38.9628 30.2187256981
36.1825 24.3139 39.6267 29.0318388602
38.3744 27.7865 39.3698 29.4201487406
37.8913 20.8199 47.1787 34.2315119484
32.0389 32.2101 42.7565 27.491690942
38.9954 24.1935 44.648 36.6486492978
33.9762 18.9709 51.4885 27.7906912942
30.5524 28.4479 55.9259 25.2032557625
36.2434 20.549 52.3237 28.0064010409
35.865 32.6361 54.6866 30.8064750694
29.8318 17.2214 52.6298 35.3330883554
34.4112 22.3944 50.2636 27.1778473971
37.9832 18.1273 48.9427 32.9478119065
29.8055 24.5258 54.2039 34.3959271011
37.2096 24.2165 49.6309 30.6887216652
37.2796 26.2426 53.9315 28.4156932331
34.8451 28.4141 49.9617 27.9783334384
33.0196 24.4928 48.8506 29.8697164092
35.6117 25.9965 56.0981 24.9226435206
36.7868 17.5217 51.3299 32.1534091985
37.8988 30.4937 50.0024 29.045169486
29.8191 27.9379 49.1176 29.2359823998
30.6232 28.2694 51.9097 26.8415439604
32.2739 27.7631 54.042 27.010681868
31.8077 18.9936 55.4667 29.8531033894
33.8857 30.8438 50.1725 29.4037769274
34.0456 19.8736 48.6765 28.5539883267
30.636 25.0224 51.5122 30.1917320977
32.503 17.5603 53.5563 29.9399281567
30.328 23.4726 48.6637 30.4648752093
37.7912 21.6387 54.7309 27.0180611962
38.7183 29.7688 53.2231 30.5104482332
38.4286 26.7627 48.5803 32.9580006854
31.2328 21.6119 54.6019 29.8263885061
33.5564 25.1828 54.6061 29.5222746944
32.2212 21.1671 52.0382 27.9280076753
31.8241 30.6437 51.7684 30.02754133
30.3913 32.396 56.1556 30.779769954
29.9582 21.4502 50.6941 29.7264496598
34.6812 29.4854 54.527 30.7161664523
35.6639 22.6774 56.1827 28.6816082097
33.335 26.4137 51.1983 28.166032272
37.8142 21.4928 50.1062 30.6055251258
36.4331 28.4686 52.4583 29.4207365444
35.9375 32.7557 51.4161 31.0171477799
31.2236 19.3722 49.0265 33.2262338702
32.7429 31.372 54.5258 27.9147626454
35.7787 24.8356 51.8567 29.7136430164
34.352 22.5902 53.7633 29.3082703213
36.6546 29.0248 47.9405 29.4047728687
36.5879 18.4691 54.6382 30.6456980866
34.3678 16.6753 49.2069 29.9351639762
32.6044 27.3497 47.8891 30.0111386769
34.4528 17.9632 56.3831 26.7737519771
33.6458 31.9319 47.5104 30.3584491951
29.8034 38.0778 8.87395 32.7129631266
34.0649 34.5325 6.15093 33.7171884047
37.789 47.1857 6.53795 31.3997539223
36.761 46.8265 11.34 28.923191843
36.7095 35.2228 6.05953 32.1410652774
38.3614 42.9045 10.3008 29.4244422403
29.9186 42.1217 11.0168 31.1087525879
33.3364 35.9965 4.16064 29.1438420642
35.9507 35.0792 9.48189 30.8764412713
33.8474 46.7962 10.6401 31.1520480212
30.6989 41.634 6.7653 27.9656350563
30.01 45.3593 11.7969 29.3191136383
30.2326 39.0345 5.9508 30.226031655
30.4083 48.2835 4.53976 28.8049379714
33.8407 38.641 5.1827 31.5022853941
32.8577 41.5568 5.03356 30.2212688379
37.8491 44.3879 7.8894 29.1384303502
30.7955 48.0758 8.02272 28.4562694506
31.9668 46.1936 5.69739 31.3859581023
38.0499 48.5374 9.37626 29.4487331367
34.9284 45.1918 6.36778 30.6001792259
33.4217 38.9701 11.6668 31.4711184808
36.4524 44.0038 11.9947 26.8783772812
31.2851 45.3497 9.23807 28.4164329773
33.0064 34.7346 8.88281 32.8226829008
37.6731 41.0089 8.3951 31.923163907
38.3724 35.9323 3.84491 27.9021896521
30.0085 35.1804 8.79616 30.2973080274
36.9702 33.162 10.9614 32.3867342186
38.1808 42.2679 5.82406 35.7588961206
29.7982 44.3047 5.66195 28.7775380618
35.302 42.6951 5.51017 29.3472142475
36.4147 45.8832 4.10625 29.7357712834
37.7377 37.1586 10.9191 33.5912144537
34.1553 36.3056 11.4257 31.2356310685
37.1106 37.5193 7.89919 32.0182296878
32.2486 39.5321 9.08132 30.5889730588
31.9511 42.5221 9.03717 30.8466428742
34.7223 39.29 7.71593 33.6479982209
34.544 44.5486 9.15439 30.264268463
35.1817 41.7238 9.61881 29.8087261152
31.6696 34.5317 11.9844 39.9111768471
32.5818 37.5227 15.5843 28.8883148821
33.2362 33.5022 14.4 29.6024898703
30.4852 48.9324 15.7409 35.5641658716
39.0617 33.6781 20.5817 27.332573066
33.4023 44.6279 18.6388 32.3450950126
31.6871 47.9012 20.0711 31.5841006639
35.3421 38.1824 15.7731 29.1468413682
34.5522 40.5095 19.7321 29.4760416744
36.1559 32.941 18.9331 27.3932403509
36.7969 38.7709 13.265 29.1924882391
38.092 41.3411 15.9673 31.9465411501
36.5673 36.4921 17.7231 35.1351551147
35.4371 41.0509 12.5017 34.0342713748
31.9513 39.6394 13.7571 32.1010041193
33.1435 33.5893 17.2558 30.2335491051
33.3997 41.6382 15.362 30.6906362051
35.515 43.4755 19.5791 29.2581296826
30.8556 43.4059 13.5227 31.5549253406
39.1564 39.3763 14.0955 29.0567241481
38.08 43.8176 14.4648 30.4325593545
31.5537 43.0259 17.1253 30.7838915386
39.3351 47.1791 18.3014 29.8250129751
37.7232 34.9686 13.1002 30.2501557911
33.8846 44.322 13.9264 34.4128606134
35.3909 46.1883 15.6793 30.8396686731
37.7493 45.5159 16.85 28.9390748722
36.3839 48.8073 19.516 30.4866491768
39.4018 48.0341 21.5457 27.9034382497
34.4398 47.2029 17.8811 28.3902546957
35.2259 35.5827 14.0254 28.8364806979
37.0246 34.0865 16.3447 27.3318933662
34.1823 35.7692 19.2894 29.0685727818
31.793 44.9583 21.2331 27.1838232713
31.4964 38.4495 17.6086 33.5195591347
35.3667 40.6053 16.8597 32.2484244111
37.9818 43.1048 18.3514 27.1971018947
30.5026 35.6831 14.7584 31.8079778059
31.1457 35.826 19.0739 29.4136855155
31.2746 41.1575 19.2091 28.2613379659
35.7725 48.4321 13.8624 30.1780911448
34.5176 38.0453 21.1094 29.9633543937
32.3942 46.553 12.9015 33.8204264753
33.5932 33.6948 21.2513 28.8202648926
37.1527 40.3757 21.104 31.9797860733
29.9522 42.7791 21.163 28.2098802044
32.8985 34.0651 23.8262 58.0231639516
38.797 42.6764 24.3099 61.6493759235
36.4184 44.1243 24.6986 96.4334672372
30.3647 33.957 24.5353 96.1670719162
38.7859 35.6554 24.7338 99.6388344165
34.034 37.01 23.6682 43.9205865267
38.4909 43.0031 21.161 27.3496652568
29.7626 36.5928 24.5147 76.1206122299
36.7985 40.358 24.2274 64.2593068734
31.9089 38.5172 24.4454 78.839619483
31.6275 47.6939 24.4358 79.9167401796
34.3255 48.4824 24.2415 61.4970289468
30.6131 41.6832 24.3282 77.698808063
36.8069 37.4495 24.2348 66.4242502021
33.9739 40.606 24.4206 71.8431547167
36.8281 34.3438 21.7354 29.609700292
33.6905 43.4475 24.2413 60.2524887271
31.3332 44.9504 23.9231 41.3547142161
37.4461 32.9345 24.4891 80.4108282877
34.9618 44.7678 21.9585 27.2302785522
36.6053 47.0387 24.4612 71.8890033448
32.744 41.4953 21.8926 26.8922851539
37.2481 37.1115 21.6037 27.7987604064
37.8081 45.6832 22.0509 29.3965658079
39.0644 48.6594 24.5474 103.0318325275
34.5581 47.5155 21.421 30.6875179019
31.1805 39.0593 21.93 28.7228709944
30.5246 33.5102 21.3052 28.0000669923
36.0831 41.5054 37.3468 30.3117812437
37.1924 37.8105 38.6443 31.301750999
36.4893 48.5849 35.7455 115.1210395591
35.7219 45.973 36.0605 76.6348511143
33.3075 41.8891 38.7193 25.0085242632
32.2482 38.3418 36.0894 67.9891749221
33.62 44.745 38.0186 28.7131344325
33.9533 40.8111 35.4905 119.4618491847
32.5762 48.7034 36.5286 45.4180821892
39.0772 35.3413 36.3044 39.1689033551
37.831 39.7524 35.8878 77.8138012605
34.2745 36.64 36.4795 36.4113875149
31.9617 42.685 35.9029 61.4594569634
31.252 33.7473 35.8257 64.3355033979
31.8775 39.4012 38.4056 27.0213203819
33.8603 34.0964 35.5355 105.0443161049
37.5043 43.8103 36.4414 50.2149751671
32.1333 45.6915 35.8332 82.070036478
37.0929 37.0414 35.6506 98.7852735532
29.9806 36.4531 36.2855 46.5398324498
31.8492 33.2063 38.4806 32.5010517368
34.168 37.0849 43.2929 30.8656298941
37.5228 44.1103 42.9086 28.7369469865
37.4362 46.4428 44.6435 31.1489236854
29.4516 45.8222 39.7735 30.2118331857
36.1727 48.618 39.1072 30.6998576813
30.3285 36.2552 43.3333 28.8948039968
31.6592 38.8207 42.6044 27.341263645
30.9087 42.8856 44.387 28.2293755219
33.2728 38.1739 40.3281 28.6850949268
32.9722 46.7388 45.1805 32.8830027594
35.7239 33.6929 47.5006 26.8262616355
35.6961 39.5809 40.6642 28.3963754099
30.9509 44.21 42.008 25.9565198531
34.0108 41.6006 41.5596 30.8890412491
33.7624 34.5922 41.9756 28.7645066028
37.5702 41.8129 40.0507 28.919414249
30.7763 48.4143 44.1748 29.7220204623
33.4053 45.444 42.7233 29.1931804081
31.9917 33.6262 45.3249 31.6217708354
35.3686 44.0819 41.2543 27.3275081608
37.4792 40.0823 47.4374 30.8402909932
31.0308 42.823 39.6151 24.7286321886
36.0469 45.9013 39.3115 27.9322734925
33.8133 35.4572 39.089 29.4421930145
35.3351 44.1306 45.3342 30.9886835685
34.4322 36.2496 47.2552 31.0930439906
31.9974 36.385 45.4584 28.4717357274
36.2999 37.684 45.1505 27.405674089
32.6468 44.1096 46.2868 27.7357350641
38.8431 37.7132 47.0477 28.8976646301
33.6412 47.7093 41.1383 30.2444445258
34.7264 41.0242 44.8531 29.8857443209
36.8113 39.7856 43.5195 30.4409440688
37.8536 36.1566 41.3285 32.3979970116
30.5526 34.3273 40.8864 27.9197497909
36.6044 34.2568 42.4622 30.1620637996
32.0188 40.4516 44.8361 27.2506757195
35.2334 47.4122 46.1661 31.9845881422
38.5161 41.6762 43.8227 27.4743891753
30.009 40.9784 41.1307 28.3826635368
37.5832 48.7859 42.9522 29.0064554773
36.8802 34.7507 45.4323 31.7231026669
34.4849 39.3619 47.1083 30.4694286935
38.5309 44.8505 39.0137 30.5764096576
38.0176 34.6426 38.9576 27.9384676184
39.2208 48.9181 39.4169 31.2191665358
29.7806 36.8123 47.4201 33.4558481578
32.0447 47.1628 38.9074 33.0040189354
35.6978 33.3464 38.9647 28.011584955
39.338 39.5085 39.1506 30.3766979943
29.7622 36.7854 39.0014 31.59549364
37.2707 47.757 52.8008 27.9654835098
30.7911 34.0507 49.8039 30.6142470406
32.0338 38.7325 50.5859 28.9014898411
38.8965 42.6998 48.4147 31.0136338464
32.5312 42.6092 48.5059 30.0276031508
30.0299 36.6586 50.6394 27.995382677
31.7237 40.2228 47.6275 32.6952726417
38.4777 38.9493 55.9361 31.3312257051
36.4202 40.1177 50.0017 30.8917793701
30.5043 42.9422 50.6868 26.6868999554
37.9191 35.8566 53.2085 28.3584187869
37.7006 33.4174 49.3076 28.6304084476
36.2698 44.0605 48.3133 33.319596768
34.832 46.946 49.2417 33.9961020509
38.4462 33.037 53.4884 24.9548795972
30.8402 40.554 54.3095 27.5730228641
35.4622 35.4592 55.1186 26.59979184
33.9216 45.3826 51.2699 30.0911855844
38.2268 44.3234 52.3023 27.6581737868
37.3536 46.2444 50.0308 29.2502878762
33.398 34.2436 50.713 27.6560966361
33.9614 36.6303 49.9297 28.3814163027
38.8946 37.4573 49.8875 26.8973057084
38.6114 45.1209 55.2412 31.5331195612
36.2487 37.4325 50.9463 30.6978900824
34.8959 42.6005 50.4143 31.3504009289
33.258 34.0627 53.4886 30.1133707632
32.5533 38.4254 53.3244 29.0566735969
38.281 41.5777 51.1484 28.8563109223
33.6831 43.281 54.2008 32.8015042861
35.2014 37.5597 53.6873 30.4679395329
35.8267 39.4456 55.7854 37.6332297044
31.273 42.7366 55.9573 29.7172761564
38.8277 42.0153 54.1013 31.9489189915
32.9747 45.8093 55.6858 29.8873184808
36.2711 42.7247 55.6364 30.5429096017
35.7709 45.4753 53.2017 25.8328042091
31.0057 46.7311 54.0314 31.2825256208
31.2488 45.5457 51.4875 31.1603740315
35.2667 47.7705 55.0809 30.0855318886
32.4686 41.4587 52.0539 30.430542175
30.9962 35.9488 53.3018 29.8110096824
29.4597 48.9271 54.5192 28.6148104207
30.2187 45.2375 47.9016 29.743601277
30.0287 47.58 49.7404 29.7121686139
31.2678 38.4663 56.2297 26.5131371171
30.6539 35.3079 56.3525 32.2235944168
40.5754 0.809533 9.43866 32.841190618
40.875 0.97342 6.62677 32.7319719122
44.6199 12.3194 11.3241 35.2055252118
46.1396 7.95839 4.40048 30.9249659329
43.1536 2.69433 7.07027 27.5376437456
47.1857 0.387938 11.1842 29.0006446014
42.4553 6.27754 7.56699 28.5825088614
43.909 4.77138 5.74689 28.9882653317
41.7542 15.0389 8.63142 29.8020294748
46.6476 5.63971 5.60698 31.4276091721
41.0593 14.1314 11.3774 30.1683318711
39.6911 7.37638 10.6922 33.7484352638
42.1215 10.9198 6.17688 31.6524681771
41.1755 8.48854 6.41456 28.1894444061
44.6444 9.22953 6.40286 37.2824260865
41.6805 8.51453 12.1838 33.032805849
39.664 13.7834 5.40285 32.9452648419
44.8173 12.1722 6.08325 32.4292417319
47.3524 0.407139 5.70827 29.7472100849
46.732 15.4866 11.7236 30.3343847712
41.1407 4.26042 8.46595 27.8188057039
48.4679 9.47964 4.02323 33.0351575124
48.7277 2.84254 11.3605 28.3404975754
47.8674 6.88507 9.7631 33.8257897771
46.0074 3.55681 11.0846 28.6062126262
39.52 4.80756 11.4361 29.5248282024
48.5121 2.69405 7.47515 32.725845499
48.5603 14.9071 6.10563 26.3455476799
44.5321 13.9292 3.70312 30.9138008465
43.9319 13.3525 8.51392 29.944708594
44.7189 2.04568 9.2774 32.6029035712
47.0347 13.1639 9.61555 26.9016772929
42.0615 4.5935 11.2012 28.3808417378
42.604 1.72563 11.2644 30.0593681029
48.5081 10.9711 11.0567 34.7358622188
45.4033 6.44711 10.7503 31.5611646097
43.7914 8.06786 8.94084 33.0715193272
44.8758 1.59516 5.03559 32.5997270014
42.8821 10.2652 10.4525 34.3658434866
41.0911 11.6176 8.63101 28.7816959636
47.4209 12.5395 7.14889 29.1868481186
48.8039 10.4177 6.57011 33.2115217203
48.6561 5.38337 7.28853 34.984970651
39.5074 9.2842 8.47204 34.3063726029
45.2391 15.8901 9.25112 29.093342745
46.6126 13.132 13.2281 31.8645422111
45.3477 1.53764 20.7017 28.621639112
46.8132 3.04547 16.0678 31.1303438
45.559 6.87947 16.2543 32.4943664899
40.9162 15.9517 18.7256 29.3578609137
44.6675 0.155217 12.7778 31.7092260493
49.0007 12.8286 20.8284 32.5981401468
43.9206 15.4745 20.4341 32.3557304383
46.6303 7.29837 13.4174 34.0961920681
47.2132 11.1368 16.6101 28.4248915987
39.7998 2.83577 18.9927 32.7458688421
40.4138 13.6312 17.4145 32.0072270928
42.4381 10.4128 20.182 27.6606445272
40.8534 9.80317 14.5988 36.332237767
42.3313 11.9756 16.1367 34.7912111588
44.3615 3.41885 13.7776 30.5402642935
46.7381 12.2301 19.1343 30.0840480701
47.3429 10.1444 13.8239 34.8694155997
40.0337 9.53102 19.1369 28.252306421
42.638 1.80993 19.8714 28.9166606258
43.5329 6.4562 13.0611 29.9244538512
45.0241 13.3454 15.6364 31.4715222005
42.8187 14.0135 13.5392 36.392219308
39.3043 0.246839 14.5816 30.3396764363
41.4419 1.96683 14.0566 30.0067798307
42.6623 1.16942 16.5061 28.4446217367
41.8837 5.53045 19.6066 27.2724415307
40.7225 8.06159 16.7519 25.7678291925
46.3409 4.27012 20.3203 34.3845758353
45.6294 14.7593 18.0702 37.4451900665
41.8628 5.8409 15.3298 30.2869437486
42.7872 4.12452 17.6237 27.637524775
43.3007 7.75262 17.8632 30.2718419164
46.8142 9.02777 20.1828 30.0980385614
47.5669 8.39143 17.5555 34.1190194289
45.4108 4.6248 17.5735 29.9026083598
44.0428 10.4816 17.8307 32.719761192
45.248 0.662338 15.604 27.6888251473
49.1737 1.78492 16.6101 29.6623321231
47.4421 4.49808 13.564 27.8262446754
39.9993 4.30925 14.0093 32.3857157374
48.128 15.9985 17.6862 31.1581277955
47.0209 15.9259 15.0107 29.9218468394
45.1413 11.1675 21.2198 28.0033844878
46.6506 3.12353 24.3708 115.2304269603
40.9767 3.72968 24.2092 81.2275706661
42.8343 1.75958 24.6781 109.6155629215
45.0516 1.10849 23.4979 28.0597290244
45.8928 8.49578 24.2938 86.7264643255
39.4082 12.444 23.8608 59.6903058301
48.6517 8.35452 24.2636 80.3785517079
40.8535 6.75646 24.0521 67.8644178777
42.2926 7.93356 21.4408 27.6756826559
42.8734 8.77682 24.4388 88.7076301452
45.0638 4.93765 22.7244 36.0316772519
42.6141 3.95351 21.7204 30.3578108628
39.7125 15.4427 23.7765 73.9473865227
42.0075 11.3912 24.5735 106.9626553076
46.0813 11.2228 23.7529 52.0902741039
44.2131 15.8504 24.4039 112.8535354461
48.2477 15.8547 22.1238 32.2980751011
45.1107 7.39946 21.9263 29.6332833024
44.0764 12.9746 24.0911 60.4163925373
48.7568 12.6825 23.6594 44.2853757798
42.946 13.1201 21.4515 30.3190770981
49.044 8.59462 21.5619 29.4468601392
48.8635 2.46624 22.5816 28.7833692595
40.153 12.5956 21.4235 28.4859779454
42.8863 2.40589 36.241 52.587567963
48.2903 8.38942 38.2543 26.4811832637
47.5498 4.16718 35.7544 86.7498502379
44.2075 10.3024 38.379 33.0338960296
44.0222 15.1257 35.5455 112.7525400689
44.6064 4.73253 35.8058 88.4256010635
44.2349 7.3302 35.9178 60.0059107905
48.2289 1.38406 35.8244 75.0567965005
45.7013 10.2369 35.8278 77.0283810176
47.055 7.31194 35.9213 70.2144141207
46.38 13.5377 36.2151 58.1572846832
41.5602 15.2307 36.4818 37.113541497
48.6698 14.9492 36.298 45.5780064688
42.7095 10.9546 35.5159 101.3763012967
40.0202 2.65378 36.131 77.4059983539
48.6288 1.99534 38.5416 30.9642347533
41.7647 8.58902 35.9798 53.3024748597
40.5037 12.5448 36.3642 50.9953688199
43.8792 -0.0813352 35.7481 92.2529569568
48.9115 11.9954 38.6527 27.7545775793
48.149 5.2587 38.7663 26.8682849318
49.0507 10.1785 36.0423 58.8276832497
39.3473 4.59648 38.5585 34.9094721628
45.2274 4.88614 38.443 27.6066417056
41.4982 9.1394 38.6212 29.4036461468
44.015 7.0289 38.7683 32.2162992858
42.3316 0.45045 43.2421 31.0874986274
40.4047 2.40762 40.2669 34.0247377731
41.158 2.94094 43.0457 32.9066620791
43.5284 13.5927 40.8055 30.6593049014
46.5891 1.46038 45.2002 26.4121061351
41.8875 8.59334 42.1171 33.3989115802
43.954 4.42865 42.7899 36.3337341359
45.5642 3.28492 40.9626 28.6897665571
48.7922 0.39989 46.564 30.2694933455
46.4213 15.4625 40.5496 33.4660842478
41.8926 11.573 41.6598 28.6955039812
47.5418 12.803 44.442 28.9784754738
39.9267 13.1157 42.8341 31.0841068897
47.9211 6.84053 42.5581 27.6722419952
43.6715 11.9139 44.0393 30.1693380917
41.8113 0.020613 45.8826 29.1996506812
48.9303 14.8194 39.11 27.0240412537
45.8158 12.5696 39.1721 30.201239603
39.4548 15.0282 46.4269 31.4966010445
42.1383 13.1444 47.3121 27.6914463067
46.5776 8.02925 40.4905 28.8088107224
39.6161 15.7623 41.1181 29.1294094748
45.7739 4.07058 45.04 29.7617739415
47.1972 15.1423 43.1291 27.4843309847
41.9962 9.24016 44.9733 30.1618829109
40.1143 2.44976 45.8113 26.4934444346
43.5429 4.08097 47.1592 33.1297612653
45.1172 8.08571 44.294 31.6256275079
43.8974 15.0157 46.368 30.2556872906
47.4817 6.05199 45.5935 26.4846766499
40.5451 4.67041 47.2484 31.8869441665
39.8635 7.89225 46.6624 30.4963484465
40.6331 11.9001 39.0108 27.2565204453
48.11 4.26172 41.7657 29.4876892082
44.059 7.0602 41.8529 30.2369204496
40.7748 11.7554 45.3412 28.12256078
46.1976 10.5287 43.6987 29.7352221339
47.2762 11.0031 41.0655 31.5121466137
44.0193 14.9135 43.3646 32.2813221351
45.8696 12.9212 46.6241 26.1346765445
41.4742 14.69 39.4786 30.5914997547
44.5882 0.652133 41.4142 30.9211699872
43.5398 8.65173 47.1138 28.9584673095
43.1272 2.60893 39.2271 32.4978140369
43.6536 6.22056 49.0285 27.489304586
43.1573 1.11911 53.8979 28.984102518
40.8992 2.41452 52.7033 29.7195326263
46.7055 14.1291 48.8944 31.1935854156
49.1608 11.6433 55.4676 27.3982174336
42.2152 4.57733 51.2746 29.107861063
41.6286 7.32744 52.2095 27.0788900097
42.3285 7.46475 55.0002 32.248162737
46.1757 7.41143 50.775 26.9953757366
45.4328 4.15094 51.3229 31.9228581097
46.9573 6.4886 53.3869 28.37098746
43.7694 8.81704 51.3082 27.0337292754
43.69 13.4615 52.5455 26.2531299923
46.6577 4.87624 48.5598 26.9611929485
41.6104 10.3678 53.3931 27.4457169542
45.8398 11.1508 50.5123 26.5159830464
43.1181 2.42202 49.6868 30.5621638534
39.9844 12.1242 55.964 26.4326792406
47.3765 10.7508 48.1771 29.5673254408
42.5363 11.7392 50.3612 27.0304489604
39.8735 4.09345 49.9297 26.6715616042
42.7224 4.87953 56.0831 32.4552069729
46.7234 13.3825 52.494 28.2737687607
46.3523 7.90441 47.5037 28.5359674694
49.2321 7.73149 53.0454 25.7817886895
47.0692 1.91118 49.8901 29.3224722422
40.6971 0.731543 55.7794 31.2737928698
42.4346 13.1794 54.8709 29.5068206044
44.764 3.14839 55.3194 31.4842390413
47.286 0.668902 52.9934 28.9974577861
45.144 1.80833 47.7442 26.7629449509
44.9606 8.09124 54.649 32.528135564
44.8715 15.5905 50.9057 29.9443035386
40.1976 10.7332 49.2433 29.5829024306
46.818 3.82089 53.8143 26.0715662565
40.5196 3.49653 55.4713 29.6092562589
40.6185 14.63 52.7443 28.3648954163
44.04 11.2821 47.9557 26.7489029541
44.6122 10.8393 53.59 30.3709717562
48.1598 4.59768 56.4495 28.4060984904
46.5043 12.6204 55.0301 29.3776842491
40.629 14.1269 49.9483 29.7383370321
41.1853 8.17021 49.3245 26.0470517633
49.1482 0.748462 55.2653 28.4560387277
49.1329 4.88818 49.5213 28.268405311
47.4739 15.1979 56.3442 30.6143896603
48.0573 9.59236 51.2533 29.0889597542
40.5821 9.52378 56.125 28.9961778765
39.8264 20.776 5.68955 29.9464741292
48.68 27.6414 10.0391 25.4390614676
42.0067 16.7707 3.71176 31.0125799053
42.0192 27.1214 6.92794 31.8908448917
41.7941 27.4915 10.4832 27.6761374747
42.5906 24.3156 4.03312 32.7983310334
45.0475 18.9601 5.71089 27.7961295397
41.9279 23.1351 9.12368 36.1797744145
43.5877 27.6002 4.71823 30.3734132086
43.6039 30.923 8.35023 29.3502231243
46.6127 21.1342 7.11444 33.4696884978
48.9853 20.6593 8.60842 28.2298735715
46.237 30.0318 7.11748 30.7835899826
43.9454 17.9557 10.5295 30.9733669856
46.7849 23.4979 11.2213 31.3117889736
45.0373 27.2222 7.50653 33.2061916548
48.2235 23.2619 5.51356 30.906458156
46.9768 26.0043 5.55715 32.1419152341
43.3113 31.309 5.28599 27.5095896776
