18.3499 43.9854 42.1154 32.1992968308
15.1608 34.4254 39.7358 29.1698769116
18.1358 35.3788 45.0628 24.9553587134
14.9729 38.7941 40.7605 31.4260996803
17.1972 47.7542 39.6793 29.2162226311
12.1679 47.416 46.0329 28.0823428189
16.0361 43.9225 44.4541 29.2365763286
10.2975 45.8952 39.9367 30.2372920314
17.6636 42.2609 39.8003 26.8430089444
18.2406 37.2907 42.7509 28.3823635548
16.4441 39.3058 46.2643 28.550976454
13.1355 41.1846 46.6558 32.1770849963
10.1814 38.4119 42.6249 28.7326506833
13.0276 46.08 43.3006 31.4929570919
12.9842 33.0549 47.1863 30.7692698947
10.2801 45.8262 42.449 30.8191161311
19.2197 44.7458 45.6137 27.2856935189
17.3451 39.6036 39.3193 30.0714529232
17.5077 42.8027 46.5928 28.1638248539
12.8894 45.1953 47.527 28.1046396427
11.4644 35.6582 47.9331 34.5279241724
15.4488 34.3097 51.6992 34.831661041
19.4519 48.8636 56.2823 30.296375387
11.41 42.5479 50.3321 32.0369211676
18.716 35.5606 54.3996 32.8948747798
13.0931 37.9652 49.4258 37.3956231872
12.9164 43.153 54.5921 28.8211808443
15.8845 39.1649 49.6274 30.5578784407
13.6807 47.7036 52.8693 28.3546853387
18.4593 37.8268 49.2132 30.4782825712
15.3977 41.4906 48.3974 29.2954445855
14.2393 42.8309 50.4279 30.7653291838
9.83738 36.172 52.0415 30.7117317112
11.9836 39.8421 53.894 28.2621075946
16.4673 39.8075 52.3166 30.9218002271
16.3197 35.5552 55.9628 28.8513375136
11.2569 38.3846 51.6336 30.1487348381
14.8466 45.4432 49.848 26.4282751328
10.341 36.8734 54.7225 28.7905601047
19.2164 43.8452 51.1467 33.1749849226
10.1894 34.1632 49.8642 30.7558713224
15.9096 35.6761 49.2575 36.2154557892
12.3342 47.1442 50.5738 30.9683323033
18.2459 34.1187 52.115 33.066251142
12.4017 34.8356 54.9661 30.8978696458
11.4441 40.1245 48.9229 30.0830732337
17.8287 48.0452 51.8111 28.5648496213
14.6792 35.9741 53.9235 32.5250255601
16.0833 47.494 55.8522 29.8335933673
17.6286 41.8258 55.0017 28.5197854337
15.7964 46.1968 52.5879 30.2648623701
14.4646 38.6267 54.5668 29.7208731449
18.1784 38.4467 53.9003 36.6974139155
16.254 44.4194 54.7976 29.1781031612
14.8022 42.0894 53.0568 30.6942583829
12.1546 45.9483 54.4117 33.1456101202
19.007 45.7677 55.5524 34.3682503464
10.6513 42.3857 53.0219 27.1416542944
17.2823 44.3895 48.9462 30.278168114
19.09 41.3397 52.4181 29.4686793041
16.8144 47.3403 48.2258 29.0917751227
10.614 44.8023 48.5035 27.2739351979
14.0374 48.2993 48.2748 25.6777262712
24.4068 12.7994 12.3909 31.7877853293
24.938 10.882 8.42842 27.8473513823
26.2397 1.15887 11.5421 27.5922108683
27.9807 3.1537 12.0838 27.2946157718
25.1412 0.980703 5.34746 27.536302558
27.8565 4.57916 4.39347 29.3906698727
22.415 12.9092 3.87884 29.3426894819
24.4092 4.78605 6.83034 30.0341521302
21.4551 9.10661 5.69609 34.298993345
22.1089 2.60843 7.30441 26.8258328435
29.053 7.29002 5.3631 26.8856618064
21.109 12.1475 7.09204 28.3386760189
20.2504 10.4839 9.33103 26.049429162
27.2347 15.9003 9.94671 28.0423480704
23.6773 10.9523 5.92267 28.630281606
23.3464 1.01338 10.2896 30.591625725
21.4016 7.85159 8.22128 32.4983346926
26.3781 10.563 4.65308 28.1549909977
28.89 10.0618 8.98971 26.3979885493
27.66 -0.0222867 6.37471 28.8023679113
27.5413 9.10233 6.83504 26.7178980318
23.4371 6.59804 11.2929 29.398689552
20.2682 2.47271 5.04317 28.6638143214
23.8292 5.33837 3.92332 30.3132691059
25.8137 7.15149 4.4214 31.429949426
22.4558 11.9025 9.91247 29.5811121106
21.6312 14.7062 7.52004 28.7460940683
21.2973 14.5276 10.38 31.5978239195
26.684 3.28124 6.48767 30.8802441712
23.1795 4.0417 9.67634 28.4013827188
26.2228 3.303 9.27116 32.1173658231
19.864 4.39368 7.9923 29.6419405537
27.3626 5.79421 9.75071 27.1328055431
23.9869 8.39174 9.16516 27.8420561864
25.8553 7.10601 7.72984 27.2504906864
27.1993 13.4196 11.3545 29.1511117287
28.0957 13.9054 6.63802 27.9623271908
20.4614 4.31003 10.7875 26.7205138798
29.1311 9.73549 12.2834 30.5939586717
27.0003 8.4641 10.5757 28.7366211788
27.3543 12.2497 8.92117 27.7655771367
24.9802 13.8482 7.30413 31.2584534998
23.6786 15.3591 5.18869 28.3982980328
20.8284 0.0110009 8.58091 29.3252641457
23.0654 2.6936 4.29851 30.3165946387
29.532 5.61131 7.94203 31.2474253889
19.7723 6.94545 10.2173 25.7590296353
20.4939 9.60878 12.0263 28.7528449012
27.151 13.2299 4.31677 29.729166544
20.0733 1.738 20.275 29.8285803261
20.1719 12.1907 16.0582 28.119882495
26.4797 8.61421 15.5081 28.9681320398
28.2637 14.9168 18.9138 29.5900485974
25.3183 7.44783 19.9142 31.4210800817
22.705 6.14096 15.7142 27.487940323
28.9966 0.265526 14.9245 32.603598176
29.1908 8.44678 14.6855 29.8122098135
22.8191 4.00694 13.0803 29.1509475864
22.4405 5.72178 21.2297 28.6186741301
26.5237 15.6163 13.6892 27.0338948632
27.1455 4.75398 19.1319 26.3920937439
26.5984 9.30399 18.2098 31.2485059464
28.6239 3.46796 21.2145 29.4039869936
24.8201 3.2157 19.0417 29.4646352119
24.8103 14.5032 15.4319 27.2980779992
28.0415 12.4726 15.4249 31.5287342684
28.2776 5.74708 16.7109 30.8039378206
21.9346 14.2803 15.2457 33.7844424457
24.1886 10.7613 17.7041 32.722493333
25.4816 11.556 15.085 30.0518769556
23.5872 1.80735 16.1513 30.4318871759
23.1687 10.2521 12.917 29.6270516818
27.5682 5.96113 12.7276 29.76599206
25.1488 0.373591 18.6394 29.8581159476
25.4639 15.1022 18.1654 30.8557529961
22.8721 15.0972 12.6034 30.2744459926
23.7386 12.9896 19.0732 29.3059009066
27.9216 6.74259 20.7981 30.6828023793
22.8558 7.95855 17.7565 34.0802360084
22.7715 3.92463 17.2908 29.1261272234
24.9308 2.5439 13.724 29.2902368476
28.5148 0.653328 20.1201 27.9910694387
27.6757 2.12406 17.5368 30.5788566793
25.2934 5.631 15.0421 30.8664378317
21.9125 10.131 15.4185 30.4700732294
20.9453 6.67736 19.2907 27.9128761535
28.2703 10.8414 19.7681 31.390313043
21.0019 13.2297 18.6194 31.8511147421
20.2406 2.55563 17.5871 30.490626201
27.338 3.31322 14.7666 27.1263125932
28.9532 15.1509 14.3979 34.3998496675
29.2415 12.3892 12.512 28.7366746789
25.2274 8.27248 12.9665 29.379209304
21.055 6.94668 12.7125 26.510214518
20.017 8.53608 21.1921 34.828851742
21.7808 1.42576 12.6197 32.9397403316
23.9403 0.614628 24.5559 83.8865361884
22.69 3.10125 24.4108 76.4886214082
26.2665 15.3493 23.8526 39.6907391896
22.1567 15.866 21.3892 27.3206877573
20.5703 8.41866 24.1349 97.6812339479
22.7498 7.00545 23.6053 35.6752721049
24.5423 5.39656 24.5448 112.499388495
20.5659 14.0107 24.5016 82.088688183
26.9022 6.84118 23.6574 57.5984719093
19.8132 4.28138 21.5231 28.9143119957
26.9551 11.8904 21.8997 28.4307943849
28.8218 11.241 24.3072 63.406256295
26.7146 0.742691 24.4095 82.4764326601
23.67 11.1388 24.739 105.768780703
28.2534 14.1262 21.6927 28.1749851994
21.0374 11.2046 23.9636 53.6553918052
23.6171 0.972808 21.7992 26.4533153479
24.0844 14.1307 24.445 75.1131074392
28.5035 13.8523 24.6083 98.2298944631
26.4382 9.88246 24.2155 74.1965410647
21.5635 13.2971 21.9172 25.9961977676
26.6624 3.40539 23.4083 37.2089372501
24.3589 3.65587 21.7576 27.2942331015
24.1811 12.0078 21.7605 29.9006134399
24.4224 8.59413 22.2616 32.6017205401
22.2337 16.2071 24.229 61.6169382593
24.9153 15.3193 21.275 27.4140817812
22.27 3.90304 38.5735 27.7727904402
27.2475 4.33964 35.6581 94.5601830231
29.3851 9.14124 36.2454 56.1716230842
24.6092 5.07293 35.7824 63.5027131564
20.0859 6.08352 38.084 31.0894707553
26.8326 0.138431 35.6073 86.6600745253
23.5272 1.22935 35.6375 76.8601141796
21.5457 13.6635 35.8516 49.23797596
26.6812 8.38779 37.6489 28.9049475406
25.0505 7.83123 35.6369 104.1017645384
28.9717 6.15865 36.6833 36.7292182798
28.1858 14.972 35.6134 53.7285668876
22.9668 9.26985 36.6303 31.3744930723
23.3495 11.7369 35.3137 107.3516337409
23.8859 15.311 35.9466 67.2161100356
21.6419 4.07076 35.7064 72.5496480009
25.8275 13.1191 35.7083 60.3308622197
28.6549 11.6412 35.5273 87.3762522668
24.838 12.0254 38.5266 29.1929242547
20.7156 1.38451 35.7223 80.0478029719
20.4216 8.17428 36.101 59.3852229994
26.2103 2.15886 37.4441 26.1432933278
28.6457 12.6989 37.8755 25.9528650746
25.4185 4.59444 38.6025 24.8939991651
20.0654 16.2804 38.7081 28.3278163438
27.6653 15.5167 38.3366 32.0769767044
23.3437 1.33536 38.5575 29.9883694848
26.0189 7.03114 47.5565 31.6861940898
23.9477 0.693274 46.3418 29.1578878909
24.8218 11.8283 46.5474 31.1004415282
25.9917 9.0607 45.4936 33.4678473663
20.3994 1.46722 41.7987 30.5930085756
24.2448 7.156 44.1901 32.0828525348
22.8444 4.85848 41.2414 28.9896007817
26.3548 0.857869 42.9602 32.9497476061
25.297 3.41959 41.1836 30.3485121571
26.7495 8.18453 42.3664 27.3754726252
20.3415 11.786 45.4658 33.5464120651
24.157 15.879 42.8328 29.1241100468
20.9478 12.3509 41.3049 30.9589361496
25.7737 14.7643 46.785 29.7902943727
24.7194 9.84749 41.1732 27.0201952422
29.0191 1.67996 38.9954 29.1407245765
19.7264 16.0766 42.9249 31.2133511015
21.9778 16.1637 41.0154 26.0655385811
22.9772 12.6237 44.693 31.2624157568
21.0043 4.1099 45.4224 30.5219183376
25.1228 2.36981 44.6459 29.7740841149
23.5716 12.1644 42.2467 30.7589312032
25.4845 14.0361 41.3948 28.9716617001
29.1578 1.85039 44.1714 26.3900335424
22.9808 7.59146 41.7792 29.4682312625
29.5745 9.29259 47.1326 31.098758206
27.7756 11.5583 46.5622 28.7927201375
26.3699 0.348429 40.0495 33.3990603794
22.3809 6.53981 46.183 31.0248989684
20.3037 8.24597 41.4667 29.3183101617
28.5199 11.3285 42.1307 30.5524774407
28.631 7.95439 40.3943 27.8216951207
28.4441 9.50306 44.3557 28.7310948308
27.9368 14.1266 42.5306 28.6613637502
26.6553 4.46987 46.2623 32.266791455
27.0613 10.7984 39.5968 26.5782604153
23.66 15.087 45.2644 29.170415026
26.2252 5.30135 42.901 28.5178569169
28.7138 4.65768 43.5718 31.9095685086
22.3122 2.99077 43.4873 34.3122973006
28.9004 13.8367 45.5522 30.0422043883
24.4952 7.49773 39.0825 31.6466830445
21.6274 13.9432 38.9624 27.2754528606
28.4498 0.399366 46.5229 29.273047315
19.7178 3.79564 40.1466 28.5751815626
22.3796 10.3898 39.2813 29.1821902231
21.748 2.28383 47.5078 30.4809812075
24.5008 14.9122 38.8538 26.8286673684
28.0958 5.34807 39.3024 29.6968056707
20.5186 16.2181 51.468 27.463742533
26.4994 12.0278 49.2563 28.2536707828
21.7667 4.64012 51.9874 32.1555021484
26.2957 -0.0442207 55.6524 30.2228594462
21.2731 4.84108 49.2014 30.0258732101
20.362 9.84243 47.8571 28.4736483977
23.9096 2.91359 51.7917 34.0521013346
20.6632 7.905 51.391 27.0258801793
26.9414 2.32483 54.484 28.7571128812
27.2838 2.0216 48.5964 30.9345589998
28.1867 13.4945 53.8134 33.0133588024
24.4495 8.07863 51.1095 29.8804409488
25.936 4.67095 54.6995 28.1178476901
22.1978 7.87866 48.8784 29.9384814397
28.2259 7.56064 48.991 28.0851492185
26.8044 9.33047 53.7583 31.7847066242
23.5642 13.7695 53.6491 31.7754616128
26.7398 9.6051 50.599 31.8027404267
27.187 1.37941 51.6849 28.3101937989
23.2601 11.6337 48.8688 31.8175497498
20.9703 13.028 48.2055 30.535954454
20.1147 14.0291 55.6137 29.3250381603
22.544 11.4537 54.062 28.8846915937
28.7701 11.0859 52.3835 28.8684444286
23.7704 5.10383 48.0662 27.5253296625
24.9335 14.4592 49.4898 27.5930176717
21.6595 15.6368 53.7943 28.8776097798
24.5508 2.51171 49.1058 27.3145159905
23.3211 0.446606 55.1104 30.9983596569
25.9987 14.3617 52.069 32.5238369106
22.3097 15.4533 48.9384 29.6120729511
28.2491 4.42963 51.2941 28.7822114446
22.7412 6.95082 53.5272 31.0540350689
25.2447 5.28396 51.5962 30.2659798108
21.4453 7.39908 56.1124 31.2985966521
28.4757 4.63529 48.4863 28.7123224339
27.6183 6.61321 53.582 29.391669217
20.7068 0.745505 54.0433 34.7694646429
22.5506 10.3012 51.4113 30.491451363
24.4034 9.62356 55.3215 32.8254403069
25.4211 15.0602 55.7102 30.9666495657
28.8545 9.35628 56.0187 26.9645009918
29.242 12.8742 49.7842 28.9016928489
19.8688 11.5329 51.2402 30.92957062
29.1782 15.3842 48.1932 29.806382155
19.8671 3.93025 53.9045 35.2021096663
28.2512 25.8559 12.292 27.7200522915
21.3464 27.8528 4.20198 27.1079948071
24.837 23.7295 4.65244 27.0290292113
26.449 20.0294 9.13447 27.4784846184
26.0419 18.2616 7.08973 30.4000146513
27.7375 22.5658 8.4989 27.2587106448
23.4725 22.8023 7.21201 31.0528238072
28.3442 16.7091 7.03336 31.7441989191
21.6438 21.2215 11.2092 25.9386074864
24.1887 21.3358 9.46492 27.6929248998
29.2534 20.2467 10.3985 30.9274233671
24.0845 31.7282 7.85571 33.52819376
27.5314 22.3 5.0429 30.6666969442
21.0824 31.5647 5.9415 29.6854833915
22.3644 25.1818 8.46472 31.3891159882
25.9363 24.7852 6.84048 25.5345056912
26.0739 29.4537 8.21407 31.8471940982
26.826 23.9071 10.8026 30.0399633234
25.1507 27.5326 6.3195 29.5945630042
21.007 32.4625 8.76598 29.1727112686
19.9023 24.0088 9.83871 27.0210652701
24.5114 18.8437 4.87045 29.0011222985
22.3084 24.0998 11.6317 27.6169564018
24.1252 17.6181 12.3505 26.5067033993
20.4754 23.4774 5.30498 31.2749886879
21.1662 19.5611 7.35228 29.527028115
28.8599 29.7117 7.78425 28.0550168273
28.7335 28.3318 5.27483 26.7223087442
28.5341 25.5123 5.79935 27.7196151437
21.9328 17.4442 5.29641 29.2726918525
25.9405 32.3252 10.0795 28.7103406034
20.8472 18.0669 11.0495 29.5446579277
21.9746 29.9524 9.10235 31.8068125284
27.8012 32.1003 4.91217 30.0684184087
21.8673 21.1368 5.16401 28.1740249791
23.1745 18.7274 9.35056 27.4636952104
22.2456 27.8708 7.19718 30.9024335971
24.8914 22.6124 12.2594 30.6876659532
24.995 25.3852 9.33922 28.7014006134
22.5925 30.828 3.69534 30.152186592
25.2623 28.0172 10.5704 34.193257706
27.4945 28.3558 11.9129 24.7563431176
24.6155 16.574 8.67448 29.987991851
28.1554 31.0041 12.0419 27.4667058722
26.7992 18.1032 11.2146 28.7475732388
19.7623 21.3703 9.23622 28.4981993256
23.6297 31.8877 12.2189 32.3585764953
24.5483 28.7327 4.02336 28.0954839173
23.4237 20.025 13.4688 28.500821613
27.3295 32.4121 17.2086 30.7357711723
26.0838 19.7183 17.8639 26.3385836648
21.2486 25.1179 14.4824 28.293151094
21.3113 25.1962 20.9954 27.7219402247
21.3258 28.3912 13.733 26.6604502799
23.0074 23.0394 16.2631 30.1597936215
25.0207 24.0542 18.1016 28.8544830008
24.9676 21.1483 15.812 28.7970762737
20.8699 24.7653 18.12 28.3972508509
21.2265 16.8833 15.578 28.9273351135
27.0517 22.1423 14.1456 28.3308336076
21.9291 18.7972 18.8431 31.5075611295
22.6229 26.5942 16.6635 28.4657868911
27.6282 24.6663 14.955 27.1366288736
28.4197 18.8498 16.6495 27.0913185665
25.0353 25.9213 14.8915 32.1780992363
23.6414 22.1558 20.7993 25.6758322915
28.9638 28.432 20.1361 24.9379024864
23.1338 30.9387 16.3912 27.3421788023
23.8041 30.1852 14.1516 29.2496353318
26.169 28.4534 14.3135 28.8165064315
28.284 20.2971 13.0169 28.5039554751
23.029 31.7339 20.009 30.0046988056
24.4278 17.5561 18.416 26.9775288023
21.0659 18.699 13.6783 26.9548342282
28.9475 21.3321 17.9117 27.0818768751
22.0249 21.998 18.5171 29.7579702083
23.7227 17.6887 15.5593 28.4151782208
26.8443 18.4039 14.4652 28.6703765151
26.1382 29.8796 16.9509 30.4726393852
26.2855 21.8368 19.5513 27.8408105195
27.9129 24.2641 17.8028 28.2249351271
28.9672 29.8066 16.19 26.5865804249
29.1525 27.4206 14.9814 27.2487622568
25.8161 18.0702 20.9106 27.6626370796
23.8376 25.8553 19.8926 28.4964510422
22.8897 28.9047 18.9322 31.0230476861
26.1387 27.8987 18.8103 32.1445335407
19.6918 22.6421 13.1656 28.3484312986
20.8927 28.8735 16.6192 25.2426944515
19.7146 20.6529 15.2059 31.6774352736
19.6644 17.5476 17.8841 31.2562955654
28.5079 19.0995 21.0128 27.7549052658
23.0807 26.4577 12.631 32.32692953
20.8067 30.9767 12.5116 27.4588054537
21.8937 28.0637 24.2195 70.0087812691
28.6159 22.0572 24.0304 58.6978084061
28.8087 26.8418 24.341 91.2896804183
20.4559 18.521 24.5968 94.2596909695
27.7041 29.6125 22.3042 28.1917054626
26.5747 18.0656 23.8155 61.3451534725
25.927 22.6608 24.7509 118.6062368192
22.1709 20.6148 23.7901 48.4420714348
24.6739 24.1446 22.9118 31.103004805
24.9359 20.314 24.354 81.8993024447
25.6052 26.674 22.1407 26.7667088882
20.7173 31.8993 21.2341 32.1272338114
22.4895 25.269 24.2465 81.2917687622
23.8372 29.8558 24.0493 48.358492844
26.1113 27.8356 24.5078 111.0923633789
28.3587 26.0108 21.5919 30.6767904102
26.2297 32.7617 24.1023 78.3955133478
23.6451 19.5811 21.2718 27.7836900859
23.2085 32.505 24.6443 93.3191116449
29.2313 19.3783 23.6989 51.8304999382
20.9513 22.5735 21.9146 27.0729109803
25.1115 29.4938 21.2381 28.9870490945
20.5307 31.9044 24.2428 67.8412854666
20.5754 18.3045 21.8105 27.4515696557
20.0082 27.3389 21.7016 29.7609895561
28.9646 31.9458 22.5028 28.0406316002
19.8767 23.8444 24.1838 69.7863390086
28.3715 22.0405 21.4085 28.0846337547
20.8433 22.1786 35.857 59.7940501594
23.631 18.0288 36.4388 36.6698246348
23.833 22.2964 38.0217 28.511348522
23.5522 20.8643 35.4868 94.8594400152
24.9102 29.6472 38.367 26.9942275599
27.2292 31.3871 35.9108 74.7980740766
26.3513 18.9371 36.0404 45.6324751192
23.5718 24.1939 35.5345 94.6325140173
28.4743 17.4537 35.2209 106.9864018283
23.6057 30.1914 36.0483 68.5518028639
26.7293 22.4377 38.5812 31.397820049
27.0039 21.6635 35.6883 74.3082190302
23.9061 25.2695 38.4712 29.6006086426
28.7992 26.0682 35.4262 106.5668770892
20.7574 16.7813 35.9251 72.3913559845
20.8016 21.6791 38.8644 29.6880364713
21.0065 25.5149 35.8877 57.213723532
26.3338 24.6069 35.9978 47.9943595624
26.753 28.6086 35.9393 75.7533879847
21.2991 28.2959 35.9247 79.3758504352
26.4799 26.4316 38.0237 27.1263999147
21.6758 28.9228 38.6967 28.3794168676
20.2686 18.9885 38.488 26.3842831749
28.3361 32.1898 38.6496 27.8116362273
21.1225 25.9316 38.5026 31.5445374747
24.8321 32.4808 45.7062 28.9993060341
26.0925 19.9514 46.2124 32.0067295266
25.9229 18.2871 41.7972 28.5175405999
19.9732 22.7838 45.0701 28.724922641
28.3086 29.1643 46.2473 30.0791563785
27.4796 20.4943 42.0899 33.4694255242
26.3319 29.005 43.9204 27.9749497882
27.9564 16.8454 43.1814 28.4251567845
28.4549 32.6478 43.1523 32.2282287401
24.4899 25.1684 41.2574 28.4125093759
26.2967 26.4401 44.8266 29.5594496628
28.4141 20.298 39.3294 33.8745648727
23.7255 28.7398 41.0232 28.7206918768
23.4898 20.9915 40.5899 28.3881981307
20.7612 28.078 41.4923 29.7461559315
21.4396 16.5788 46.4286 29.0684391044
29.1375 19.9999 45.7558 27.5203684436
24.5931 21.8183 44.6559 27.0037137362
28.3666 30.0239 42.3286 30.0293022124
21.6638 29.4429 45.1238 27.5528273
23.2985 31.2234 41.855 27.2291993825
20.0156 18.6533 44.1976 29.098528827
26.4491 31.1141 47.4278 27.8876340233
27.3209 22.9512 45.6482 31.3988455372
27.7976 29.4501 39.3406 28.6110578157
23.6865 19.2474 43.6581 31.8525092083
24.0474 30.3526 44.3501 27.9892597727
21.7604 25.0062 41.6966 27.82815328
21.2253 31.4487 47.3999 27.8217159682
27.3242 17.086 45.9356 31.7455432908
21.3915 19.0271 41.7311 28.0855836254
26.1844 27.5322 41.4328 27.0359606792
21.6944 19.2879 46.3861 31.3564380641
21.6897 21.8816 47.3446 30.0589612273
21.8886 22.5282 42.9149 28.2656084359
25.1941 22.6047 42.0711 27.5941280794
28.0643 24.9045 39.9121 32.0215452591
21.6044 26.7698 44.2487 29.1287478839
27.4815 26.8141 47.5163 33.0335640374
23.6122 25.8707 45.6196 32.8929810169
20.6429 31.3338 41.7785 27.3379781697
27.3747 25.0659 42.9163 28.6694073926
22.9068 28.2864 47.5147 28.4523294468
23.2811 18.0159 39.2691 27.5643491818
19.8833 21.8879 41.2614 25.8062169426
23.7935 23.2879 47.0164 28.9304650509
26.2958 17.9588 38.8893 30.6534014524
24.9096 32.3618 38.812 26.1113006731
19.9905 31.1641 39.049 26.5424773743
21.4363 19.1932 50.375 28.4689134905
23.4299 18.1823 48.5804 32.7250823054
24.5037 23.4729 50.0885 27.268132618
25.2247 17.4068 50.3432 29.3264646661
25.1054 21.5342 53.4986 27.8576554541
22.2395 31.9488 53.8142 29.812160531
21.9712 28.0462 54.2659 28.3181657358
24.3971 29.1199 52.9914 28.9995630931
22.4076 19.3283 52.6838 30.0979266728
23.0778 22.031 52.0 28.9847026703
27.0861 19.6482 49.507 29.8561279079
19.7985 17.2185 56.0378 27.2228081497
29.2221 25.1572 50.9281 31.0683516861
21.3124 27.0761 50.9252 29.0357099713
26.3499 24.6566 51.6243 28.7417351168
23.3656 25.7255 49.3735 28.6844640477
25.8654 27.4243 49.5924 27.1846580599
20.9567 21.9207 49.873 26.5761665768
22.9236 30.9981 51.3483 33.1012400128
24.6201 29.6612 48.9158 28.5106981518
27.9485 18.5542 54.0822 29.2631863079
27.2076 20.4667 52.2612 30.6999441927
28.1787 30.7075 50.3375 30.4868942793
27.1689 28.5718 51.8054 32.1641732436
24.1625 17.1627 53.0586 30.2550435174
28.6339 22.6841 54.4674 26.4740675717
21.3726 19.4505 55.6514 30.0192972778
25.7278 17.7778 55.4357 31.1843495408
29.3497 18.462 48.3023 25.9991599901
27.2395 26.5299 55.7952 29.7466884393
26.431 22.1784 48.3943 31.6280492042
24.0392 26.122 55.6937 28.8491278453
28.5996 20.1157 56.1331 27.1300492527
20.6756 22.7668 53.5873 33.0310136272
27.1667 29.7928 55.8899 27.9381970633
28.8328 26.6484 53.3135 29.5390755191
20.2003 24.5977 50.4271 30.2201322766
24.071 26.265 52.2521 31.0782815465
20.7007 29.3838 49.4355 26.1262922707
26.2276 23.9233 54.4639 26.7881004007
25.9694 31.6844 53.8646 29.8205747184
21.156 24.9646 55.7875 31.9337643151
28.8157 24.425 48.0371 31.0344053567
28.1029 16.6486 50.8049 30.0505643963
24.5487 21.3704 56.2609 29.7933550984
27.7048 38.943 3.72337 27.8937015101
25.7288 36.5839 7.0901 32.8277436126
22.0709 38.0734 4.23876 30.4378268062
21.4818 36.9909 11.7193 27.9005846171
27.6417 36.0941 11.4519 25.904482985
22.0966 35.2187 8.8894 29.8765518261
24.593 38.9932 4.84207 30.3242045393
20.2627 39.2531 8.15112 32.3199865833
20.0614 46.5153 9.6678 28.3270902492
26.8919 39.1925 7.3189 32.7273750323
23.7205 44.2819 6.696 27.7314952162
27.7442 41.4521 5.40194 29.8745443382
22.9004 35.6928 6.02281 32.0149833799
20.5443 44.6492 5.05549 25.9345637143
28.4562 32.7823 7.48111 27.5208445098
27.5467 44.5859 9.52757 26.3322770527
21.6556 44.3278 8.77052 28.062907351
19.848 47.4474 6.10554 29.5391174847
27.5955 46.8649 4.59772 27.0622476944
22.7324 46.6349 5.42213 27.6387585318
23.1343 46.9407 10.2871 28.7546465287
25.5719 46.0486 11.0244 29.1035707616
24.379 34.887 10.6162 30.4365237373
27.3689 40.523 11.2971 29.9789454207
20.5419 34.0092 4.93711 34.8011247283
19.8456 38.3053 5.82672 28.3757764539
27.0208 36.461 4.62873 28.20506865
26.5907 44.9806 6.53233 26.5766813585
27.2362 34.9063 8.78369 28.8466338586
25.7979 47.2732 7.98669 28.74076373
23.2786 48.6883 6.95471 27.7867647858
22.6361 38.8401 9.79764 33.61616868
23.3063 41.6193 5.32457 34.055426766
25.208 40.3694 9.46876 32.909909383
29.0597 42.6029 10.7761 28.3626053029
25.2851 37.5843 11.5856 29.93195927
27.6927 48.8087 9.38893 29.9588031798
21.6911 41.2126 11.1976 29.2979489391
25.2852 43.1197 9.11397 31.2767853779
24.1298 33.1401 5.14313 32.9571097804
29.2517 35.1992 4.43842 26.3201795593
22.9852 43.4706 10.8753 27.3061787337
25.4447 42.4636 4.46962 25.9212992537
19.9267 42.0655 8.55757 29.2005471736
19.756 45.4474 12.2525 26.5888969949
29.2698 43.8254 6.88869 31.0109173356
24.4018 34.1039 13.8634 29.3587786316
24.7071 33.5957 16.6918 29.6387897841
27.217 33.6484 12.7038 28.1458369133
28.4012 32.9847 19.6002 28.393171177
20.9084 39.0536 14.067 26.2785239176
21.2472 36.6856 18.7103 31.1637540029
28.0198 44.2922 18.8736 26.6485735296
25.9631 40.3275 13.6565 28.3778453608
26.8218 41.9189 15.9 29.1324502617
27.6307 36.4274 20.115 27.4669780484
24.3927 43.1877 16.457 28.7696544503
27.289 47.732 12.7186 29.5017312535
23.5541 39.0728 19.4195 27.5278198217
25.9759 40.365 20.5221 30.5126974782
26.6111 46.5338 15.169 30.4081975731
27.6811 37.8565 13.9811 28.7399440347
26.9324 42.9435 21.192 31.8436079653
25.6103 45.1885 17.986 29.539182795
23.4567 36.7978 13.5884 27.70865814
19.8491 45.6125 20.9268 31.9215787775
26.9582 37.7785 17.7285 27.1400439932
22.5923 33.7247 18.5183 28.3462513507
22.2086 46.2722 12.9416 30.0593182309
24.2787 36.2801 18.5599 29.3162326919
26.8846 35.6471 15.4931 29.7071011133
27.8525 40.1586 18.2314 31.0436331711
22.1275 47.0505 17.9886 28.9780701085
20.5165 38.7773 17.1486 29.1284460705
22.1621 48.3748 14.6893 30.290302133
29.1285 46.2652 16.0504 28.4529691488
26.4821 43.8546 13.4777 31.660934149
23.8254 46.1592 20.1268 30.2426977263
20.4413 35.7716 14.462 29.5362742004
23.0356 40.3547 16.8483 27.3596840457
24.7332 38.3151 15.5921 29.7445685358
21.7729 41.9354 18.7627 27.436178809
23.5504 43.9212 13.8684 28.9680941307
28.4555 47.1206 19.0471 31.1801911147
24.4179 47.8584 16.5414 29.2990965361
21.0381 33.2929 15.596 30.7194104561
21.6453 44.4487 17.1365 32.0438195294
22.9495 41.1636 13.959 28.9836097268
19.7309 48.4214 16.0335 30.5902855294
29.252 33.914 15.3225 27.6198302088
25.497 35.2101 21.0202 26.4791804687
25.8045 32.6897 21.0206 30.1048050566
22.0318 44.0253 21.0003 30.8909603575
21.1039 36.2256 24.6733 113.0889283299
28.4515 38.4012 24.1072 58.8607623327
29.421 41.8317 21.7017 30.2080926425
24.8672 40.2559 23.3101 29.44453485
25.4878 37.9336 24.3495 89.6639098697
23.9652 37.5436 21.8449 28.2392201875
21.3717 48.5864 21.6367 28.4579356844
21.1151 37.2143 21.7886 30.0274933017
25.8321 48.9281 21.4438 27.6647997405
26.0022 44.6416 24.0326 61.5111239123
23.7043 35.1886 24.3016 60.185965196
27.5861 46.9806 24.3454 97.2965059385
28.2548 38.6367 21.5553 27.8822902785
22.0862 47.3968 24.3017 73.1074912475
22.833 41.8811 24.4718 94.258095129
23.179 44.7324 23.9518 56.1759379396
26.894 35.489 23.6041 36.7150194911
20.0218 41.9358 24.6073 103.5404945086
27.0599 41.9117 24.3717 97.9468201213
22.1791 41.1538 21.4847 28.9527506772
26.3577 46.1259 21.3409 29.1709845327
19.9129 39.826 21.2475 27.0058560453
21.9849 36.6611 38.6997 28.46075613
26.3218 46.5048 36.6926 29.9777919889
29.2722 47.8949 35.7447 70.07584761
26.1781 36.1257 35.4174 116.6433841038
20.9314 40.4679 38.4607 27.7682454129
23.9486 47.5095 35.9741 60.8148903714
21.6169 35.7949 36.0365 55.0766577382
28.9499 37.942 37.8494 30.9533403887
22.724 40.471 35.5102 88.0595326408
27.1199 39.7682 36.7718 35.5091311253
28.8275 41.7923 35.6426 92.2587811859
24.8068 38.5934 35.7485 73.8423597442
19.8068 37.4019 35.2792 116.9634187647
27.4666 35.52 37.8498 28.9689678656
23.6537 43.2046 35.7766 67.6175191548
19.8665 40.1256 36.0432 44.1077760801
22.2753 32.7633 38.6217 27.8031340252
26.5252 43.8885 35.7582 78.1291824964
21.7453 45.4102 35.7442 93.3995791266
25.1623 33.3001 36.1167 49.674641632
26.6575 42.7843 38.5077 27.0419976971
28.791 33.8297 35.7754 88.0357775492
22.118 32.8635 35.7485 82.8098275711
23.0484 46.8299 38.6582 30.8370233526
23.5928 42.0688 38.3253 27.8796267872
29.4334 45.0195 35.6972 70.1398275773
19.999 42.9946 35.9937 53.0851280927
23.8208 39.0039 38.6796 29.4760327651
20.4775 45.5779 38.3571 26.383435059
29.3406 42.9332 41.4117 27.9068166515
27.1936 44.6 40.4224 24.4966559289
28.6185 43.6139 44.5438 32.0605387381
26.0858 34.2479 44.2591 27.4463047883
25.0425 33.3715 41.7458 28.3973877214
22.7785 35.2524 42.7711 27.8780343542
24.7352 35.5932 39.6721 29.6775374471
25.2623 39.7503 43.2009 28.8572456839
27.2179 37.1911 40.5484 29.7442347045
21.357 35.7419 47.2503 28.6574648151
22.9066 41.0197 44.1477 30.4887206752
21.4459 48.7338 39.7196 28.880135724
23.3031 37.5607 46.6244 29.2427180528
23.8302 44.5029 40.1526 29.7440419211
28.8743 40.833 45.1934 32.3818799279
25.0908 41.7993 41.4406 32.0600847033
26.5825 39.8918 39.8298 25.6720674279
23.9783 43.3588 46.34 32.4731083025
29.0996 40.2097 41.1346 28.6916408264
20.1104 38.391 39.8134 27.9495579048
20.9955 37.5618 42.4122 27.9461859791
27.3005 47.4214 44.1716 30.3235060077
21.4033 43.7293 44.608 27.1314619368
26.2405 44.4008 43.045 32.0565466911
29.286 46.6845 41.8014 28.2730956503
20.9499 43.0565 40.0835 30.5479005218
28.5857 34.6301 45.6178 29.6965601132
27.9504 38.2134 43.1937 27.078080072
21.4747 47.72 42.9648 35.3703839808
26.8762 39.1504 46.053 31.2243902408
24.0003 37.8029 41.5257 28.9424175741
19.7274 41.0515 46.3149 29.256419208
21.3185 38.7201 44.8861 27.2534551688
21.2359 34.3937 40.6454 28.6882032516
24.2414 46.1065 44.9405 27.5924143083
25.0728 36.7598 44.6732 32.2687543556
20.9537 34.3232 44.9019 31.620822208
22.735 45.1547 42.625 31.0764476491
26.6159 44.7165 46.5861 31.0548012204
22.2183 47.391 46.0943 27.7149088862
27.9117 33.953 40.5785 27.4780523772
26.046 47.6582 47.0445 29.5319554682
20.1836 41.8217 42.8103 31.923545547
24.105 40.3123 47.0303 29.8083335631
27.1813 46.9556 39.2022 27.562057497
21.9505 37.2013 50.9571 33.7948321726
26.5052 42.0017 49.8984 31.931690202
23.6836 34.4569 53.862 31.2992513281
28.6635 37.9092 51.3732 33.1340026426
24.4966 32.9119 49.8977 28.8787038787
24.5478 37.8306 49.5361 32.2366994992
27.0373 32.9938 49.2169 28.6963226107
20.4239 47.8561 51.7777 33.5224711755
29.279 48.7722 51.8265 31.2304309348
24.038 40.3899 50.3578 32.6379413534
27.5167 37.9098 48.6859 33.2521820849
25.3437 45.9612 50.7245 31.0805538752
24.6392 35.4046 51.1356 29.9004415019
26.7631 45.2052 53.0724 31.332169182
23.5276 43.4938 51.148 31.0324352356
28.5835 40.7806 48.5537 31.7786549338
27.2071 44.5952 49.0934 29.6130696366
20.5173 45.4291 53.1046 32.4091355896
21.3544 48.086 49.2374 31.3719340228
27.6778 42.4154 52.6318 32.1956964934
24.3073 48.5363 49.5164 29.5934514619
29.0457 37.1535 54.2554 30.3847273857
20.4062 39.6637 50.4496 32.5181150607
21.4578 40.8374 48.3333 28.5070062132
21.3017 43.5189 49.3639 28.8708499071
26.2981 36.0352 54.2766 26.7009930153
27.1817 35.5133 51.5262 28.4817649993
24.8868 38.3931 54.654 30.9566234817
28.7822 35.3421 48.2003 32.4975394874
23.6613 41.5172 53.4388 29.0972648702
21.1473 40.7395 54.2486 30.6170127891
22.466 37.7053 53.9615 29.8748630327
21.3327 35.3429 55.1889 30.2419193741
25.8532 45.0438 55.8931 29.5656085302
23.3679 45.4602 48.289 28.3777733896
26.0832 41.2023 54.5251 31.3056069864
29.1024 46.4724 53.3482 31.6482187761
22.9325 44.3847 53.9628 29.5823057041
23.8686 46.6858 55.7298 29.6348511901
21.7698 43.0383 56.211 26.044344309
19.7926 35.4347 49.9034 34.4951577083
19.9955 45.6489 48.1674 28.1064647174
25.0212 48.7597 52.4328 34.1800814648
28.0072 32.7702 52.4822 28.9380641462
26.1224 33.4913 55.9368 26.7037508561
23.0938 33.3701 47.5923 31.5322914189
37.8541 5.25115 10.592 28.2585062048
35.6326 5.69245 8.87056 29.3968211569
31.9932 8.11407 4.86516 29.6818086309
35.2116 11.6088 11.0291 29.7453469536
35.4725 7.02356 6.41301 32.4280475706
31.3489 4.57889 10.3044 30.324246117
35.6512 2.54173 6.92321 34.7136870417
30.519 4.07657 3.72708 26.6465319141
35.9403 9.83859 6.7189 29.4571349097
35.2028 7.73628 10.1449 25.4088967982
33.7689 11.0605 5.13118 32.0528506145
32.5086 13.6777 5.89812 32.1575708447
38.0975 9.45941 4.97242 30.7738710766
35.3547 13.6603 5.01125 26.5904953774
37.7258 8.77514 10.2791 28.0739000286
34.2639 15.8456 8.47279 34.1836102425
30.8022 0.593147 9.67021 30.1931011536
30.5407 0.646641 6.252 30.093834257
38.164 1.64765 8.1941 27.3604535397
34.5925 14.4619 10.9114 30.7092458426
37.3533 11.3088 8.93358 29.7016970263
37.1257 14.6714 6.68086 26.8496873083
38.8883 15.6765 10.8411 32.2484453817
31.6178 3.74833 6.50195 31.358189228
30.5252 2.14006 11.6282 30.0343771154
39.3719 0.0762728 5.92707 35.0491197182
35.5146 2.26981 10.2313 27.1955275294
33.4604 3.78094 9.12255 28.1700475318
31.6095 16.0651 7.08546 29.3586675914
32.1422 12.3072 12.0009 32.2466923135
30.756 7.74862 9.20497 31.8486771433
31.7667 9.782 7.43115 31.4780823239
32.9985 1.27065 7.6659 26.1053954257
33.2169 5.76487 5.34562 30.1137600651
34.2087 9.91514 9.19826 29.8584201319
32.0858 9.05377 11.4346 31.5031598484
37.3515 6.58365 4.42601 29.6900023786
37.2154 14.1816 9.41252 31.1513358567
30.1506 12.1237 6.86614 32.9418288988
35.8192 0.632684 4.6083 30.3382897217
38.4494 2.41048 10.975 29.9126502159
38.2608 2.4025 3.93121 29.4704501025
30.177 16.0036 9.68588 34.6300420837
31.6168 14.7292 12.0616 30.8177809596
39.2548 4.95256 5.27316 32.6276481242
37.103 11.8092 3.79331 30.3170828729
29.7563 12.3267 3.85804 30.3619780013
31.3391 0.497965 3.71359 29.3217763717
32.0238 1.62547 13.8845 28.2783418618
33.1788 14.3646 20.2411 28.4636025944
34.6427 2.02081 12.8038 31.3989919286
36.0927 0.311691 14.6523 31.0655698845
34.4299 4.53192 13.7821 27.9398167225
37.0014 5.53011 13.7519 28.8734252
34.4379 4.1441 16.413 29.6763570864
38.7732 10.0096 17.3105 33.8096087451
32.0492 3.05623 19.7598 26.2006698242
35.741 7.60329 15.9339 30.8980673994
32.9923 11.8322 14.6581 32.0522526569
31.9428 6.19292 12.4971 31.7973691054
35.0046 9.51866 14.2151 30.3736764212
32.4713 12.8113 17.6652 28.6424861634
30.5557 1.69586 17.2133 28.201944323
34.8967 13.7476 15.7345 26.0015229393
29.5651 12.5464 17.8329 29.6064381491
36.7944 14.6674 19.7326 32.6090813983
34.9053 15.6987 17.8778 27.1815393912
38.1283 7.17393 17.2191 29.8750957166
33.5088 10.293 18.4901 31.6899594996
30.2486 8.79472 19.9986 27.6919024484
38.7783 0.568138 13.7637 26.597323981
30.8022 5.21142 18.3527 29.2347150488
31.5666 3.60764 15.6227 26.687361508
37.8471 13.8835 15.7314 29.8016212118
34.5472 7.23716 12.6576 27.1461774027
36.5172 4.39547 19.7627 31.2853405474
38.6883 3.23706 14.3172 29.937342927
38.9101 12.0958 13.8798 32.0320265627
37.9125 4.2539 17.0474 27.1173126093
34.1996 6.46533 20.6295 27.7206314024
32.171 15.7428 16.4112 28.7577174684
37.1968 10.3547 12.5719 31.3049469505
30.5828 10.448 15.9739 30.5319596195
31.4283 8.50423 17.7547 30.194730649
33.6101 6.51516 17.7514 31.7373859105
39.1784 7.52986 12.6272 32.300572844
35.8782 10.9273 16.8054 35.0986033571
35.1806 15.0739 13.5304 31.0627214288
39.2193 13.4049 18.1633 30.475661001
33.8593 1.56358 18.0681 29.0709948762
37.1104 1.43851 17.1313 31.4085149752
29.9692 5.41809 14.281 27.9189379522
31.1413 0.770169 20.9504 28.51170023
31.4847 6.56448 21.0937 27.1286308145
35.1806 12.6988 21.2507 30.1905591077
38.9781 6.65736 19.8591 26.4064251081
34.6716 0.208621 20.4976 26.9123662267
29.61 5.13039 23.3622 37.9591354007
38.4579 15.7671 24.0934 55.4517628022
38.8931 13.4346 21.7466 29.0131755848
30.701 2.82933 24.2989 86.4907497423
38.6856 12.7641 24.5226 101.7479703963
34.3417 9.22099 24.291 64.374087464
31.6254 7.11743 23.9682 68.5308068564
29.9148 0.368908 23.6853 41.5834259505
37.2831 10.3528 21.3843 32.260525289
37.2599 5.94369 23.8391 53.5244936893
33.5085 3.74729 21.7886 28.4453056882
33.5572 12.2761 24.6708 96.2643921459
31.3852 14.1787 24.4544 76.7151487467
34.4589 6.33688 24.2941 73.7014652779
37.1175 10.5102 24.3319 59.8350442416
33.0019 3.72592 24.5641 87.3385257056
31.2743 10.0716 24.296 72.0986101001
35.7492 13.7051 23.7862 36.4408495366
35.1454 16.3417 23.9951 63.8853767957
34.216 1.03038 24.4878 91.8262288241
31.1136 13.4324 21.6563 29.8356903813
38.5854 8.33286 24.3554 92.8133220151
36.9978 7.45803 21.465 28.7063749035
36.1051 2.34118 21.5153 30.7415387687
38.7542 1.17233 21.8317 27.3766947199
31.741 10.5929 21.4518 29.021050756
34.2867 9.45328 21.3692 27.9301508105
32.0807 0.350359 35.8416 70.0786416177
36.4966 2.55793 35.9877 67.6958019716
39.3289 14.0736 35.4724 106.7077448676
31.3654 0.0924071 38.6349 29.3799764355
36.8028 12.0463 38.6739 28.3720540882
33.4849 6.75021 35.9404 87.2690542788
31.2854 4.73783 35.7898 87.161500822
34.0498 6.71788 38.7511 27.4896418683
37.9737 5.44866 35.6606 103.3533729604
38.5423 2.21584 38.2134 28.625074207
35.4478 9.30269 37.3305 31.0849886582
32.7467 4.24198 38.5426 31.511141194
33.1067 11.6606 35.9054 62.6568629399
31.439 12.9159 38.1202 29.8374114046
37.7907 9.64346 35.5671 102.0814674759
35.8906 12.26 35.9326 71.7320861575
33.5704 2.97986 36.1095 60.101154297
37.0592 15.0067 36.3529 32.9503476238
30.9531 13.6131 35.2942 94.1710566961
32.1814 9.23473 36.0646 63.9386522857
29.6521 2.27531 36.0912 52.8706786952
32.2854 16.0078 35.9955 51.3696372836
34.8571 11.3054 40.3755 30.9751279446
32.2782 15.5699 39.0595 31.1159395759
32.3775 8.81534 46.3542 31.6800576
35.5473 12.4484 43.8689 31.160034016
38.2854 3.33896 42.5755 28.431224637
35.8406 1.96553 41.8259 30.4757165253
37.4296 14.9739 45.7311 26.5636140494
36.988 8.12475 46.0745 33.1939067242
32.062 4.89071 45.7855 28.5648695088
39.3028 15.6723 47.4921 30.4304317318
32.7335 7.40916 41.3414 30.3384903333
36.3329 10.0317 42.2285 26.9642684692
30.7122 7.0816 44.5331 32.1526806938
32.6717 15.9708 43.7905 29.370890747
32.7137 12.3302 46.8179 31.6728931883
35.2201 5.97751 42.4755 27.3910150514
37.8328 5.99786 43.335 28.6398190248
34.0722 13.7568 42.1856 28.6883438503
31.1239 12.8551 41.7991 28.205325251
38.3495 1.70087 45.653 27.7983908779
36.2258 5.36699 39.8728 29.9273332573
34.8428 15.9377 40.2138 30.170680565
37.1334 14.888 38.9622 29.1936768725
30.3747 6.39935 41.8313 25.0400449742
35.0812 8.426 44.135 30.1706718068
29.634 15.0184 40.3906 27.6250850343
32.3427 0.46634 41.5224 26.4697308252
30.5343 3.97573 40.1265 27.0178937291
33.9656 3.77754 43.4754 27.8156513888
31.7179 3.20743 42.1616 27.1693136763
31.6 1.96697 45.304 28.1818847513
35.6818 12.8079 46.8264 32.0417007799
37.3933 5.11357 45.9809 29.985240059
33.0334 10.5354 44.2784 27.8006432229
31.3477 9.90535 42.2815 28.3031624154
31.396 13.4351 44.5486 29.02418436
38.8311 10.9661 42.1358 27.4822613361
34.83 4.68557 46.6298 27.9259122352
30.3966 10.1433 38.9561 28.8651522951
38.7611 12.6427 44.2118 29.7909164769
35.4593 1.49541 45.1986 28.6390776781
35.5122 2.30507 38.9033 29.5734323208
38.8792 4.16295 40.2185 30.5456419726
39.2846 13.6055 40.6272 33.7864894246
29.5315 0.491477 41.8089 26.9280205693
36.9985 8.089 39.9146 30.4812553412
33.1319 9.50781 39.1022 26.41221564
29.9272 6.68081 55.026 26.4689209534
34.7485 14.8076 55.58 26.5620036734
32.1692 16.1993 47.9978 31.5673226176
38.067 2.01713 48.6153 27.1541384516
31.6089 9.39257 51.5705 27.1918846966
32.1098 5.66233 49.9284 27.3660468712
35.4503 0.309229 53.8237 28.0002086538
36.2455 4.49248 50.7195 30.7265227972
33.5762 3.39253 50.1895 30.8738019496
39.081 4.43182 50.337 31.5165686843
33.3418 9.24371 55.3366 30.6468730065
35.1223 10.0036 51.0998 29.481416408
30.2239 14.2173 52.1709 28.8042785828
31.7723 14.5203 55.7269 30.5567244387
35.8919 7.5685 49.7972 30.9312305533
37.5138 11.4149 48.435 28.9456104632
31.513 1.18584 51.2992 29.4746595067
33.1249 11.9526 50.7105 29.2597883968
35.9284 14.8797 51.4259 33.4301634065
31.7447 1.30149 48.3801 28.0513454446
33.6752 6.88875 47.9306 31.0787444933
34.2213 14.2877 48.9517 32.3889558747
39.2358 13.6002 56.0386 30.6850899647
30.4436 3.56961 52.613 28.2034773052
33.4181 4.51789 55.6473 28.5175399404
37.1923 3.24604 54.5209 28.0810217603
36.7038 1.78828 52.1339 29.3790098523
30.9665 10.0592 54.2858 25.5026845193
31.8541 5.7129 53.5117 26.9438028139
35.4492 10.8288 54.2715 30.5144577139
35.7785 5.57813 55.0674 30.2255026016
35.958 6.78402 52.6604 28.6899180119
31.8474 12.6139 53.4995 26.4677224601
37.4207 15.7318 55.3301 30.5199748196
33.4128 7.71622 52.7071 26.0454072672
34.6018 13.1322 53.3114 28.7985862351
37.7088 9.02101 53.0114 31.6392137284
36.967 12.1044 50.8714 28.1232725441
31.1723 11.2242 48.8204 29.6813695167
38.1448 8.70947 48.6426 26.75664349
31.1251 4.08775 48.191 27.4261708982
35.2669 2.3632 48.1434 25.5701695528
30.0942 7.43058 50.9391 29.6210592845
33.6899 1.71737 55.6034 32.246044003
29.861 2.0551 54.6979 29.8489117494
29.9056 28.819 10.2116 28.8688134225
38.9538 27.0304 4.02763 33.3020455769
37.2171 31.6612 10.7992 28.581565757
37.9641 23.315 7.10696 30.0481233341
35.5238 19.149 6.5036 31.6209291405
32.8008 18.4345 6.34159 27.3504937273
29.8399 18.4365 5.45777 27.9716021434
31.4187 22.185 4.76381 27.4860756224
38.6573 22.5151 4.44476 30.2409964721
36.1956 32.3391 6.46318 29.0215663497
35.7608 21.6874 5.03102 31.2027229232
33.488 29.1713 7.64471 29.7315097341
33.9314 25.471 5.51041 30.7071501366
38.738 28.4987 11.5592 27.4792757022
35.5219 28.2417 6.63194 28.4261267092
31.4783 30.9285 6.27869 29.4433273598
36.0701 22.7056 10.8509 37.1494474081
39.1875 25.5496 7.88802 29.863417573
37.8204 29.0421 9.27134 30.4605275619
37.9301 30.2456 6.88902 32.4980782195
31.3623 18.4256 10.395 27.6663480081
30.6681 32.2123 3.76535 26.4176721753
31.8043 26.9196 6.20559 30.0839700239
31.7978 20.8312 8.15808 30.8638595267
33.7632 18.3597 9.23066 28.6667486263
35.6706 18.5719 11.3441 30.77828461
37.9954 20.7958 10.6089 30.3906452026
37.1509 16.8763 5.27416 30.0888586318
33.4487 22.6801 6.73179 30.4986438584
35.0655 26.8759 10.6364 31.2078712758
30.325 23.2773 9.40162 34.3985805027
35.5951 23.6259 8.35046 33.4906171306
37.3687 18.8802 8.5728 32.6477553179
29.881 25.9132 8.27607 33.0904389825
32.146 30.8647 10.967 26.9890540442
38.8581 25.7239 11.7226 31.8409400508
31.0902 28.7703 4.16531 25.9602524861
32.3041 27.0146 9.80569 31.7566283019
34.4882 29.7944 10.3359 28.2944672578
36.6145 26.5231 8.40192 27.4934128791
35.9366 26.7519 4.006 32.4375870893
30.7399 25.2621 11.5563 27.9146882263
29.6877 31.8965 10.1931 26.6531857115
29.9826 24.0798 3.66655 26.5095823622
29.7274 21.0107 6.76623 27.0617801116
35.0349 31.5825 3.81593 29.9475343611
30.8035 19.9251 19.3872 28.5337781983
34.5641 19.848 13.4998 30.7251972289
37.8817 31.5888 20.4477 28.4230418019
36.0524 28.5016 13.3283 28.6013930682
37.7857 20.049 18.7431 27.6566152235
31.7886 27.6548 21.0748 25.5988182882
34.58 19.916 16.2461 29.2294575483
32.8078 18.4215 17.8619 29.6775577074
30.3121 30.6993 19.9283 25.8950261843
31.594 23.131 13.3173 36.0342910868
34.4861 22.5556 13.4125 31.0753449201
30.5281 20.2035 14.9396 33.6262836032
31.8823 24.9061 17.5303 27.3964349332
34.9704 27.3342 19.604 29.791861268
29.9137 23.8718 20.0392 25.4430527796
32.9942 25.3026 15.0311 29.4045713323
35.252 26.3947 15.1013 26.6403332328
31.33 27.2016 13.5096 27.919961426
37.6818 28.4888 20.8218 39.2263226141
35.6103 32.2612 18.8221 31.1767751857
33.4011 32.5663 16.4392 27.621571759
36.3314 24.9724 12.757 30.694756942
33.0965 28.9219 13.2902 26.6395133504
34.6927 18.2425 19.7778 24.6256887695
30.1182 16.8523 20.189 31.2456154754
36.4931 22.723 15.4837 30.6636130563
31.9257 18.8207 12.8146 31.3254504393
38.4974 18.7456 21.0611 30.8165703352
30.4925 23.2783 15.8951 30.7177926185
35.5383 21.679 17.8125 27.5606016574
33.5399 23.1279 19.1798 31.9110221904
37.6743 23.2042 20.3699 27.7151106628
38.0533 28.6641 17.2426 27.6426833836
32.7012 27.7829 18.0369 28.3344595497
38.5698 31.6058 14.8655 29.1780639988
31.4467 30.3542 17.5489 29.8532663196
36.7895 26.4813 17.3579 31.2036912095
34.0203 29.0724 15.8944 28.1228844386
38.0302 23.9998 17.7421 30.638909767
36.3979 18.1097 17.0217 31.3163305457
35.9584 31.6921 13.157 26.3728148542
35.3346 24.6908 20.8335 30.9177336931
36.3608 30.7886 16.3253 28.8001138792
32.936 32.1212 13.8028 29.3135537679
38.2253 16.5484 15.5541 31.8612244685
38.6924 19.599 12.9682 31.7403238702
38.8866 21.3907 15.2601 30.1837256902
32.6436 16.9943 21.1652 27.4665291884
29.9337 31.3621 14.2856 29.8619617471
37.5123 16.9317 12.8422 29.4779590867
31.7222 21.8345 20.9236 27.1292003295
29.5466 26.7726 17.8368 28.4399870934
32.7677 16.5504 14.0212 30.1686488532
29.5443 16.4358 16.9755 28.6593604599
32.0614 19.5907 24.6181 117.964744717
35.4557 19.4722 24.2786 66.067679531
31.3311 31.5604 24.048 90.8292001801
32.2477 16.7913 23.7496 41.9970191611
37.7123 32.0942 23.1656 27.420308055
36.5994 16.7837 21.5738 28.0949851177
32.5566 22.4152 23.9613 59.409429158
30.2713 24.4643 23.8596 57.69424792
35.4442 22.3959 24.1644 77.7197551936
35.3933 32.1849 24.4802 98.5032371458
34.5466 20.3555 21.4201 31.1647784165
33.2014 27.6724 24.2688 85.3770475279
30.6279 28.6492 23.4375 34.0674382703
32.0805 25.0656 21.7133 26.7942515855
34.6513 24.986 23.6438 44.2444199484
37.4974 25.9321 24.0215 70.0906520744
35.4778 29.3967 24.8312 115.7801137862
38.096 28.4152 23.7474 34.7327336094
34.4199 28.9733 21.7911 30.6838698305
38.0564 18.6527 24.2834 66.4858589792
32.6541 30.9546 21.2841 28.0716394458
39.3155 21.243 24.4252 85.2667011677
37.3434 21.1047 22.071 25.966704669
39.3657 24.045 24.1205 67.5762921211
38.0964 21.8324 38.5574 29.4252377835
37.6803 20.9022 35.6499 80.3148731917
30.902 18.498 35.6584 74.6294529182
29.8088 21.626 35.9087 66.378464566
38.1239 18.1679 35.9719 57.5745059097
36.9739 23.7957 35.9661 74.4642027443
33.1283 22.0464 36.6917 35.4333054724
35.0379 20.161 35.5055 99.0211622839
38.3421 17.4969 38.8164 31.4917924759
34.791 24.1494 37.5015 29.6544751664
30.8147 24.3916 35.7483 63.1957252406
38.668 27.8826 35.5304 117.2450178078
33.3852 25.4568 35.6055 102.4509195414
31.6063 29.9323 35.8939 101.3945063325
33.7341 28.1035 35.9735 59.1584469323
38.8934 25.4883 37.2396 30.4479243961
35.2465 17.0186 35.6221 92.6666135321
36.0694 32.439 36.0691 74.3405386573
36.2998 29.3456 35.9815 64.9684803207
38.9602 32.451 36.3271 54.2545265475
29.5051 28.3136 37.2141 31.1726540954
30.8476 20.0009 38.3008 28.1981194681
34.6599 18.4933 38.2036 30.2823024902
30.8424 24.7075 38.6698 30.4287565683
36.2743 29.2851 38.6637 31.4418871202
33.8647 28.3441 38.6071 29.9596268891
34.4288 20.5844 44.4247 30.7478815329
34.4247 19.4335 41.7167 30.523549288
37.7533 29.7294 45.1518 28.8303204445
30.6016 16.7935 42.1472 26.6937306713
38.3323 20.1393 42.041 28.1610051552
37.1342 19.5943 39.7141 25.825527076
30.7967 23.7506 43.6222 31.2925968793
34.1288 23.2716 43.1223 27.0689084501
35.2848 24.1438 40.5452 28.1584924552
31.7628 21.6122 42.1529 29.5875210397
31.2601 32.6204 39.2829 32.7631760263
30.2714 27.2426 39.8906 27.6259185394
38.1293 24.6666 40.0252 29.7480464441
33.1797 29.4117 42.4532 28.8817962883
38.6446 27.4234 40.6189 30.6962441612
34.0245 32.4147 41.3431 26.4391498914
34.448 26.5615 42.7431 29.7140319161
37.2114 27.7873 43.1628 28.592951773
32.822 30.6913 45.1405 28.0640756207
37.965 17.3869 43.9023 29.4112282289
37.3351 20.8292 44.6095 26.7147457132
35.9636 30.1554 41.5982 30.1988687325
32.2309 18.2395 40.0514 28.8972662981
38.5641 18.8786 46.2485 29.1853590318
30.3114 22.4567 46.0643 28.6367993945
30.8678 17.3684 45.4975 28.2864866652
35.3848 16.674 43.0258 32.7658771117
38.9914 27.3083 46.6961 30.245336151
32.1563 30.0632 39.9196 31.5295522127
33.4347 18.9837 46.29 28.4520815411
35.1869 31.0715 46.1306 29.4264950215
32.9516 24.8945 44.9786 26.6492332673
31.9522 22.3458 39.5261 27.5537893627
35.1699 16.515 46.8127 33.5632102277
36.9823 23.5995 43.7069 29.3386325096
34.8834 27.0487 45.56 30.840062229
31.0492 28.981 46.2825 27.6773959877
34.6502 21.5064 39.5989 27.6916656071
38.0272 31.7749 42.8534 30.8291001985
37.0154 25.0131 46.2452 29.1565894779
29.9958 19.5338 43.0206 29.8960036164
30.0139 26.2683 42.5115 30.9711784347
31.0676 26.0431 47.2106 32.9276047635
39.333 26.0548 43.8436 29.2258815143
30.3328 28.8046 43.3648 29.4561647455
39.3121 22.8602 41.8592 26.2079511985
33.1883 25.9686 40.1829 29.7971373518
39.2912 21.9979 46.8134 29.5365704824
35.8029 22.0737 47.381 30.0939438772
33.1384 23.5499 47.3859 29.696254785
36.2777 32.3424 38.9384 29.4996491687
30.6899 20.1904 50.2153 32.2436852638
32.6219 27.9092 48.7754 28.5837682174
30.654 17.1088 55.7176 32.283254789
37.8686 19.782 52.8793 25.5909997826
30.0329 31.3361 47.9335 31.6934846601
33.7764 24.7387 49.9034 29.2340867053
31.7654 22.6311 53.6993 28.5519459919
31.9071 26.493 51.2122 32.3491253504
37.9622 23.3401 48.8831 27.3479031357
33.9479 20.3943 49.9306 29.3763292968
38.3162 16.3953 50.1482 33.7847144598
33.2754 25.2783 53.9884 28.1226521874
32.1198 28.6701 53.2601 29.7363743558
30.9546 26.5522 55.0711 27.3574818128
38.7968 25.3207 52.9799 31.5770921079
38.1815 22.5341 51.599 30.851625923
36.0852 25.5861 49.3836 33.5092903892
37.7285 29.7992 52.6125 31.2761904985
37.4597 30.0177 48.1218 27.2079712058
36.0122 26.3749 53.6361 32.4913475487
36.4874 31.909 54.1096 31.4446448175
29.7879 30.3928 54.65 28.7716256235
36.3709 17.1885 52.9688 27.6752321718
35.2508 30.706 50.0026 32.6306224539
36.3047 20.6855 54.9132 27.9505483244
33.9866 19.1611 54.4981 29.7350329946
31.3883 20.2867 55.2831 30.4707085504
33.9153 22.6962 51.7571 31.5349419098
34.5101 29.0412 55.7697 33.5880659342
30.7638 30.8895 51.8997 28.8186538504
33.3863 32.5241 48.0775 27.0224764967
33.9534 23.4565 56.1518 28.3074193835
35.9231 23.0116 53.7295 30.6645857797
31.7258 17.3961 50.6464 32.0238168543
35.0375 28.9497 52.8625 32.3509795219
37.0079 18.8833 50.2983 27.7047682297
38.9008 32.1914 50.6092 26.5361578408
35.374 27.9169 48.1343 28.5626424104
30.0486 16.9674 52.7954 30.106943064
34.0648 18.5319 51.9229 31.9369944442
39.2285 20.1556 55.6935 28.68998284
32.0746 30.396 49.4007 27.9798807044
38.734 32.1907 56.1019 33.034145316
29.7756 22.4255 51.6933 32.2198650157
33.5677 17.3494 56.3956 30.7885452623
32.016 20.7712 47.7935 27.6768167446
36.1196 19.199 47.9033 27.4786855701
32.9373 39.345 6.43339 25.8047523722
30.7797 34.1066 6.57013 28.8118329929
35.9756 33.6095 9.02255 29.3105342853
32.167 42.683 11.403 30.0495854549
31.3433 36.9408 3.96366 27.7867153154
34.5762 41.4264 6.84686 30.810634999
