4.89901 47.3725 24.4192 91.1022783133
5.45576 48.9623 21.186 28.1342393021
9.57235 36.7577 21.6258 31.631939691
10.8826 41.2372 16.8304 30.2156969406
3.47347 40.6098 35.8151 92.8762680971
11.3181 46.1826 35.606 78.2696826847
0.370819 41.5745 36.4985 36.2410045787
2.61863 37.8531 39.1188 29.0334688739
3.12207 44.9734 42.7003 30.3069539769
4.74547 45.7775 39.8077 31.6924179508
7.1364 40.3023 38.3793 24.8898046884
10.1003 37.9593 36.2303 46.2566290104
2.44619 43.6639 36.0704 80.1860333834
9.25133 38.1718 38.9979 28.5988208911
2.29336 40.6809 38.5265 29.3302875099
7.89664 39.505 35.5715 95.4188366271
6.18014 42.0353 36.0783 61.2015753588
4.7608 41.9037 39.3932 31.4573973916
7.4844 45.2232 41.1388 29.7106061358
9.14509 42.1859 35.9648 46.1089902617
2.99528 37.4677 36.2437 55.1627429068
9.59586 48.4232 41.6214 29.0151570786
4.85811 44.1773 37.4095 29.8828168249
5.92402 48.1624 38.3305 29.1443006236
3.91139 47.8562 35.7559 98.619161372
6.21469 46.3836 35.889 66.069060207
9.34692 45.8334 38.7507 29.6403255316
9.00713 43.0308 38.628 31.9651450169
9.02661 44.8001 35.6013 82.6991930854
11.8737 40.8787 41.7991 32.4023389879
6.79403 40.446 41.3472 28.0058957627
7.76935 48.9841 35.5644 88.0026281557
1.43554 46.5926 36.6358 35.896146158
4.59376 39.4395 42.6367 29.6518380952
0.183094 38.8675 36.0413 72.4652116997
1.24787 42.9257 42.7534 35.6892916099
10.8246 41.087 39.45 29.0519668037
5.22714 43.4588 41.6945 31.88542037
10.518 48.7542 36.0461 54.155915209
12.1674 38.4065 39.0392 27.5676021378
2.45254 47.2747 41.4331 26.8293041671
5.45414 38.1614 38.5695 26.2103152757
11.5286 46.206 41.2851 30.2688537289
11.2846 37.8861 41.9895 31.5326325855
0.285291 41.3181 40.5045 33.4932649874
0.829397 46.793 39.3934 33.4190088634
12.0901 41.5203 35.5497 99.0332757796
6.10086 37.3123 35.9986 79.2061323482
0.406834 38.5417 42.8515 28.6593434518
7.10867 47.9281 41.7806 30.765666196
9.27582 41.6332 42.5482 30.544969252
8.86138 48.813 38.4185 29.5379398777
3.87722 36.9172 41.5256 28.9204099185
8.67004 38.4267 42.8106 29.8535874959
7.12332 37.2405 40.8544 26.8860926676
5.10308 39.1324 47.1991 36.9660943211
10.6486 47.5167 49.9428 30.5483655044
10.1008 37.5627 47.3412 30.2220012965
2.25494 40.753 46.3522 30.4236286536
7.33305 41.256 47.8305 29.0755744413
1.1551 40.7714 54.8166 30.4318390858
8.07053 39.0053 49.6962 29.5536924805
2.30569 46.4536 51.4753 29.9055441168
8.45361 38.9775 45.6562 32.2749885359
1.30432 43.0275 47.6041 29.6528888123
1.63739 45.89 46.9781 32.034188024
0.661166 37.8553 45.3905 31.9067496851
7.15925 42.6006 45.0083 31.427810228
5.57035 38.1355 44.852 28.4149351254
2.41678 40.5071 43.6712 30.0620800597
11.9459 39.6684 48.668 27.6825901542
3.39156 38.1737 50.66 32.8273098107
2.59939 37.8573 47.9519 28.4895372709
11.9074 39.4129 54.511 28.2212942145
4.06065 45.6554 45.1266 29.4551413106
2.99496 46.9943 49.0141 28.0676217987
3.81618 48.6692 55.8812 28.7313408483
4.37729 42.9401 46.2202 32.018732497
6.07604 38.2374 51.1788 32.0424644387
7.17901 42.8578 50.0697 28.128435085
10.9613 42.5275 52.8611 26.7391613735
7.2684 45.8911 52.5341 29.3089472913
5.86596 48.6562 52.2788 30.1387811876
4.73468 44.4269 48.6163 30.59363802
5.20701 44.5487 53.8316 33.7284285627
9.86162 41.8644 45.7358 32.3788016768
9.4499 44.5307 54.0687 29.6550830041
10.2672 41.7333 48.8037 27.8317159058
6.60319 37.8081 53.98 29.2196083571
10.8016 41.6114 55.4106 29.7105185745
3.82099 40.9965 55.595 31.398541781
9.27804 38.6555 55.2753 30.9510933602
6.95058 46.2344 47.9814 33.014015006
11.6175 44.0498 45.0122 29.6593186106
8.37777 45.1305 50.2129 29.8181165823
3.84775 48.6755 44.6464 29.0933509887
6.92166 45.3981 45.5032 29.7653707308
1.92899 40.902 51.3961 29.6441051029
4.60486 40.4743 52.9025 26.6431660468
8.96105 47.5207 53.9309 27.9385973757
1.79169 38.1971 53.3409 28.6669806056
8.9321 41.043 51.5977 25.6649954648
4.28754 38.3045 55.4236 28.1937894303
10.7427 47.2372 44.6887 30.9503688003
7.28668 40.6343 53.6711 28.3467728685
11.4076 44.3226 49.402 30.1106442949
1.92124 43.5129 50.3264 29.0030471073
11.6413 48.7291 47.4444 31.0708668364
3.11456 46.1197 54.6452 31.4304808987
11.3282 39.3398 51.7819 31.1750143405
7.3258 42.9653 55.3724 29.74540661
4.65033 43.0569 51.5408 31.7719323586
10.1054 37.1341 50.1874 28.8339109666
7.57085 48.0332 44.5118 28.8265869818
0.24664 45.9278 54.3061 28.8081341126
0.221944 39.2341 49.8383 27.0712922334
11.9961 47.9006 54.3587 30.8885604497
-0.0580026 48.1856 52.5346 27.7273409342
9.26782 44.5861 43.3377 29.3878718193
12.1981 45.8911 47.2988 28.3005030127
7.91938 48.7403 48.1878 29.7502583077
20.9783 10.4627 13.6927 29.6483607995
17.9344 2.85022 5.54414 31.081250325
21.0123 6.19244 6.36329 32.3181460828
12.4066 7.04697 12.4658 29.008262062
24.1094 10.598 14.0418 26.5757352841
23.6364 5.05687 13.7397 28.1115725407
17.9232 0.665156 16.275 31.3868963737
23.1024 2.20681 7.15264 30.5684585648
13.5618 5.24253 7.14508 31.6408635598
18.5836 2.67333 8.32736 33.2578967922
22.1106 6.43697 9.59161 26.5216340217
13.5735 1.21106 14.7699 34.6068085091
19.0841 5.94042 4.67448 29.0458031198
16.7245 5.21162 6.30939 30.0610432209
20.1809 8.7692 7.46701 27.4532452518
16.0402 8.27952 6.00268 30.6767528072
22.1081 1.30587 4.89803 34.0256337096
19.2394 1.60539 11.317 30.3620569784
13.6989 9.70451 13.7882 29.3043945992
20.1666 9.8499 11.0173 29.4746941946
19.1639 11.5907 7.18542 28.0073518031
18.7596 10.5866 15.3931 28.8797776452
15.0812 5.7278 4.23055 26.6910034766
21.5956 9.60515 4.8638 30.5833771776
15.4573 3.21715 8.52383 30.2189248909
15.4324 2.64657 13.2662 32.2743120991
18.0998 2.41913 14.2327 27.4350650656
19.6448 11.8783 4.40209 31.6007363345
21.1669 3.55442 11.7883 27.1591242705
21.3722 4.05571 8.23885 30.8022982481
23.8716 10.3482 6.5045 30.9231658179
12.9387 9.50393 10.3338 28.1946722378
14.2255 1.77421 6.34441 32.2254350641
18.4284 7.82969 9.59134 34.0476567211
15.4637 6.17863 11.3306 28.9805548791
15.645 8.87135 10.5621 28.6960704258
17.4223 4.10884 10.9881 30.9533710239
19.8213 6.05758 11.5093 29.9605046881
13.1628 5.33179 10.2467 28.6613427647
20.7606 7.45719 13.5743 30.1160316427
12.4149 12.1739 11.5936 27.1631790585
13.1741 8.8683 6.14113 30.4786922286
16.823 10.2325 7.89515 28.252526944
22.9811 0.552096 9.36769 35.2487552638
22.5067 0.790921 15.2674 28.154443665
23.507 7.82749 14.3413 28.3570471385
22.1356 9.21353 9.43147 30.7188964544
14.2598 2.25885 10.7169 34.1610998794
17.0794 7.84712 15.0694 31.1353677371
23.4105 7.07387 4.35448 36.0828883166
12.4144 11.3219 7.75871 29.146140082
17.4214 4.75843 15.497 29.445978374
20.8339 3.07881 14.3588 27.6570400484
12.6766 11.3011 16.1438 32.4634486936
16.2838 9.83243 13.2251 29.5305031976
15.0071 5.52368 13.8899 28.3700600941
12.5836 4.74713 15.5031 32.9709392823
12.8854 7.59786 15.7937 27.9083284673
18.3775 8.97555 4.24083 30.6676718932
19.9077 5.85018 15.6445 28.7241937727
20.1393 -0.0128798 9.26667 29.7052087134
14.9694 2.97379 3.77401 32.2898919973
16.6903 11.8503 10.5493 27.675170298
23.8915 2.71719 11.1205 27.3560343545
12.3272 6.47452 4.22671 30.7277614599
24.4176 5.70831 11.0755 27.4219931682
24.4985 5.78774 7.69918 28.6744723084
24.5452 1.74621 13.5991 30.6553342545
15.73 1.67956 19.4066 28.1410494375
19.078 2.9105 24.0436 59.1522659039
20.771 6.94102 21.4143 27.6482285562
19.6619 4.64235 19.7544 27.5227962076
17.5248 3.43834 18.1478 27.005219506
23.4053 7.60862 21.657 32.2170994101
14.6541 5.53994 21.5207 25.2455169281
13.4624 2.05772 17.8306 29.5758790474
23.5554 1.40562 17.8942 28.4376876631
19.5458 12.2028 17.3132 28.7216076178
21.9105 3.43542 21.5591 31.1048425336
17.2887 6.40386 21.244 27.5137611496
23.9107 9.2008 19.6781 32.3200469184
12.4936 2.05316 24.58 86.2081227617
24.0113 0.321371 23.0617 35.3285207949
21.6929 11.3316 23.9339 62.4252275749
18.6298 8.89047 17.6358 33.8302352216
13.7221 9.33976 19.5214 27.8439962419
13.9977 6.20419 24.4267 66.1330938698
15.5606 5.3994 18.6261 29.7862811989
16.1065 11.9578 21.4167 28.8377051613
15.441 2.15346 24.4155 78.9488980647
22.477 0.824949 20.4372 29.4078751643
16.8373 5.03851 24.3557 73.1691402277
20.7595 10.849 21.3274 31.9086189741
14.8301 2.8686 21.7854 27.1620295829
17.8279 3.2197 21.793 26.5200173874
12.9271 8.07882 21.7647 27.0398787463
21.6922 4.11174 24.1521 80.2072533213
23.2496 8.13209 17.2754 30.9592332016
13.0432 8.79262 24.5726 86.6695841633
17.8826 7.51777 24.1299 62.3637110099
23.0269 8.80847 24.4161 95.2032171092
19.7039 1.49135 18.6732 27.5684150331
20.6569 6.85433 24.1363 69.2734551898
24.0133 5.41083 17.2751 30.9297911325
15.7895 9.52473 24.5377 86.0711983199
15.9115 9.2602 21.8038 28.662146946
18.7089 8.86461 20.4427 29.6341061311
24.3265 2.87973 24.0962 73.209754738
20.7622 7.00393 18.226 29.990535223
15.0586 8.10495 17.4216 33.57354195
13.0528 4.72768 18.4794 29.4811934023
22.2715 11.6693 19.2949 30.1485656117
21.6527 3.60221 17.132 29.8163520164
24.3463 4.80161 21.954 28.7710552753
18.1471 0.319824 21.2031 28.9627063537
14.0235 12.0441 18.9841 28.1369928539
15.0587 3.30688 36.7248 34.229197078
14.6234 3.28985 39.64 26.1900479268
15.489 10.5917 38.8446 26.988559449
21.8979 4.49383 41.7206 29.1325252776
19.3182 2.09015 35.9096 67.8578661352
17.5622 4.16801 35.8227 83.9320396136
21.8445 2.83193 35.8807 63.0526603661
22.1302 2.91863 38.9179 27.4509205862
14.3253 0.499124 36.2411 76.4586347441
22.0997 5.56481 35.7018 73.3855513261
14.3268 7.60597 35.9041 59.3938637214
17.0931 7.16797 35.8185 60.8785136005
17.9094 2.98652 39.7467 26.5009107655
20.0787 7.61806 35.4555 85.7968145038
19.1257 7.19472 41.2166 30.1455625008
19.6619 11.6375 42.5639 29.5369672168
15.2122 10.8337 36.0035 66.5578931539
18.0481 10.0375 35.5227 94.8371438512
18.195 9.09829 43.0231 28.9799915413
22.2169 9.75205 35.8763 59.2810078841
19.7319 7.35416 38.3314 25.9999226141
21.718 9.72549 38.7832 34.2027210022
23.3951 8.5773 40.8777 29.201134772
14.413 3.3347 42.5389 27.3212831508
19.8236 1.56338 38.6629 26.5417651314
19.2589 3.22545 42.167 27.3272705626
15.9129 5.93851 39.7908 29.1105961069
16.0527 0.712835 40.7136 27.4252843836
12.6025 1.35609 39.0101 27.3249129792
13.1069 4.87617 35.6932 92.2533588108
13.8257 10.5562 41.0244 25.300772555
17.1214 5.52875 42.3797 26.1929880097
18.125 5.09864 38.2165 27.1086499075
14.2451 8.04165 38.5019 27.4766446423
16.2283 11.3134 42.324 30.9175441671
12.5139 5.67777 40.4393 29.7367296272
22.3931 5.57271 38.6529 29.1019781865
14.2781 7.74249 42.0842 28.0924282173
21.5564 7.22431 42.6185 28.5045655593
18.1406 9.78813 38.5372 30.7628956321
23.9134 1.71966 41.155 28.4749701901
23.1992 11.1612 42.9284 31.2406216923
17.6486 0.314884 43.0334 26.0210553855
20.0356 11.6167 39.6632 29.2610654899
20.1132 0.134298 41.3657 27.748212243
12.5376 9.99683 35.9578 56.9503939632
22.9199 0.182516 35.9455 67.4381163549
12.6378 5.38887 43.3567 28.692938015
21.6188 11.0917 45.099 29.1771512273
16.6562 3.04567 43.7983 26.8166530785
17.6268 2.25089 48.4649 31.3189046305
22.0963 3.82332 48.1239 29.6724485593
19.7186 5.32916 44.8216 32.2046189935
18.0035 8.88569 54.2846 25.6942570581
15.151 9.18318 56.0607 28.2635627894
23.122 5.35225 54.982 29.4625479311
15.9107 7.57014 44.0112 27.7784492124
21.622 10.279 48.3196 25.3854617899
19.4193 4.19269 47.3547 30.7548805346
12.8869 1.67827 44.2739 25.9841290607
15.4855 9.60185 47.2331 27.5373923426
13.4771 8.23813 45.3802 27.9555239431
24.0912 8.58271 51.9787 25.9906998155
23.2514 7.4896 45.1805 27.9629358446
23.9932 11.636 53.3972 32.6766364606
24.1192 9.688 47.2013 29.1331151361
22.2117 2.52711 43.8683 28.5926100524
14.6903 0.942196 51.52 30.1672749865
17.2825 0.563707 50.8656 29.3926956419
13.8399 3.2186 50.2316 32.6255253288
13.3074 11.0744 48.0692 29.2266243824
13.3862 2.00108 47.5784 33.8276979028
18.7924 6.6614 48.5211 28.2425723795
22.8422 4.44274 50.7569 31.8564157839
16.0869 7.03064 48.9441 24.7383207694
24.1738 2.90279 53.4745 30.2009819705
16.2273 4.44663 49.9864 29.0849469225
15.5231 5.79154 46.4999 32.2410169352
19.9033 8.28806 45.0073 26.9602154455
16.3886 7.89504 52.2267 29.6435199377
23.0046 4.6688 45.7376 27.9966540333
19.4403 7.42641 51.4427 30.7671877303
20.4791 4.00315 52.5679 28.4999535684
16.074 11.3606 54.3085 29.9055568721
16.0198 10.2703 50.1732 33.3692089883
21.4363 7.24736 47.6751 27.7760725922
21.8584 9.42805 54.7474 34.5472006056
21.6106 9.72847 50.7946 27.7822730275
12.4919 7.36518 52.6905 30.7619284543
20.091 0.651518 44.7293 29.1233026713
16.5711 4.61429 54.2709 30.0263813144
17.759 5.03509 52.1104 26.9412213042
14.7289 7.16199 54.382 29.7292361136
19.9866 1.44314 51.8967 34.9881893901
12.4167 9.84684 56.0076 26.8094867652
21.5043 2.99954 55.2477 30.3549156789
18.459 9.35847 47.2554 31.3785760911
15.8062 11.9767 45.0765 31.6217691362
21.5913 7.00414 53.3918 24.8971352464
16.6318 1.622 54.0864 31.3953076577
21.8248 1.26759 47.18 30.8362297735
14.2261 11.3709 51.8443 27.7198680319
13.6492 1.39763 54.5183 35.9137717543
18.7968 3.52772 55.7644 29.6686005182
19.919 10.4525 53.0108 31.5168632682
15.7688 2.85889 46.2616 27.5949562237
12.4587 6.19463 46.7909 28.8913308067
19.359 6.41287 54.7825 26.9836505158
23.363 11.9078 50.8418 24.0784294314
13.2562 6.75443 49.6845 31.8369307884
23.8275 7.10564 49.4739 28.8830071603
18.2589 12.19 47.6495 30.1339265243
23.0487 19.9309 13.5559 27.6048857758
14.143 21.6116 11.781 26.2358498832
13.7369 14.7587 13.8995 30.3524927342
24.4483 14.4837 14.3883 27.8724245736
22.9523 13.188 10.2436 28.6556731612
23.6436 23.9433 6.4541 28.0336210547
18.6478 22.8794 14.8232 32.2870738854
24.0293 16.9433 12.8317 31.8738231291
15.338 22.3101 6.12039 28.7378249931
13.1427 22.9287 4.48296 30.939904554
17.3198 17.7861 5.1762 32.8943494241
15.5396 22.749 15.1541 31.4831477808
23.535 13.3343 6.07456 30.7393337879
19.8842 16.6213 5.5505 31.0123988019
21.8496 18.4329 5.31876 32.3739761653
20.6066 21.3768 12.8688 30.8713329865
24.34 20.3629 4.26689 30.1682979336
23.3106 23.7121 14.5223 29.9233530066
20.9714 20.695 4.39204 27.2922731975
22.8251 12.6979 12.9038 26.4989137825
14.6981 20.3341 8.4259 28.0913698353
17.7138 14.0471 8.36846 31.3714421511
13.1201 18.4393 4.19651 30.4753597732
23.6868 12.6908 16.6299 31.1267716271
22.6947 17.3746 8.25508 35.5646539111
14.4681 16.3989 6.97903 29.2095945715
16.0123 15.8508 9.58309 26.7125512544
17.8462 21.2869 7.54978 31.8301051306
16.6964 18.4637 7.88941 28.8100030496
20.281 23.4798 10.6155 28.7838190168
22.5652 19.959 9.3034 30.9359829158
15.2525 16.054 4.38877 31.4773975204
12.8891 22.4708 9.15012 31.6991420972
21.2993 13.4322 7.90814 29.6615776026
17.9826 22.068 10.1506 28.3446958997
20.2489 22.1238 6.265 28.6910334119
21.1776 13.5844 15.478 27.0273247489
19.8088 19.9368 10.4925 31.1008784457
15.2095 13.8139 11.7246 28.1040465932
23.3536 14.5838 3.72171 29.8889549013
22.4619 21.9251 7.62788 27.8365773278
17.3385 16.6433 14.5827 26.6777765151
19.3774 16.4785 12.5022 32.5330552162
13.4136 20.4379 14.3342 26.1096789997
23.97 15.8425 10.276 31.6326252498
15.1243 12.4941 7.71162 27.9935855253
15.2166 24.4845 12.4314 29.1280132048
16.2306 14.5002 15.3218 29.2479907615
16.1709 17.5677 11.7953 28.378952208
13.3711 17.4704 12.616 30.6175744734
16.5799 20.3721 11.9234 29.9871894815
16.6396 19.8763 14.9104 30.3700900282
14.6763 17.7485 15.3243 27.8927684086
21.3791 17.5502 13.987 29.8131749514
18.6192 17.5595 9.93025 26.6998397743
15.495 13.4016 5.06192 32.9280042158
20.1487 16.1138 8.05886 29.1439574101
19.7561 13.7197 12.8779 29.6427495934
24.02 20.7152 15.887 30.5649662782
13.3426 14.4253 9.21837 27.9374668499
22.7288 23.5306 9.87098 28.7776864317
24.1204 17.2292 3.9487 30.0632070206
12.973 12.6336 3.81476 32.0634251127
19.4717 19.5862 15.1172 28.6433855348
24.2715 20.6372 11.3382 27.6011406284
23.7793 23.2994 3.74925 28.2277128452
19.6844 12.5242 10.3994 27.841745673
20.741 14.6195 3.82114 34.6409196294
15.7495 24.0664 9.20306 33.7250157316
17.0829 12.5045 13.6146 29.0127323892
20.6839 16.1392 16.3032 28.3278565518
12.8429 18.7877 7.02641 28.5242103644
19.0926 24.4301 5.38567 31.7405163198
13.5607 15.0788 20.5038 26.1998379075
22.8583 16.1686 20.3525 27.2927494547
24.2355 15.8426 24.1641 73.8754826384
12.3578 18.3602 18.4082 31.4802904048
21.6931 16.972 24.2091 78.373559273
16.6216 15.9529 18.9334 30.1256654718
23.1617 21.4917 23.7377 44.1004688808
15.9858 22.7484 24.5398 74.2568313416
18.5266 12.4162 20.2157 27.5700987184
18.8653 15.2831 21.2424 30.2097150071
19.0808 12.5618 24.251 83.5884144525
14.4068 22.3706 17.6729 28.5645181354
17.9837 20.0108 19.3345 32.0313687945
15.2994 21.4396 19.9289 31.0686589122
23.0819 22.9142 17.349 33.0045433829
19.1019 23.0703 24.4875 87.2598877341
20.2923 20.3061 17.79 27.5359299178
19.6278 21.8738 20.7382 28.6448917098
13.3694 13.1026 21.8758 28.1135374049
12.7799 22.6761 21.1908 31.3404278277
14.3683 14.2156 24.2525 91.0247995234
23.0171 19.5172 18.2099 27.4137698504
21.1808 17.982 21.6033 28.7635189738
23.9404 13.1052 23.7498 45.0974142361
23.7383 13.4815 21.1275 29.8535441323
12.3287 13.8777 17.5796 30.870856982
14.0139 19.6322 21.7666 28.7530846721
15.3179 17.0105 21.2845 29.1560173282
21.7316 23.6992 24.0869 71.7954806234
16.7036 15.8397 23.4431 33.2527534605
16.77 18.57 24.1839 86.6790808708
20.7064 14.5258 19.0606 30.7279017298
19.3302 15.1896 24.2151 83.1744727912
14.0048 16.4215 17.5917 28.9513372299
18.3842 18.2689 21.3361 27.3706351787
14.3924 20.1535 24.4789 79.8919282805
21.0034 19.8038 24.2249 86.22232729
18.5196 20.5767 23.2883 27.3385948101
21.6735 24.0446 21.2294 30.9791915041
16.831 22.8663 21.8863 28.8228766831
22.3368 20.5083 20.9836 28.2398972054
16.6425 13.0993 17.921 34.123136531
24.1895 23.0763 21.4689 28.9261845071
23.0495 16.8717 17.7627 31.2062517937
20.2188 22.8617 17.1863 30.547651825
18.397 17.6706 17.3231 30.9311872136
12.51 20.7789 16.9449 29.0555079295
12.6489 22.6752 24.3279 71.6645485783
16.3579 12.3131 24.1966 60.0305702724
15.8583 15.9162 35.7293 100.5124448885
23.7887 13.7433 36.5857 31.6379728213
15.0679 13.4435 36.7736 34.361838906
23.5213 17.2363 41.4176 27.6561545422
19.8651 15.3432 35.6976 92.9138459518
19.2931 12.3946 36.6503 35.2967234893
20.5652 19.7413 42.1154 29.1624456151
22.8877 24.2976 41.5172 27.1898594911
13.5801 17.6302 36.2618 45.0618492093
17.6833 20.1714 38.4565 31.6146690313
18.1619 17.5284 35.776 79.2165208128
18.2479 20.5999 35.8582 85.4529983747
17.4404 17.4396 38.6703 30.1464793328
22.8935 20.4145 35.9299 104.9562742989
22.2866 17.4052 36.5863 43.2116952714
19.9498 24.2987 40.5637 29.0727026414
20.7538 21.7755 36.3334 48.2608099818
21.7736 21.8533 38.963 31.0315928828
24.1019 13.9671 39.282 32.9722206061
24.3701 16.0747 35.6021 123.1479487884
23.681 20.0492 40.0984 29.6547039032
16.772 21.8139 42.1538 26.1311639779
15.2816 13.6445 39.5932 29.2504920152
17.7699 13.4559 40.9246 29.8773861506
15.369 21.8119 35.4973 117.2482883981
13.0553 22.918 41.7678 28.5914073887
12.6957 13.1946 41.4157 28.4674904877
17.087 16.2578 41.1177 28.7326053304
15.5509 24.4344 38.6734 29.248815273
14.4848 16.3294 38.6993 27.6119411157
13.0236 20.576 36.4178 34.4240725026
13.4078 18.0163 40.74 31.470248842
14.6094 20.7375 40.8629 26.2634600796
22.2644 13.5868 41.5011 32.2117857035
19.8354 17.0434 41.1336 31.6114595283
19.4557 14.9954 38.554 31.452432709
21.6997 12.3468 35.5767 98.7511886601
16.8911 24.4831 42.205 29.3259701807
22.0879 16.2973 39.0689 31.0246964067
15.8372 18.5905 42.6725 29.2821417263
19.0813 21.4532 40.5102 30.4712547971
15.493 21.7161 38.2609 27.8933197443
12.8763 19.082 47.9879 33.2777337675
19.3792 23.8541 47.2321 27.0080344729
16.7753 22.9158 45.0448 29.1174079893
17.7145 15.8167 44.1101 31.2258755064
14.2379 20.9277 44.3628 30.119272649
21.7289 14.2135 45.8724 27.0916704514
19.7762 15.8852 47.3888 28.3191493255
13.6072 20.1046 52.534 31.5268385698
23.8571 18.4781 44.3541 29.4632632699
13.9669 23.2958 46.0604 26.97027439
15.5165 17.6423 45.5747 29.5622898887
17.5419 12.8396 56.0614 30.0174031793
20.6899 12.903 48.4922 29.0263293864
23.9579 15.0835 52.3328 30.7252136069
23.4072 18.6672 47.6244 29.7760546651
18.8783 14.7831 54.4395 34.0892207673
21.4954 13.8919 51.1656 30.8523198782
17.2803 23.705 55.0234 33.2350985117
21.5424 23.9268 44.1224 34.0577843349
21.9644 20.4266 46.191 29.9901908324
22.894 22.2406 48.2057 26.7055104826
19.9218 17.5261 44.4351 28.0779739683
14.5034 14.9436 50.2735 28.0536637061
17.1646 15.5753 48.1314 30.3065024525
15.2575 14.8105 46.2666 29.944710882
21.4878 16.5773 49.6161 31.3697941355
14.3171 16.3445 54.4057 31.5841156753
14.1935 22.6446 51.4152 30.2508268893
22.2452 21.7542 55.0275 30.2938292763
17.5798 22.3184 48.7653 28.9299502723
20.7045 23.9656 51.6445 30.0357019195
17.3401 20.2328 51.291 35.1598522238
22.619 20.9616 43.3592 30.2213086236
19.8961 18.9609 47.3685 27.4878848579
16.0794 19.5221 47.6397 27.8231554846
21.9305 21.7319 50.6329 28.872426224
23.9485 17.4489 53.9076 34.9469884548
13.1952 13.8221 48.1495 28.1292574742
23.9531 15.7826 46.7929 28.6060879154
19.761 19.821 50.0291 29.4147699866
18.2447 20.9091 46.4505 25.1872290208
19.0076 13.0184 52.2562 31.7972711818
24.3317 15.7776 49.6935 26.5391472282
12.6719 17.9348 44.9392 28.7297436276
16.4953 18.0117 49.9113 29.662873632
16.7296 23.3299 52.3639 33.2514911445
16.8736 13.388 50.2931 30.6932651353
15.8793 14.0232 53.0722 29.1661359589
19.9346 23.2541 54.3081 32.4239028471
18.1246 19.7972 43.8733 28.747463025
18.5973 13.32 44.847 30.2073909906
14.6508 22.1981 48.4838 27.5233436865
13.908 20.6275 55.6656 32.7411207667
16.276 17.3778 52.876 31.9122082514
18.6934 17.6136 53.9678 33.5330189473
20.473 17.9508 51.9284 32.9503085535
22.4667 19.5561 52.9958 31.1291589735
13.2626 13.3266 44.4542 31.0379832622
22.1316 24.333 46.7675 29.3467033932
13.5671 17.9836 50.7032 29.4709093662
24.1076 12.3809 46.5444 27.1673547401
18.568 19.4853 56.1904 34.2271397093
16.4059 21.0698 56.4213 34.3396455495
21.9345 15.7693 43.3866 28.27377639
22.6943 36.0365 10.0347 28.4067587902
16.8012 26.2042 14.0321 30.796626107
23.2435 34.5457 12.3074 26.2626395226
19.4212 28.6244 6.39318 33.7626827011
23.8065 26.1016 9.6002 27.7876546607
20.1694 26.1873 7.3702 33.6846810612
12.5661 28.5089 11.9288 30.6051885208
21.2641 34.857 4.16073 30.4437973233
14.1414 35.0173 6.99882 26.2141918675
22.8216 26.6873 6.9966 32.2503773006
17.1428 30.7063 6.87031 31.4445778644
20.7926 32.5188 15.5475 31.5030585035
13.8642 28.532 9.3339 30.9954378073
22.9477 31.0654 16.0561 29.6769175933
21.0466 30.6458 7.7337 27.7670110204
16.6491 30.297 10.6161 29.505116725
13.9457 34.0262 12.558 29.961559615
24.0036 32.5988 8.39157 28.1764013744
23.4433 32.1535 5.58109 28.2039370021
23.6757 29.9396 8.73768 27.0025078062
16.2648 25.6167 16.6823 28.4513229181
13.7881 29.2087 16.0799 28.6245441065
20.5519 33.3432 6.34987 29.8268253405
18.807 30.8552 14.1169 29.0111044446
12.864 25.8712 13.0655 29.0265008455
13.4635 31.1296 3.95758 28.8853462947
21.0106 34.8992 13.9745 33.4783842159
15.2143 26.567 10.4337 31.5051827262
17.2998 33.1669 14.255 27.2000164507
22.3291 28.1987 10.697 27.4158629974
14.6056 26.509 5.46902 32.0076430086
14.1174 35.838 14.6885 34.1566927105
13.6565 30.1329 13.3073 29.940542866
18.2425 34.2069 10.0438 32.7743318152
15.7941 31.702 12.5348 28.2804390135
20.1791 26.2943 10.4675 31.0849247895
18.6742 34.8017 12.6395 29.3697696585
24.4346 30.9531 11.5609 32.1401950829
16.2428 34.3021 16.317 30.5226365369
20.2767 30.3954 11.6794 35.7541234447
18.2501 32.1001 4.87959 29.3001772275
19.3903 25.1974 13.1084 29.8677245607
16.2764 34.4253 4.72093 29.2720217678
20.4446 35.1792 8.55426 30.6940223642
13.9871 31.3914 9.1599 32.5043258532
15.4014 34.3071 9.83149 29.6958150676
18.957 31.5188 9.46852 28.2747621604
22.0498 32.7038 10.6687 29.9017716897
13.2922 26.6149 16.0184 28.1942357201
23.1485 29.1422 5.67126 26.6129161993
18.3221 28.6199 15.2711 31.6857133852
17.613 27.6714 11.1363 36.2974033744
14.8536 32.1226 6.1978 30.1993079601
20.2001 27.903 3.61072 30.3474747533
23.4582 27.817 13.0841 33.2944900829
21.5957 25.8583 14.4163 31.9724212463
21.0712 30.7575 4.24804 26.6913799682
15.7069 28.8952 4.98695 34.3515895645
14.5277 36.6765 10.3112 31.1967670812
16.4377 24.5994 6.47097 32.4618994996
24.1019 35.9341 3.95613 32.9515514262
20.5644 27.4613 16.53 33.7733515689
19.6603 35.5072 23.9544 56.5748504056
22.7992 27.7629 24.3855 93.6215313335
18.6681 31.8693 17.4914 31.752383933
15.7312 27.553 18.7025 31.4640480293
13.3216 24.895 18.0941 28.3807156318
18.4015 24.6078 18.306 33.7311021502
15.0036 26.9678 21.2678 27.180009268
18.7835 34.7279 21.6135 27.5526758641
16.3486 29.7044 16.8289 28.9191573826
24.4136 34.6823 21.7605 25.6669404552
19.7099 27.2402 19.1529 29.4186962869
20.1446 30.381 19.3409 30.68720563
21.0929 33.5844 18.7051 31.5774941283
24.4869 25.3645 23.6572 39.519098788
16.2581 31.4793 20.5246 30.0774913214
14.3582 35.2881 18.97 31.2383756803
15.2627 31.9389 18.0343 30.177160649
12.7927 25.3909 20.6962 25.0300121125
22.1471 33.1783 21.4355 27.6833917716
23.9982 34.6142 18.8218 34.3067798786
14.9517 25.411 24.4195 81.498934524
13.9416 29.909 21.7803 29.5532479505
16.6397 35.4181 24.5305 88.3564217845
17.9507 25.7163 24.1595 62.3533074715
21.1197 26.5852 21.4053 28.7451460437
23.5482 27.871 21.4353 31.5555484334
19.6208 27.8437 23.8187 44.6927148971
13.6822 30.2453 24.6479 92.4058610283
12.8824 35.1525 21.7661 24.2766868498
16.1045 28.1634 23.8828 48.3567951316
19.4398 32.0366 21.7347 28.6595323936
19.1394 30.505 24.3507 96.0218556968
17.6269 25.3624 21.177 29.9268542384
12.4389 35.549 24.4185 65.0030078652
16.0216 34.4414 21.4234 28.5787447826
22.5229 29.1842 18.0104 30.0457286627
16.7339 31.023 23.5626 31.3400775483
18.1705 28.9611 21.2918 29.4093105252
15.1633 33.2848 24.2671 61.59100977
21.8126 33.9073 24.3126 77.3189509107
22.2511 30.7356 24.4444 75.2995134633
12.3483 32.4766 18.4939 29.9984066835
19.6792 35.8755 19.154 30.8555252127
23.6842 30.7631 21.722 32.2328745198
24.5078 34.7632 24.5242 78.9983047984
24.3046 25.97 17.5802 35.7376126675
18.1834 36.2953 16.7908 34.6975652788
14.836 26.2407 42.0597 31.6401459075
15.735 27.4302 35.7483 93.4357933117
18.0775 25.6177 38.7977 38.9174262294
13.4518 34.5906 38.4828 26.4418082784
18.3701 27.685 36.9959 29.7816867311
21.8702 28.6683 36.4485 31.040067834
13.3669 33.9971 35.9187 69.5940073504
14.9613 24.5154 36.1661 53.2699448549
16.2469 30.2099 36.1339 48.4849789295
15.525 28.8052 41.0166 36.9463032079
23.5465 35.4258 35.8486 90.1134785194
19.0034 31.0612 35.9148 67.7946277054
18.3743 31.5073 38.6307 28.7267513888
22.8965 27.5495 38.5524 28.2138166922
22.139 31.1254 35.6389 86.6083881137
13.1941 25.0947 39.9743 30.8432220124
20.2693 26.8222 35.3277 131.3610390206
19.4549 28.4521 42.1218 33.0624068023
13.0796 28.7979 35.798 89.1246005909
15.8663 32.9566 38.8429 26.3862109922
15.8321 33.057 35.7257 86.2420322596
13.1652 33.4503 41.4238 31.7785518777
20.9341 33.0227 39.4725 29.4679940755
21.4588 33.5567 36.7433 31.0535690338
23.5597 31.404 43.0135 39.3425226913
18.1093 33.2798 41.184 31.4716124964
14.2062 30.7654 42.4406 35.5605179383
22.5824 34.3685 41.3416 27.5814091358
18.1522 34.9693 38.5267 30.0096160204
15.7224 34.7459 41.8959 29.047872585
14.8576 30.3007 38.6583 29.9709682367
22.6558 24.8555 38.8038 27.6024597019
18.0704 28.8843 39.7178 31.374144425
19.8848 35.6184 41.4902 29.979369868
12.4851 31.6021 39.2782 27.5423717704
21.7928 28.3909 40.9652 31.9496990158
22.8943 30.9823 40.2759 34.1064734245
22.5942 35.9182 38.4917 27.6801121334
18.8745 34.3006 35.7218 84.9805489743
24.0271 27.1676 42.1992 32.348440714
24.4995 24.9439 35.4306 98.1651418487
19.3504 25.7306 42.6985 31.2711605424
21.8864 24.5053 35.8012 66.1388106974
19.2524 31.906 47.0113 30.2498472999
18.5554 28.2592 46.593 32.2179286506
17.8825 36.5168 44.1935 28.9018877387
21.4693 36.1587 43.9452 26.9289717999
19.3786 29.7722 44.4879 44.5174070917
16.6703 35.4208 48.8192 28.3866096106
12.3575 31.5537 51.1996 27.1766438666
15.4284 35.2785 44.5456 29.4528651416
15.4013 31.534 45.1694 30.7140293212
23.0302 34.0103 44.5788 31.9375001476
19.1442 34.5242 48.9249 25.3757228098
14.8323 25.0779 56.0102 31.8294393096
21.5345 31.4933 48.416 32.0714494384
13.2702 36.7168 55.6035 27.3575284514
14.9411 33.8071 47.12 29.0765510695
21.2261 25.0124 56.4104 30.0203838958
18.2326 35.6163 51.878 31.5997773583
24.1122 25.3664 44.4939 32.3233598437
15.0171 28.3309 53.9114 31.7249381235
18.7623 29.3654 51.1625 29.770223986
12.6624 30.2549 53.8492 32.4561131562
19.8228 28.0007 48.8821 29.9883571988
22.2524 28.8644 49.1983 30.2630100877
22.9695 26.444 48.5031 31.3891587864
19.3611 25.2224 49.5617 29.2047944667
23.504 29.2119 52.1199 28.1754416971
12.5414 31.4105 45.8942 30.1603635057
16.7692 32.0783 48.5668 28.1357007424
15.3394 36.5258 53.6671 30.7883229192
15.5902 26.2398 46.2723 29.3607580423
15.0862 32.3957 51.4884 29.5577844492
20.7437 33.007 50.506 25.6529771546
12.7618 36.3485 46.1239 28.4635926202
21.2872 30.7236 52.1962 28.529256084
22.4918 34.4011 47.5392 31.6631185204
15.1371 35.2006 51.1137 28.148384392
18.0981 32.4731 44.082 34.5578296019
13.1932 26.3471 54.3169 34.1734909297
21.9756 31.6055 54.7373 27.9958574811
16.3402 27.8553 51.5886 34.306786992
19.4878 34.5914 45.5957 30.5942460546
22.2455 34.8902 51.8908 30.5761632414
17.2843 28.0564 55.8163 33.019543483
19.0893 29.788 54.3087 28.9169717138
12.5066 35.2195 50.2097 33.107609404
19.9278 26.5233 53.8345 34.653532013
14.9632 29.706 49.6291 33.533838174
21.3309 34.0244 54.5072 27.954244111
22.6419 26.7256 52.7349 32.1750593671
14.4278 34.0159 55.8887 27.2975551608
14.6205 25.2545 48.5537 29.5832111726
15.2331 31.8686 54.2592 28.999105462
23.4187 24.7181 50.6467 30.7918678945
18.1326 31.9313 51.088 29.2263543591
17.675 32.0502 55.1101 27.6190344757
15.976 29.1464 46.6999 34.4562197051
17.3741 36.3038 55.8792 30.0646370365
18.1367 25.4399 45.6224 29.3645306001
18.686 34.445 54.2889 29.2081203804
13.5188 26.675 44.3244 30.3175143555
16.8234 25.3145 50.5549 30.2948788126
24.2029 36.1713 54.0222 28.2979067501
23.9568 26.449 55.3439 32.7251179016
12.5441 24.5236 52.0186 32.9078612963
12.8205 43.2463 6.2504 27.3720910138
23.8599 45.4825 15.5272 30.226322837
16.6482 40.6004 9.54809 27.5625569819
21.5886 40.3534 8.21431 25.5823240433
19.9427 37.4017 4.26786 27.7394757643
23.0575 44.8147 8.00025 29.2541601874
14.7653 43.9333 15.9756 29.2188157024
19.0585 38.6218 14.5835 28.2622934616
20.1092 45.089 7.382 27.7243657771
14.954 38.8435 8.32335 28.8336439415
21.0341 43.62 4.581 28.651627319
15.1484 48.4054 16.3732 30.3181007261
21.6025 37.5887 15.204 33.459330673
15.26 46.7215 4.37934 30.0407522574
14.2853 45.8011 7.09514 32.2946985608
12.3466 44.5065 4.00554 27.544664858
20.8798 48.0287 5.46252 31.4800430455
19.1737 37.0374 7.03771 32.4344744377
24.3719 40.4784 8.23458 28.7599056959
15.2728 40.5361 12.6115 30.2614386675
15.1947 42.9751 8.3975 28.7558681689
12.6126 47.3352 3.88456 28.9826149607
18.9512 40.0201 7.68982 28.1480658463
18.3399 40.0442 4.66818 28.5557417784
18.5765 42.9267 6.04591 31.3283871316
23.8732 37.585 5.87269 30.8511604705
21.5783 38.7455 10.1856 28.412394924
22.3748 45.9132 11.6308 30.5449212475
13.4425 43.8098 10.4062 29.5979120706
15.7747 42.0988 5.46582 29.181332181
16.9075 45.7012 8.08121 32.5574267496
18.2578 43.2836 9.20519 25.998687036
23.8532 38.6766 11.714 29.5032629331
12.9149 41.0278 11.2875 32.2374193427
21.5856 42.8102 9.3106 29.5182948083
13.0402 48.3933 10.9884 37.0164730822
14.0578 45.9748 12.1695 31.1860368461
18.789 48.0082 12.1288 37.6389469408
16.6466 45.7053 11.0361 34.7783752468
20.1431 46.0844 10.3158 26.7006691384
15.1782 37.5498 12.8667 32.5246159576
17.9862 41.1086 15.1067 28.3778469049
14.2715 41.3953 14.8886 29.9014573867
21.397 41.1634 15.6716 30.59219051
18.0645 41.3654 12.3364 26.9924233168
19.3413 47.0958 14.8314 30.1923216595
18.8321 38.8231 10.7427 32.0593634103
13.666 39.8784 5.72786 29.73167424
21.5699 39.0895 5.61713 26.4754323723
24.3093 36.8693 14.0614 31.2835520395
18.8403 43.8153 11.8201 25.5779758774
17.7997 44.9584 14.2201 29.4445718706
22.7521 45.7211 5.35936 31.9844408451
15.449 45.9712 14.6293 31.4460430612
18.7455 47.997 7.19136 30.851562055
12.711 36.9447 5.25037 30.6324889598
20.9061 40.2134 12.9097 28.5874550282
21.9644 47.2106 14.1694 33.3017912816
21.8221 43.0818 12.0675 32.8819216269
17.7105 37.2584 12.8041 28.0250142064
13.3041 39.6003 16.858 29.643643607
22.2093 41.248 3.84538 30.5881625637
16.1251 38.6687 4.37165 29.1090967119
24.301 46.9014 9.16279 30.3721407415
24.3592 41.536 12.4142 33.4469042326
16.8515 48.9797 5.48913 33.8789579198
16.1324 36.8813 6.89113 29.9437204776
17.1658 37.5015 20.5412 29.1669572026
19.4178 39.2429 20.832 30.6885860694
13.0556 47.0954 18.1275 30.1904019922
18.8819 46.6759 18.9685 25.5004300376
21.6897 37.9787 19.7166 33.1762685471
19.2621 42.3768 17.4305 29.3429259875
15.7608 44.2527 18.363 28.9177059465
19.0691 44.6013 21.3854 28.7649558683
21.1246 41.2463 19.3436 30.1194297832
13.8045 40.3182 24.0526 73.1704424208
14.9483 41.5438 21.1589 32.3410267764
14.6884 46.0282 20.3441 25.5020752438
13.549 43.8107 21.6705 29.1759221366
18.7916 41.8407 21.9083 28.4040847533
22.4852 39.1232 17.3533 27.8270225317
16.4075 47.8306 18.9327 26.7493935766
13.1216 47.3171 24.2223 62.0127535703
16.0084 48.0642 24.1574 62.6884147924
13.3296 39.3847 19.621 28.947200365
13.3772 44.4864 24.5982 97.387301639
16.1301 40.0568 16.8612 29.3370717707
19.853 38.1507 23.654 40.9865461692
20.7207 48.1708 17.5282 26.3628851807
12.4264 47.4085 21.5559 29.798610544
22.6715 38.5138 23.908 65.5848695635
23.8647 37.3874 21.868 29.9533738494
18.0843 44.7946 16.9824 27.7729974248
14.7665 37.5145 21.7312 28.1973215466
16.9852 41.7059 19.0271 30.4831222371
17.3801 39.0944 24.638 100.8944549396
22.1881 42.8705 21.447 28.5387332864
21.8334 45.6475 21.0335 29.8778740139
19.6981 42.1866 24.5029 92.0859120288
21.5321 48.4105 23.9882 76.7517936495
17.0377 46.2536 22.0492 27.8357816402
16.2609 44.5359 24.2659 66.3423324044
16.5114 41.5773 24.0774 48.5090973431
22.335 45.5654 23.9105 60.7381817581
19.3069 44.7818 24.3055 73.5703295791
14.5615 37.2826 24.3282 61.0351443855
23.7803 47.1821 17.6494 26.8814400748
16.1659 37.6471 18.1077 29.1842881105
21.6979 45.2062 18.3182 30.001469301
22.602 41.5225 23.8982 54.6681591095
20.7644 48.1137 21.3055 25.9516811872
23.2452 43.2074 17.0372 26.470411143
18.7197 48.873 24.4484 94.7994804239
14.5559 47.4715 38.346 26.6096063163
14.2341 45.6659 35.5869 79.2505048549
15.0454 37.8016 35.6888 87.9579696715
18.0562 38.2894 38.5752 27.8946985951
18.1485 37.079 35.7903 66.9134654997
12.6411 38.9437 36.2536 42.7821116438
17.6531 48.3327 38.777 29.719537463
14.6218 43.0976 35.8331 45.4962193581
20.5648 38.3464 35.758 87.4003832966
16.1372 40.7649 35.4582 90.0228227821
15.9074 37.6314 41.5943 29.1920117334
16.0455 46.6975 42.1611 29.4137445201
22.4052 42.9736 38.222 31.328200892
21.4817 39.2224 41.0811 29.7482104786
21.9131 42.5802 35.4074 108.7903370723
21.3386 38.2701 38.3117 27.2868081862
24.0418 41.1241 35.5983 83.8599123349
17.3362 42.5036 43.0412 31.9902064634
17.4805 44.2401 35.6709 85.1645567647
21.147 45.4904 38.4317 30.5586813141
13.1743 48.4558 41.0201 27.6570101097
19.4697 41.0329 35.8346 58.4873984421
18.4125 45.1441 43.177 30.3038633482
19.9219 41.7798 38.8455 27.9108938313
16.5906 46.9049 36.0165 56.9796241777
14.7484 39.61 39.8476 30.0613148258
18.587 38.3458 41.5682 29.9170815769
23.5652 37.3386 41.3645 28.9702745045
22.8553 46.5934 40.5303 28.010946553
16.3777 45.3874 39.5313 30.6917333369
13.4621 44.8172 43.0273 35.1334242554
23.9068 39.4872 37.6982 27.3549915628
18.6691 44.2036 38.1882 29.6743212415
16.8828 40.7775 38.1087 27.2501447917
15.1847 42.6188 39.3648 27.5323301898
15.4103 36.76 38.4253 29.4522120546
21.3794 46.594 35.6956 106.7302758594
14.6086 42.1052 42.0754 30.5429252629
19.1444 41.2005 41.3788 30.4021227277
19.377 46.5894 40.5469 27.5889496734
23.3435 41.4257 40.5542 28.3821269845
19.2813 48.3445 35.9231 68.5723908129
21.2436 45.2254 42.6686 31.2938686073
12.9693 42.9573 38.1989 29.3182939445
23.441 48.9092 38.7816 30.8425882317
22.6221 48.7231 42.577 25.764243203
12.3195 45.6272 38.4186 29.2568827596
21.4206 42.3616 42.7906 33.5013540584
24.1805 44.0688 45.23 33.0377739725
17.1595 41.2801 45.3222 33.7163693864
18.5515 38.595 45.9138 36.2010753094
22.2287 41.0644 45.2964 33.3472710808
21.5311 38.2271 45.5933 29.3336565146
24.3412 48.733 54.279 28.056255427
13.9819 38.5562 47.2485 32.3580637432
19.9091 47.4488 55.8303 32.587091694
14.3612 40.6153 55.3925 30.3255530684
14.9667 46.4826 46.3095 30.2126609835
17.2357 48.1141 55.4437 31.8260132203
19.3295 41.1957 48.8871 29.9694439593
21.8319 41.4874 47.9765 31.3968435089
14.3995 40.4911 44.9597 34.3002276029
24.1737 37.0599 46.5307 28.490630197
18.4734 48.388 47.5517 26.8967647117
24.1634 47.0722 45.2129 31.8814667337
22.0374 44.7932 53.1304 30.0336264425
21.2213 47.2547 44.7493 27.4481177009
20.1909 44.8879 55.4079 27.8950319018
17.3132 47.1464 49.8216 30.5459900957
15.945 44.1498 56.4322 30.4510143295
13.854 48.0676 43.7434 27.1613696772
16.0627 38.0625 49.1402 32.0295740226
18.7648 38.6953 49.0791 27.5139692191
22.2777 37.7078 51.8216 28.7453044444
13.4815 45.9775 53.0321 28.9520731251
18.7369 45.3641 51.7066 31.7598908856
13.0185 42.1029 47.0068 30.2817239468
17.5939 42.8913 47.2507 33.5101333546
21.1122 43.6867 50.4088 30.5976634327
17.6191 45.4412 45.8174 31.2360774492
22.8791 42.2905 52.3307 35.9698253806
22.9181 44.2586 48.1775 27.4352332197
14.8839 46.1781 49.057 29.5538952837
13.685 43.0898 54.9681 29.1637670645
14.0631 37.7975 43.675 30.7515097655
20.2523 46.0078 47.06 35.6850735111
21.2121 47.0534 51.7505 30.8309479612
22.812 46.717 49.0564 28.52419995
19.2172 41.6582 55.221 29.8056725329
15.1873 41.8905 50.8973 35.2047139328
14.1961 39.3291 50.9504 29.2240785127
15.6043 39.2466 53.1962 27.7429667636
18.009 40.1002 53.088 29.204960518
13.3702 47.6734 50.7628 29.3238809555
19.526 38.3684 52.057 30.8454132975
24.4201 46.0345 54.2571 31.7424847849
22.6501 39.0523 49.2355 31.6711729498
16.1481 46.3941 53.4838 33.6454957079
15.1297 43.2884 48.3285 31.6030319394
13.0623 43.7031 51.6558 29.1547888447
18.2557 42.4642 51.447 32.3200017117
17.8233 44.2122 54.4173 28.6565705081
22.0686 38.1372 55.059 34.7785533969
24.2905 48.8107 47.4313 33.3820158022
21.2039 40.485 53.7305 29.7761946493
20.5014 48.8916 49.3782 30.7798919923
16.3161 48.7739 45.4607 29.8048062875
21.538 49.0268 54.037 31.6094485935
20.7805 36.9164 48.2124 28.9101171553
30.9359 6.76614 4.24304 26.7737034606
25.4577 3.44239 6.38966 34.1880593296
30.1693 3.76229 5.76703 31.5849516716
34.4803 2.40065 10.0831 36.5282771013
27.4314 8.48175 3.61307 30.7852521237
33.9191 11.6982 12.5859 31.4727160499
31.1046 7.18686 16.2004 31.0833805236
26.9656 6.50014 15.6502 25.8944065919
28.5788 6.40745 6.12043 31.5716144277
31.2827 1.93926 15.7319 31.8339159194
35.6129 3.60349 14.2398 29.7792910349
32.6067 5.51026 5.97542 26.7940608884
31.3151 9.71685 7.9325 27.0381559069
29.3667 11.7762 14.7355 30.0328263707
26.5861 11.9101 15.5708 25.2376280699
34.0477 1.51881 4.12046 31.3862457395
27.0605 2.43642 3.84747 34.2017195714
28.5357 1.27347 15.7262 30.0637517502
35.5123 7.6448 6.03631 27.9990512388
26.0235 10.4168 12.2027 28.3208725619
35.3142 6.83277 14.5715 29.0079375824
34.0042 1.31744 6.98135 29.8890343079
30.9543 1.51325 7.35855 31.3597805955
26.1335 3.38729 9.41747 27.2128755313
29.7836 1.642 9.95124 32.9690548116
32.9553 8.97251 15.2557 28.3084423011
26.9547 3.93009 12.3229 28.0152171372
29.0063 9.36742 13.0132 31.3024851356
25.8867 10.8243 4.76036 32.0215457019
27.4402 5.7974 8.84568 27.6148227284
29.9354 4.27594 9.15678 28.7922071792
32.8748 4.09015 8.39554 27.7583714281
34.2388 8.09974 10.6821 27.4021446551
36.2894 4.53521 11.0331 29.4575165507
27.4451 0.961694 13.0336 30.2288309912
27.6772 8.38787 10.1913 28.4059183959
26.2041 7.38525 12.6914 28.4295826387
31.8604 9.45948 12.2298 28.6648770955
32.2733 7.28084 8.47196 29.2386658063
30.5076 7.24136 10.8686 29.1737953797
35.3015 5.89456 8.60371 25.0611744008
26.1303 4.14203 15.0471 26.1779723215
31.8432 10.2743 5.21538 27.4699520099
36.7182 8.47506 9.03327 26.7836302372
29.1733 6.83954 14.0402 29.0732847699
30.759 1.07704 12.7041 30.7573062138
32.302 4.69306 16.22 29.5781369729
33.6663 1.95454 12.7492 31.5958657439
36.2202 3.86454 6.93796 29.3426779237
35.463 10.9061 3.94181 31.706352801
33.7495 8.5528 4.08739 30.7089943194
25.9683 5.72881 4.55425 30.9129880657
32.2182 4.35355 13.4472 29.4933466905
29.647 4.85636 12.0313 28.7753211892
35.3908 9.33634 13.0834 26.8661334228
34.2313 5.71938 12.2317 27.7359101626
26.1168 9.11609 16.5035 31.7961622242
35.9336 10.9898 15.7634 33.5159469869
34.7419 10.539 8.04506 30.9552952458
28.8223 9.14357 7.60763 30.5630371088
25.1792 8.49132 8.55167 31.5507466278
27.9482 11.5049 6.45419 31.2442307881
31.8266 11.5282 15.8103 26.6771536518
33.2738 0.180693 16.7543 36.8836484948
31.6136 11.3016 10.0139 30.2546787335
27.1546 0.606711 9.41054 34.0378852619
34.8095 4.46224 4.53684 28.7849572466
36.9597 6.13601 3.82211 26.9702734236
24.7849 11.2189 9.885 28.7951063262
24.7062 0.577023 3.8026 33.1992922383
35.0354 4.47609 16.7108 29.8383124178
25.4574 4.31841 19.3548 30.9039416115
30.6087 3.73203 18.3984 31.9708726735
26.2611 11.9869 24.4887 99.4188084507
29.377 10.6615 21.5509 27.8092097788
28.1485 7.58953 19.0304 29.6042664076
26.9691 3.31061 24.58 99.1752094008
28.2251 5.04069 17.8836 29.3586752296
30.2821 11.3787 18.2381 27.8332064382
32.7363 11.7925 23.7094 43.6688384711
34.8023 9.07025 17.6313 30.985682062
31.7757 1.25536 21.7166 28.0828511404
29.2787 4.80556 21.3471 30.2795767201
28.7582 7.72177 21.8479 30.9960247133
26.322 0.0922873 21.3832 30.2628302753
32.9443 8.74589 19.7605 31.609198091
35.6508 11.0831 21.5456 28.1769999559
35.1702 7.70872 24.0886 59.0791853861
35.3206 1.98628 17.7462 30.2333934324
26.2133 2.51473 17.3916 26.7072968859
25.8113 9.02251 24.4708 91.8791072055
31.3407 1.3182 24.5355 89.0800689
32.536 11.1819 21.1101 27.7150302318
26.6597 10.0034 19.1716 28.8286253715
28.897 1.55358 19.2216 30.4593783622
36.782 3.00524 21.5515 27.818897724
34.4102 2.59901 23.9099 55.6407168182
27.0422 2.96026 21.4514 28.6287535592
28.5798 0.82532 24.2617 60.7535361608
29.4175 5.17799 24.3154 70.5282896886
31.8205 3.85689 21.1481 28.6477551812
31.9156 4.10941 24.1196 57.0458181906
32.5196 6.99873 24.0842 67.5842231699
34.5646 1.32921 20.2644 30.2133639321
30.3935 8.64961 18.4126 29.9338478087
35.3369 4.77692 20.1505 31.347959118
26.6583 6.46531 23.6703 44.5878240975
33.5048 6.63244 21.4618 31.8641811271
30.1242 11.0703 24.1819 80.4254130157
30.0029 8.16098 24.2659 76.3360318066
35.2485 10.3984 24.1768 77.8144445236
26.8825 11.6969 21.6306 29.4003276319
36.3057 6.88268 18.436 27.0959280493
36.4257 8.10736 21.1963 28.028108855
34.1814 12.1524 18.4747 31.6702861397
27.7709 9.5784 41.3562 28.3758609891
26.4656 5.42916 42.7685 28.8372470874
35.9419 1.72091 35.6296 73.254186941
27.7961 3.22614 35.5604 101.4846028359
30.1427 1.6283 36.6023 39.585505861
28.9014 6.94255 42.1231 30.0981453919
29.6792 11.3569 42.2196 28.1015356902
27.6909 8.84226 38.4509 28.2501472563
29.2883 1.39937 39.1771 27.4778835568
24.9569 3.85898 36.4057 33.446560636
36.1986 10.4189 36.4169 41.5272284475
30.7068 6.62708 35.8825 69.4945688528
31.8048 3.99993 36.2754 55.4412466899
34.6185 4.41001 35.6558 80.359989809
26.0031 3.99136 38.8545 28.2787768878
33.8662 6.68561 38.516 29.9096475549
31.1907 2.52508 42.493 29.1696354052
27.8702 6.31297 36.1262 40.6790781167
33.3708 7.18458 35.6878 84.4941859832
27.8938 9.24163 35.4167 120.0593164038
30.5349 7.87662 38.3134 28.0530729265
35.9817 6.40482 42.6324 30.3784912153
32.0566 0.171941 40.4521 31.394446802
33.4637 9.92964 36.0864 64.3194206289
26.8184 1.63213 40.0162 27.9896995233
36.4578 2.98873 38.1873 31.2437757139
30.6489 3.79177 40.1103 27.0572791045
24.8952 6.52771 35.7918 76.4877651048
25.6951 1.15523 35.6244 91.1131652901
34.6116 1.68022 39.5957 28.3867921797
36.1816 1.68752 41.9576 32.6937145299
32.7368 10.5814 41.1463 29.1936465407
35.9103 9.97821 40.9238 30.2200962001
33.6214 7.74963 41.2542 28.0251018662
28.6396 5.11873 38.5132 30.5507586236
31.1692 6.53499 40.7556 28.1317482639
25.4103 9.33646 42.631 27.9209835255
33.0 4.04082 38.9032 31.2621770692
31.5643 10.4921 38.4651 30.5274280421
25.1542 7.50033 38.4384 28.7636052963
36.428 11.7821 38.7884 29.9161874668
36.4378 5.89641 37.9934 28.6397075437
25.0692 9.87199 36.1142 55.4824874717
24.6785 5.9024 40.6076 27.6609396561
27.3197 0.827325 42.8204 31.3519627726
29.317 11.5551 36.3659 37.6097084847
26.6704 11.7425 39.1691 32.478195091
27.9941 5.58805 45.7192 26.3523225833
36.2501 0.80456 49.2758 28.8325400294
28.0001 10.7179 52.8368 33.2405077838
29.0414 3.25793 44.1481 30.231034172
31.9482 9.69436 43.6923 29.3102116578
26.5745 8.70113 53.9663 32.0530808703
31.3155 11.6476 49.9214 31.2179674666
30.1989 7.36794 44.363 26.7322063006
34.4298 7.66959 46.3309 28.7721795193
35.7322 2.10292 45.9331 30.4475551465
36.8627 0.976324 51.9098 28.0345970662
36.5064 6.50012 48.3684 27.0878021891
29.8595 9.61977 56.4232 29.4047961865
33.1131 6.82346 44.1751 26.573504476
30.8841 9.66889 46.8563 30.0129785009
26.0999 5.81913 48.5738 32.0509570506
35.2083 9.40084 48.78 29.3210677901
30.0396 1.79564 46.0305 31.0223612945
34.5401 10.0998 45.3186 29.129454765
26.0052 1.80257 47.9693 30.9752109192
30.0882 1.13004 50.386 30.602316986
32.1917 3.6388 46.6255 29.1110817687
29.8066 4.02983 49.8022 32.557501348
31.9087 7.22773 52.5598 31.7316198265
34.141 2.95908 48.1239 28.5088855737
32.0738 4.49715 51.5176 28.8678391175
35.2649 3.89439 51.7557 29.2093556018
32.9463 1.16611 50.0942 29.1762128251
30.3008 5.47807 47.3666 31.1383545766
27.7216 5.33734 51.1235 37.164993511
36.6912 10.1186 43.6457 27.829456479
32.1767 7.44295 47.9862 27.2569037512
32.3902 8.8509 50.3665 31.669837629
33.9924 5.5088 49.3274 29.6457022971
34.5439 11.6508 52.6917 33.528626623
25.7349 7.29067 44.3524 25.5004446433
26.6259 8.91386 48.1632 32.2064488861
28.8428 10.8254 48.5851 30.3891925838
35.5181 3.69575 43.5359 32.3903561226
26.1521 10.2603 50.7183 29.7699243824
35.8028 5.55615 53.9642 28.0101970742
27.9823 8.76743 45.5153 28.3934226359
35.0653 9.27297 51.6011 32.2692874212
30.7843 2.35761 53.0716 30.2124698706
26.2466 4.41129 54.7718 31.5079125782
30.7077 9.90057 53.5545 35.4701006167
32.5094 11.9863 47.475 28.680174887
31.4997 0.258927 56.2217 27.0832019086
33.4523 6.79184 54.8218 30.2634415687
32.7053 4.14095 43.9431 30.5699230883
25.7183 3.97258 46.278 26.9596642765
28.2516 6.39201 53.6455 31.4294348413
30.5002 5.47535 55.0608 27.9772973968
33.1577 3.48325 54.9174 29.4821892421
33.7088 1.57046 52.5729 26.0709570015
25.6028 2.92083 50.5239 33.9441780283
25.0199 5.92633 52.6153 26.6300426751
28.5449 0.89393 47.9765 31.8580403115
27.4722 11.3554 44.1811 30.6487282758
25.5393 2.93198 43.7503 31.4334802002
36.9478 7.72912 52.8383 32.9812934145
26.0195 0.545001 52.251 31.6474445355
28.6036 0.111246 53.3779 34.4070323512
30.2513 2.86802 56.1039 27.9004612524
35.6755 19.8923 11.0839 29.4343878633
26.3151 19.5973 10.0957 31.0222858772
34.508 24.1459 9.19969 33.1125055759
35.6242 22.7182 11.4584 31.5876074028
29.6075 23.0023 13.6757 32.5065298613
32.6336 21.9848 7.66708 32.8611969556
36.5913 23.5973 7.52176 31.4637853458
32.9532 20.1699 9.66001 27.5929571912
30.342 15.2116 7.85396 31.414574366
36.4933 20.6262 14.7344 30.9759194368
36.357 13.3525 11.5456 30.7694275526
36.2077 15.6559 9.79597 30.5917477583
26.5165 16.0383 5.27094 31.8159233341
31.5391 17.9396 4.86563 29.8909842004
34.8775 18.3811 8.33533 32.0901158641
29.2902 14.487 16.1568 31.3194815844
31.9112 20.8732 13.7764 27.3273738902
26.7341 16.6611 10.2151 32.2668069531
26.196 19.6323 5.92812 32.3378570064
29.8106 19.0541 6.87179 28.5939077162
29.675 22.0104 7.33287 28.6798899353
26.6693 13.2019 13.1117 32.6343064086
27.0795 12.7706 8.80834 33.4551013475
25.5677 14.6813 7.5535 30.4439377273
32.8362 22.2011 11.5383 28.5447297019
29.8844 13.3402 9.88576 33.1804877048
33.7338 16.7414 6.24435 32.1445689141
28.2034 18.6627 4.16175 28.9469464483
32.3759 20.5236 3.93805 35.0275672549
36.6609 23.5105 13.8777 33.107231831
33.8003 22.441 15.0691 30.7351765073
27.8336 17.2468 7.57298 28.4453417442
28.856 17.2835 12.266 29.0236544846
29.3644 14.1821 12.4041 34.4351949387
