22.4802 43.1264 8.9947 31.972740045
22.6669 45.3511 7.16225 29.1094939996
28.0389 46.9124 10.426 31.3527150429
24.2191 38.862 4.23024 29.4503214188
25.9474 40.2524 6.85975 30.5463563927
24.8946 47.5951 4.61899 31.6235726462
27.027 41.7466 9.79952 27.3199434436
29.1111 34.5424 7.53841 33.9874299855
22.4516 37.3031 10.7748 32.3613518913
26.2664 43.315 7.15695 29.1481458381
20.7385 45.5179 3.68546 32.3620065966
28.0631 46.196 4.16298 28.5726920073
27.2202 34.4881 3.73219 33.225458373
22.138 43.3215 4.46337 27.8842893963
21.5491 35.251 8.60535 30.2317033789
25.3414 35.2073 11.0445 28.1448166224
24.8164 44.3808 4.69095 28.7619653174
28.1921 37.6327 6.43204 31.4419115893
28.8477 40.0123 7.95168 29.0810839088
20.184 46.7643 6.72593 28.9509987217
24.7046 37.798 8.92529 30.1111275115
25.9544 39.4703 11.0028 33.5242110104
29.0881 43.0535 7.14802 29.1483444606
25.1537 32.7159 10.2705 28.5743844165
27.2945 46.0279 6.76373 26.3636523331
24.7901 43.0522 10.5877 30.523585029
22.9247 32.7993 8.90146 33.1609900933
25.3885 45.9077 10.355 31.9966072288
24.9378 47.0216 7.6001 26.7264146854
20.2157 42.3899 10.3166 32.1006262599
20.1404 38.5522 11.265 32.4098662993
19.896 33.2656 7.4359 27.3392046462
29.1167 42.3439 11.5422 31.6200731774
25.9105 41.1054 4.03423 26.6868196525
27.5657 35.5671 12.3658 29.6830909518
22.3492 47.7268 3.75696 29.5911772538
28.9687 33.7234 16.6383 29.9424506422
23.4856 42.7597 20.3788 32.0708683017
23.7087 42.6408 13.0513 31.8530703082
26.841 35.0923 15.0583 30.7670872491
23.668 46.0889 18.6937 29.1020313982
25.8361 39.0963 20.9199 27.068467092
25.421 41.2019 19.1492 27.8485993639
26.2573 46.1405 19.0926 27.8476143067
24.6757 37.0559 14.4477 26.8806583559
21.8688 39.7754 14.3908 27.6737273138
27.6963 41.4982 15.5326 34.2761547014
27.1478 38.8193 15.3568 27.9537723739
21.0268 46.3802 16.4991 29.8275349759
29.1013 38.2501 17.474 29.9129122003
23.3451 35.5676 12.6994 27.1391267662
20.4209 41.7529 13.0578 31.0057702515
25.8443 43.4715 16.2232 29.394661223
28.5575 39.3286 20.2197 28.3772122301
24.5185 34.1128 20.2273 27.2427531134
28.2607 43.7396 13.53 31.7437611913
27.8633 48.1607 16.7815 27.5333547616
24.6712 33.4385 15.4334 29.3263156852
23.4608 33.4487 17.7699 27.5001247994
20.963 34.7063 17.7322 34.6097862944
24.6557 37.298 17.7961 27.7405247422
25.5492 45.1108 13.9115 31.1336040858
27.783 38.2677 12.557 29.5396907121
20.0818 34.9298 12.8752 30.7132109766
27.8831 43.0448 19.3727 27.8665659257
24.4904 39.8516 13.7038 29.1922586782
28.2332 45.2708 17.064 30.8044664517
28.8484 47.3442 12.9281 28.780210541
21.8474 39.6899 17.2047 29.870792045
23.2817 42.4189 16.343 27.7878502258
21.1785 43.8557 14.4989 30.6220741715
21.8313 44.0905 18.0726 26.5588728558
22.1536 40.1113 21.1145 31.3771305685
24.815 39.8099 16.9026 24.7803017612
22.4117 32.782 13.5787 34.9343872368
27.3052 33.2728 19.3189 29.8690728752
27.2331 36.1318 18.1235 28.5326087805
22.1523 36.9138 16.4794 30.7086449763
20.0471 34.8078 20.5938 33.8190470826
22.7401 48.4309 17.2199 28.3474499059
20.1156 40.8098 19.0699 30.6397107073
29.3883 35.2733 20.6009 28.1109134778
26.6823 47.715 14.4436 26.4955879694
20.5061 48.7638 20.8746 31.0719498665
20.3246 37.5189 13.6596 27.4356910974
23.2336 37.7867 20.4285 31.8963825376
28.1293 45.8536 20.8489 28.6386103732
26.4444 48.9545 19.4615 28.9049429728
24.0956 48.6994 14.7424 29.7813346567
22.7147 46.829 21.1305 26.7598247449
28.9397 48.7567 20.6813 29.4748579717
21.0504 45.8887 12.8014 27.9641689756
23.541 46.9269 12.5464 28.6291885752
28.1053 38.2289 24.3704 88.8329208299
26.551 42.2751 22.2287 26.0111889614
28.8291 48.5738 23.893 55.3131663901
19.9175 38.4677 24.3552 95.969168784
21.9448 46.6115 24.1345 73.5951261615
26.5703 33.3281 24.0301 65.3607073387
23.9714 37.4292 23.8087 58.9007746587
26.4395 36.1672 24.0301 62.7231773017
22.311 34.6482 24.2699 81.5231968749
25.8055 40.2483 23.4451 39.1332850251
21.0593 43.579 24.3302 83.2063622763
23.6589 42.5268 24.4158 102.6736683756
28.2584 43.6862 24.3926 102.0257143968
27.4217 46.1655 23.5033 35.0022302099
24.6456 44.3876 22.4071 30.2733395128
22.5348 35.1976 21.6109 29.5051563099
22.5815 39.9493 23.9548 56.0854748874
24.7813 47.2342 24.2716 92.8953024768
20.1602 45.1089 21.8124 33.1542448129
24.2773 49.0892 21.5836 30.6488243356
26.611 35.7528 21.4322 29.0360102525
24.1935 41.9235 38.8114 27.8904700299
22.3258 39.3464 36.1701 63.9932510829
20.066 34.6229 35.9027 74.1825808444
22.5637 44.3403 35.9454 65.6568605818
25.2016 44.9225 38.1367 28.4405761439
26.8475 35.7199 36.2347 50.4891996002
27.6801 47.3371 38.7049 27.4705711318
23.7841 41.862 36.1048 49.1210249499
27.561 32.952 35.8314 75.3072592726
24.5711 37.5584 35.9961 79.5163147157
27.2624 39.1244 35.6467 72.2031294727
19.9814 43.6429 35.5332 99.8502167488
26.1625 45.4181 35.5923 96.862393758
26.333 41.6786 35.3794 102.6611512094
26.9211 47.871 36.0776 54.2938197021
21.8374 47.2664 36.3621 51.2809548367
28.1991 43.8808 36.4065 31.4065243181
19.937 45.5665 38.1102 27.9104694469
22.9292 34.8058 36.3349 66.8505649217
29.454 36.7112 35.7543 69.4285462496
28.1623 38.5233 38.3131 31.8215568464
24.365 48.764 36.0856 72.0253304158
28.5571 41.8162 38.4725 28.0620282832
23.6569 36.1344 38.7657 31.7824799148
22.7835 39.647 46.5809 29.0104691128
23.9954 32.9758 41.0012 30.2568976343
22.479 48.4539 46.8082 28.5813840849
25.558 34.0179 43.2219 29.9723341111
20.105 45.1561 46.2595 29.4683254354
21.8516 45.0338 40.2125 29.4349907368
21.9111 37.8293 42.2895 33.2553772933
25.5064 38.9968 44.0423 31.1317680652
21.0255 35.4394 46.274 31.6905084241
23.1399 48.792 43.6135 29.9171340701
24.4051 37.9554 40.9371 29.7231098978
26.9024 40.8109 42.102 30.058260507
25.9809 43.1742 42.5598 26.6672019203
28.1649 37.3647 43.6482 30.0274769852
20.9606 41.5495 44.1209 28.7385201381
23.4083 42.477 42.8575 27.4000192514
26.8643 43.762 40.0544 28.6193935812
24.3471 46.4693 42.8984 30.5036333098
26.0797 46.0874 45.2867 36.3229558452
23.914 46.6468 40.0248 28.2872889692
19.9384 39.8563 40.8032 30.7661308035
28.4758 48.5384 42.3288 31.3230829707
20.6335 47.8299 44.7242 27.0072130973
27.7227 43.7009 44.622 34.9723220231
29.1481 45.5933 41.4223 33.3212148667
26.3929 48.7212 40.719 29.4184487853
23.054 37.4278 44.9162 30.4045784554
23.9566 32.7649 46.3929 30.6281238244
20.6853 36.6059 39.5093 28.295290651
24.7375 35.1668 45.3441 28.7381531899
29.4807 34.6301 42.2094 29.2169018392
27.8744 32.9324 38.8287 28.5764040431
22.0258 42.1683 40.6754 32.4962299994
26.0289 40.3457 39.5411 28.548055918
24.3228 41.5758 45.486 30.2036858938
28.54 32.8102 46.9695 27.2094894565
27.6679 38.4195 46.3663 31.9339992606
22.9277 44.279 46.5161 32.2790545313
26.5139 36.0475 41.5532 29.9694233596
24.523 46.5806 47.2749 28.9190329159
21.9691 44.933 43.4401 27.2990567774
22.5542 39.218 39.1008 29.6331583202
20.2034 40.3404 46.5828 29.6770021346
27.5754 35.6271 39.0712 28.6647916336
20.0365 47.0128 41.7064 29.4950175627
21.4605 33.9184 40.2951 30.1649300147
27.2721 41.3753 46.5266 30.3534556753
28.2228 34.7336 45.1008 30.1000457732
19.9851 33.1046 42.4291 32.9403824747
27.1438 48.7424 44.97 31.7083911532
26.1051 36.4544 47.4325 29.9551683496
24.8497 33.122 49.9241 29.494415368
27.5515 47.0439 53.8311 31.2167703207
29.1322 40.9203 54.2965 29.4473064336
25.0635 37.4276 49.8175 30.2512798836
27.2884 42.5268 52.8047 29.4731376789
23.8503 39.8771 49.0571 31.4860078147
22.5742 36.2526 50.0199 32.0034073568
21.9252 40.7348 50.9943 30.2889668938
28.0141 47.7377 49.8913 35.5087389584
26.1934 41.6815 49.1774 31.5047978638
29.5748 44.7285 53.2159 32.3590181645
24.8224 39.176 54.1334 28.1262224547
24.7218 46.2195 53.038 35.1689742673
22.9817 48.2585 53.839 30.3965466722
20.3583 42.1534 53.1766 31.0164658485
24.5966 44.2983 49.265 33.5453353704
20.6404 45.2589 53.5912 31.9238314696
20.486 37.1407 53.8264 30.0699251751
23.0662 44.1139 52.1935 28.8948927338
20.0829 48.807 50.9946 28.9026754691
26.7351 45.1269 51.0623 34.2947639326
26.4222 38.1703 51.916 30.462125327
20.8693 41.1616 55.6121 29.1197439772
26.1695 48.7051 47.9085 32.418562527
23.1878 34.5315 52.0754 29.7849224028
26.0799 44.1115 54.9325 27.7996208842
23.8314 42.2902 54.888 28.4886038533
21.6384 44.4786 49.4618 30.731028211
26.2462 35.1364 54.2385 31.1795574336
19.9957 41.8987 49.078 33.6586434819
22.0102 38.8861 55.4916 28.4235774008
27.9491 40.1672 50.6659 29.456928495
20.7956 38.035 51.3955 32.2865833879
23.6003 36.2543 54.3424 32.5397387089
27.3407 39.0825 55.5772 32.3063090404
28.4058 35.772 52.0511 31.3983288803
27.4292 34.5234 48.9708 28.3961503998
22.1754 33.9696 48.2817 30.5301094346
20.9161 47.2953 48.9034 32.4998703304
24.5907 41.4588 52.2153 27.5728329248
19.9954 48.0156 53.5063 29.4472464738
20.777 32.8889 51.9929 31.8754416788
27.7514 32.9124 51.9355 27.5664923166
28.9761 36.8734 56.422 34.3714681591
33.9431 1.42752 7.24564 32.1429878304
32.1192 3.60906 6.11254 33.220736573
37.3381 13.3611 5.38391 35.6258576644
38.2168 10.2323 7.5688 32.7881187006
36.4381 1.92873 4.23558 32.1734702581
31.5047 13.7138 6.61566 27.3704205378
32.6423 6.45711 4.769 26.0586524404
39.3132 2.97106 4.65946 34.1327794556
35.8599 3.40592 6.5197 29.6376730247
36.3679 8.29592 5.18857 34.0517239254
31.3463 7.10566 7.13979 34.0414496124
30.2421 1.77504 11.2788 30.0832662281
38.8299 0.915246 11.1645 32.6013753586
32.7147 9.36916 8.09297 27.9141433198
34.0221 10.5211 5.88186 29.3663246232
36.4056 5.43774 11.9019 33.9761289115
35.8236 12.0133 7.36977 28.7063637061
32.4483 12.3851 4.76511 29.6259392983
32.3677 0.177403 9.67788 28.1493866485
37.7193 16.4136 6.33241 27.5368674758
31.4247 11.7893 8.6477 27.6110728703
35.4028 11.9501 10.2755 27.8945470178
38.9681 1.22577 7.08992 32.3049318204
34.9735 9.02593 9.65877 29.6802590186
36.5004 7.49017 7.79238 28.6988697073
33.2747 2.87474 10.964 30.1437707185
30.0667 14.6771 10.78 29.5754954876
29.609 1.77136 4.77762 35.0463815623
35.0732 15.729 5.24086 27.4829951663
35.3798 1.42026 9.56941 30.0437453973
31.48 6.58566 10.6953 28.8929040937
33.902 5.25914 9.98354 30.2292611372
32.8966 13.5096 10.1588 28.5744275763
37.7798 2.88372 8.9555 29.1377351616
34.7841 4.43394 3.69027 27.2217792803
38.4539 5.56884 9.06144 33.1267733146
34.4074 5.67966 7.2175 27.7157152054
34.0744 14.6307 7.73126 31.8847071409
37.8842 13.3678 10.3603 29.9563706874
31.7667 9.39198 10.7708 28.1021240037
38.4019 15.9752 9.13578 30.2559983071
29.6437 3.25634 7.70972 31.9268582799
34.4134 7.50525 12.2449 31.4799826917
35.1588 14.7078 12.0747 25.6937696668
39.3624 5.66629 12.1296 27.9976918972
33.6907 16.2581 13.5203 28.7277377326
36.6726 13.6506 19.4176 27.7669487474
34.4389 2.04923 13.3574 31.103098601
31.6388 6.29519 13.4942 31.2163283964
32.0794 4.59739 18.5484 26.8808988395
33.8741 3.70341 21.0608 28.4652337638
31.902 6.81886 17.216 30.4543943099
33.6887 1.17584 20.1909 25.8586524698
33.5284 2.98305 16.6568 28.1082301734
34.2509 9.6901 14.7665 28.3377056409
31.7473 8.71984 19.8143 28.4878267767
35.8664 4.40796 16.2302 34.5200073328
37.845 16.0397 15.5582 30.2990960588
30.3678 -0.0572879 16.6121 28.291133122
37.2579 9.72987 15.5951 27.6631208778
34.9739 10.9304 17.3829 32.871923751
35.2292 14.2007 17.3284 31.5088230837
30.7503 1.39411 19.1879 27.5355553347
38.8337 15.4897 20.2218 27.2408925235
37.1487 13.4058 15.039 25.9180424407
34.2461 0.71512 17.5978 30.5581077865
38.7261 6.90724 18.1897 31.7712609602
31.9522 15.5926 15.5131 29.1548815995
36.7151 3.4892 13.7884 29.0677033395
31.4743 8.87919 14.8323 27.5330452805
30.6682 12.6167 16.9603 30.088723216
38.8432 1.57127 13.971 33.2641392194
38.9788 7.81996 14.1618 29.8010691687
38.8398 11.9439 16.9195 28.8164351634
33.0501 12.986 15.5459 27.3385877503
34.5809 7.81529 18.6967 30.4224152214
37.7014 2.83885 17.8554 28.9216516976
30.639 6.32796 20.5806 30.1064756561
36.2792 7.29897 16.6409 31.6436797992
30.4017 13.2339 19.6289 30.902775106
32.0138 3.33416 14.4138 30.1075273499
35.1663 12.2645 13.5739 25.7408602702
35.4407 10.2967 19.9816 28.4437177349
38.2018 11.2739 19.7465 31.4346206791
31.6767 15.8363 20.3546 29.4495053636
31.8704 11.1917 12.9885 29.178157131
30.7955 -0.0232705 13.5757 32.0830335818
30.4978 13.8133 13.4363 30.863712287
30.2678 9.86392 17.6047 29.8192592676
36.9822 3.3366 20.4582 28.9571564993
38.8225 13.655 12.9531 33.3256254461
35.9725 6.35521 20.9688 30.0843527874
36.527 9.79796 12.5736 30.4963139425
33.3024 8.38798 24.1481 66.6376345141
38.2836 15.2651 22.9232 31.4599799457
34.1171 14.9208 24.5729 106.2296260245
36.9905 4.10671 24.5539 86.0085462993
34.8069 2.97143 23.5626 29.0317706742
37.3585 8.33009 24.0657 50.4351473683
30.6152 10.7037 23.5874 32.354385387
31.2128 13.1571 24.6781 108.6048991369
32.4986 4.10126 24.5199 100.6425492548
35.4874 6.28632 23.5869 35.0390562274
35.6476 10.3987 24.671 118.2339940293
32.2393 12.8669 21.8143 29.5590476935
36.0353 12.9236 23.6799 38.0864192905
29.9161 8.24495 24.6531 119.5885232172
39.1057 12.6813 23.9752 75.565019825
35.7763 0.434721 24.507 100.5294797833
31.5673 6.3612 23.4388 34.2940370236
38.7098 5.27551 22.23 25.1847406966
30.4352 2.17799 24.4655 94.4340213551
39.2119 6.35714 24.7363 106.9845373204
33.2566 10.1049 21.754 30.094151316
32.0409 16.1809 23.1847 29.44181498
34.8689 13.9485 21.4568 28.1602048632
36.0137 0.676936 21.6106 26.3913672723
31.0424 2.95814 21.5988 29.2068178714
39.2179 2.2222 21.6567 26.074711504
37.5291 8.64518 21.323 27.8595640428
39.1853 9.54374 38.7503 28.3926726522
36.8523 8.44466 36.1091 42.7639917006
30.4902 1.87832 35.6619 88.9707897572
38.8447 13.0661 36.3365 36.9782049245
35.0527 2.52624 35.9633 70.0677106727
36.2977 12.7789 35.5168 88.8871604758
37.4079 0.6756 35.8923 66.7226171599
38.2993 3.30602 36.5081 34.6489350675
33.0395 6.76698 35.7637 84.4850984365
31.1284 4.69805 36.2728 40.2571702942
33.155 0.579194 35.9443 59.161194304
35.5197 5.40204 35.9643 59.7770020274
29.7107 15.8762 35.6558 75.0889566553
38.5453 6.13409 35.4674 114.0407726555
31.9163 9.8118 35.8159 66.9560025021
34.8698 10.28 35.5919 79.751350558
34.2781 10.3426 38.3492 31.3882661488
33.9182 14.4015 35.6014 80.2463717221
31.8682 12.4946 36.3014 36.7571951727
38.9733 10.2421 36.1218 45.2029147711
34.6389 13.5367 38.3936 27.4815753532
33.138 0.579762 38.7385 29.4514196182
37.0024 14.6718 38.5212 28.4992503979
35.8097 3.13753 38.6958 29.1173446031
30.4053 15.8942 38.4305 33.1030605524
32.3606 7.80001 38.318 27.8553329927
36.3346 16.2303 35.9992 63.853480974
36.3428 8.7423 38.6474 28.9859178261
29.9637 8.4531 38.665 28.8267193981
31.1218 4.55898 38.6985 28.1234520279
33.2834 5.94668 40.1079 29.9287839405
29.9061 14.135 42.5441 33.2643183098
38.0423 14.3486 45.9476 32.0453167761
36.9661 1.22337 40.4971 29.6976176145
37.4091 13.5023 41.03 26.7761877219
31.9334 7.04173 42.4543 31.7783006988
29.7953 2.16457 39.2657 26.460054917
37.4229 2.46338 45.9208 27.5722452646
38.2175 6.69054 44.9919 29.5165223463
32.0687 0.0552498 43.4694 31.2874876621
31.2099 11.4544 43.314 29.5142402847
32.6156 12.7728 41.0904 29.8196104242
37.6995 9.60695 41.5984 28.1368848757
36.9766 6.40896 41.7051 31.1812390974
34.6055 15.0641 46.8632 33.5683244074
34.6956 14.7371 44.0834 35.3884662371
37.1067 9.58109 46.16 28.6377656223
30.1548 2.01886 41.9502 28.7811977911
39.3483 12.2374 39.2481 28.114765756
32.9569 15.6324 39.5093 30.5153804948
33.6036 2.35433 43.136 31.2405670193
33.2528 1.19832 47.345 30.2110359536
32.359 15.4395 42.3266 33.8620520939
34.8873 3.12661 45.7192 30.790390304
33.5368 7.9994 44.5722 36.0358859305
31.6681 4.67989 43.7714 31.8796162466
30.884 4.60729 46.6637 27.2965031901
37.6071 4.10063 43.5083 33.884426159
37.3778 15.1885 43.2457 31.144947515
33.4265 5.73869 46.4837 29.9915899222
30.807 12.9537 38.9647 29.6466593461
33.4405 10.7 45.0213 30.1446458721
37.866 11.7894 44.7861 29.1626966402
35.2716 12.0941 43.7785 27.42613634
36.1992 8.24311 43.7125 30.3229141311
35.5436 11.5207 41.0017 31.0524059736
35.9193 0.395827 42.8986 30.4132637981
30.3503 9.33303 41.7589 33.1424899852
33.3444 2.97658 40.2585 30.0214259148
35.776 5.94023 39.2459 28.8621596532
39.2883 5.31773 40.7759 27.6776571942
29.8334 12.7443 45.5868 31.3246435299
36.9836 6.36004 56.266 33.032848495
37.2885 7.59615 53.7377 30.8682024858
29.8574 14.7639 53.5582 31.1501546845
34.4591 1.86159 50.2073 32.4408354566
36.3037 5.80696 51.766 27.6966011583
31.5378 3.15952 48.9256 30.0398714805
35.2951 0.676996 52.8567 30.4905982648
38.3431 3.36422 52.8006 31.5668493669
32.448 7.20596 48.8409 32.2712201564
35.4921 5.00992 48.3391 26.5062582451
32.3427 0.170177 53.675 30.9809005639
36.2108 13.8603 55.4861 27.7286955819
36.3198 13.7588 48.7182 31.8077024191
35.8017 16.2408 52.9934 31.625138124
33.8555 9.29742 49.8016 29.7558800635
37.5874 6.66901 47.9299 26.8816576678
32.7018 11.2596 47.6622 27.1873752383
33.5329 10.0899 52.7125 31.1658796312
36.5152 8.22447 49.9534 28.7988766779
32.9781 12.3743 50.6039 30.4803523706
35.6892 10.9119 48.193 30.8659110064
29.838 13.823 49.5924 28.6084899707
31.1184 6.03928 53.329 28.7117712841
29.9795 7.691 56.5073 27.6308654457
34.3447 7.46558 53.8208 28.9016961794
36.1279 2.85628 54.3936 29.7608816798
30.6601 12.2163 51.8287 29.7686011059
31.0406 4.76296 55.8059 29.4602862527
32.9685 2.49805 55.1083 31.6088086375
38.395 10.2403 50.1002 29.1553866864
31.2855 10.2502 55.9954 30.1620622819
30.0092 1.88864 53.1816 32.0346317481
33.7047 4.84607 53.3339 27.0240002073
30.3173 4.14579 51.4583 30.4430620535
38.5991 4.91667 50.0583 25.5733606168
33.6625 4.90042 50.4286 27.6584091525
34.7844 14.3753 50.746 30.7123414934
36.7172 13.2119 52.864 29.2612097864
30.6644 9.20352 53.2906 28.3043436838
35.1456 11.0184 54.8427 35.1311932308
37.4403 10.413 52.9579 29.8107314118
29.7525 6.71225 48.0395 35.3099415668
30.7821 0.179744 49.3226 33.8355270362
38.9244 13.191 49.8092 33.8982797882
37.2177 2.78307 48.8219 26.6205027861
37.6456 1.19663 51.1081 31.3851635695
33.617 14.8135 55.8461 36.4418771478
33.6673 8.70303 56.2853 26.5789453037
30.4116 9.70146 48.0151 31.7563886225
30.4054 16.1714 51.0405 30.32971455
31.884 14.0507 47.7135 36.5407309565
35.1711 32.5001 7.44456 29.9936342977
31.838 22.6838 7.51899 32.1686646644
37.5366 18.9218 7.30312 29.5587867681
35.6527 20.5149 5.64387 31.9094645539
31.6128 20.0168 4.02613 34.7310937644
33.8138 23.414 11.8536 27.8025731018
32.5332 26.0151 9.40703 30.9517029418
31.7408 30.5161 10.5105 29.2119052798
32.7023 30.2256 3.79052 34.9322947746
32.0654 25.5233 3.9011 31.0025338395
31.5262 20.5724 11.715 26.9582843052
34.8232 28.7992 7.62167 31.7489180506
37.7672 26.4815 8.32309 30.0336434406
39.1948 22.132 7.52718 28.8185177597
30.5915 28.0418 3.98966 32.426325686
35.75 26.3461 6.34101 29.7637641344
29.9194 24.1986 9.2546 31.9033773339
34.9509 30.5366 5.57604 33.9562090353
36.1487 19.6444 9.71816 27.7886439627
36.7162 22.6461 9.11991 30.3528159464
38.3752 18.2586 10.8699 29.0604274593
37.7013 24.6481 10.3903 27.5773396621
36.5397 29.5509 9.6277 31.6334311423
29.8762 28.4333 6.57267 32.3326272135
37.7274 30.381 4.72847 31.2900290476
36.7434 27.0638 3.89946 28.8069231813
32.9514 25.0765 6.46814 32.3832799117
33.6975 18.2886 5.37801 31.2019370859
34.6214 25.9777 11.275 34.9535834298
37.0309 32.3566 9.54439 30.9692508056
33.5562 21.7296 9.56622 29.6598003213
31.1637 27.8031 11.7714 28.4698462934
31.7513 18.108 7.63893 32.1948323677
29.9455 21.0502 6.02508 28.219242699
31.7467 16.6559 11.5309 28.6134639328
35.1284 22.9491 6.85102 29.7502869256
32.9472 18.7876 9.8451 30.2041704489
37.995 20.7774 3.93164 27.2823636739
31.9827 28.725 8.53159 31.9899235388
36.8839 23.7754 4.71302 28.3529007617
39.1912 24.701 6.43379 29.0858191534
29.9169 25.4279 11.8271 25.4940831413
30.6628 16.2734 5.40162 30.7523485458
35.5148 16.5877 9.93519 31.6700718272
36.1616 29.4629 12.4342 27.7560180017
31.5622 27.1893 17.9717 29.8514762044
31.7861 23.4457 20.7173 30.0835248829
38.2354 20.1015 16.1887 32.9614507718
29.7318 29.9937 20.4153 28.9372022917
37.2182 17.7738 19.9442 27.9937922073
35.2194 32.6771 15.9204 29.9981961811
35.6886 22.7916 13.5038 25.6196088932
36.2836 20.4391 12.5154 28.6314114454
34.9025 18.6145 14.6314 28.6875863211
38.9851 27.7062 13.1628 32.8208295914
37.9766 31.9608 18.8517 34.4502992766
36.2354 17.5754 17.2409 27.6161693233
35.0057 20.6015 20.21 29.2013962093
31.989 22.8713 15.7542 30.1840311796
36.6678 26.0729 17.5083 27.5612866449
35.9123 25.2233 20.1065 29.8955817731
37.138 24.9862 13.1529 24.9395703703
30.6221 22.1133 18.2887 29.7067134489
35.4733 28.3948 16.7393 30.6747962343
35.4728 27.3073 14.005 31.1869764247
31.2949 28.9773 14.2892 30.964386496
30.8522 19.187 19.5911 25.5048303378
36.9269 17.1446 13.0607 30.9843557775
32.6049 19.3623 17.535 26.991317062
33.1133 20.7782 14.181 29.0149451592
38.3834 24.652 15.7648 27.6169601183
38.0844 30.7462 13.9802 29.4103810317
29.6262 25.0604 17.3832 29.6269637861
31.0718 23.4069 12.8999 24.7587914175
30.1033 18.3142 12.9152 31.814099807
32.8423 31.2973 15.048 29.3512952949
38.9752 22.5607 20.5317 30.982142453
35.0894 23.4133 16.1794 32.1564613439
38.5027 27.3374 19.0321 32.6105644878
31.7729 26.3117 20.6154 31.3440377389
38.164 22.4086 17.8292 31.299563905
35.4338 20.5553 17.4583 29.1503354114
33.0915 29.4867 17.1836 32.3404321659
37.0615 30.4909 16.5263 28.712640674
30.8114 25.9688 14.6981 26.5864712098
33.2402 25.6537 15.7708 31.9506506628
32.2902 30.9941 19.9342 29.2379704784
33.4296 16.8179 17.9436 30.0800108342
33.8435 30.7059 12.4585 30.4518910318
30.4639 18.9187 15.7049 27.7558578185
38.8652 20.9364 13.4429 32.8465644746
34.1514 30.0097 21.8624 33.4875034242
36.6635 19.6314 24.0546 63.938623277
36.1716 16.8976 23.9155 64.4863870972
32.395 18.9547 24.033 52.1681785133
32.1079 22.7801 23.7206 39.923313936
30.0837 20.8203 21.945 30.1645201375
34.3563 20.967 24.6073 111.7241186035
37.3108 31.683 24.7655 120.7968148554
37.8682 25.0699 24.2892 87.2551206871
29.5351 27.8889 22.0993 30.4015063756
31.388 25.6553 24.6744 106.6375427891
38.4058 27.8618 23.9442 50.5626454778
30.0048 19.8489 24.5527 85.6772253635
35.1732 23.8431 23.9447 51.8134506912
34.22 26.4617 24.1494 60.8500201287
35.7671 29.3391 24.5107 78.6024229038
34.4354 23.1246 21.2014 30.6706611121
37.3395 28.2192 21.408 29.2714033514
32.5668 29.8962 24.4628 80.6217513096
34.5349 27.1544 21.4039 29.8938614249
30.9427 32.2096 24.0285 43.8079590924
30.2991 28.613 24.687 87.6268523547
37.4966 20.1859 21.2044 29.7292714035
38.2582 25.161 21.3805 27.8456426398
38.9962 30.6434 21.3287 30.0787247807
32.9696 18.9308 21.2128 27.2300608434
34.934 16.8325 21.2905 27.6046883025
34.2957 24.1115 38.6993 32.7357276126
32.5195 17.4662 35.6535 79.7170314183
30.4701 19.5288 35.7694 65.7618998981
32.0739 26.7559 35.9831 90.0724729174
31.7317 24.2768 37.9393 26.5568179015
38.0195 20.5854 36.0321 82.9784847337
35.2086 21.6824 36.1421 52.1813927704
29.7518 23.5303 35.8915 75.4548729713
30.3569 32.3327 35.9275 67.1950222417
36.4661 24.1592 35.8833 100.9009795687
32.2083 21.8526 35.7105 93.7292230407
35.1661 18.5211 35.9995 63.0054071902
38.7959 17.8007 36.2851 57.1031045283
30.4942 31.6599 38.7759 24.6019160673
34.9319 26.4606 36.2365 59.0337112009
30.317 21.0635 38.4814 29.2475654368
37.4658 28.6724 38.7462 30.535441176
35.1033 30.8665 35.5556 103.3760549303
36.7863 28.5058 35.9982 62.3412953462
32.4315 30.1101 36.1817 58.5269928653
34.4596 17.7383 38.7412 33.6123123389
39.1 24.3136 36.8056 36.2055272381
37.0766 32.4904 38.7492 33.0256691842
37.6256 20.532 38.781 29.2276473464
31.3842 27.2028 38.7809 30.018685674
32.8745 20.4076 42.5262 30.9102084207
30.8277 22.0673 42.4853 31.6013321226
31.6159 17.9704 43.6616 38.3383973633
37.4009 17.8255 39.2052 27.1534351166
29.5914 28.8582 41.3352 28.7917290293
29.6475 30.0474 45.643 31.0205142991
32.9571 20.1682 39.7267 35.7372234284
32.8974 28.2329 44.8382 34.1352804131
30.6884 23.5512 44.7929 31.5589394359
37.4106 26.5202 40.4792 29.9835706569
34.7124 25.7833 41.0018 37.2598737241
38.4799 26.7043 45.306 31.0029981336
35.3332 21.4892 42.1222 32.3055948752
30.2583 27.9064 43.9614 32.502116182
35.8009 30.0533 47.4364 29.1056248096
35.5756 30.2708 39.6556 28.2912512919
35.987 29.6085 42.2086 30.964541116
38.2474 27.944 42.861 31.5515264224
37.3596 22.7226 47.2681 32.8355741866
30.3695 23.4649 40.2337 30.1973010454
34.9297 30.3301 44.9646 28.0987528467
39.0562 18.7834 47.228 33.5240431516
31.8125 32.4249 42.5197 30.7646042389
33.2613 18.3427 45.7823 32.8819071356
36.982 20.0929 46.4213 29.5731254524
33.9001 26.4047 46.7545 28.9216565078
37.4014 19.929 43.5937 34.9993038486
34.3734 20.7666 45.3176 29.8597607958
32.1816 31.4385 44.9622 29.6676952803
32.6584 29.8915 38.9732 29.074954042
33.3613 23.9772 45.1213 31.680109575
38.0017 24.1112 44.85 31.5905975116
35.5245 24.0083 43.3224 35.1628926266
36.1672 32.5242 43.1803 28.3840977498
39.2934 22.0986 43.2364 28.5659818858
33.3546 28.1855 41.5345 35.3638084002
30.1795 22.3679 47.1682 26.3024553835
36.4296 27.5883 47.0452 29.9820560721
37.9902 17.5876 42.0947 33.5534468286
33.0283 22.4442 47.4613 26.7642591798
38.5056 31.9516 44.6681 31.8208389845
35.148 21.5333 39.189 27.6113425783
30.9865 19.6015 47.2464 33.7146648396
39.1906 24.7731 39.59 31.9009840039
29.9863 28.1104 47.712 32.3760967424
30.6156 20.7729 52.8565 31.8717211187
32.7696 19.3616 51.9479 34.2107142057
38.3916 31.3675 47.7935 30.3643366605
31.701 29.744 52.7359 32.003307332
34.2126 21.4589 50.2003 32.8564044097
35.9555 19.4341 49.2942 35.2849925711
31.4764 23.6824 49.7168 32.9106827531
38.3081 17.5834 52.7809 26.5847614095
35.7638 30.8301 53.3257 29.104733808
38.0506 22.9723 52.5888 26.0991955414
35.5012 23.4021 51.676 30.0742123707
35.1533 24.2389 48.344 28.2649492596
38.5345 18.4058 50.2856 32.6786452143
33.7707 25.4444 51.0688 29.6768912971
32.2007 29.4699 49.9713 32.977751129
32.0629 32.6948 54.8417 32.035145032
37.9567 25.8388 53.3383 29.829131924
36.1735 27.2227 51.2056 33.0449813347
30.1896 30.8732 48.7696 28.3807819317
29.9808 23.7176 55.8766 31.467051605
34.257 31.3581 49.7957 30.2964810818
36.3207 29.8371 50.8959 28.3094007277
33.0007 16.7927 50.6037 29.926831166
34.0085 28.9941 54.4707 31.2436756506
33.377 17.6114 54.0157 30.5673601095
32.2586 26.7211 48.8257 32.5719393194
30.7741 32.3645 52.5618 30.9621814501
35.26 18.6145 55.6457 26.2787582589
37.7654 29.3088 55.1028 30.6804158185
37.4934 20.0271 53.9419 32.014312634
38.908 30.3626 50.2563 33.4676034229
34.9198 21.3555 54.6771 31.1813330924
32.13 22.2804 54.785 31.4260696753
34.1725 26.4583 55.3559 29.8658244739
37.1986 16.6077 55.6587 29.3540804576
30.0904 27.2136 53.1966 32.4230106363
35.6313 23.9168 54.7041 28.6911908149
31.9916 25.1418 53.469 30.5322477599
37.5279 26.2439 49.0378 30.3129200511
30.6762 16.5378 55.4635 29.152646117
34.0292 17.6702 48.2418 32.0774653481
38.9093 22.9135 55.2922 27.4502259109
39.3797 31.656 52.7952 28.6502206008
39.1032 25.7236 56.1452 26.9318922509
37.0013 42.8838 4.23758 31.3947016468
33.8734 36.6531 7.39976 28.5038439218
32.0279 33.6935 6.65389 35.5274629344
37.8349 35.2055 5.63648 34.2106315512
39.1746 36.712 3.56533 30.4403691939
35.0428 34.799 5.85172 30.0020272533
39.4918 37.8102 9.85348 30.6963716122
31.0569 37.9075 6.02542 31.9476260723
35.8429 43.6246 10.5959 28.8008052039
30.4466 47.8785 4.90099 31.3209365626
36.5045 38.746 11.4489 30.3660780514
36.3604 43.6668 7.08038 30.7928778172
38.7478 32.9983 4.30255 33.299293312
33.0192 46.8353 10.8593 32.3683506697
35.6771 45.9642 9.343 27.6864794308
31.0408 44.811 4.25475 30.0768123332
36.2832 48.2051 11.0311 29.0884285364
33.878 46.4719 7.05611 30.5216034229
34.8398 48.2725 5.26929 29.9438775116
29.9304 35.358 10.0384 29.2293433711
36.3954 39.997 4.32352 33.0141145807
29.7159 33.6001 12.1967 36.4640307752
30.6157 32.6729 4.11594 34.1688668021
38.3265 34.7915 8.53538 35.3899445228
32.7924 35.5878 9.84777 29.6786154729
29.6881 45.1819 8.78797 28.5192891838
31.3532 44.1935 10.7198 30.6275854662
36.8015 37.2595 8.70157 33.7922617468
35.1183 33.0737 11.5461 34.0180663668
31.0849 41.0053 6.2817 31.1484289084
33.6343 41.4052 7.43315 29.3836785807
31.1132 47.2337 7.66523 29.7373501185
33.8563 39.9191 11.2836 33.1115716167
35.3973 39.3768 6.81212 31.7183331124
37.8471 45.9949 7.54925 32.3257918355
37.8555 48.3275 5.61558 31.354424089
32.3849 38.7148 8.66124 29.1670215792
33.488 43.928 6.02578 30.8653480129
37.5469 41.2397 10.4367 30.9248565209
37.6496 40.9068 7.72884 32.6881564185
33.3707 42.4358 10.1632 34.1293692647
30.4498 42.0295 3.71233 29.862658236
29.8217 38.116 9.88434 30.4401622604
39.0617 39.37 4.45721 32.4546506015
34.138 36.8122 11.9645 31.5574912545
33.5606 35.0938 3.62939 33.7568948744
39.3534 45.0549 4.99854 34.3031929364
39.3625 44.096 11.99 28.2430234741
32.8817 32.9647 9.15523 30.721174871
30.1284 39.8565 12.1923 34.1093829154
34.1055 47.0707 15.2472 36.9071252218
30.9519 35.0643 18.2263 26.5173718928
39.2566 37.2612 17.3583 29.4883239887
30.7517 45.0251 13.4795 32.0455638108
32.314 39.1074 13.5949 32.9794331557
33.163 39.6026 17.598 26.3949628976
32.3059 47.3056 17.4449 29.4475178243
32.2017 36.3873 14.1902 32.0942123727
36.2046 37.5425 15.9168 29.5640484502
37.259 39.5052 14.0306 30.9208136798
37.0861 48.9621 17.8152 35.4631242856
38.5299 42.488 20.755 29.9474709656
38.8659 40.2996 18.6385 33.2729561483
34.4707 39.8292 15.4142 28.8393967764
38.0761 42.1141 14.3384 30.3611417008
36.8231 33.4336 13.6914 31.3555999945
38.4654 45.278 19.2252 40.9894219346
30.5229 44.1358 20.9274 28.6003767482
32.7338 36.7815 19.938 28.5831290868
31.0138 33.7322 14.753 34.4256955767
37.044 47.5558 20.4084 28.2654003438
32.5271 45.9884 19.9273 30.3880988369
30.9843 44.9415 16.4444 31.0440613459
37.1411 46.8352 13.7496 35.1088913338
39.029 48.3868 15.8727 29.6140879472
33.6002 44.3274 14.7554 36.7092253728
35.49 42.2778 16.3705 37.6419088012
36.4134 36.0196 18.3115 31.3023714832
33.0915 42.9576 19.7565 29.9444488692
34.2595 48.396 12.7885 26.8527869899
39.0027 35.2427 13.1718 33.1205925554
39.1761 37.4411 14.7218 29.1291431016
31.5924 37.5039 16.57 31.1918995227
36.1374 40.9649 18.7569 29.1766161526
34.9268 35.5617 14.5013 32.0957961859
32.3155 42.3885 17.0805 31.771288353
36.286 44.1593 13.2364 32.5473424815
35.0211 38.4017 19.6638 26.3125080553
29.6717 41.1704 17.897 31.4907884619
35.6284 33.4129 18.8349 27.9273478317
32.1103 40.2758 20.6096 28.4558297841
32.7474 33.0428 18.1477 31.4057735258
39.142 34.6021 19.1346 29.5741811199
35.1515 45.5408 21.0259 31.169001911
35.6743 42.8302 20.766 27.0223706626
33.0466 43.1629 24.3646 91.4126972388
30.9192 35.1015 24.8158 123.0264457973
35.4246 32.8387 21.5097 32.065221502
37.9637 45.3347 24.2631 93.8101270851
36.4045 36.6659 21.3634 32.4815878095
33.7399 35.1211 24.1084 52.9223636035
30.8349 44.76 23.8554 38.3744352874
34.1158 37.8425 24.5347 89.5408771493
30.8975 37.7357 24.0278 38.6142408754
36.2763 34.1826 23.9582 51.3680849319
36.9279 38.3766 24.0924 72.8177158823
32.2955 40.3401 24.3908 71.077363085
30.7229 37.6417 21.2366 26.7427443289
31.219 47.3455 24.5155 106.0485041733
35.6301 41.8969 23.8259 60.4151169779
38.1897 36.2073 23.7722 45.1186875985
34.1228 47.4674 23.8336 45.6518476643
38.2449 42.4863 23.425 36.098474862
35.1849 44.8503 23.6658 38.3414357345
34.5172 39.8311 22.2244 28.8765322544
32.4442 48.0363 21.6332 31.3190014493
39.4057 47.3075 21.9966 25.342209021
33.4322 34.5835 21.7058 25.811219904
38.339 48.6648 24.0373 56.6552729648
29.4771 40.9411 24.2331 65.6601110253
31.261 33.1136 21.2518 26.3509511705
29.5669 41.6015 21.4628 25.2474695225
29.7699 41.0253 35.912 57.6031986045
31.5821 34.9249 35.7067 74.3863298938
35.2992 36.6877 36.6236 32.606348713
36.7205 33.1577 36.0422 46.7208638019
30.8574 45.0237 35.678 90.8400664234
34.1552 38.9323 35.5233 109.8997936227
32.4072 42.292 35.7388 74.0891279941
37.4118 48.3309 38.5776 29.8270785545
35.4625 47.686 35.6964 80.4669524755
38.0564 37.3858 35.8314 80.899093561
34.3694 34.3765 35.8323 76.432847257
36.5662 44.9366 38.3321 27.0554367516
34.0381 40.811 37.6008 29.9179036839
35.4901 43.0322 35.9476 69.3545333311
30.3196 48.6752 38.4922 25.4858532662
32.254 44.0456 38.4713 29.6995892049
37.3674 45.666 35.7442 72.2493006379
33.7754 45.3685 36.4996 36.5494967382
38.2735 42.5547 35.9139 80.9440213539
34.8131 47.4011 38.779 25.9513564091
31.3794 38.7297 35.8829 54.88538638
29.5402 45.2164 38.6545 26.60159174
37.8468 42.2637 38.7126 31.4044585945
30.2719 47.8984 35.8406 71.6091956854
31.3289 38.5665 38.6463 27.3277545769
38.3387 38.0626 38.442 29.8746845294
31.8545 34.1286 38.3479 30.9802458518
30.6962 36.1115 39.9043 30.3229435559
37.7293 49.0395 44.7708 30.5297381157
36.7383 42.4605 41.7956 30.5651364035
39.166 41.4244 41.86 28.8638499524
36.7304 37.0487 40.8067 29.8667444201
39.2181 34.7685 45.0888 29.8627169303
32.5989 37.4551 41.7731 30.9371948551
35.9409 43.0992 44.6396 28.9400408711
30.6161 38.8427 43.4503 31.7331016119
35.1997 38.6685 42.7076 31.9884578338
39.1304 34.5516 40.6426 27.7662464695
33.1807 43.573 42.7959 31.6553849738
29.8791 40.7763 42.1084 30.7260107229
34.1737 37.6438 38.8543 30.9017080497
36.458 45.4149 41.1469 29.9373378882
36.1644 34.1421 40.895 30.2378326537
31.5115 48.3519 45.9432 34.5467923722
31.2883 41.238 39.6956 28.6818737111
31.2181 47.8366 40.997 27.7628268234
33.1549 45.7821 40.3844 28.1504699796
34.5504 47.0759 42.6396 29.014332225
37.9335 43.979 46.0054 33.4294324842
33.5615 32.805 40.4827 32.5270238712
37.2177 36.8761 43.8871 27.1334185221
37.3563 46.968 46.6185 32.573496205
34.9825 45.5958 44.913 30.9643849075
31.08 35.1744 46.1034 31.0661527139
32.4404 45.8976 46.3217 33.4639025895
30.0506 43.4112 43.0063 30.8962843211
36.9696 35.7265 46.5875 26.5708844506
32.3744 35.1073 43.4327 29.5017149743
33.6981 41.2332 41.4399 32.6594754375
34.9987 34.6644 44.1949 29.9143751309
35.8296 39.3367 45.4432 32.7061771191
32.3632 37.5526 47.14 33.3797665363
38.7371 39.4538 45.7449 31.8540586673
31.7604 33.0791 47.4119 25.4697774189
31.602 43.442 45.5222 27.801474478
33.7151 41.6089 45.9517 30.1052167032
31.3222 39.9526 46.0353 31.3117892314
29.726 42.4122 47.2645 34.5706807411
34.402 33.0703 46.6321 29.8386161197
39.0593 46.217 41.5175 34.7096168634
35.9429 39.9962 39.7879 28.6795221837
35.0452 37.6381 47.5387 32.9896844849
29.7802 35.8452 49.6909 28.5118521776
30.0347 46.0209 50.682 29.5022259814
35.741 43.1578 52.09 34.1644264537
36.7484 47.1287 53.5099 34.3070393832
32.6736 47.8685 56.1494 30.6126959689
36.3652 33.8907 48.6887 30.0925702616
35.2949 46.2555 55.7467 36.9392515839
34.8073 42.6523 48.2011 29.1219309971
33.5153 36.9903 51.6404 31.0916694419
39.3175 38.1932 53.0792 26.2273825577
35.6428 38.409 50.2508 32.0082151474
38.7474 38.1733 50.3016 29.104616871
34.6462 33.6039 53.1887 32.6469066197
31.9399 37.4184 56.2558 31.6942632146
34.5632 41.1029 50.4093 32.5348900012
32.0591 41.8487 51.1127 31.8640904888
31.2268 44.0041 49.3514 33.0606993146
37.5004 43.0724 48.4467 31.2315769735
34.4082 43.711 56.2028 32.9134852241
32.0591 47.6415 51.2823 29.7573579239
34.3887 47.0307 50.2007 29.6554777563
33.4464 44.9979 48.5414 28.5446226309
31.4137 37.9363 49.8253 27.5535134248
38.6158 45.2485 49.9999 30.7155157797
36.3911 45.7076 51.2956 29.4718890845
30.4408 39.7045 52.02 26.4139499516
38.4075 35.1724 50.2524 32.5297517492
32.8378 42.8326 53.5337 30.5785514843
37.7555 35.8224 54.2103 29.8986161363
35.1235 36.2277 54.325 28.6298974442
34.1543 34.4581 50.6916 30.028276105
32.3651 40.3064 54.6763 33.51174388
30.8552 37.1977 53.2589 35.3035895813
31.4855 33.8857 50.1855 28.9441362908
37.8198 41.7826 53.1725 29.2874918443
34.7525 38.748 55.2867 32.8121706768
36.7236 39.4032 53.0255 31.8041902501
39.2133 42.695 55.3973 31.0381804886
35.4678 48.6343 47.9933 34.206670536
31.8832 45.3192 54.4228 31.9096212373
37.5718 32.6821 54.6126 31.0472369158
29.5715 39.5287 48.4071 28.8722584947
39.1709 40.6479 48.683 30.5012181822
43.0799 2.29303 7.13258 31.4514143814
42.2153 4.59821 5.45152 30.2689449717
47.3285 13.8586 8.11635 31.834192168
47.1679 6.69674 10.2005 34.2700556525
46.0232 1.80717 6.88149 31.0285398013
41.2254 16.0387 9.37009 31.3359919537
46.4845 11.2802 11.0756 31.2717616471
42.2434 3.98363 8.9638 29.1070469474
41.6362 6.38729 8.21078 29.4653372005
48.2295 16.0555 9.05075 28.9736258599
46.4179 4.41994 5.77342 29.2988114057
44.5427 5.90297 6.93614 29.4469955153
40.7063 3.22913 11.0621 31.0457128243
42.4678 10.4674 9.33912 31.2893995945
40.0995 5.93658 3.96528 30.5746708155
41.6478 0.130158 7.26452 32.3304245723
48.7119 12.7096 10.1587 26.6737035211
46.7529 8.79796 8.46795 35.8417397177
45.4864 8.41438 6.04307 29.9804668125
43.1446 10.1886 6.7427 32.8853623902
43.4394 6.5473 11.7453 30.0842577807
39.3856 11.7656 3.66753 34.8846811082
42.8768 13.0108 5.88194 30.7423070688
39.3914 9.8106 12.4343 29.0893045197
42.5908 13.4361 9.20778 33.3648314044
44.6309 14.6012 7.45045 33.0308929934
40.9845 14.0591 4.54912 32.5388042448
46.3597 6.74426 3.86049 28.6855227484
44.632 9.32948 10.619 29.9393746252
46.1581 2.90176 11.2433 33.9420629922
44.6767 13.5451 11.0763 28.7430484626
46.6775 0.973933 9.17148 31.0509396066
44.2437 11.9157 3.91792 30.8556710662
40.3589 9.59758 5.77159 29.1774344589
39.4359 11.2546 9.75311 34.3960994781
40.9791 7.72481 10.7981 31.9748394348
44.7569 5.18384 9.85128 29.0677163469
46.923 12.64 3.76219 34.7383557134
46.9726 0.176219 5.09886 27.3610958679
47.6192 9.70643 3.77882 29.0249954667
48.8735 13.182 5.96818 30.7417886397
49.1433 5.26428 6.44568 31.5608381564
48.7251 3.15687 12.1356 31.2701485923
47.3769 15.0293 12.0509 29.440785762
39.5966 7.1314 6.4634 29.6879082209
43.1608 13.149 13.409 31.0734725919
48.0073 13.8636 17.6247 27.657806236
43.3979 0.771334 18.3313 26.7982799484
45.8356 6.47855 20.742 29.2693154435
44.3861 0.12677 15.6097 30.2083435385
44.6897 3.91193 15.6286 32.5698765882
42.9919 6.78887 15.1946 31.5641203073
43.7847 2.14657 21.0722 27.3347554628
40.735 16.3099 16.0822 31.8623316084
48.1385 6.83418 15.0005 30.861506259
44.2697 1.91665 13.0142 31.6038513938
40.9791 10.3898 16.1093 28.7446386053
46.6612 9.42773 15.053 29.182462339
47.6508 11.4451 13.3954 27.7005924315
44.853 10.6121 17.3182 30.4741539425
41.2344 14.7855 13.5297 32.0333542527
42.4388 11.7628 18.0241 28.7696019324
44.2892 13.2709 15.9314 29.5544531517
42.2477 14.137 20.3792 28.5585253087
47.1251 13.4004 14.932 27.5206490449
39.9524 4.37413 17.4431 28.2128753919
39.873 7.44121 20.7667 27.229171793
43.0315 9.69638 20.072 30.0281725817
41.8368 5.5441 19.344 27.3912563673
45.9799 3.98999 19.6159 28.1414138932
48.4627 6.98324 18.9569 26.6222535758
46.5854 1.98212 16.3948 30.5082322216
46.1437 14.8916 19.0882 29.1144045553
46.0632 0.655484 18.7915 27.923282624
42.4299 3.9608 13.0577 30.5262409375
43.5384 3.49699 18.0965 27.9925201586
46.9432 5.32763 16.8531 26.698969704
48.6101 15.0145 21.0416 31.5270868799
44.8609 7.25395 16.9671 27.8981970453
48.2689 9.42303 17.4973 29.2416436037
40.6153 7.98091 16.3382 28.8171218591
47.0645 11.2644 19.0292 26.1871801102
40.5599 1.33371 17.6008 32.5556489007
41.9754 10.6171 13.5635 32.3599108219
48.9565 1.69055 14.5907 35.0261519252
43.7977 7.29025 19.3343 27.1197237354
39.8193 4.07121 14.7513 31.0730010087
45.3859 10.6414 21.2242 26.5419119345
44.2671 8.69237 13.4794 31.6609482823
43.3761 15.2764 17.6 29.5639015512
40.2977 14.2738 18.054 29.2752273499
48.9817 5.80406 12.6595 28.2273184754
40.6186 0.313146 20.2509 29.0367130185
41.465 4.01223 21.6818 28.8161980278
41.1494 9.74556 22.0713 29.1434440422
40.1353 12.2462 21.4243 28.6265102129
47.3396 8.54551 24.1392 67.684895252
41.4782 6.99953 23.7032 34.1792957077
42.1079 1.72745 24.4795 95.5537603059
48.8054 5.92046 22.2179 25.6881615001
46.1429 6.02821 23.629 44.5022451805
47.4155 3.64866 24.3583 91.6372854094
42.5973 9.41378 24.5054 102.6995879508
41.8488 12.2979 24.5009 93.1300205025
45.1969 10.6102 23.9593 48.785369712
43.2279 4.70415 24.119 81.4430573151
48.9386 11.3334 23.7638 39.5113601244
45.3035 2.2466 23.7708 36.8781445831
43.8344 13.9713 23.9818 41.4185815617
46.7405 13.2381 24.515 106.4655377789
48.6798 15.1043 23.8366 42.6597765454
46.7145 1.20972 21.4722 25.0104063553
44.939 13.2112 21.2317 32.3698425289
48.8787 1.53471 23.991 61.447612659
39.4476 2.31046 24.2541 60.6370020973
47.7145 8.79587 21.2887 27.0250755517
48.6401 3.0093 21.2835 27.3031239596
43.9382 2.81292 35.8534 77.9740281729
41.127 2.11212 35.9738 76.5833905578
45.0457 5.32234 36.0846 68.6935462279
47.1399 3.41392 38.685 30.2927754237
39.797 3.34273 38.7324 28.2066071819
40.3463 5.83698 37.5645 30.063004422
48.4493 15.2422 36.3418 49.4746509948
44.4235 6.04234 38.8217 25.8831697115
42.3343 7.12086 36.233 55.5255909913
41.3321 14.1198 35.5441 107.842432066
48.1546 10.4337 35.6422 82.665318022
48.2164 6.14342 35.6787 90.3792884144
47.4446 3.30656 35.6433 74.2295957981
45.2138 1.68338 38.6056 29.9558332798
42.8948 11.8941 36.153 35.4162967532
41.4713 9.54416 35.3035 120.5123951388
47.9094 8.02823 37.6588 28.3686259619
45.8479 10.0832 38.0675 29.8023275485
45.6375 11.3676 35.5073 101.0640932126
45.5458 14.322 35.9607 67.3225967313
46.1861 0.484571 35.9816 51.7574053746
43.3894 8.72781 38.3621 29.8096385128
42.9675 3.42577 38.5015 27.209300173
44.5903 13.5673 38.5026 30.2543620217
49.1696 0.149034 38.7064 27.8334510488
47.9264 7.42704 45.891 28.4105090449
40.4921 14.7365 40.689 29.4634000613
44.2947 0.594092 42.5607 30.7851270266
39.7911 9.06781 47.1969 32.0951292007
43.2243 4.90261 41.5128 29.142000136
48.361 0.0883776 43.1837 32.0323252272
40.7171 9.21647 42.6993 28.0410841194
39.4246 1.86952 41.4671 28.7335743744
43.4181 7.67616 41.6477 27.2594040757
46.7827 6.1844 39.7218 28.3259064585
40.7891 4.16843 43.0224 26.2635814737
42.7567 11.0352 41.8923 24.1507152014
40.0301 3.15309 47.3562 30.3999993013
45.4424 10.6188 41.5698 27.6037796609
44.8755 16.0915 45.192 28.0634107461
42.7339 13.4898 42.3044 29.1731550215
40.4086 13.7681 47.4656 32.4421594381
46.9123 12.2674 39.6135 30.6610242039
45.9254 6.18709 44.2468 27.2980352202
42.2923 9.86067 45.8093 30.0643751044
41.6798 12.609 45.0906 31.2806033429
45.6549 14.7919 42.6907 28.0931064064
43.5067 6.30973 45.9666 28.2426179344
48.127 3.03636 46.6134 27.3991876216
45.5746 1.90573 46.0157 28.7551872391
46.0417 12.0357 45.9043 31.4810922847
41.4037 2.48859 45.0879 30.8004822415
45.2336 3.19893 42.3734 31.4396101765
40.9212 6.74153 44.2822 28.0129110141
40.6976 7.56905 40.259 27.9871986576
43.9613 3.78359 44.7439 27.0526754551
43.8423 15.7436 40.1684 28.9771247318
46.6961 8.0157 42.0603 27.2497383179
44.3147 9.15456 44.1455 27.9899374617
46.2125 9.37701 46.8374 27.4173548515
48.472 9.35738 43.5568 30.1386777253
46.9215 12.4217 43.1769 29.5859059458
42.3037 11.6467 39.2051 30.3402977352
39.5527 11.8242 42.5585 27.1541276276
43.922 13.7896 46.3827 30.6967736003
40.4862 6.16023 47.3211 27.5411305243
47.9882 4.25441 43.7716 30.9943664878
48.6633 14.4719 41.2612 28.2555573977
42.2005 1.07388 40.2738 33.4470375695
48.2157 16.1375 38.9067 28.4053098661
42.2283 6.58161 49.6619 29.1575893219
45.4612 2.71111 48.7495 27.1101029534
44.2876 16.1473 54.7427 34.3997868264
48.108 5.2564 50.5774 29.2650648636
45.7691 5.26727 52.2585 27.7316260931
39.9391 7.17466 52.1058 31.2233573075
49.0569 7.80378 51.2939 31.0196047909
41.3417 4.15093 50.6975 27.7700192664
40.6485 2.09661 53.6998 28.3904844061
45.8348 15.936 50.7579 32.3413680561
45.35 7.64054 50.3714 27.5690362673
44.757 2.97061 51.4953 28.5796967565
43.9393 11.5587 49.9486 35.225906196
42.4823 10.5697 52.3213 31.3979811054
48.0567 15.4293 48.5539 31.8731601769
45.0382 8.97665 52.7798 31.5795049203
40.9024 9.05894 50.2869 29.2855951722
41.9846 2.07174 49.2226 34.402151397
41.6038 6.57339 54.2286 30.3137187479
47.4647 9.97689 54.1138 29.3663631291
47.9608 14.8716 55.0729 30.4343498458
46.7146 12.2929 50.1235 31.2219605937
47.5497 12.2905 52.5236 29.5458890403
47.601 9.48633 49.1297 31.0777366149
45.8054 14.4516 53.1618 28.6509851271
42.9372 14.5234 49.0185 31.2603987505
43.7977 9.29116 48.4198 28.4037962309
48.9293 6.68755 55.8273 26.748800794
42.5004 4.18329 53.4866 27.8162044495
40.0529 11.2447 53.8682 30.3171331466
40.603 16.0169 50.5595 33.7261143078
47.934 1.57173 49.2681 29.0048684824
40.8255 8.92007 56.1984 30.8632657426
43.5978 9.20004 56.3688 32.7722110732
48.3768 4.88569 53.7409 29.0646873935
44.4861 6.83231 54.4293 29.0334276625
41.7459 14.5341 54.8067 29.9701462953
46.2862 3.20432 55.8024 29.1802853518
43.5531 12.511 54.0196 33.1482101956
43.4744 3.48334 56.1319 30.242677809
47.1984 2.06536 53.314 28.2067821313
44.8502 5.65324 48.2513 28.998401268
41.0359 1.50175 56.1258 28.9068450497
47.5958 5.38978 47.8467 31.1928978206
40.0278 0.181726 49.8596 32.3458021522
48.1631 12.7817 47.7153 31.3164140035
39.4323 14.006 52.7287 32.2430726428
44.0586 0.233113 56.4417 35.2086269679
41.3752 -0.0454813 52.3754 36.1982350419
44.3366 0.113892 52.1939 34.6835224849
49.0184 2.12918 56.2829 29.4449277002
41.7079 17.9735 7.34383 29.5079601443
41.5015 32.655 4.31573 30.048226921
48.1685 32.0273 5.19343 28.495947016
44.1349 26.759 6.92145 33.2617775949
44.3521 17.1752 6.81713 31.1346693387
47.0212 25.152 4.21973 31.431613148
42.3604 20.3956 4.63295 34.707824412
40.1963 16.6138 5.47715 30.3273291306
48.0839 19.9036 7.81499 31.555751169
47.1813 22.516 7.80081 31.4070065671
44.4827 22.9597 6.86072 34.8063982653
40.3275 24.2012 10.7104 27.6007668136
47.3214 26.5231 10.6611 31.2371872025
41.568 25.1269 4.55129 26.2891798335
42.4605 29.0524 6.26982 28.2891781796
42.0588 24.6033 7.42957 31.2246517729
46.9096 30.2217 12.2148 29.4128287731
45.8883 27.5481 4.53753 28.3161742993
42.9131 31.8928 11.6319 33.2760686148
41.6256 16.9356 11.8665 31.024582499
39.3632 28.918 8.99902 27.6513977133
40.0139 32.1219 10.2614 31.4026284214
39.8731 20.0758 6.12365 25.1943834837
45.2088 30.1968 9.63749 31.1082656407
47.7232 29.2552 6.17991 32.0932286054
41.256 26.7684 9.48628 30.7876740986
44.5747 23.6235 4.21551 29.6410690474
46.0876 17.9326 8.66965 28.694737926
45.0817 27.5866 9.50083 33.1950360274
44.619 16.4716 10.8523 29.3190333336
44.6437 20.0018 9.8866 33.0847572972
45.0155 31.0342 6.77852 27.2049979498
43.0013 20.701 7.79113 28.237099449
45.636 17.6719 4.32053 38.8378951112
41.2571 21.8631 9.36366 31.2151162898
48.6375 18.8239 4.88976 35.5680251093
46.551 22.2152 10.2494 32.7220575018
40.6105 19.9873 11.5618 34.726137981
42.1466 30.676 8.92946 27.3840779846
47.9284 31.5253 8.37859 29.1944774235
43.0015 27.4305 11.4673 29.4947738329
48.7784 24.5533 9.76905 30.0636576578
48.9645 21.0759 11.5551 31.493419582
39.6743 29.0077 6.1915 37.6856880067
40.3927 29.8674 11.7399 27.1830137534
48.9969 24.2372 6.40926 31.5377357218
45.6422 30.6762 3.66542 26.5518400831
49.1001 28.54 11.4588 28.8482301858
42.5147 32.544 7.01843 32.738551628
42.8284 30.2625 3.87182 26.0615624184
43.2666 19.9202 15.2744 34.1193213754
44.0278 20.716 19.7638 27.8821711947
46.8858 17.417 20.4007 31.5201856019
48.6153 19.0886 13.1991 33.1859680228
49.233 27.3213 18.277 31.5615501359
44.2462 18.0708 17.0508 30.31164506
40.2958 18.7522 20.025 31.0661150249
42.4101 23.6044 20.104 29.6284200192
44.9424 22.1247 15.7366 32.8379109576
44.7021 23.0023 12.8972 38.9398826887
46.0795 17.502 13.0815 31.7811586873
42.6316 26.5458 14.9274 29.2930540169
43.0165 29.4135 13.5159 28.8906637877
40.0342 27.1503 15.3924 29.2503392042
46.6504 24.9463 12.9489 31.5204926166
43.3349 24.3958 16.731 30.6623072921
44.8682 28.7192 18.3248 30.8809537181
47.2425 22.0377 17.2316 31.1292642742
45.5928 28.5075 21.1999 32.0232489737
48.9399 20.2429 15.5491 33.2296732496
45.138 25.8072 18.214 31.4747546551
45.0533 27.5509 15.6623 29.422083551
45.6145 30.1219 14.479 31.7426627679
47.6327 31.7038 15.7871 26.4956984512
48.519 16.6583 16.3246 33.4603336887
40.6309 18.713 17.2011 31.1977643171
45.8847 16.4152 15.5214 30.6673412809
41.0743 31.2193 15.0158 31.5364605644
46.045 19.659 18.5394 31.1481495271
42.37 21.2113 17.6182 28.6978458738
47.6792 24.3425 19.0341 30.2685217751
39.9428 23.525 13.35 34.2222191203
40.9493 23.7005 17.6358 32.7578553332
47.4629 30.1687 18.2543 29.2275406488
39.6707 29.0709 17.2343 29.5687269623
47.4197 25.9195 15.305 30.2184083397
42.6486 24.9578 12.4758 32.6011892309
42.2108 29.8209 18.6331 34.6615269231
42.688 32.2052 16.9126 30.3765702031
45.6007 23.048 20.987 35.4310241142
43.4496 18.8707 12.5655 31.3389754713
45.2039 18.5839 23.8589 45.8818714607
44.3491 21.2144 24.3234 97.1341132797
