9.20395 35.062 38.3249 28.6514632621
5.57978 44.797 35.8683 73.2705762864
2.93954 42.3191 35.8207 84.089196791
1.56932 44.9238 35.9654 55.8685563722
5.81009 42.453 37.0332 27.545923909
3.58799 46.6341 35.7575 82.8316996028
9.17269 40.6381 35.4704 85.4136967866
0.701796 36.6415 36.0077 72.0477056634
8.12103 45.8793 36.2194 43.9105416642
1.07646 35.292 38.381 28.9810281625
7.85082 35.8714 35.8845 81.0861350659
8.53095 43.081 38.4707 28.2897486181
9.50193 43.4167 35.7984 65.1448576287
5.68875 33.4318 38.9172 29.6421043851
3.36032 32.6749 35.4538 113.8057731158
0.650138 48.1768 38.246 29.2044742075
8.82835 40.2941 38.5843 28.8164081019
0.910295 42.4479 43.2952 29.7908202371
0.743476 44.6515 38.7585 31.5081624321
1.87398 34.2341 44.0981 30.3230791438
1.05758 38.075 45.8871 30.2718339332
9.09821 47.4432 39.973 27.0316572081
3.953 33.6773 46.3282 30.7297703006
0.186168 39.5613 43.5478 28.8438488619
5.13844 39.905 43.6845 26.9387904366
3.67616 37.0946 41.0364 30.0615138908
7.70357 36.3761 45.1362 29.1612716633
4.01303 35.4011 43.1387 33.1435787377
8.10641 37.7759 42.7034 29.8415332581
1.50605 38.7547 41.3024 28.2701903306
4.22456 44.1985 43.1836 27.7300142018
7.8712 45.4048 42.158 29.2512542605
6.86844 42.6494 42.4585 31.492653696
0.361662 41.9519 46.0068 30.61933465
8.93189 39.8181 47.175 26.8357926098
6.58704 41.0736 40.2036 27.9781363734
3.08416 44.5114 40.1638 29.7312961757
3.85994 48.2194 46.5326 29.9545892613
0.851658 48.3847 47.1128 35.5901257236
6.0088 46.45 44.0725 30.9412591884
9.67565 41.8088 42.83 28.820890606
6.03371 38.5568 41.0821 28.6840435926
1.00329 35.4338 46.6451 29.1608820089
0.611041 45.3301 43.4605 30.8065170385
8.17461 33.645 40.9881 30.4269321267
7.09739 45.5546 39.1328 29.5700686526
6.58645 34.1687 43.4306 33.0436205144
3.8931 43.5569 45.9036 31.179909573
4.37799 40.9973 46.3081 29.7966286079
3.50949 41.5818 42.1761 28.6397180548
2.47308 46.5101 42.4136 31.6972233237
3.62849 37.9182 44.8439 29.582589414
9.70231 44.7929 45.991 32.5035473329
5.33493 36.4769 46.4546 34.1714963128
7.98466 40.0489 44.4768 30.2081070613
6.42589 45.0754 46.5388 34.3406234946
8.71911 33.7906 46.5282 31.7853425272
6.7483 36.2722 39.1781 29.5936908937
7.92226 48.6629 42.6151 31.6025371382
3.89698 42.0216 39.2441 30.5336313568
2.50698 45.3616 47.5253 29.6015822143
3.66805 35.4076 38.9086 29.7209809151
6.88869 38.6369 54.4016 28.1472518685
-0.0587591 43.8902 48.5981 28.2508764022
7.60437 34.7689 50.9156 33.6463264079
5.33907 33.2237 50.9058 31.9164746112
2.81801 38.2403 49.748 30.7796980212
6.62836 40.9328 47.9685 35.0717323558
3.51118 48.2222 54.3279 31.306749554
5.65682 38.4412 48.7078 30.472333297
7.51397 37.235 49.9219 30.9536007863
9.54739 33.9073 49.0674 29.8959864647
1.67851 41.7289 50.1679 34.4637191367
7.8182 47.9185 49.0416 27.7839777643
5.81931 44.8716 51.2761 31.0461231171
7.77449 43.7104 54.3939 25.2726020277
5.96223 45.6914 54.3583 27.9801354031
0.359434 46.5619 50.8578 31.2534910261
6.29505 41.9242 52.4195 33.5411104066
7.78834 42.6855 50.1822 30.4654425128
1.12389 47.7133 55.6773 28.4170410214
2.87252 44.2986 50.2585 32.6888982017
2.63419 45.649 52.7006 30.3532223076
8.68179 48.3736 51.6678 30.6520720037
5.61853 47.8187 51.7328 31.5785235759
0.102543 41.9769 53.035 29.096171074
0.540034 39.2639 51.0568 26.9347693602
1.77866 35.5836 49.3923 30.2853971838
3.44298 37.522 52.4173 31.6992099103
0.427892 44.3403 54.3573 28.7952996786
1.78498 35.2128 53.0643 31.1184626336
9.28956 39.4961 53.8603 29.7171646113
5.10401 46.5082 48.7698 28.385493792
4.5647 35.3277 54.4531 28.9469918973
7.09716 48.4505 54.6001 29.3471320699
4.04851 41.6043 54.2529 31.4798303795
7.28862 35.8274 55.3978 31.0343632448
1.96151 39.6972 53.5042 27.6365689106
6.3786 38.8291 52.0377 32.6841349344
9.10136 35.1392 53.3013 32.5913026434
3.38884 43.9518 55.3702 27.6278465567
0.512452 35.6066 55.5536 28.188972909
3.28979 33.3648 49.3556 29.4491757783
1.40485 38.3147 55.8311 31.2040217391
8.70865 45.0144 48.845 29.1172761892
9.49199 45.451 56.1577 26.1803710256
4.30247 37.8593 56.4357 29.6848144396
5.20806 40.3905 56.3865 28.4890901158
1.96877 40.3123 47.4982 29.592336299
18.4448 9.9639 7.77998 30.6106501289
13.7216 2.40648 6.37768 34.4030821676
12.8679 4.49659 9.8494 31.1148168917
19.1715 9.97693 11.0988 33.4834153488
15.7334 14.8462 4.64461 29.1922908345
17.6074 2.65952 8.37409 30.3668680976
11.4263 6.68658 4.98986 29.1602009078
14.4724 12.4311 5.23466 30.3850968431
12.0438 11.7195 4.03273 30.6750941159
18.0022 16.1743 7.83358 31.8030121524
18.6399 7.31118 7.82772 30.5419772784
16.3424 6.94096 8.91944 26.5519721791
15.0909 4.55524 8.48087 29.2053373798
19.1885 12.6542 4.10392 28.5118366534
15.5966 10.0361 4.61435 32.0864773038
17.5385 1.24998 11.6345 27.5456074274
19.1988 7.69158 4.14397 30.5406645379
13.4883 3.45119 12.3351 31.9275835247
18.7409 15.1773 5.10931 29.5975972785
13.9378 15.4018 7.56825 28.1770116799
11.6554 3.9432 4.60514 28.9660038851
13.6336 0.419356 4.09999 34.3367807195
14.2357 12.6835 8.01156 31.5228263806
14.8007 1.09633 11.1151 30.0119243753
11.3702 2.46645 8.67422 29.7200570655
17.4399 5.73622 11.0904 29.0606021728
11.9408 7.04658 9.24883 29.812326627
18.9977 3.11692 10.4684 26.9946865418
15.0552 5.40266 5.66774 31.4824267206
17.9855 5.56768 5.63001 29.3016613715
18.3252 10.2194 5.12672 32.3119396395
14.0472 8.80674 8.16173 28.8980722201
13.9333 8.06229 5.55899 31.8428308349
12.1545 11.1736 9.13747 31.5169251156
13.4895 0.279536 8.54288 30.7453180974
11.4247 15.5721 6.14299 33.4350164983
17.2867 14.9397 10.2914 34.0433031044
15.7698 8.8419 11.2425 32.6031457765
12.127 13.6962 10.6547 33.9063637542
15.9895 10.8068 8.94124 34.6248759432
12.1289 9.36203 11.2948 31.301384274
10.149 13.0164 5.53343 30.9872596208
10.1565 6.65722 7.25243 28.5409873802
19.3388 13.1967 14.903 30.7617475327
16.6248 12.1833 18.9974 32.0909808988
13.6798 8.44436 13.3873 34.3331432633
13.0559 13.9993 13.4812 32.079317926
19.6369 11.6002 19.4191 30.6230836705
11.2895 12.0449 17.8065 30.6338697564
10.2296 12.9135 13.4585 30.5343330052
11.3813 2.38329 16.5149 28.8310253942
11.3366 10.5521 13.8295 31.5624833166
11.8064 4.16106 14.1607 31.9889075355
15.985 5.47688 15.3065 32.6959179327
19.3654 10.4154 14.4587 28.9733922028
10.096 0.0420854 15.5603 30.0645395897
15.5675 0.882009 15.4452 33.5073015653
16.8084 9.59521 17.7057 30.2169612103
14.8556 11.2249 20.8396 34.5072112368
17.7359 7.7827 15.5297 31.5125462189
16.0255 4.38641 17.9483 32.7100261821
11.9911 5.023 18.7135 30.3753472367
18.7267 8.30177 19.3202 34.1935532291
13.2543 12.2934 15.8073 29.3263636241
12.6597 13.9824 19.1309 28.9041511366
15.1705 10.4225 15.2174 32.5692058787
13.1041 6.48831 15.4276 30.6802951881
17.7858 1.78806 14.3755 29.4417560735
16.9649 14.8204 15.2552 31.3779964704
13.5878 0.820895 19.543 28.5874335478
14.5222 5.99433 19.332 27.3185215253
10.3281 6.00121 16.6009 25.8911791172
11.849 9.48326 18.5329 30.461938294
16.0778 4.16751 12.9832 31.5158305796
15.1661 13.9216 17.3432 29.2743814261
15.9004 13.7948 12.6308 36.5051984786
13.9249 2.19342 17.2247 31.4121037245
14.053 8.2323 17.7625 31.1113029127
18.6938 4.59487 18.7361 31.2308712101
10.905 1.85085 19.6833 28.326902925
16.9266 11.0745 12.8905 31.6444290855
10.7886 16.1319 17.1474 29.6219893294
10.6925 6.57999 21.2891 26.2937587012
19.196 7.40302 12.4683 30.1333045858
16.1006 5.68894 21.7677 31.5544986309
16.2969 7.62486 24.0125 54.6297560069
16.1708 12.3149 24.6407 102.5167497527
14.8675 1.91467 24.058 71.7192643621
16.7644 3.9354 24.2237 74.2806900603
12.1993 9.5038 24.3033 70.6377970276
12.6974 3.67237 24.4234 93.8063738644
13.5909 6.33215 24.582 94.2399686418
17.5774 0.637089 21.4874 28.3358214471
13.3327 7.23042 21.6583 29.0745681776
10.1444 0.230514 23.717 48.6095424328
18.9856 8.1239 24.4418 88.1784230773
11.2762 12.149 24.5784 90.6825392316
10.8274 15.2535 24.1322 64.6647201335
13.6218 13.8069 24.4243 71.1877331167
19.0018 13.2282 24.3395 59.6116601362
16.6378 15.753 24.3131 64.0286964437
15.3789 2.54656 21.2589 33.2533830501
18.8644 0.334966 23.9955 70.7242284412
15.1265 9.95471 23.5198 36.9416705904
19.2871 3.13446 24.2165 70.9235178799
18.364 13.4509 21.6759 31.7762476248
10.7321 15.0587 21.1115 32.6106005866
10.5498 7.2327 24.0457 65.5491931105
12.352 9.88648 21.1386 28.6992532727
10.2649 3.87177 21.1982 30.0159756861
16.3297 15.468 21.4083 29.7463270397
18.462 3.85234 21.3443 29.6260020988
14.1316 13.9499 21.6039 31.2041464202
12.6944 3.67304 35.8076 71.4949102635
9.80755 0.062857 37.8193 27.9160217239
10.6802 9.57853 35.7817 82.655133498
17.502 0.569705 35.7068 94.9138153795
12.8195 0.900148 35.9316 72.2525534604
17.8614 3.47156 35.6352 81.9027268324
15.264 15.4022 36.0659 62.1539634592
11.556 6.97274 36.3401 44.4171494958
13.5586 13.1376 35.506 95.7066710938
18.5928 15.227 36.0715 68.4726671494
15.479 5.01215 35.6764 75.9203376981
17.5198 7.44144 35.8097 56.1964181469
10.815 14.0123 35.8553 56.4664544626
14.3376 7.26376 36.1798 43.9468771684
15.003 3.72982 38.2737 31.2899871971
13.2453 12.6905 38.2731 26.1066675355
14.169 10.2441 35.5623 82.8249537581
17.9152 12.49 37.6299 28.7980084694
17.2069 10.0282 35.6712 79.6696279526
18.4925 7.32172 38.3764 25.2777335504
11.5929 10.1296 38.1978 28.8246872351
15.3206 11.1153 38.1855 25.940550674
18.2905 0.299405 38.4088 32.3560750469
12.8839 1.20881 38.8108 28.8319849699
14.3695 8.16552 39.0518 27.135127554
9.99664 14.148 38.4971 27.296136968
12.4659 15.8804 44.2259 30.8478092902
13.2173 4.42823 41.892 27.394700002
14.954 3.96723 44.0536 29.4336259415
11.6481 1.8869 41.6107 33.1083104358
15.665 2.37155 40.9152 27.6970830033
11.7084 7.17744 38.9096 25.1462166232
18.363 8.38895 42.299 27.9681513097
12.181 4.30394 38.9319 28.910797467
18.6753 16.3382 46.4532 32.0535223283
11.2579 5.7079 43.5385 28.3542638771
18.3155 4.23803 40.93 27.3584011889
13.5095 10.6752 41.1021 29.7054383707
14.5433 0.777852 43.4927 32.0198449351
12.651 8.07697 41.611 29.167586804
15.4278 6.64906 42.1105 30.6681592212
18.1926 1.8243 47.076 30.3542339943
16.9707 13.404 40.1116 34.6425597042
15.7487 7.81664 46.4892 30.6246531284
18.2539 12.263 44.5076 30.0879898213
17.6461 2.44178 43.1657 25.398091287
16.3226 5.86077 39.6838 27.0345941031
11.8045 12.8072 40.7387 30.61812016
16.3177 13.2703 47.0461 38.3810674242
12.8185 15.2841 41.3448 29.7503130963
19.2294 15.4239 39.1371 31.5795532597
18.2017 14.4879 42.4345 33.6593354076
9.98945 0.821497 44.1285 32.5244580788
13.7863 9.7933 45.4948 32.6654384819
16.2711 15.9436 43.8265 33.8824661516
16.911 6.24629 44.6947 27.761258415
10.1444 10.3627 42.4826 31.3419398873
11.1845 8.5506 44.3118 31.3505564538
14.8774 11.2535 43.5589 32.3174904223
18.934 4.16856 45.1049 27.9406360072
19.4139 13.491 47.0718 31.5656340838
17.1797 9.62452 44.4742 27.7964327064
17.3423 9.36105 39.7788 29.8947958381
16.027 3.75359 47.0529 29.1325065932
11.5228 7.33882 47.0516 27.5520730237
14.9159 15.3099 38.9817 31.044328781
14.5807 13.5015 44.7935 29.405786437
19.594 0.428536 44.7936 27.5708385214
15.7382 0.313903 46.0568 29.7267411802
13.5342 5.88415 45.7266 30.8887143508
13.0499 0.398936 47.6229 32.6965959888
12.2437 13.8714 46.4577 28.6474798567
18.5865 16.0931 50.0619 28.9880265446
11.5789 14.6907 54.1326 30.341216021
15.7977 16.477 49.722 27.1969076012
10.4655 2.97814 55.1485 30.0585308964
19.1662 1.4389 56.3729 29.0732811162
11.9555 15.4325 51.0471 25.3538960254
11.0215 0.361754 55.3083 28.2245885724
14.0787 6.16763 50.8095 27.5799109179
12.3378 1.0932 52.9438 28.9024504108
19.2823 7.56029 48.5031 31.0619116161
14.7139 14.7796 51.506 29.909628923
19.0556 7.54558 54.1637 29.0486106829
15.5539 10.9199 54.6927 32.0228114873
15.3149 15.3546 54.269 33.5693342446
14.3826 12.0791 50.7846 29.0838570871
11.396 9.13141 56.3047 29.3452082651
12.5247 4.84902 48.6846 29.7802947388
13.076 8.70448 50.9913 26.7998488297
10.2559 1.43052 50.9934 30.1502704086
17.0884 4.60397 49.4998 28.767959392
14.5032 2.71625 49.1756 27.2277658253
13.2858 3.62055 52.3723 26.6372680014
11.3488 4.94953 53.5758 30.215355732
15.1832 2.19021 55.1354 29.333616861
16.674 1.24073 52.6365 28.1309931238
14.5588 6.49712 53.7223 29.819132032
16.4801 0.898123 49.9531 28.4481514305
18.0713 4.90599 53.9281 29.585694204
11.9998 7.77448 53.8424 27.7879606623
16.3992 8.69035 53.4214 32.1480933548
12.4409 9.39685 48.4519 30.0341274251
11.5561 12.8276 51.0972 30.2110730456
12.8794 15.9139 48.5108 29.1860680796
13.9347 4.63705 55.6795 28.7408804661
19.4173 1.03103 49.6315 31.3553110882
16.2582 3.99513 52.2477 26.8350621001
16.4899 7.39689 49.2622 30.965376119
13.3012 10.5807 53.2389 27.8738854796
18.1835 13.5 52.1855 31.7983718685
16.076 9.62774 50.8612 31.7098299793
18.7603 11.1253 51.2095 35.6519532283
11.0212 11.9872 53.9732 29.4358119515
10.1291 5.12459 50.9077 30.0669565888
17.0188 13.3271 55.2018 29.1867370501
17.3583 3.52738 56.3666 30.5939990691
11.1836 2.40066 48.5298 28.6982290221
12.8696 15.6253 56.3002 30.5671017208
19.3738 0.637481 53.4557 29.0163530309
13.9785 12.1074 48.0959 31.2843614796
15.0078 19.3677 8.75968 32.8311125236
12.1368 22.8747 8.08728 34.6772408937
19.4979 18.8846 4.21716 28.6474075337
10.7512 30.3179 8.08997 28.3940362859
16.0653 25.5194 8.6801 28.9386986683
14.5871 25.5747 11.1918 28.9648970859
12.8051 24.6097 5.89643 31.482904279
10.1554 29.302 3.85545 31.8120388596
17.3863 20.9352 8.66169 30.9990513043
17.6148 23.3365 10.0489 32.3697469102
16.6762 26.9929 5.59358 28.1611321028
16.7219 22.6627 6.36874 33.1643727817
10.9577 18.8157 8.39592 31.7708639565
10.49 24.9825 4.71147 34.6755962166
18.8 18.5788 9.8359 27.6899137465
12.2064 28.9726 5.99379 32.590225992
16.9497 17.5617 11.5819 31.6845415601
13.8623 30.7082 4.55478 30.1377984972
17.4407 27.8403 9.40873 35.9326160583
18.7403 32.0783 9.73341 36.633199664
12.7712 29.4451 9.7392 30.0639492037
14.9024 18.046 4.27443 30.1997330024
12.664 20.3369 7.20432 30.5105539179
14.215 18.2007 11.0784 34.280042103
18.4642 24.8725 6.96048 27.4717156535
14.293 31.4919 9.16857 35.2933598518
16.8139 30.5163 8.33052 32.728289219
14.6565 23.0639 4.32203 30.3766124401
17.7601 28.7827 12.3529 32.7494906001
16.1574 30.6331 5.86775 29.0018405011
12.8113 26.8033 9.49581 28.4854020594
18.2536 28.9236 4.49797 29.0382116083
12.4513 16.402 9.58479 31.7413635097
13.4465 20.4235 4.81974 30.4803595566
12.6958 23.4625 10.7625 33.1775442529
15.517 17.4074 6.92778 30.5602715484
14.0737 27.0016 6.92598 29.5761199151
17.5875 21.1905 3.86549 31.9588050793
16.6297 22.9494 12.6833 30.1429952023
19.7193 26.1803 4.2899 29.8165184283
15.5962 25.6059 3.6253 28.7019288528
17.7942 17.9146 14.139 28.7828800782
11.4194 24.0654 14.0999 29.783994271
15.5978 20.4969 15.3097 27.9554469949
13.9311 22.0671 12.8116 32.7280335134
14.0673 19.8042 17.9706 28.6141570306
13.484 22.1847 15.8331 29.1857996478
12.8841 26.8613 16.3602 29.5384352178
19.2532 25.5999 18.2594 31.5628121318
12.9262 26.6258 13.4844 28.4777745575
17.7974 30.3158 18.5221 26.1491382986
18.5639 32.1562 14.7981 29.6810788287
10.3271 21.3985 15.0776 29.7237566199
12.4068 29.1408 12.6745 31.8353922567
9.86229 28.86 18.8099 30.2831260861
15.0957 17.2244 15.5974 31.0699309261
16.5299 31.2573 13.1699 32.6215073775
10.0779 23.4443 18.5681 32.4982931175
10.6631 25.004 16.5577 29.4928424558
13.416 19.2842 13.438 30.0520750322
12.56 31.7819 13.5085 32.8715924247
17.0784 20.6888 18.6389 29.2980398919
10.3709 19.0413 13.5333 36.2132250287
14.7095 30.3588 15.203 28.0788996501
15.9875 26.876 13.5913 31.8563300793
9.74024 28.346 15.4811 27.9878287653
14.8881 31.9182 17.6 28.7958827018
15.5586 16.5048 18.4886 28.0589829401
10.557 31.6333 15.5573 28.2121641782
18.3178 20.8343 13.4893 32.4704044228
11.3078 20.99 17.8819 29.0190629402
19.5934 29.1306 16.7373 25.3482884696
17.9959 24.8897 13.9772 32.647941212
15.1089 23.9138 17.5044 32.0200476477
12.2947 29.5256 16.9913 26.9476999169
17.6946 24.3254 16.5281 29.9371449116
16.7894 27.357 18.5882 26.6153314149
15.4285 23.0407 20.2274 31.3812992355
14.6717 29.4711 18.8528 29.0066937981
14.2718 26.2035 18.6472 30.3723234939
16.4592 28.5036 15.9914 29.3655850816
11.3614 25.3076 20.8635 32.7080078483
12.9531 17.331 18.7429 29.9539014285
17.9175 17.545 17.5334 35.2012551192
12.1248 16.7092 14.3966 35.8324619769
18.289 21.5633 16.3246 29.3857721513
11.7974 20.637 20.7885 31.3971063041
19.4921 21.4302 19.9616 31.1125630709
14.5393 30.8364 21.3666 26.6928473493
14.9712 18.0367 24.4172 94.0643644463
12.441 22.1645 24.5524 96.3603502939
14.9359 20.9061 23.8103 43.584831404
11.1266 31.4242 21.598 28.1128009514
17.742 27.7504 21.2689 28.9650418888
17.5745 21.5091 24.1538 76.6369735945
18.2143 24.4494 24.4012 105.2900879726
13.2806 24.9337 24.2896 87.4025251323
10.8546 22.9593 22.2312 27.9805628816
10.8475 19.9149 24.4854 92.8355265166
16.2411 26.1058 23.0502 32.2240608015
15.7439 28.6053 24.1193 85.2951068491
10.894 26.3231 24.1719 67.4547735679
10.8788 28.3503 21.222 32.6494384744
11.4757 29.0736 24.1208 74.8132191566
13.9268 30.6375 23.8037 43.6222976247
19.1858 18.9672 21.5827 30.0202356088
18.0734 30.2656 24.3003 73.8252798095
14.7806 20.3462 20.7836 27.8802459606
19.2623 16.9179 24.2533 58.6553407484
12.2578 17.7782 23.8374 40.6789855315
17.2765 30.4357 21.4565 28.1653933422
11.4184 18.0069 21.2092 27.101125034
18.025 22.9517 21.5591 31.9604242765
16.3864 18.1766 21.9021 30.4410539346
14.0225 25.032 21.6558 30.7865745466
13.8854 32.2328 38.2021 30.9746805133
13.9013 18.1346 35.7152 83.9201356112
17.2316 18.0498 36.5272 38.8310917537
14.637 30.905 35.5971 79.8775037051
15.1055 20.5693 35.7077 82.3869095666
12.6749 24.0107 38.7934 31.4219774581
10.036 29.2661 35.6781 97.1071763585
12.6251 29.0979 36.4405 39.1721174358
15.9498 23.8816 35.9878 70.0670983476
12.9271 22.9207 35.4852 104.6359428577
12.4848 25.6475 36.0785 55.7742301741
18.8496 22.9074 36.0599 66.0810994056
11.8298 18.2721 38.5756 27.6134030548
11.6096 20.3785 35.9061 62.2392465305
19.3555 20.1304 36.2491 43.426834899
19.9062 28.1294 36.1483 51.3345361034
16.9469 29.1353 35.7059 91.429427561
18.2173 30.9561 37.2335 29.1333483535
15.0376 26.6445 36.0849 65.0496392107
15.6635 20.5428 38.1976 25.8606946596
10.8824 16.9733 36.0393 53.7138769144
17.9759 28.0874 38.7839 29.2399861462
15.4056 23.2976 38.8672 28.0630195228
13.1321 18.452 45.0071 30.3013756761
13.3491 29.2288 39.3486 28.6969829305
13.6277 19.4709 39.9389 29.7585352736
12.8048 21.6134 41.4613 27.8174108818
15.0465 17.3651 41.3082 28.3395260519
11.4783 26.2747 40.0604 30.6466486884
10.3941 22.527 39.9303 29.8602065797
18.5522 22.1357 44.1196 29.912572844
14.41 26.0636 41.9027 27.4152048612
12.5221 28.0956 42.2835 31.8068331293
15.8624 21.8448 41.4614 29.1197307184
15.1079 31.1219 41.0236 28.9699809567
12.6258 29.5802 46.1932 28.5703501557
15.3991 28.8158 45.582 28.1863027414
17.0117 29.0458 41.2551 29.4514249626
11.65 20.1937 43.4462 31.7288636232
9.94017 30.0616 45.1969 34.8442267703
17.2379 30.7948 45.3742 29.4660750072
15.7295 16.7046 46.818 29.0876923957
16.9779 17.5842 39.1976 27.6090426408
15.4787 31.957 43.7194 29.631077092
19.0742 26.9177 44.9875 29.3832902568
9.99485 24.0457 42.2858 31.1443235261
18.255 20.2205 38.8784 26.4200931282
19.2864 20.228 41.6946 26.4396535633
16.5379 19.5038 42.497 30.7272851475
10.088 25.193 46.3046 32.2902692989
17.1122 27.1856 47.1571 31.295318825
19.3247 30.7147 41.7727 27.8372824893
13.1205 32.1708 45.4984 30.0230500692
11.3944 22.0851 45.4791 29.1937413609
14.3676 23.1103 45.1746 30.8762571716
17.6148 25.7383 41.156 27.0973585309
15.2569 20.4752 44.5863 28.4696472935
16.4646 24.1016 43.5495 29.8387012763
12.7259 24.3845 43.1344 28.2529523353
12.4829 27.1605 45.054 30.0949302096
11.163 30.6757 40.4645 31.2816904102
16.4737 27.3054 43.5577 26.9248417481
14.3613 25.7222 46.7433 32.0273300721
15.2622 27.0508 38.8082 30.393249976
10.8692 16.322 40.0512 29.3205276233
18.025 22.1336 47.0438 30.2989300071
16.524 19.5501 47.0289 32.7336100053
18.4405 23.7981 38.9171 29.2529316352
14.297 19.9017 48.9304 29.8092774338
15.4527 18.723 51.059 29.7466109966
9.92449 23.0612 55.427 34.0562375474
17.0047 31.6001 48.1918 27.6519646123
19.617 19.242 52.8604 30.3427387633
11.5154 31.8763 49.9882 29.6701864791
14.7697 19.6418 53.9046 30.2681960208
9.93101 22.4954 51.1482 32.7174428017
17.2668 24.7734 54.4006 31.2688702589
16.9957 18.5585 54.9726 29.7449755641
13.6765 27.0139 55.0478 32.6855701714
18.9652 24.8071 50.1684 32.7623980454
15.247 22.4974 49.9578 31.6774496929
12.2471 22.3688 49.5207 28.9047024119
18.1726 29.1694 48.9562 28.5737233007
13.3688 22.9573 52.3055 34.3073710265
16.3863 26.1982 52.1195 38.5038970658
16.7961 24.3146 48.2982 31.7255248576
12.4156 26.5956 50.2192 31.8367526318
12.024 24.8137 48.4562 30.0341394996
12.1986 18.5586 47.6728 27.3003251906
18.9482 20.3656 49.1493 28.3317235951
10.9848 26.9121 55.5071 29.7409009841
14.8532 29.971 51.3636 32.5699417595
11.0041 24.4729 52.9959 30.0148776359
18.9617 32.4024 55.6362 28.6745437513
17.2637 20.8789 51.0367 28.0006554555
13.4747 31.0459 53.6072 28.1621752055
10.9949 30.5531 52.4824 32.908545759
15.1542 29.4838 55.3116 30.933391825
13.0681 29.3185 49.1333 34.0590798491
13.6104 25.9318 52.4194 28.9716386114
17.6747 29.2358 51.6939 26.2065370774
12.5702 18.3232 54.7364 29.7675848356
15.673 22.4833 54.2279 29.2607784983
18.408 21.5887 53.6549 26.8037969192
11.7826 18.1066 51.986 37.8446212363
17.9029 29.6907 54.4752 30.5482933974
14.1876 32.2961 48.19 28.6905090878
18.4068 16.8074 52.6315 29.1061504701
11.1058 20.6661 55.9658 34.7407391573
19.1081 31.5836 51.5817 28.6365876312
10.5708 20.6553 47.6008 32.0591450795
14.2488 45.7528 4.83933 29.4533964452
13.4 39.4527 3.78909 30.7229612296
17.5007 43.8598 4.28747 29.8057061436
16.8234 37.3561 8.37618 33.3076766526
13.123 37.1381 5.43279 36.3877078786
16.9297 35.5019 10.7767 33.5324414481
10.6864 34.0177 5.4566 32.4303680608
11.749 42.7679 5.33912 27.6073276631
15.2628 37.4876 11.943 27.5494943083
15.2363 41.0304 8.20242 25.8039558156
18.733 39.1062 9.31126 27.9738095366
17.429 39.9549 11.4848 27.3866993988
12.3618 41.9275 7.80242 29.8654715637
13.4017 33.8568 11.5535 29.6970607124
15.2775 40.6558 5.33716 29.2940630177
15.5115 45.4869 7.3997 31.0349263081
19.2746 43.7903 8.49385 28.1506587384
11.5398 45.5548 5.43317 27.2459105019
17.1809 33.1356 5.01347 36.1290839864
18.7409 37.7511 5.51582 29.358270822
18.1266 35.3699 6.67286 34.4843357204
10.3032 38.904 3.67555 33.6365569132
10.6381 39.3682 7.79187 30.5242372632
16.3693 45.8509 11.6938 27.1842118524
12.7258 46.6176 8.57965 30.7480713398
18.0242 45.5103 6.39851 29.0598906999
17.4712 43.579 10.819 29.0023223147
16.0648 32.9203 11.0035 29.7322644953
11.808 33.0075 7.8947 38.1508727225
14.7455 40.5087 11.0591 27.3126551828
14.2846 38.4658 7.64661 29.3533052149
11.9825 35.5827 9.56507 32.252687992
11.0179 36.6022 6.82652 28.2414417246
18.1596 48.0744 4.49691 28.137888226
13.093 38.1994 10.2474 29.7829519191
10.8648 40.0938 10.7298 28.1890398587
10.727 43.0235 9.63679 27.356352577
12.3897 44.7411 10.7048 26.359605723
14.8562 43.5104 9.35712 28.0885331763
18.1603 41.0041 7.62178 30.5168352538
15.9347 47.8578 9.21641 28.5297392286
10.438 47.7498 6.78985 32.4635396702
10.2574 33.719 12.2098 29.829016553
17.7648 40.1017 4.26737 27.4875047116
10.3138 48.4357 9.84301 29.1270049678
19.1356 36.5664 12.3265 30.3168376365
18.4968 47.7313 10.9425 27.3044268545
17.5024 49.1381 7.13298 32.7500774247
14.1166 46.1335 12.9558 28.6241683139
14.3662 36.2027 17.5439 29.5335879792
18.065 42.7106 13.4721 27.8815566385
15.3577 38.76 14.5404 26.6903706301
18.9933 34.963 14.6982 29.7319613839
16.0682 35.3037 15.6762 28.8616919274
17.3766 33.0223 17.3002 27.0516645461
19.3333 45.7224 20.4133 28.1009557865
12.5249 38.8196 15.1593 31.9227664535
11.7339 40.8713 13.2889 28.2725863475
11.4275 44.8467 15.5251 29.8966465634
11.5877 36.2633 14.8478 30.4251505628
13.969 44.2701 15.1751 28.8181719809
19.2487 34.5231 18.878 30.2745050623
12.6941 33.5919 20.6414 28.6968373659
16.5994 45.8062 16.1921 30.6758247024
10.1544 36.93 19.4472 31.5478446873
13.6257 42.5822 12.704 27.4177036812
11.567 43.0585 20.3578 32.4043987792
14.8214 45.0304 19.4376 28.2572522281
17.0909 48.173 17.1067 31.4212236117
16.2511 35.2294 19.7025 32.0367101579
15.8841 47.9641 19.6781 29.8549217657
18.0746 45.952 13.9059 28.2633252955
17.3535 37.7787 15.9069 30.7259387778
11.4232 35.4911 17.4532 30.5568335063
14.2501 35.491 13.7265 31.4819245899
14.4876 38.6955 18.2976 27.9833075352
15.6492 41.877 17.1714 28.7071060527
17.2748 39.806 17.8219 29.6151316845
10.9676 48.7375 12.9215 32.3374065306
12.2595 40.2682 18.019 33.0600666716
13.1216 43.0384 17.7464 31.3566296808
17.192 44.0378 18.0939 30.0916251894
15.7692 41.6342 14.3956 28.2543880171
10.7151 46.9369 17.0573 34.0432648822
12.8824 47.2411 19.1571 31.7750241715
19.5352 48.3378 14.1204 27.928465437
11.0024 45.8827 13.0071 26.7652749479
17.113 40.0598 20.7378 29.9884565229
19.4074 48.3015 20.0476 29.2789512797
18.6577 38.8548 13.4245 29.120116717
19.9134 49.0207 16.9691 27.5504256232
13.7536 48.8079 13.3087 33.650997565
12.2574 32.6432 18.15 28.9504193402
9.63725 48.774 20.9048 30.8991015091
13.997 37.9983 21.1447 28.128966302
12.4439 47.5405 24.0422 80.987544328
16.8876 47.4037 23.8844 65.8331107449
16.8959 37.4559 21.2977 28.982149233
16.4409 36.6549 24.0362 53.5542602093
14.797 48.3773 22.7427 29.857277319
14.2749 38.5701 24.0616 55.9143818949
12.2447 40.5497 21.3643 27.3741583174
13.7468 44.0084 21.8218 27.6629977513
16.0281 34.0792 23.9651 57.5307847533
15.5575 41.0389 24.2377 56.4744348291
17.9671 40.0182 24.4862 81.2126168942
15.3428 33.2723 21.4642 28.3079034219
14.9666 43.7607 24.6484 111.5383716528
11.8805 44.9335 24.2195 77.798744625
17.553 44.94 24.1438 58.7088943955
13.5071 35.3464 24.1483 59.1138993161
14.7245 41.3115 21.7322 27.2803576037
11.1576 37.9059 24.5534 109.2734464138
12.1389 32.7476 24.6564 112.7934284902
12.0237 36.0339 21.7229 29.684241147
18.9022 41.7816 21.9722 27.9222443399
11.4311 40.5174 24.0362 73.1126069552
11.4989 46.6284 21.3337 27.5938951428
18.5436 32.9414 24.1271 71.7719141515
19.239 37.0831 24.3704 78.3554338899
17.1582 44.046 21.4231 29.935211765
18.7238 40.0152 36.0852 39.0176544265
12.3742 33.114 35.6694 82.9527436849
13.1823 35.5564 36.6976 27.8775981693
19.6553 33.6591 35.7751 92.1923178241
15.6903 45.9347 38.6308 26.1815571324
17.3229 42.2629 35.6985 89.8423626748
19.2446 47.162 35.8676 65.4091310144
15.5513 35.3969 35.6727 71.2119557408
19.1021 43.6032 37.387 26.3277877525
17.0901 37.9144 35.5092 94.4737133469
10.6416 37.7488 38.5656 29.6571534297
16.8906 45.3756 35.7881 85.7038746099
10.949 36.433 35.5709 96.4718834602
14.6848 39.1116 36.1454 52.8185196691
14.631 42.0545 36.2715 46.6141395054
15.0923 47.9355 36.1868 48.9872367656
15.1955 38.7324 38.8402 28.6147971393
10.8842 44.8914 38.4144 29.2344612023
11.9634 39.1688 36.0703 61.1274751866
12.648 46.4145 35.9491 61.4597890469
12.257 43.5828 35.7006 91.1627758407
19.5513 36.3687 36.2024 47.1260768955
10.054 47.919 35.4684 105.4507428502
15.0074 43.3973 38.6209 28.9986721568
16.6879 32.9664 35.5312 80.2414921437
16.9057 35.3473 38.1229 27.785102222
17.8962 34.8527 45.9599 34.9459758334
10.5384 34.4803 42.2782 28.6665815436
17.2309 44.9429 41.0698 29.2391418666
16.1331 34.753 43.367 28.2728254503
13.416 35.8548 43.0428 29.2051124485
18.3144 46.962 44.6021 30.3355566982
12.6182 33.1102 40.8628 32.0585337825
19.6503 32.6418 47.4786 28.0495076535
19.0352 45.929 38.6887 28.0280943713
10.5406 37.0618 41.3715 27.2707533833
13.2191 41.0168 44.6643 31.4134856805
14.5039 38.3771 42.815 27.9503365982
14.9163 46.289 42.1452 30.2040619922
12.3562 42.9465 40.0119 30.1957835077
10.9155 40.4538 40.7878 28.8569233561
13.946 40.2477 40.6545 30.5920881482
17.417 36.8872 42.1107 29.4374345364
15.0301 42.4119 43.0546 28.6310056399
12.8233 44.1542 42.0937 27.2030035662
19.4791 44.4785 45.8324 27.3939917456
16.8456 42.0838 40.3189 28.8434124156
11.3567 46.5948 41.099 26.5499860401
16.8207 43.2977 44.9832 30.018422929
17.1787 48.4446 42.2165 29.8432790276
12.376 35.7508 45.9335 26.8638341787
17.7921 33.2347 41.6384 28.7359566107
19.3186 37.0461 39.2647 29.0442680966
18.6774 41.9495 42.6765 28.4726575592
10.9851 33.52 44.9142 29.8269443508
10.3846 37.5744 45.4994 30.5662837848
13.8031 43.5849 46.1385 31.3315718322
15.2094 34.4757 46.7664 26.3817627679
13.9115 46.164 45.1451 27.9863932175
11.6908 39.0656 43.3506 26.9543157501
16.1133 46.7049 46.2844 27.8045071346
17.4817 41.1533 47.0618 28.7482577068
15.6387 39.3215 45.3742 31.1933745162
12.2369 47.8606 43.3639 29.7344551193
15.8497 48.9807 39.597 27.8410825375
11.3619 47.0786 46.7485 29.5261194548
10.0947 44.4824 43.2679 28.733256688
17.9832 39.3092 43.7202 33.1184471116
15.3317 36.4715 40.0932 26.0615704205
16.8523 32.8679 39.1171 29.5163642794
10.6298 41.9636 46.2118 32.4674507743
18.0176 39.353 38.687 29.6177786147
14.6697 37.3742 47.2255 32.2633318609
13.0941 47.3333 38.848 28.0845127922
12.821 35.8109 39.5642 28.1628037758
16.876 39.0863 48.705 29.1324871601
11.5837 43.7014 55.1258 28.5874206596
14.4567 33.4261 52.9077 28.4429218046
18.2873 34.2053 52.9014 33.5009006515
16.4306 40.9515 51.0751 27.8319270574
16.1755 32.4381 50.9277 26.6066892049
15.3375 40.6936 54.542 28.2134641211
11.3684 38.7565 50.5512 26.4056095916
11.9844 35.4679 48.8939 28.0903898637
13.6335 46.2346 51.1848 27.8081107906
13.8552 35.9751 50.786 26.4426743163
15.9012 35.0331 49.5479 28.992658645
15.3593 38.3816 52.3902 29.6628407609
18.0728 37.2618 52.5131 27.5320031851
13.0899 37.8687 54.1513 33.0411637596
11.2596 45.5675 49.1017 29.0687815692
17.3473 47.229 54.0507 28.8733911849
16.634 46.094 48.9795 31.3669423715
10.0563 37.6089 48.7766 28.5829578799
11.8967 34.2253 52.0069 27.9825882833
11.0544 41.5069 52.6242 32.8194958915
15.3581 47.586 56.074 26.5878970918
10.8844 46.4702 51.8642 29.494965336
18.1533 39.6258 54.3069 27.5321998193
18.1708 36.9674 49.8303 27.3827802201
19.1623 44.1103 48.4684 26.4951780445
14.4052 48.0501 53.1157 27.5369219258
13.9504 38.8683 49.7441 29.4617015026
12.0742 46.7023 54.6225 30.1425880563
17.8284 42.4815 53.0446 27.3595917087
13.8499 41.6297 50.566 28.1975880245
16.2797 43.2367 48.5008 29.6323645268
10.6164 37.3662 52.9201 28.9540902502
15.6122 44.4496 51.3877 29.5205320551
16.2776 34.1602 55.1213 29.7573762014
17.678 36.8232 55.857 35.1475394256
13.9588 42.7194 53.3679 27.6548252029
16.0815 44.5835 54.4357 28.1619646678
13.9148 35.2731 55.8625 36.3231716065
12.2785 43.0304 48.5704 30.4814136325
10.317 41.2472 49.6559 30.2650280958
12.4255 32.8688 56.4903 30.878248051
14.3611 48.3049 49.646 29.6994116425
10.7516 32.7938 54.1425 28.5053248803
19.2861 45.6582 55.5516 30.2323775902
9.79782 44.1585 53.0523 29.2801539399
14.1625 42.9531 56.5367 26.875837283
22.839 12.519 4.65558 30.2857369766
20.9921 13.4065 6.72025 28.8747348567
26.5576 6.86294 6.48805 29.0156901863
27.5453 10.7873 5.99552 32.6943241647
21.4597 3.28478 12.3547 30.1734989255
27.9901 6.1785 9.87565 30.7755445421
21.5069 4.1052 8.45483 31.0275523562
19.7417 14.0608 10.5824 32.003380158
28.1458 2.75527 5.52079 31.4688029281
25.1506 15.7064 11.705 33.6297824806
20.404 11.9471 8.77788 29.892975871
22.9765 9.98431 5.75876 35.8127655966
24.39 4.02838 4.44222 30.3684946333
25.6703 8.94014 5.34823 30.0015819577
29.6397 13.6924 5.46046 35.5313214267
21.7764 7.95725 4.01644 30.2089149903
20.4133 6.56879 9.85338 30.6077866511
25.7454 12.8037 5.39774 29.8846802936
27.038 5.00911 4.72353 28.8800137754
23.9224 -0.140405 9.9817 29.5202157618
28.8276 16.2075 4.88932 29.5228507277
25.8946 15.5925 4.53004 27.9430258679
23.7137 1.49606 5.49396 31.1181440573
24.6389 13.3211 7.91714 36.9750512556
26.1288 3.9541 9.11664 31.6908226343
20.8934 0.934453 5.76442 29.0349502119
27.8801 12.4543 11.6483 32.2829969769
20.8263 4.27863 4.07088 29.8086524893
24.4159 5.88372 7.95232 31.5155947436
22.6067 5.72881 5.75125 31.8906050477
25.5248 0.953826 12.2184 31.2136452711
25.707 3.74168 11.6609 29.5737411468
19.7179 3.25401 6.71405 26.1100493176
23.567 9.71232 10.6394 35.0798360451
26.922 14.0566 9.7212 37.8639047728
23.0066 6.81187 10.1812 31.786653977
22.773 10.9052 8.63439 34.6134180899
29.2073 15.6112 9.17326 32.2838974735
28.2316 8.84649 10.3134 33.3798534594
25.225 0.550719 7.54402 32.8358643704
21.7598 1.48903 9.79832 30.354892392
27.4925 2.03107 7.97092 31.0701631959
29.4781 7.27821 6.95149 29.9417063216
25.9656 10.1379 12.0803 31.1543911854
24.0616 16.0665 7.32484 28.7933126615
21.5408 15.8949 7.26297 24.0480003435
23.6778 9.53482 20.3625 31.0951394393
22.787 1.08182 13.3862 30.4076130748
20.1705 6.1253 15.2818 27.8165620249
20.3174 9.69029 17.0421 30.1569935829
26.13 1.97156 14.9059 28.7588275152
25.1555 4.56067 14.8075 30.581908329
20.1559 3.50575 14.9859 32.0868200896
25.2773 7.11491 16.063 27.8074875234
26.9448 8.40257 13.9167 29.5024435554
27.485 6.74674 17.7983 30.9294414346
20.3719 2.63853 17.8257 32.0457315396
26.1658 5.25338 19.7858 27.8842341072
21.8228 9.37829 13.0762 31.2253628589
27.4307 9.0267 20.6489 30.2425151171
23.7658 14.1929 13.553 29.2168727967
20.5164 6.94238 18.0398 27.514277855
23.2282 13.4471 17.2339 32.5279663431
27.0433 10.7062 15.9309 30.3926575119
24.0712 11.5454 13.6078 33.3264576018
23.5371 3.25309 16.8313 30.4329683029
27.9303 13.185 14.5204 34.2199507688
28.051 12.2711 19.8725 37.3065124271
27.0664 15.8842 15.8036 36.6989089816
24.0772 15.4398 15.8557 30.7945779896
22.3238 1.45737 19.8302 32.3899034273
27.3615 5.75071 12.5242 30.1457714661
28.6425 9.33266 17.9137 26.8489084399
22.3193 5.79337 21.0777 30.2928282596
21.1738 14.1757 13.0229 33.1105364767
26.2371 0.660864 17.6526 28.6445985396
25.669 11.2935 20.9583 27.0396412326
24.6032 13.645 19.7792 36.4735899164
20.3579 13.2617 17.4706 29.9098877668
23.6595 5.99333 18.4254 29.1657937034
24.4119 10.9411 16.4685 32.5621609948
28.7576 1.71646 14.3388 27.4668969851
22.4228 7.20381 14.5181 30.2420072851
28.7034 1.98784 17.4091 31.727569366
23.2478 8.79823 17.57 27.8708828056
24.8637 2.34822 19.3086 30.0705314848
23.491 0.455392 16.1391 32.6057761474
20.222 15.9206 18.0023 31.7828411401
23.3521 5.27504 12.451 29.5275724505
29.4616 9.23296 14.2275 27.272597559
23.7017 2.5006 23.7713 51.60609148
26.6973 4.51549 23.6891 44.7705994884
27.3638 3.40527 21.3143 26.038568056
27.4965 7.1801 24.439 91.6173183552
23.7433 15.1104 23.6199 31.1867727248
26.2046 15.5751 21.4249 31.120648261
23.267 5.33977 24.1044 72.3012870601
26.4523 1.6453 24.3673 83.5542044556
29.2068 1.54033 24.6441 117.3910310181
21.5183 3.34589 22.0124 28.8000232372
20.5847 5.85075 24.3602 80.2076376205
21.1626 15.2053 24.5836 87.8904737249
24.9481 7.9869 24.1924 78.1825327639
22.6799 13.3814 21.6975 29.8292001247
21.8941 0.238186 24.1176 77.8873489174
23.1853 12.1664 24.5124 96.7119430464
28.4407 6.56094 21.9054 31.5130151263
26.3616 15.3384 24.535 104.1178474311
25.4115 10.7017 23.7754 43.3955738785
20.5998 10.8021 24.2987 74.4687569086
27.5298 12.5894 24.1427 72.2541020204
24.8524 7.32594 21.5883 26.9786535246
20.4923 15.0351 21.7165 28.1303657321
21.2444 10.2335 21.5524 31.8731180654
20.0764 7.5913 21.8618 31.8541228599
28.5678 14.0703 22.0195 30.7208245467
26.6903 0.61799 21.4573 28.8647709002
25.4433 4.551 35.9515 88.930987857
28.4362 4.18496 36.4959 39.5704551394
20.8974 8.33652 37.9455 27.4485491012
26.0057 1.1532 38.3572 29.4047885808
25.6022 3.92297 38.7797 30.9596136156
22.8257 3.26326 36.0268 68.3642734276
25.2456 7.36233 36.2012 48.8707196673
27.9318 8.37628 35.2528 126.3256053314
29.1876 10.459 36.4166 36.0478967014
23.4969 14.3303 36.3691 54.8960943807
20.0124 10.4178 35.7728 71.7867926592
23.1382 9.3226 35.7285 80.754690714
20.3815 6.97821 35.4494 99.6108606135
27.0216 12.1504 37.0449 31.8915884579
20.8028 13.2392 36.1308 63.8045972066
27.7773 14.6735 36.1745 62.7005807194
24.5254 11.5154 35.8921 90.756152996
23.4598 0.31492 35.6206 88.990012022
20.2527 4.3207 35.9555 51.7876690968
22.497 0.956237 38.1998 28.5262718081
20.0413 4.90551 38.6146 27.7996398013
26.4431 12.6615 39.9258 29.5324598122
23.0862 3.41194 40.369 28.7839215092
24.5652 3.5463 43.0152 25.9023165895
28.2671 8.74737 42.8609 34.33859731
26.6422 5.66622 46.4347 28.2010396309
27.5402 10.1265 40.3319 30.2167650441
23.0816 8.51381 39.826 33.181448168
22.2349 1.46605 44.9692 30.7051690829
19.9868 1.34201 41.9727 26.5030887357
21.1292 11.5343 45.7175 31.4624649926
26.6468 12.8785 46.508 31.7598801406
22.1539 5.98987 40.5729 29.3756091081
25.736 8.34197 38.8155 32.611323851
23.8525 14.0484 39.1478 29.7927859589
21.2907 7.10232 44.8242 30.6627338454
19.9734 5.96195 42.3002 27.2546391507
19.3243 8.7957 46.1278 34.9123226636
22.9336 10.0878 42.1886 32.2459219481
28.5058 3.82613 39.3114 29.620212412
21.6594 3.39915 42.9399 25.8183229415
29.2574 11.7822 46.4404 27.6895414914
22.8602 14.1565 45.0587 26.3829287275
27.7974 12.7908 42.3934 30.8417251229
25.4343 13.0596 43.9556 27.0186802456
23.4843 12.7933 41.6038 31.6099428784
25.4909 15.7499 43.53 29.9937722994
25.1771 1.58371 47.3155 29.050823891
21.0016 13.0124 43.115 28.9831222129
24.8322 6.17288 42.0644 30.7254282315
27.5847 2.6325 45.6393 29.5079657514
24.7796 0.716064 42.7996 29.4674568919
24.0783 3.48438 45.7044 27.0617123529
27.2047 4.67131 43.5361 32.2249974418
27.9939 9.35272 46.827 33.5609035262
23.9121 10.8476 45.3625 30.4961699453
26.4735 7.76652 44.9488 27.0601021697
23.9488 6.56946 47.2472 35.526099347
21.4973 4.76297 45.9011 28.3344468772
23.8155 8.12663 44.4953 27.7516405752
19.7723 10.7883 39.1763 27.4993677426
26.9536 6.32435 40.1574 28.312791069
27.8972 15.0062 38.9217 28.5590997238
20.2874 10.3625 42.0266 30.8254865384
20.6025 16.0498 44.5246 31.9520541504
20.1946 2.18168 39.2121 27.5824119548
21.2018 13.1665 38.8304 31.8492961999
23.4638 1.96729 52.8535 28.5313664919
23.4221 2.50245 50.2974 30.5503524306
20.5727 3.21499 50.9211 29.9582607495
24.8643 4.68765 49.4861 35.2369394878
26.7236 13.8605 50.5096 30.9598045113
23.2808 8.39428 54.7348 31.1368489007
24.6145 12.8207 54.8534 31.786138597
23.1009 3.80225 54.9737 31.1787776971
20.2256 14.7652 53.964 28.4706270444
22.4462 11.3976 50.2882 33.9992826341
28.9509 6.64869 47.582 31.1640126054
26.7909 15.6408 48.1258 31.8453699883
27.9797 6.37778 55.2986 29.2053977303
28.667 2.94204 53.3466 29.8466661502
20.3204 13.6898 49.7755 29.9340947112
26.7268 15.0307 54.7728 30.7665353352
26.1275 -0.108734 51.9911 28.6716008162
19.9062 4.89716 48.701 33.3689718343
23.1263 10.8162 52.9418 30.7149913526
20.8584 8.91954 50.24 37.1360920264
22.0723 15.8615 52.0112 33.87042276
26.1283 8.37351 55.6252 31.1205823039
25.2181 12.1266 48.8373 30.0665231011
27.7107 5.54321 52.6971 30.7310968741
29.0834 3.43105 50.5906 29.2192448684
20.6251 6.60441 51.9345 33.7959256827
25.0572 14.8504 52.4785 32.2531800521
26.7579 1.87084 49.8399 31.0762594379
22.799 13.4972 47.7736 29.117493601
25.396 6.48827 51.4744 32.9653143235
26.0006 1.60024 54.3893 31.3993756638
23.1281 6.16707 53.105 33.4910213257
26.7559 11.0165 54.9471 29.0457638729
25.1536 9.33268 50.9685 35.861498659
20.3671 10.1084 53.6218 32.2285883606
20.2755 3.22646 53.6986 27.2268728842
27.3806 10.8085 52.1901 34.6360355861
29.2368 11.5546 56.4068 28.2621416349
22.6084 16.2369 49.1618 28.406104346
29.1644 13.0651 51.3381 28.0174002219
21.1627 12.4442 55.0077 29.4617378554
29.4673 13.6465 54.1865 34.7459461515
29.1454 6.4608 50.4641 31.4207297494
28.7469 0.187471 54.6374 27.6509009393
20.3052 16.4775 56.2233 29.1340973626
25.3069 9.34188 47.631 32.6471383656
26.0798 18.3223 5.89679 30.7291696817
27.6554 25.2754 6.03171 31.0151490972
20.8323 25.1788 8.47161 27.6036842004
27.7639 31.491 5.4312 35.9424594232
24.0595 22.7264 12.2009 29.3226426076
19.9709 22.6544 5.27485 29.2624346577
22.8791 16.8113 4.23857 33.3479912149
23.0228 19.3169 5.87371 27.9168890594
24.2161 22.0975 5.49399 37.5468292145
24.4751 32.2764 8.05874 29.5452374994
26.9837 22.3238 8.78386 31.8172129152
23.3236 29.8508 3.98901 28.0684732043
29.6792 21.0682 5.39466 32.4334518384
22.125 26.0559 5.9175 25.3860702733
20.5614 20.1598 11.6382 31.0605481496
22.4153 31.0508 6.42023 29.6944109432
26.4531 29.1144 8.84539 31.1022056302
26.8021 24.4233 3.63868 29.9665830693
21.672 31.2599 10.7525 29.6569217351
20.8711 16.4668 9.92505 29.4565796686
28.7419 27.7827 9.80975 30.3927588568
24.054 27.4018 4.97118 29.2753119299
24.4368 19.428 8.56112 28.7038239805
27.0497 31.8168 8.1761 37.1276998731
20.8275 28.7202 6.1603 32.2936949751
29.0399 23.1766 7.22025 27.5782038521
27.063 19.3524 8.97619 32.0399356645
22.3841 23.7547 4.16881 28.6550752798
22.0344 28.9066 8.85136 30.2109779008
22.9641 21.4144 10.216 30.3624355843
19.9996 21.2058 7.63323 30.9329836878
28.1353 22.9146 11.1745 31.6253335517
20.3629 27.3263 10.0732 30.5246511697
24.4601 22.8957 8.12854 29.1674207904
24.2231 25.8717 10.9806 29.9305518312
23.6214 17.1411 9.97035 32.3688011248
25.9854 27.2813 6.92397 28.567353687
27.685 28.8682 5.23573 30.3782186787
23.8951 25.463 8.38778 29.2505913361
24.3523 28.6882 10.6141 28.8964092242
28.8041 17.8016 7.39001 28.1564067386
20.5018 22.9222 9.90934 26.1682360424
25.0243 32.3362 5.07956 31.0148219233
21.3796 20.5929 3.82485 28.7819314319
26.5554 24.8063 12.4169 29.4323358684
20.3644 18.245 6.89727 28.2926678737
27.5064 19.2359 12.0034 30.3380813959
29.6378 16.5451 11.699 32.3026935834
20.2189 32.8035 5.78866 30.9827592069
27.7159 19.5427 3.6161 31.0590822141
26.1354 24.1429 14.8868 30.1979935546
26.4808 21.6444 16.4666 31.5038399623
21.0937 31.4543 16.5674 27.2689622342
22.1122 17.4029 16.4828 30.0726099566
27.1651 17.9496 20.0441 34.4040766889
23.0223 27.0804 14.9668 30.7103913606
21.2021 21.6633 16.8927 33.5697565908
23.6308 24.5998 15.927 31.2983598708
26.1951 29.3491 12.9394 32.4353539858
28.4073 31.4266 13.3384 31.6036549938
21.4275 27.2465 17.2765 29.1817883834
24.9304 29.1653 15.4743 30.2514466746
27.9023 27.1841 12.2764 29.1050373043
20.5908 23.9892 12.7356 32.7846044014
20.3074 30.7635 19.9392 28.3323437598
20.1536 16.4916 14.3143 29.2444783125
24.0962 19.3603 14.4078 29.2343538212
24.6444 31.2857 20.4289 30.1675466657
22.1255 19.3703 18.3541 30.6762962155
27.4209 18.1732 17.3526 30.2673943334
24.5639 19.521 20.0619 33.5954131488
26.0267 17.4178 13.5801 29.8991870965
21.802 18.1699 13.2198 32.9079079826
20.9997 23.4296 18.9666 30.1067519898
22.3649 22.5283 14.4716 31.0075450799
28.581 31.6694 16.1166 29.0348940189
24.9746 19.3466 17.0156 29.1717099959
22.9583 23.7904 21.1676 33.9813155768
28.0233 26.1912 16.2717 31.2770101395
26.3157 23.396 18.8257 35.7855523608
29.0621 20.8876 15.2386 31.9562622735
28.69 29.6254 17.7447 33.3939805295
24.378 25.7927 18.5604 29.1295335952
22.6642 27.3936 20.4005 26.9561559442
24.5321 31.7178 17.4492 29.3283593138
26.1681 27.8366 17.5342 28.5157512844
28.9087 24.7395 18.3247 29.5714526177
27.028 28.8478 20.047 27.8590916794
20.988 17.5032 20.3191 28.0906395832
22.4001 29.5977 18.6705 26.8963942646
23.1086 31.519 14.6587 26.8114450071
19.7328 28.6494 14.0347 30.304596958
26.12 21.1614 13.4509 27.9175066049
25.3966 32.3957 13.1753 31.4586351526
27.5422 31.4716 20.582 32.7744934616
21.9928 29.5443 12.8127 27.1867011592
21.9206 26.4759 12.2907 27.2072317515
22.5936 18.8864 24.1436 74.1047989389
26.7748 20.7104 24.5087 86.7223679912
27.1693 17.9865 24.2651 57.8046707817
24.0968 21.1669 24.225 70.0282493983
27.5844 25.1006 24.7216 100.018825451
24.8557 25.789 24.1871 56.6231391718
29.5495 22.8833 24.2243 57.8988886234
22.625 30.1401 24.5744 89.1829958691
20.2905 28.7641 24.4625 74.3223538842
25.1022 28.6128 24.057 44.4508621297
27.4932 29.3269 24.6268 97.3932543244
19.8879 19.6279 24.1947 80.1141176502
22.8678 24.1107 24.3038 80.57715815
23.337 17.4774 21.7628 32.1372517739
28.0443 24.4652 21.6623 28.4129778495
20.7192 25.8224 24.3889 73.5721464536
28.2553 31.3186 23.4175 30.562853718
29.2444 27.2551 24.3165 62.2335876581
29.0987 27.2206 21.5095 37.7298216274
25.2082 25.5284 21.6257 27.9315573486
20.414 28.5053 21.7511 28.7066164938
28.0487 21.4038 22.2141 30.0951357314
29.4732 16.9819 21.6289 29.4523540704
20.1434 25.3301 21.6161 29.8733541474
24.6872 28.7217 21.4933 26.5389998201
25.2895 21.7461 21.4584 30.397548378
22.3927 18.737 37.9072 26.117195514
23.5316 17.3282 35.8199 65.8861768969
27.124 17.3852 35.9548 57.0009403214
25.1564 19.7522 35.3641 97.3940763735
21.7338 22.6171 37.5885 28.0315470777
20.5269 17.5956 35.331 119.2221835844
21.905 32.5874 36.5577 33.1427836177
29.3835 30.2954 35.6658 82.9695045033
23.394 25.3858 35.6017 90.9985466206
28.2406 23.2007 35.8492 90.9706809931
29.1368 26.2849 36.0953 71.0006959256
25.4512 22.896 35.6816 75.7203725019
22.2181 20.7035 35.662 80.1996156438
23.0845 29.4973 38.6931 28.7347434906
25.3815 20.1059 38.4268 32.2358005231
20.4871 25.301 35.8074 84.0909303157
27.1125 28.3082 35.7412 86.792213198
24.3932 27.8682 36.0123 47.5858393363
22.2194 29.6887 35.6347 107.6054890275
25.9192 29.8852 37.9557 28.0558233505
23.9714 23.9177 38.0264 25.8225040965
26.3827 32.3493 36.3255 49.5210196676
26.7522 17.5403 38.7986 28.0024067112
20.013 26.1857 38.6529 29.2110912919
27.567 23.8732 38.5828 30.8840785149
25.213 26.5686 38.6996 29.1624150721
20.5999 30.8633 38.827 29.852713625
26.4345 18.5852 46.0988 27.1284630887
24.4801 16.5624 46.1683 29.3420448919
24.054 16.8738 39.5583 30.9559918806
21.203 18.0156 42.5869 31.0305739578
24.855 20.3381 42.2062 28.9543265458
23.9845 17.5809 42.0816 31.9904425872
28.5233 18.0931 40.707 29.7212204185
23.1527 24.6564 40.7896 28.1226376512
20.5117 23.6174 42.9593 25.614389451
25.2001 27.3313 41.6669 26.6676756789
27.7986 28.3126 42.1041 26.7818982226
19.7221 29.9019 44.3349 30.1840528543
21.3778 31.7105 45.4395 33.519660387
20.9507 25.8597 46.6649 30.4760803861
23.0945 24.7374 43.986 28.4868233586
22.4248 27.0662 39.9569 25.7002972825
26.1255 20.8022 44.7949 29.1766976811
28.6497 29.4287 39.3046 24.2870811486
20.5318 22.3332 40.563 26.809120398
23.9393 30.2161 41.6094 29.1867579961
21.514 28.4957 42.2634 28.2401271183
28.2278 20.9224 41.1946 28.8035415958
20.8382 19.9334 44.5473 32.435295133
25.3667 24.5763 46.1494 27.7601844916
28.9888 17.5272 45.482 29.7455041401
26.5044 30.2732 46.9926 30.0555268089
26.837 28.4195 44.8366 28.9115643241
28.5992 22.0429 45.3639 29.1500061788
22.6241 21.7321 43.584 28.4514535954
23.6969 27.6276 44.2097 27.2132670371
25.8694 22.4132 40.5507 26.5118937422
28.1726 24.4107 43.6902 33.4102234141
25.8145 24.6337 42.4935 30.1345127655
27.586 31.1024 42.9259 30.2146008484
23.2153 27.2422 46.9624 30.1494514138
27.7259 26.1034 46.0691 28.6161945464
26.4825 31.2798 40.5016 28.3339487756
22.2245 18.5678 46.5714 28.6988690652
29.159 29.0275 47.2446 29.5730374998
19.8804 26.0738 42.538 26.6981645693
22.9951 20.6917 39.897 28.0822462762
26.8013 22.6639 47.7525 28.2852896868
28.0305 16.5322 42.9658 31.4301837916
21.9188 32.3359 41.5835 27.4551708222
24.0315 30.4649 45.0499 33.5094924121
23.7617 20.8809 46.0622 27.7176342238
28.4024 26.5937 38.769 28.7742969106
20.2319 17.8456 39.8426 30.9941773251
29.7547 26.6042 42.9778 29.2062729387
25.4005 19.968 51.7713 26.3654446678
21.1338 21.7189 50.628 28.8881152838
27.8742 32.8726 47.4407 29.050357582
20.359 23.3136 48.3674 30.2120389275
26.2024 19.7392 48.6942 28.9019200559
26.9283 23.7656 50.6281 26.2838857762
20.8993 29.463 55.2946 30.060523672
25.3322 26.5008 55.3384 28.6450445275
25.5651 30.7184 55.5437 28.4039595404
25.5589 17.9756 55.1898 30.7694123966
21.4412 31.762 53.6523 29.0928019922
28.8951 24.6267 52.5474 28.2829466687
23.3946 24.755 54.5946 29.1701819861
27.4015 28.8233 51.2621 27.0193519168
24.2715 25.4745 51.6507 31.5895768538
22.8092 27.7954 52.1514 31.129544716
20.2395 17.9242 48.5739 28.109340213
24.8511 17.4063 49.9132 26.7381900507
27.7686 28.3044 55.1489 30.3786193022
22.9475 19.7903 49.4122 26.6186799791
20.5838 30.7895 49.2584 29.5133388111
23.2734 23.1003 47.8526 29.3869744415
22.6266 28.9367 49.4885 28.3591883128
22.2842 18.7179 52.035 27.0704685895
29.2954 24.1972 55.2297 28.588507464
23.6953 30.23 53.2425 29.2793236848
24.1776 31.3281 50.5682 32.8872406669
20.4856 25.5297 54.5253 27.8502651521
24.1679 22.7296 50.3758 27.4095973308
26.4058 17.467 52.5757 28.0047438411
26.5983 22.0389 55.0961 33.3218585345
24.9916 25.9898 48.8389 30.1066449589
26.8885 31.43 51.8412 29.083105055
27.7081 21.6421 52.1593 29.7913148418
24.0361 21.9404 53.6355 31.8151691051
