4.71165 4.84524 46.2505 32.9171226309
4.11179 0.716745 52.1073 27.8008345701
2.48922 8.63034 45.4906 30.0709522596
1.86739 9.33575 48.424 32.3922379165
2.45946 5.96065 44.828 28.7203247113
8.01294 0.314076 49.4575 30.4399320197
8.61267 6.47524 55.9848 27.871969007
8.11207 3.10937 45.2931 30.4084405822
8.526 5.78538 45.5771 28.8245789537
12.1442 9.60268 54.926 28.6620906914
10.7258 0.925152 46.1631 28.1307283074
12.0503 8.64661 46.2973 30.4990458635
6.28458 6.95003 45.0241 31.4838466389
5.8745 8.6202 48.6125 30.6653535035
5.1528 9.71874 46.1446 28.5197803852
7.14672 6.17468 49.2795 31.0605912719
10.7221 6.32672 47.1835 33.0791734185
4.14338 0.538492 45.3353 37.0915017992
1.41576 4.01339 48.8506 35.0297021977
11.8408 11.4895 49.9817 28.4791310821
6.6501 9.98188 53.6696 27.1598609012
-0.0580252 5.77215 50.6598 30.8926788321
12.0749 2.54924 48.9012 26.5985042414
11.4787 1.16779 52.3542 28.3662729788
11.2648 0.00388729 49.7652 25.1290663772
1.18382 3.62731 52.1793 28.9998456191
6.87361 3.67997 48.2421 26.9827326432
9.46282 2.92419 52.4414 30.7025929938
7.23833 11.5237 45.4236 27.8849152187
9.8017 10.2654 45.7197 27.5277559192
0.835744 8.52761 50.9857 32.8177908415
3.85472 8.14577 50.9624 32.399116865
8.13758 10.1081 48.1955 33.5797222158
10.037 7.88535 51.9077 30.9784479757
9.81981 6.2918 49.825 30.3481936073
8.54054 3.93689 54.9055 26.4431684412
9.14281 2.27304 47.8764 28.192722026
4.22639 2.41303 48.234 29.6155310981
7.55492 -0.0317776 52.7522 32.2182211748
4.38237 10.8085 49.9777 33.9931721114
9.58301 10.3554 50.9442 31.2736860426
0.869165 4.99884 54.5523 29.484721287
0.765403 8.46215 54.5054 27.9670787586
0.335181 4.84485 46.3708 30.8230562735
6.85701 2.46177 51.2541 28.4477569093
3.34311 2.56052 54.3338 32.6743404664
3.96947 3.51586 51.0747 30.0252971119
5.5627 4.27051 53.5854 28.0730037218
1.01772 1.28541 49.4905 33.472066145
2.48185 12.2452 48.391 27.1609104145
3.47086 8.7751 53.8015 27.326737271
3.27915 6.33193 54.3419 28.9378432389
5.41619 3.02435 44.385 26.9614838226
7.60327 7.56031 53.5494 29.645193324
5.83578 6.3409 51.8969 28.2273666856
11.2805 4.41144 50.7768 28.8674589872
11.0289 3.24742 55.9145 27.6492904752
2.5716 12.1108 53.7561 30.8319780049
0.980756 -0.0680076 45.1443 32.358358692
10.6961 11.9454 53.8134 27.7055488755
9.09216 10.0054 55.8115 27.6955188928
7.72706 1.24789 55.6028 28.9388071161
4.86804 11.8701 52.3659 29.6971301219
5.30938 9.73761 56.1275 29.1868282682
6.02284 15.6965 4.77867 33.4345507214
9.79947 23.0498 4.34004 27.3314041374
0.584319 20.0428 9.23428 29.4140650856
11.7744 20.0361 15.7225 31.6701760006
11.9704 21.4397 7.90066 30.353720661
12.6146 13.8469 13.2066 31.071256369
1.63731 14.7466 10.7908 37.4529493204
1.73803 18.1424 4.89587 29.1891035244
12.5534 15.0732 10.48 31.330099918
2.87913 16.9291 7.79807 32.7778989757
3.49574 20.2393 5.69978 27.8223081342
7.82637 19.7875 4.6737 34.9306170582
7.17062 13.3659 5.7846 29.7315523703
7.18754 17.5718 6.54944 31.3525744726
9.97273 17.137 7.44921 34.8402198041
1.82511 22.6634 9.07403 35.8313278976
5.31417 13.0162 8.26046 34.1312405254
4.39479 22.8099 9.68827 32.2832426345
8.31636 12.8007 15.1038 27.0888965471
9.35709 21.3052 8.96331 30.8488044591
7.70971 21.8967 6.80381 32.6741799098
0.0490813 12.2839 10.725 30.4836921644
4.28541 15.1724 9.91693 30.346452372
10.9594 18.6681 9.68798 32.1207253399
4.37544 14.6123 12.9317 30.5152499486
8.20566 14.5869 8.31428 28.3606369555
3.27373 13.2091 16.0823 31.9082408843
7.63121 21.5615 16.4861 29.3275433951
4.8465 19.8365 9.86186 30.9862691685
3.43134 18.2235 13.6724 32.0195463375
11.2034 14.3799 8.18798 29.952457676
6.47654 16.4146 12.7749 28.7824830612
10.1923 20.2935 3.39455 34.3592166984
5.62674 22.2784 14.6891 30.0710472843
4.94456 18.9211 7.47638 27.2907886516
8.69245 18.4601 16.3093 28.626466922
11.3797 19.0429 5.73035 32.6897306312
6.85634 16.625 10.015 30.1188738693
6.51586 21.8443 11.8535 31.4597909369
2.5486 24.6678 5.35469 29.7144715639
10.1666 24.0886 13.4312 32.0197293352
7.84042 19.435 10.6989 29.3783667307
0.514343 16.1315 6.9516 31.7024007066
0.54567 13.171 6.81623 32.2063948029
8.36422 15.3219 15.686 27.545638144
0.340163 12.7131 4.16257 31.1968985326
9.0906 15.3553 12.7768 28.4159417003
5.29128 20.6254 3.60478 31.836836091
4.94384 22.332 7.08798 27.8872341067
3.19484 16.0485 15.5974 28.2531705697
1.26342 14.1354 13.8644 29.8465008399
2.46428 18.3194 10.3942 30.5448088253
11.2388 17.0671 12.0199 27.5746250152
9.62449 21.3573 14.5322 32.0775291034
6.21941 19.2426 13.8055 30.9846872599
9.27915 18.9221 13.3334 30.113073034
2.88767 22.8425 14.4257 35.8964274997
1.54739 20.2386 14.9375 34.4014249121
1.60288 22.2706 6.33891 32.8360389705
1.01143 17.3015 12.521 33.1710291139
8.80028 23.3967 11.1634 30.1577634895
8.349 13.4497 10.9203 27.1176863817
11.4707 23.7407 9.75025 31.7786866601
6.21347 12.6959 12.7003 33.4108227962
2.07617 24.4537 16.6969 34.1095293345
2.59844 15.7279 19.9581 32.8226323151
2.00866 17.2014 17.8102 30.5640603374
6.67251 17.9816 18.1026 34.1527126545
10.024 12.9234 21.5196 29.5284719676
1.97919 19.5668 21.7338 31.4818266275
7.33726 13.7323 20.9659 29.1621040048
7.55174 13.4186 18.3015 28.3279135554
10.6901 13.0944 18.4774 30.8367003639
6.64836 18.3963 20.9 30.0106657963
4.1573 13.7717 18.9733 28.8517657326
0.0681327 15.0377 21.1079 32.1207617925
2.01247 20.0868 17.6586 32.6744547816
0.526415 17.946 24.3446 86.65233593
4.86144 20.2175 17.2429 31.7531482049
6.55694 20.8135 22.0724 32.827979065
11.5167 22.7548 20.6488 30.34388079
12.1693 15.2817 24.4425 70.4673087043
3.41663 14.7347 24.7512 120.0372782012
1.38951 23.7356 23.9831 55.0240234511
10.0126 16.8813 24.7033 91.387059831
7.99988 22.7322 19.5419 31.3842790681
10.4121 13.1321 24.3313 73.7051073371
5.26645 21.9052 19.2721 29.1191123641
4.72031 16.9191 24.3506 62.3408123088
3.03067 19.2028 24.2269 66.84436475
4.0419 17.5522 21.7687 32.8001562667
8.13455 16.5293 21.7824 34.4869494072
7.38219 16.1548 24.5226 83.4805622683
10.3399 18.5952 21.9687 30.6480119394
11.6081 19.5692 24.315 65.3945506416
3.58296 21.6783 21.5341 27.185334771
3.5823 22.217 24.4118 83.6073230212
9.50114 21.0529 21.7433 29.3358287855
6.65183 22.6161 24.3794 82.9541996518
9.53943 21.8573 24.4932 83.6060210291
11.0417 18.2751 17.8396 38.1073664877
0.797402 15.3233 23.9334 51.526499796
7.59704 13.4899 23.7863 37.2332068362
0.628512 21.8352 19.4427 29.0243583387
11.8225 23.4789 18.0661 34.6609067455
10.663 15.4511 17.1134 31.3735600486
11.8974 23.7245 24.6247 99.5036409716
1.69011 23.8157 20.996 29.8124876085
4.0427 12.1819 23.6814 39.1645306522
5.52535 15.5924 17.2266 30.9757936994
9.06877 23.8753 17.2906 33.3942348413
0.760191 14.8905 35.7945 80.9261197465
0.0651616 20.8968 41.72 30.5382217924
7.21221 19.1293 41.6274 32.2173379781
10.5679 14.139 40.5887 32.3520224963
3.23758 15.5298 37.4215 29.0817445646
8.64613 12.6487 42.5034 29.0959658477
8.88471 20.3628 36.3375 39.7243041699
6.9766 13.4395 37.7252 31.9811694307
2.80462 21.0078 41.1802 30.2626018458
5.51506 16.0443 41.1238 31.7812884295
5.28106 16.5595 35.6937 73.5380678836
10.105 20.6478 41.0262 31.0609987687
7.41937 14.8747 35.5694 102.2478150153
5.51465 18.2678 38.2414 31.3324694668
9.1402 17.2242 36.2943 43.8145424498
6.43465 19.4451 35.4543 106.4888085953
11.6932 16.3037 35.8033 73.5292300294
8.4735 19.2584 38.936 27.7278825138
1.81109 17.6699 35.5381 87.0276083181
8.75519 23.6823 35.6984 88.17163793
3.41234 20.0596 36.1602 42.0649591853
5.48556 24.4985 41.1272 31.1196447575
4.00419 20.9614 38.7159 29.3347064797
6.30259 22.9021 39.1522 36.7640404958
6.00776 22.4016 36.1272 41.2605125111
12.1333 19.3271 35.9575 56.72441956
9.12192 22.5065 38.6949 28.2064904048
4.31133 18.7323 42.2294 30.37198773
2.71018 14.9775 42.8675 29.7080338234
0.430503 17.757 38.6689 30.727807046
5.51558 12.218 40.3923 29.6846315972
11.2393 22.7775 42.52 27.261082966
10.6524 13.6204 35.9492 61.714398658
1.85775 22.2203 35.8177 71.9483191414
4.17047 22.9027 42.95 31.805069525
8.31629 16.5375 41.0675 31.0642585256
3.11435 17.1601 39.672 28.5393979285
9.72196 12.9325 38.4072 27.2091737308
3.57596 12.9729 38.2235 30.2767524101
10.3694 16.9038 39.0114 33.2752366839
1.62062 22.9699 38.5559 30.6666121391
3.9183 24.2514 35.384 100.9336791477
12.0661 21.7252 38.6447 26.3924681201
0.831696 15.5175 41.0675 30.4886200949
10.0635 17.5875 43.0567 31.9929800392
11.642 22.0378 35.9503 63.1952514818
2.11458 12.2634 35.8212 63.8391724974
11.5382 13.1652 56.4659 27.8911892597
1.91605 12.3668 44.0979 30.9203201653
1.40774 22.1719 54.0698 33.6615699791
1.23733 14.1623 50.589 30.0722787154
8.28096 22.3803 52.4073 32.983850494
10.6938 16.8123 45.6473 32.4259729119
11.1445 21.8147 45.2961 32.3847521724
2.86413 19.8554 45.7034 29.0688981911
2.47858 22.6664 48.396 29.8668927065
6.72642 17.8482 46.2039 27.0456298879
4.06777 12.6449 46.2131 31.4044302585
2.40445 17.4046 44.1581 27.8146252052
2.53872 22.1587 51.0469 25.2396629763
5.19186 22.3556 47.1052 27.4508861116
1.75179 19.596 54.6773 28.2944828593
5.18625 19.306 47.8256 26.1507509396
7.98264 17.4657 51.6549 31.7279866789
11.0794 13.768 48.8902 30.7961211603
8.5954 21.5872 46.8223 27.0132873176
7.40846 14.6927 45.9203 26.7145044714
7.99148 19.4822 44.3985 31.8395832476
5.38493 23.3564 55.5751 32.0903635728
10.8599 12.5346 46.2827 27.7732359197
12.2488 21.8029 53.3749 29.0537475201
0.124758 17.7649 46.5318 28.5953371293
10.6732 22.9429 48.6874 27.8761660856
4.86506 16.2872 49.7564 32.3666867844
4.65158 15.9311 45.4887 30.1309967966
9.97138 23.6654 54.3698 27.8067057628
7.31281 15.7783 49.0879 29.2592508962
6.96244 21.7838 49.2784 28.2883288279
2.34073 15.1219 47.8116 27.8934360681
5.37479 20.7374 44.6284 29.7361583943
4.48657 20.344 52.0127 28.9951430549
9.13768 17.9492 47.5674 30.7278851074
1.76633 19.4583 50.5465 26.5124072928
9.52719 19.7336 51.0974 31.8881468737
8.24662 13.1298 48.1749 32.3829667229
5.74069 22.7296 52.7622 31.6532455686
8.21506 24.1163 45.6635 30.2659431186
8.31453 12.4381 52.4611 30.5304435951
2.61662 17.99 48.2917 26.7781338351
6.09343 19.096 50.2513 26.5239479337
0.117774 16.4716 49.9453 26.147094229
9.46994 14.8601 51.1546 30.4591258213
4.51552 18.9822 54.5504 30.3634461635
2.73901 13.7029 56.1001 30.0429080717
2.24522 15.4461 53.4754 29.2694550765
1.05479 17.8379 52.5553 30.2020718053
10.7009 15.8696 55.6347 34.1252980998
7.92821 15.4005 55.6068 32.4015440523
4.96727 14.9616 52.1711 34.0788982059
11.4779 15.7099 52.6464 31.01521096
6.30966 16.7021 53.8399 33.092449771
10.6859 19.8791 48.4583 28.2068698803
11.2944 19.2246 53.1242 29.3997947813
0.977733 21.6629 44.3249 30.9319705813
9.45285 14.4692 44.5396 29.7093522247
8.78246 23.9239 50.2714 27.2365972864
3.29016 16.4659 56.0843 31.6608943046
7.45383 12.6567 55.3081 29.451492507
5.54325 24.5849 45.1848 27.8725957102
5.65302 14.1925 43.2486 27.1343558778
5.60979 25.6096 9.37305 32.8307627189
3.96898 27.2986 10.8077 26.7904298984
5.3842 35.311 11.6631 28.6776609487
7.80389 26.1439 10.7686 28.1325728087
10.0561 26.158 9.31833 30.8902452106
11.6415 35.0318 8.18104 30.5331164402
2.29678 35.5283 14.8479 26.8667586721
4.23958 32.6789 5.3625 26.972650072
3.29459 35.2243 4.27801 28.5780335797
0.817547 33.1663 14.474 27.4274263824
5.97197 30.3886 6.50643 28.8972375339
7.94839 24.6694 5.79078 28.7371382137
10.5846 30.1577 4.62042 27.812378365
5.25424 25.2794 6.26949 28.7219823989
8.43139 29.2071 5.9932 28.6567324862
1.18091 35.0295 5.83256 29.9021224762
12.1246 32.1644 8.21185 29.2679634899
7.02136 31.7039 9.10145 26.9305322681
9.46272 30.6586 8.24319 31.9558302655
8.88047 35.7876 9.05425 29.398704807
2.53782 26.8623 15.6206 29.0875448358
1.58195 25.7616 10.0405 36.8600994072
2.43679 29.2585 12.2559 27.2409749433
2.45767 28.6288 5.30371 29.1954613927
7.41534 29.0636 11.0677 29.0713201574
11.8001 28.4173 10.0397 25.9373029609
10.7204 29.3088 14.8443 29.9374131376
5.08641 32.737 11.0653 27.048793164
2.93071 30.9926 10.1596 25.4862920104
3.85327 32.9085 7.94698 25.7013535423
5.07915 29.2741 9.42813 25.6995873691
9.82022 30.066 10.888 28.4599445703
6.08062 29.1435 13.4252 27.9618935568
10.7781 32.2473 12.2544 30.2569078327
9.67677 26.6703 6.661 29.0480218271
8.16251 36.7291 14.8099 28.9403398372
1.49169 33.4881 10.4294 27.3365080283
11.9216 27.3549 16.5573 31.8534361131
5.46293 35.648 14.6657 28.5209441099
8.7491 33.9936 16.0131 32.5252527227
2.71515 35.55 11.9651 26.5534192502
8.13665 34.0455 11.2247 34.2794544918
6.12888 25.1466 14.0503 34.2933433629
4.25807 26.9487 13.5666 27.4584895616
0.81591 26.6857 5.65428 29.9976646181
7.99971 29.0083 15.219 28.4013176397
1.97688 30.4215 7.4038 30.0827286004
8.51996 26.1371 13.8195 29.4413526113
1.2055 24.5288 12.5301 33.2478380621
4.74311 27.9661 6.96847 29.1057867909
4.80925 36.5044 6.96368 27.96871173
2.89822 31.1372 14.3141 31.1290427825
11.1028 32.6148 15.0927 29.331780999
5.39629 31.7744 13.6844 31.5621123425
0.432787 26.903 13.6198 31.7572170613
6.3665 32.7736 16.23 29.0212535549
9.75686 34.8759 5.69669 30.6928794415
9.83709 32.6816 3.83835 29.0080270061
9.33853 36.683 12.1774 29.3234845059
12.2173 28.3347 7.31031 28.2042430451
6.89955 34.4102 7.4246 30.0335367944
11.5198 25.6584 4.98388 29.7472048214
6.94089 33.3193 4.53134 32.6812944971
11.9351 34.5107 11.0931 29.458210861
2.73111 35.3126 8.24902 28.3252457448
6.50808 27.9073 4.21946 29.5051869211
12.1701 36.2313 13.2453 27.5870790244
2.27812 29.5764 16.578 30.3051594074
6.66428 30.3141 17.1456 30.8741279611
4.81791 25.5135 21.0902 30.1498091879
7.4695 27.2448 19.9993 28.9019554624
6.70717 36.0069 18.767 28.2986639119
3.9589 24.4499 19.1134 30.88524746
1.04806 36.9214 23.5828 32.4821640122
7.25717 34.6349 23.5298 35.6480264555
1.88271 31.3682 24.5947 99.5861431093
4.55165 28.4253 21.0409 28.6936433423
10.3243 28.0315 18.9513 30.7950460359
9.05614 32.7011 20.5759 30.0669990129
1.37379 32.8873 17.5889 29.0618495074
8.92712 30.4624 19.0702 29.2747991831
6.50467 33.9296 20.7457 28.8042419003
2.23789 30.737 20.3492 29.7460438772
4.85586 25.3228 24.2806 64.2165442779
7.928 25.0303 21.3452 31.131598034
4.02967 33.9716 17.3842 31.3753129086
2.24893 35.3093 19.6651 29.7262283505
10.9837 29.3559 23.0686 37.370821342
4.8265 35.4953 24.3288 75.7645903822
2.69593 29.0073 23.2567 27.8735259744
8.67098 25.1304 24.1602 58.9720167774
11.3901 30.9191 17.327 32.8130503671
2.05771 26.249 24.3056 73.521608225
7.02452 29.985 21.2447 27.3528387439
6.94872 27.0267 24.3372 81.4753803031
5.09424 29.5094 24.1277 64.3989287914
8.21487 29.6005 23.5858 42.2810810923
4.45358 35.8534 21.588 29.419980769
11.1472 25.0123 22.2221 28.5050103686
11.3842 32.8619 21.9269 30.5962763424
11.7629 35.1945 19.9794 32.5837405837
2.17756 34.0963 23.9778 49.563242128
1.68328 33.2989 21.361 26.4270679761
4.93249 32.3199 24.2195 59.0264623191
4.67573 31.9992 21.5268 29.0944293059
8.16068 32.354 24.3762 94.3174797754
10.7837 33.7563 24.3854 81.0979796052
9.02114 35.0575 18.4439 29.9655994052
5.75796 26.6302 17.7075 34.2001683084
4.21925 29.146 18.2981 31.8482092384
8.55758 26.8278 16.7324 27.0022410911
4.37703 36.624 17.1914 28.4800468448
1.58007 36.5686 42.8839 28.5101007203
9.2021 27.8101 36.2345 58.0825633487
0.791664 30.0066 35.6826 66.3424831272
2.05294 27.3551 35.636 67.98426156
6.61909 25.9373 35.8384 59.4646618736
12.4207 27.4665 42.1857 29.8072189662
7.68482 31.6031 40.7331 29.1472181119
3.09561 36.4927 40.5772 27.4724452092
3.20553 31.7807 35.6826 73.6200390888
10.5666 24.8432 38.9532 30.7146123546
3.16017 30.9112 38.7691 28.7109173907
5.50306 30.6125 35.6435 64.7668510964
6.08726 30.1811 38.3273 30.5337298806
8.86686 27.0313 39.1405 28.7535353439
0.165275 35.5932 38.8492 27.2207681618
9.37864 24.8274 43.3706 33.3747854241
12.2128 31.927 42.8542 34.9670061898
3.70667 34.1971 36.5967 39.7926243357
6.60676 34.0298 39.2207 32.8993468357
6.81456 34.5822 36.3316 62.1908672832
2.15592 25.6397 38.0693 30.019066227
10.9344 32.058 36.0808 47.5362634128
8.026 31.9718 35.7359 92.505874132
3.4063 30.0749 41.7073 35.5901108601
0.575764 29.5566 38.4902 32.2617388399
10.891 25.6348 36.1956 56.8713756385
4.79165 28.0764 35.3686 89.2185184699
3.9407 26.4765 39.998 29.9513206211
10.6734 28.7962 40.1601 26.9084311279
3.50904 33.579 39.5045 27.294195087
5.924 27.3724 38.4145 31.0753125102
5.92527 34.679 42.0438 30.7186350356
2.89197 27.3533 42.1619 32.2497923615
1.24983 31.9188 41.6886 28.5559802311
9.17459 30.3289 37.7926 27.6769583527
1.56735 35.8372 35.5829 106.058938007
7.44916 26.4014 41.9338 28.7633153864
2.7852 33.8698 42.4525 29.4658977346
10.3936 31.6869 40.5417 32.2704733816
0.796348 32.8304 38.6274 25.7275988806
11.7718 29.3902 35.8098 85.9589455067
8.49562 29.0814 41.9789 26.7184606424
11.807 33.124 38.7463 33.2668922549
8.14177 36.9356 36.0606 71.2310888491
10.9332 35.7693 38.5077 33.3390126575
0.291428 30.0968 43.8872 30.6109437703
11.2662 26.3996 44.5392 23.7527160649
4.37766 28.7891 46.5321 31.4241973282
11.7287 24.7037 51.8999 29.8743110961
7.28024 27.3266 45.9373 27.8934989269
1.70152 29.4972 46.1225 34.2552858675
1.49899 34.2687 48.5901 29.6096653446
10.3124 25.6789 47.373 27.7590971891
6.99513 30.2982 46.0421 25.0268979523
9.40518 28.6116 44.4714 28.6328041615
5.64473 32.6235 46.1519 30.8135552473
10.5275 30.8651 45.7801 29.7820959132
10.4741 35.5982 49.9028 28.1013806169
7.88546 28.6281 54.8421 33.6655461075
2.68207 34.1191 45.4268 31.4747113312
2.9342 31.9202 47.3014 31.6491171789
3.9233 35.9836 47.0937 29.1393904272
6.9865 34.6975 47.6652 28.0392579399
9.07791 33.4702 45.8701 31.5142320556
4.02667 25.8836 47.0197 30.2620098441
3.01644 24.7918 52.1857 32.1024484141
11.7991 35.9468 52.231 29.8889225432
5.86346 27.4014 49.0642 30.4028923869
7.80268 26.3187 50.905 32.6454094995
8.81221 30.2583 48.0882 30.4339794531
11.4199 27.5847 50.7808 30.8530956442
9.3127 27.57 48.9056 28.5161921264
4.49716 29.0125 50.7587 34.0913495587
4.89681 31.5924 49.5149 32.3213892615
1.75585 33.4886 51.3404 32.8449935912
7.84366 31.7113 50.6172 30.6299772131
4.63728 33.5809 51.416 28.6853964756
8.75111 26.3003 53.4887 30.4101423755
9.88789 36.0113 54.1831 26.804577913
10.0459 31.8876 52.1048 31.9049093981
4.9017 24.4588 49.7874 32.089629664
0.726226 28.8899 55.5749 30.0008527676
1.49298 35.9179 52.9694 28.9685318448
4.59227 35.9574 49.9519 29.9719895405
8.27583 34.3488 49.8629 28.0595375557
0.61921 35.2856 55.5178 30.4840737994
1.20356 25.9529 50.3565 29.4311866695
5.42413 27.2319 43.6185 27.0980501028
2.6361 27.4015 54.1442 30.183006222
2.81324 24.5986 55.4993 30.2005992253
0.432128 31.2313 51.1645 33.2554201475
6.41807 32.3808 53.3724 30.3932764981
-0.292086 25.0368 55.7771 30.9001643593
6.15286 29.9728 43.1856 29.1628957981
4.19149 29.0461 55.3773 29.9735990575
5.88196 29.9 53.1976 33.2651939089
6.43637 35.4065 55.3547 29.494715843
10.7498 28.9648 54.9698 28.6072479135
8.9814 33.3614 54.4416 28.7456158618
1.73405 28.6125 51.2655 31.9295364061
3.67179 33.9321 54.4141 29.0529615604
11.4973 26.3602 55.047 28.9203059574
7.27437 25.1941 55.9082 31.6447132922
0.210011 32.56 55.5205 30.0682951457
7.07549 36.8243 51.0138 34.2147487811
7.19127 32.6982 43.5056 32.4877664448
9.9361 35.9436 44.1929 32.6386382491
1.39601 24.8822 46.5291 32.1262575678
11.0314 36.205 46.7075 28.9015403737
0.284952 28.5834 48.4189 33.9255169875
1.5249 24.5922 43.6416 32.0623445566
11.6136 29.6888 52.7431 31.0618660808
11.9657 30.6349 48.6772 30.2483421054
2.96895 31.5258 55.8909 32.5128748864
11.7388 32.9461 50.1979 31.0749227028
4.42412 38.9205 5.91422 26.6259288771
0.569037 41.4538 10.3899 30.9050047493
0.470849 42.1959 6.23162 29.20995125
5.23487 40.9817 9.88933 30.7869011328
3.4419 38.1101 9.24532 28.9033440592
10.0561 43.2329 11.16 35.2416991597
6.30696 47.6415 11.3393 32.2220279515
1.0212 44.1979 10.8559 28.3166111192
1.04196 44.4403 7.71934 28.4661024537
5.54244 45.1077 5.23326 29.7477372069
9.62981 46.8801 6.4305 29.0895514263
4.46734 48.4487 5.57753 27.5001650554
6.37852 42.0402 13.2621 29.9031181307
7.36303 42.8777 5.42132 30.1666265395
1.50413 48.3982 7.21065 28.1405577649
12.2743 47.4322 5.76936 28.5061712469
0.421275 46.2675 5.63329 27.5758968055
5.51237 46.7148 7.78844 28.8245756895
10.4281 42.6261 3.7806 29.852344087
7.3416 48.6137 5.07642 28.5257943844
9.22692 40.9625 12.6703 28.8060556226
4.06256 41.1989 14.871 28.4909482201
7.8784 46.83 13.4741 32.0096019474
10.4389 40.0238 14.8351 28.720182643
1.78878 39.2643 5.65058 31.294996674
10.059 44.5714 13.7487 31.3492700788
2.48138 43.9529 4.49267 26.8209145554
3.74696 43.1829 7.15844 28.9467663293
8.18863 38.4342 8.97279 29.3371382907
8.33769 39.0391 6.54705 31.5937300743
2.49495 40.8284 8.16814 28.7990833605
4.93198 44.5129 9.4782 29.7974045291
9.3082 43.9574 7.11803 36.6088551708
4.24081 45.2638 13.9392 29.4930695561
7.66568 43.2714 9.64201 38.786725509
3.20345 46.4563 11.4689 28.0133216502
0.0750045 42.2145 14.0868 30.2592826259
4.13714 38.2946 13.9496 28.2148784941
6.7871 44.3991 15.033 26.8368521503
3.57719 48.1625 9.23095 28.8997536233
10.9249 37.2086 15.7268 27.432118043
11.3754 38.8346 6.12949 34.6340417477
1.97905 38.11 11.6133 27.4460004108
1.82962 38.8509 16.1476 30.2211075709
5.09536 47.4528 15.3629 26.4038912571
6.86131 39.1418 13.2492 27.2848179304
9.83987 48.9064 13.8338 33.8692053723
4.04465 42.9406 11.839 28.4279730948
7.45359 39.7161 16.3007 30.2321775026
10.2022 39.0985 10.8647 34.3810702071
7.92665 47.8552 8.90329 31.735773669
1.96705 44.324 15.5738 29.7191997272
1.9314 40.8294 12.8066 28.1162492773
6.04115 40.8313 6.99259 29.129426844
10.797 47.8499 9.49987 33.1424990799
5.95717 38.1259 10.5929 28.53018646
0.517849 47.4926 11.7897 29.6335662339
7.5429 36.8201 5.34405 28.0178633889
7.54204 47.3164 16.7815 27.7096960287
11.9608 48.3349 12.0402 29.5219644607
11.3706 41.7437 6.43049 35.9000091661
10.8099 36.9213 3.73918 29.1997410408
12.5574 43.8 15.3558 26.6385080386
11.7226 44.9506 3.64327 26.5898344437
8.83446 42.7597 16.6241 27.2389794173
1.19057 45.8632 20.0087 28.9946467242
0.713213 42.2402 19.2339 25.8136295585
4.62736 39.7386 17.406 26.0795071733
11.8742 39.019 24.0503 49.4129387202
10.7327 37.8151 18.5741 30.3016799384
8.66387 47.146 22.078 31.5147882764
6.64252 41.9347 18.5196 27.005568709
0.743076 37.4336 20.8253 29.6296358356
12.0832 39.7714 21.2672 25.4215566954
6.00688 38.2479 21.1409 28.2222951238
9.80062 42.4784 19.8677 29.9846700234
7.92203 38.8886 18.9891 27.7143770514
3.92732 48.2272 24.0814 55.2307821541
6.54587 47.2825 24.2498 82.38166609
3.06631 46.1899 17.7252 29.6185385321
12.3345 42.5849 21.7112 26.5792155237
12.151 46.1682 20.9769 29.5886205904
3.10829 44.3922 21.3317 29.3902497846
9.47294 45.3896 19.939 30.4539850989
5.5703 44.3455 17.654 26.2586461587
2.00102 41.9471 21.8753 27.1863625543
2.07515 39.5391 19.1287 31.1238678879
2.62159 41.1658 24.5012 85.0770931049
6.10204 39.0221 24.4523 80.0449848903
9.36186 39.2355 21.3992 27.9492452604
9.29543 39.9718 24.5072 106.4623269452
3.22472 42.6577 17.5078 28.4117032065
11.4011 41.7561 16.9019 26.6179034227
10.8159 46.5329 23.8108 69.0292187782
5.22642 41.6818 24.0364 44.7349229712
1.04518 47.5663 24.3891 93.6890122358
8.74947 42.5736 23.7814 44.1324299539
7.42941 41.5027 21.4666 26.0285831324
6.87097 46.1192 19.2817 26.9605581631
7.90953 37.3636 23.242 39.7119233652
0.783342 43.6609 23.9125 50.7827695962
4.44624 40.508 20.5236 30.6938384258
3.22998 45.2455 24.0404 56.8489450592
6.07736 44.3477 24.4865 98.7354483608
11.0578 44.0509 23.9841 55.9664599956
5.9084 44.3394 21.3949 32.4081804636
3.43307 37.9574 24.6115 88.8390285282
0.130192 39.663 24.2367 64.4814619602
5.12633 48.5707 19.6814 27.5541564823
1.1115 48.7689 17.2617 33.1518884583
9.71979 45.3521 16.8266 28.9823740111
3.74551 40.939 36.2208 46.8442617657
3.05929 43.1881 42.2779 30.6434600993
6.64346 39.5967 38.6545 29.4153113314
6.34466 39.1982 35.8078 100.4850881168
0.662506 42.9933 35.8125 62.7545650101
11.2123 39.846 36.2359 58.2641813812
11.4471 40.8028 39.2478 29.6990566527
3.53701 43.6941 35.6406 90.0010799811
2.82294 46.5141 35.8745 62.4138445283
5.46684 44.6308 39.042 30.0651939295
2.39532 44.9825 38.288 26.3331714142
8.58337 40.9426 36.041 59.3867842764
6.16837 44.6985 36.248 41.1261048715
8.6975 41.0845 38.6163 28.5061140218
6.24078 40.2856 42.435 29.9288972675
11.1096 45.5353 39.191 30.3272411424
11.0465 36.7346 35.9085 66.9173747017
8.45035 48.761 36.1314 66.0470583252
5.09608 41.9998 40.5865 28.7277517295
4.669 47.7147 38.3384 26.2485059568
11.7108 43.6878 43.4129 26.6053767191
9.59759 37.1614 41.0604 33.7628873846
6.87498 48.9155 42.8145 30.3850273914
8.65115 43.7625 35.5669 113.8125307404
5.93467 47.3856 36.0314 77.129637756
11.3598 48.1657 35.8311 88.2588823225
3.41138 40.8492 39.0838 27.0997113184
1.08169 44.8684 41.5549 31.2835036738
1.77561 38.9342 35.6772 82.4660679552
5.65456 37.7406 40.8328 27.7344202452
12.3463 37.542 42.4403 29.8500356364
2.29049 37.7359 38.2987 32.5347999306
2.06407 40.4808 41.8221 29.4279532232
10.967 45.3051 36.2491 39.5949327837
2.64703 47.1047 40.5658 28.5570460505
7.54709 45.4221 41.1486 28.4478884289
1.20307 42.5997 38.579 28.5823934115
9.25972 40.294 41.8704 32.4787978812
6.69531 47.73 40.3077 27.1322324689
8.48554 44.0577 38.7418 33.7323252402
10.3739 46.1295 41.9694 30.5459351521
0.642634 47.8385 38.5102 27.7575098291
11.7438 41.0186 42.5035 26.9485445376
5.36585 44.696 43.1719 31.1110728486
0.288982 39.6332 39.7376 29.2025147508
7.57117 36.704 38.9317 29.4972982675
7.21673 36.6335 43.2248 30.0784647072
4.47085 47.3686 42.9144 31.0084652864
5.26451 40.9023 44.9402 31.5719965011
5.49884 48.7902 47.7312 35.4182021801
5.58387 37.6879 45.3438 30.3772745076
8.28383 37.1964 47.3947 29.2327393894
0.634879 37.0926 47.6987 34.8011574362
10.1769 46.1998 52.6663 28.813283195
3.45965 38.7853 43.1281 27.4277053672
9.32661 46.4404 56.2865 28.3781210086
9.46285 40.0198 44.6671 29.4618293741
0.312085 45.9154 48.608 32.1506728109
5.19257 44.2035 47.9451 32.9007079794
11.5097 47.3596 47.1338 26.9331826387
4.37173 37.3189 54.6453 29.2988698652
0.635338 47.5801 55.4327 31.004820792
0.471367 41.2422 45.8987 31.6605674753
6.78641 46.2014 47.8489 32.8391283273
1.38893 43.1349 53.4835 27.042160364
3.33314 48.9238 49.8768 28.6674910583
3.0253 39.8098 55.7503 32.8427313919
11.7097 38.5942 45.0931 26.6696087671
3.80552 40.0248 48.4036 36.1362583256
2.9939 42.0722 46.5155 32.0713025106
7.43991 39.7341 46.4593 29.5648257948
6.37265 41.6213 48.2728 35.3273241711
8.93268 38.5361 49.7269 35.5311643949
5.30838 48.5602 54.6082 26.212642967
9.01635 46.209 46.0209 31.7518584698
4.53389 44.2972 51.1027 30.4979583172
2.55405 38.701 46.2204 29.7369927515
3.53911 37.3007 52.0212 31.0264450496
7.26355 44.6893 50.8506 30.2537225944
2.63915 46.3002 50.2036 31.885436371
0.338895 44.5139 55.6437 28.8954868237
10.1754 44.2293 48.079 30.591600537
10.6658 42.5472 45.4828 31.6699754642
1.73918 46.2793 44.4236 32.1052526925
10.4831 41.1405 51.1526 32.9482955324
8.61179 44.3345 43.9735 37.2614329208
9.97981 48.3761 54.3076 26.4043001618
6.40896 46.1543 55.3814 26.1498409991
-0.156864 39.4592 50.3557 31.2997668877
12.3188 44.6496 53.652 28.3056346856
2.6318 39.7983 50.9555 34.09502431
3.86932 41.9723 52.1212 41.8304539742
4.04919 42.3117 55.45 30.219463872
2.87276 47.252 53.1676 28.3263395299
9.49983 39.7785 53.4083 30.7876046999
11.7746 39.0044 54.6077 30.8406080444
4.27418 45.0279 53.8991 27.5938852002
11.9012 38.4881 50.2748 30.8496989802
9.39583 46.7336 49.8615 27.4171590253
8.88881 42.241 54.1945 31.1805374357
8.64576 42.6809 49.7923 33.8659736806
7.90033 44.877 53.5121 29.031234065
7.90772 37.6584 53.5162 31.4257524577
6.89919 41.5455 55.8055 33.2818647769
3.27919 46.6164 56.5075 26.7699787093
3.73291 44.5678 45.2497 31.664024179
0.13614 44.258 46.2901 31.2381052155
6.11543 38.8132 56.1735 30.247721315
9.32633 48.4237 43.8951 30.196948389
0.376324 45.133 51.6769 30.2281911285
0.0907975 40.116 54.8148 32.476852368
17.9886 7.28248 7.07039 30.5454101251
13.1992 10.3804 6.90723 26.9114680626
19.1293 11.8575 7.73871 32.0064540917
19.4938 2.11169 6.45955 31.297027185
13.7326 1.77292 13.5116 29.1280038713
24.8146 3.01814 11.3262 31.0183479012
15.3237 6.84873 10.5377 29.1006061058
15.9865 4.93287 6.67771 27.9998675055
18.1324 7.21619 10.2984 34.7048605659
24.14 2.10696 5.98815 30.5152695059
20.8229 7.59576 6.3133 36.1587629694
21.3907 5.15666 7.60602 31.9116210646
16.6308 10.4704 5.93504 31.0533388602
13.9198 0.440253 6.97701 25.6863091107
21.0015 1.82615 10.8961 33.3938679598
17.4263 9.92275 8.38941 30.7921512733
21.4569 10.9386 9.17674 32.240713805
22.5538 9.24442 7.65776 32.1357015136
17.83 1.83625 3.87797 26.4505667719
15.0128 4.19045 9.53184 27.15114244
22.9646 6.94306 15.2558 30.6841734732
13.5993 1.77349 10.7214 26.3939045791
21.979 0.936431 8.18492 30.7711364483
21.152 3.80536 4.76805 29.018370962
14.2357 5.95453 12.7923 30.4382399175
15.9386 4.05252 13.3045 28.4425691294
16.5821 11.3318 11.1131 30.3730527373
18.4328 4.39362 8.28408 31.3633828403
17.3012 8.63134 12.5222 30.6860473743
18.0526 5.37123 14.9313 30.8890998026
22.3888 4.27121 10.3089 31.1282315317
12.5027 4.89093 5.37433 25.5467053942
23.592 6.89328 11.2983 35.1100320119
19.775 4.83557 11.584 32.6925570685
13.3125 3.10846 7.32013 26.9917161792
16.0334 11.3025 16.8604 32.6847908725
15.5779 2.20946 5.2406 27.4681036761
22.3495 9.63997 11.7236 34.9152167293
22.1463 0.745529 13.41 30.390363521
24.7238 8.05872 8.91437 31.1029631007
16.4688 1.91129 15.0502 29.5248932903
19.1256 8.30775 15.4815 26.6126446688
22.3292 3.0826 15.1578 31.725033138
18.1315 1.25319 11.2916 30.0802507774
12.7297 10.6628 10.1458 29.5294576888
14.3127 8.65887 13.8686 29.4271105096
20.7793 6.65234 3.85951 31.8245319514
13.8475 6.87769 6.75561 27.6721546688
16.5267 8.61779 15.7345 27.8298527087
17.2628 3.66527 10.9388 24.7883868475
20.6051 5.29758 14.3099 32.301714031
15.0815 12.3517 8.60473 29.6423927227
23.8972 9.76999 15.0051 33.0622728405
15.3135 5.26844 3.76046 30.8745769252
21.4524 11.0402 15.4527 29.9553580281
19.9683 9.78954 13.2896 28.9933145997
13.8327 8.84716 4.81224 26.2851473357
13.013 7.97716 9.15246 29.4308610363
23.7214 11.2135 5.90445 37.4515054472
14.2579 11.529 12.7011 29.001952814
23.9872 4.89294 6.26548 31.7126544092
16.7582 7.72831 4.34444 33.0469485075
24.368 0.302681 8.497 29.1061629792
18.9646 12.0198 12.5029 28.3745004879
18.2235 2.99548 16.997 31.7192987176
14.3146 2.26823 21.4194 27.5571388412
19.9472 1.97192 20.2562 32.7070750875
16.7747 11.4462 21.4246 28.6250700948
22.3098 3.40697 22.5449 28.6219821232
19.0002 10.817 24.5868 83.5873104795
16.1284 3.67208 18.6856 28.8037213544
14.4819 2.68027 23.8491 44.1775063007
13.0851 8.69002 17.7499 28.9851347511
19.8208 9.73849 17.9218 27.8926775221
20.6526 4.87197 21.0857 27.3943105883
17.15 1.9472 21.1725 28.4206975853
24.4049 5.90929 21.038 31.0166388553
18.1322 9.25819 20.396 29.2454124743
21.764 5.45415 18.6305 28.4527971989
22.3579 0.890663 21.7896 28.346727562
16.8274 6.76385 19.1624 28.1602645419
15.5225 7.84558 21.8979 28.4747755241
22.1321 8.81645 18.9408 28.62421482
23.3079 11.5398 19.2378 27.7046281094
19.4884 7.49872 22.1477 27.8139454489
24.2781 10.5701 24.5118 84.3107553829
21.5061 0.0115208 24.4521 85.1650334905
17.3468 0.82511 23.9644 58.0966688241
19.1597 6.22138 17.613 29.9860219162
22.5716 2.93938 17.7964 31.7333817361
13.1635 9.18884 20.579 30.5395647158
20.218 2.6759 24.4978 106.5462458617
16.2487 11.2082 24.3472 76.1825248313
12.4485 0.0297112 21.0 27.2332543777
17.3258 3.84798 24.1888 71.4837324608
17.8582 4.74076 21.1996 29.3446867553
16.9644 6.73143 24.1901 73.7236187365
14.982 7.00888 17.2854 29.4821946926
14.5426 1.9853 16.8945 28.9386625848
20.2903 1.25567 17.4397 30.0106042497
13.0853 6.34693 21.7022 29.7144291079
14.2233 9.20623 24.0889 70.6720975839
19.9559 8.11832 24.7015 100.1827566971
22.6721 7.89925 24.4079 79.744943177
20.5276 10.8192 21.936 27.0927249767
22.2778 8.03982 21.632 26.2632923422
13.0262 5.14525 24.4861 99.3074860432
13.2866 4.54795 17.3948 30.7895859361
24.2823 6.85962 17.6277 27.9425271631
23.1221 10.9455 22.0522 25.4976533798
14.1467 11.8039 20.71 28.8986669231
13.0204 4.20649 19.964 28.1586088099
13.4522 11.7295 17.9441 27.9941327323
15.3772 10.4704 38.7736 29.9879318444
16.0086 2.88246 42.8346 30.6441221125
16.2611 0.667388 40.9996 30.8689512289
16.9626 2.04865 35.7928 104.2291128929
22.9031 0.297461 35.7426 75.9111341264
20.7097 5.02559 39.3998 25.4294194926
21.4663 2.35547 41.9574 27.8421618681
14.2473 3.55117 36.3073 40.8572741549
18.234 4.76522 35.7135 72.5188520708
20.9639 4.75841 35.9642 58.0386113036
18.9532 3.3252 38.0614 24.9900276181
23.8008 8.54643 35.6921 79.7883827123
15.4245 8.10942 40.1186 29.2912029644
15.7536 6.314 35.4528 100.9697131175
22.9575 5.6895 41.9726 27.9182327515
22.7823 8.45435 41.4493 31.4505263608
19.588 7.56607 38.7425 27.4602281177
22.8623 8.01054 38.706 28.77055905
12.3469 5.82675 42.9137 33.2526575553
19.3325 10.2534 36.4887 37.2971925548
16.5887 4.30508 39.2726 27.9592602947
20.9438 7.82104 35.9805 72.6927096657
24.44 10.551 38.3151 28.980469178
23.8643 4.004 35.7364 71.0343705855
17.0673 8.23309 42.1624 31.4015992284
17.4382 4.96503 41.6406 29.6029099627
15.7823 0.867745 37.9174 28.48235733
14.0783 3.02165 39.0893 29.2635327155
14.6417 10.5457 35.851 72.3996678981
19.4914 1.37612 40.4523 30.405307963
21.9651 1.40404 38.6086 29.2239415705
23.9772 2.4195 40.6321 25.7539046271
12.8267 10.7532 39.8548 27.5320340314
16.918 6.82847 38.2953 26.7576583845
19.5645 10.7152 39.1614 31.9983256851
20.0869 4.63357 42.0213 27.5820955576
12.9193 6.61625 35.9279 55.7061967413
19.9397 8.54358 41.6005 26.445218386
23.1963 4.38578 38.5945 26.1048348299
12.6804 7.67563 40.6017 28.0127432403
20.4194 1.79304 36.0455 60.2310888613
17.074 8.82189 36.0932 58.3998495604
13.2186 3.16939 42.8147 31.9074376498
12.7409 9.9653 42.4508 27.4123698934
18.9565 0.667913 49.6221 27.650480556
19.1838 3.98043 55.1826 29.9556769895
21.8775 5.53714 44.7341 27.9138783078
16.7002 6.10406 44.7353 31.577956529
23.402 11.5192 43.6636 29.5970398747
19.2103 4.79213 46.4809 32.5026146265
17.2354 11.3931 44.1655 27.4868609144
12.6618 5.67189 55.2153 30.4298426097
15.077 9.66163 44.0916 27.0537039611
18.5368 0.500916 45.2057 38.0426426881
16.1945 8.50632 46.6649 31.5691863853
19.0804 9.40343 45.5396 26.8643710191
22.8634 1.91808 44.2942 30.9901760133
22.2149 9.94219 45.6339 31.2359360586
12.9662 2.33777 45.3698 27.8665257262
15.245 1.12051 51.961 28.4852818901
20.072 10.8374 43.115 28.7675805323
16.7859 0.786684 54.3995 26.1721375495
13.3062 12.0831 44.377 29.3588547874
14.7294 1.92675 49.2588 30.5180698155
19.42 1.43752 52.9105 29.9476562207
17.6251 3.21176 49.3177 29.8605980476
16.8063 4.9625 51.5969 32.9233848919
21.9701 3.23085 50.043 28.454089388
19.7301 5.08428 49.5474 31.165301164
14.6473 7.7891 49.4542 36.6224841453
13.698 7.19878 44.9738 27.4015001245
21.6149 9.24242 49.7612 29.2045250327
18.7604 7.83125 48.2689 31.4975967003
23.937 4.86326 49.2585 31.5254384012
23.536 0.792414 50.8765 28.4123797732
23.5192 7.33629 45.6926 28.8490900127
13.4569 2.61627 54.1486 27.7369538824
23.3529 7.42714 48.5389 32.3201167295
19.6215 7.09935 44.2351 27.3399464925
20.7337 2.39084 45.9364 31.927611112
12.5074 7.52655 52.8964 30.930956094
16.1743 1.9802 45.3269 28.7353317803
13.8178 1.02965 56.384 26.5374233461
23.0122 11.4263 50.2383 27.8855052563
16.4993 3.82243 54.2909 28.920868209
13.6338 5.09606 51.9884 33.6295135119
19.4033 6.17733 52.2832 29.4421309325
17.171 11.5656 55.9729 30.868575506
21.1751 3.62355 52.6963 30.8529821631
23.5132 3.52413 54.3868 29.8871020567
18.5602 7.24417 55.0801 32.6998517706
14.0884 9.70358 51.6127 32.0077287788
13.6828 10.0844 48.2195 32.3114332826
17.2828 7.82563 50.6241 30.9579529207
21.4212 8.50841 52.4045 31.8118447847
14.9388 12.1011 53.4753 28.2577959103
21.3499 0.972384 48.1842 30.8203697977
16.7717 10.2565 51.9592 28.5049458144
19.2235 10.8944 48.8014 30.7007701782
16.1338 4.00612 47.0424 29.989545649
20.6185 11.0172 53.2917 31.7792320248
24.5415 4.08557 45.0079 31.4977137295
13.2432 4.66877 46.8471 32.7123573378
13.9892 11.4547 56.1123 30.9518244174
18.1533 9.91842 54.1348 31.7772661474
24.5591 9.7256 56.0583 35.5236210783
24.3293 7.89913 52.8524 31.4829568361
22.9845 7.53755 55.3167 31.9942776951
23.2045 12.1179 47.4847 28.1612150791
22.4536 1.58905 56.3048 28.7273957321
23.1617 11.5885 54.1499 31.6356960493
17.5048 15.3836 5.10638 27.6872676718
12.7513 12.9617 6.35487 26.8618132728
15.1122 14.7771 6.48359 29.4838781968
15.7615 22.7926 8.50852 26.5608481594
21.0628 15.2684 4.90823 29.6702790166
19.2699 24.154 13.654 28.4453069511
14.9468 17.2094 7.95384 28.3581631052
13.7655 19.1744 9.61853 31.5494346208
13.9695 18.0252 5.41177 28.1477550306
14.9715 20.687 7.27181 29.5777553988
17.3366 18.5392 7.04747 28.7944181145
19.3273 16.2694 6.94439 30.3101213954
21.63 18.1446 7.96586 31.2676494867
19.7174 13.4124 15.0861 26.1242768978
23.3867 20.2354 6.93724 28.6423128535
17.1642 23.6454 4.22609 27.5701778936
22.3797 21.8801 13.6722 28.3596768483
18.7494 12.8065 5.13884 36.2714869415
16.8608 20.771 4.61466 26.4002047483
23.3281 13.9498 6.21221 29.2109530177
19.3056 22.2328 6.64077 28.7098001227
23.5217 21.1725 16.1399 30.8666730373
22.9939 17.2506 10.1831 29.767806154
15.3737 15.0509 9.77497 28.4932488005
22.9569 13.2586 8.88143 30.8976776842
19.3601 14.4473 11.4206 28.2959354935
18.27 14.3155 8.94676 33.0816042245
13.5042 22.2144 15.9588 31.8386308018
22.2959 15.0468 15.2801 26.2938649117
21.8532 14.9716 11.124 31.7965763814
15.1843 18.7422 11.5643 27.6599950595
15.7889 16.2509 12.2806 30.7420209492
14.8753 20.2215 14.1033 30.437071764
18.6538 16.5489 12.9606 30.5085180077
19.0398 16.1011 15.6858 27.9331755995
16.431 12.7402 14.2742 30.9713199665
17.6523 20.0445 10.9195 30.9446943605
17.8515 20.1936 14.472 30.8851320053
16.8316 22.5233 10.8364 27.6205979267
19.8287 18.8395 12.4425 34.5098378913
19.2896 19.8564 8.64207 31.7481316432
14.6384 22.7561 12.8348 33.3178228692
23.2581 22.8419 6.14174 28.5721790347
19.7854 21.8497 15.0075 29.1265556928
17.4143 23.9479 6.71975 25.8157735968
19.2961 23.9087 10.7313 29.6135615206
23.1087 13.6906 13.2817 29.4715718313
20.8316 22.5967 8.9616 28.9966580933
23.4492 17.9101 15.21 30.7321670536
13.5471 15.5287 4.04226 31.3791454907
20.9069 23.2461 4.53547 26.3044169334
12.8755 15.5075 15.4712 29.1096217768
12.9715 17.9625 13.9981 32.027496347
22.4751 19.6128 12.2032 28.6456407513
21.6261 19.0197 5.1015 29.47315495
23.1796 21.2598 10.0757 35.2358017508
15.6743 15.1388 14.9563 27.292851965
17.1131 19.5199 16.7256 27.6753449038
18.6653 18.6428 4.46102 28.4353644444
23.774 17.0604 4.6744 27.8771506348
24.4817 23.0282 11.975 27.9720648231
12.5451 24.5281 12.2793 31.2095583518
12.243 22.6424 5.0644 31.0335866305
15.3454 21.399 17.891 32.3454700372
14.7516 13.421 23.9559 51.7421373405
17.2172 14.3744 21.3513 27.4231205408
21.222 12.8797 24.4096 68.3287454948
16.905 23.7604 18.1322 31.8458465763
21.8721 16.0229 19.07 29.0450703178
14.8299 20.2119 20.3864 32.9092160254
20.8119 17.5612 17.0233 33.0896428621
13.789 16.0571 20.2843 29.2585198525
20.1078 18.1524 21.6761 30.6464337358
21.941 13.6008 17.5915 28.8321879705
22.6459 19.4423 21.5104 28.7377050233
18.6788 12.454 17.4682 26.2198618705
14.134 22.644 21.4511 28.3616273545
19.2919 19.6708 18.2029 31.7873775668
16.3394 24.237 20.9491 26.5413974366
16.7092 14.2113 18.4591 29.3528994468
13.7429 21.9423 23.9547 53.2255772088
13.7025 17.6789 24.2223 75.2536927381
17.1009 15.0285 24.2704 80.3055781
19.9727 15.145 24.2026 59.657801761
20.261 15.3546 21.3704 27.8328694638
12.8792 14.0119 21.631 29.0067848392
22.5811 23.0028 17.745 26.7833390663
19.5768 12.6081 20.0152 28.328256879
19.6902 22.5343 17.4609 29.6235472002
16.1765 16.8672 21.1874 29.7639825287
16.285 17.3761 23.7409 35.8615082047
18.3021 19.2398 24.2864 86.1416411492
17.7084 19.6628 20.4864 30.3297516483
20.7618 17.7102 24.2293 63.202335233
20.6063 23.7888 21.5583 28.0622318893
23.8966 13.5598 24.3426 72.9188992549
14.004 14.6518 17.9568 27.6281836028
23.1867 18.8547 24.3984 85.0781198463
16.851 21.6151 24.1767 84.6098768345
18.0723 22.3115 21.7941 31.9393527806
12.4749 18.428 20.2415 33.2425883241
22.8873 14.3932 21.8419 28.480954528
22.3851 21.7519 24.2103 86.443803964
22.217 21.9191 20.2644 31.6136591528
23.9363 17.5878 19.7391 27.146952909
16.7342 16.7223 17.0207 34.7131384555
19.2811 14.8939 38.8078 27.37845914
17.7983 15.12 35.7629 66.8355029672
15.1297 23.203 38.2439 28.8212054405
15.0523 14.095 38.3537 28.614096887
17.1141 20.0252 41.8778 26.5704546356
24.0757 16.3613 38.7512 28.0489332496
23.3238 13.0988 38.8408 29.9198936714
15.1055 16.8791 38.4303 30.8364129095
18.1021 23.6191 38.8554 27.3249307094
15.0096 15.8739 35.6603 71.517376591
21.5802 17.8703 35.9823 49.784234038
18.8817 18.1025 35.3132 95.7738382443
19.8717 17.9447 41.1387 28.3161073289
20.7373 15.0585 35.8755 61.852942637
21.4588 17.2643 38.9178 30.5091812489
23.0737 20.278 35.4394 97.0488688029
19.6397 21.6601 37.7359 26.7828982162
14.8689 19.0508 35.4138 99.8049688055
23.9422 14.0937 42.9597 30.7929134454
20.0532 13.5149 42.8092 30.2131654274
21.3509 23.8674 40.6485 28.8352041939
15.8289 20.3988 37.6102 29.48229187
17.9242 20.6155 35.6587 67.4871390074
23.8769 13.0267 35.5557 92.9637121598
21.5768 22.6776 35.9613 54.1107404213
19.1485 22.2544 41.0752 26.0971633619
17.1996 12.6874 39.2816 26.142373892
14.9277 22.024 42.2311 31.2248260335
23.5677 22.7001 39.1542 27.6834530026
16.4074 13.0388 42.0209 32.3423388388
12.3389 18.7887 41.5503 28.1836537535
15.0801 18.3523 41.1337 29.9414217812
18.2686 15.42 41.7434 30.4625226071
21.6185 20.1953 39.4488 27.8267726111
17.9264 17.2714 37.9529 27.1608153426
18.2169 19.6255 39.4462 25.3691031733
17.15 23.5699 35.6588 74.4097487709
20.8898 12.9226 39.8518 31.4481567298
13.3073 23.386 40.473 25.8260740685
12.9389 19.0331 38.6915 27.5787346152
14.0099 14.0488 42.8191 33.4045845533
24.4648 19.2778 38.6141 28.3333875245
21.8121 20.3441 42.3665 30.6139590109
13.1595 13.2862 40.4297 29.9950000395
13.558 13.3307 35.9079 68.3883333342
13.9209 23.613 35.9117 72.3993666568
24.1192 24.4339 35.53 91.040728615
21.2082 12.4138 35.7448 84.2839546985
17.1252 12.2835 36.2519 54.5516633117
23.3156 14.0976 55.7525 30.0947268483
12.9136 17.3136 47.1095 29.717544342
14.0862 15.3834 48.3138 30.6774117565
16.4173 22.652 54.1563 27.1735644226
18.8214 14.0747 55.0072 29.8734314885
21.3136 14.913 53.6653 30.7297453003
19.1816 18.4961 52.9711 32.8730130556
16.9629 17.9174 51.2758 28.2615426493
13.1071 18.9539 49.2752 30.2402113373
15.0401 21.6419 46.4354 28.4411788607
19.9321 22.5964 53.992 27.4702705854
18.5349 16.423 44.2232 28.0703530479
23.5552 18.0006 51.8869 27.6343779398
22.422 21.3075 48.8178 29.0459852793
18.0508 20.6555 54.7741 27.5401568171
14.3896 18.9105 45.1391 29.1936499593
12.6713 12.9674 52.1865 27.5550506695
13.1365 23.5673 46.3144 30.4783599739
18.2301 12.3455 50.9002 30.1852985743
20.6986 17.0989 55.0858 25.8550495384
13.8892 12.8714 47.1047 30.1991284623
13.2268 23.7649 49.6903 27.6942447176
13.1081 20.4754 43.4572 25.7492952988
24.6068 22.6982 53.1543 28.8296532346
16.8011 13.9918 52.9202 27.3020341521
14.7883 15.0779 51.1743 30.3460848197
13.5682 17.5937 51.7309 27.5177954545
17.8343 15.4554 50.2593 31.6376509591
14.7227 16.8278 43.4374 36.0405678707
20.2012 18.8562 48.3077 31.0573777951
21.7902 19.241 45.8837 30.1218058795
21.8334 21.9439 51.8397 32.4551779173
18.5791 14.8124 46.4045 27.7274713811
16.9252 16.5133 47.7593 32.3096262486
17.3342 19.2678 48.8152 30.7749241689
19.3364 23.7678 43.6325 29.7837943967
21.1218 22.3427 46.5541 27.7243981314
20.8535 12.7444 51.1208 27.8343391956
17.2294 22.9044 45.5178 29.4348672369
14.6092 21.6626 51.6521 29.7117892658
14.9175 20.8031 48.9261 25.6050962985
16.4933 23.4157 50.1581 28.9448655394
17.9291 22.0537 48.2196 31.4069081304
21.0214 17.6524 43.7407 28.9121234131
23.6188 23.1155 44.7943 29.4705172565
14.8357 19.4546 55.9572 25.8693249768
17.4113 18.9266 44.3931 31.2582976427
17.3904 16.5464 55.3605 26.9506852268
20.4669 15.9359 48.5517 30.4289199194
24.4414 23.3824 50.2783 28.0652447692
19.6185 20.8363 44.3744 27.9494144551
15.1051 16.3472 54.427 28.3467024548
21.0657 19.0662 50.8206 30.9013095933
22.5664 21.6391 55.626 27.6023864754
15.818 19.336 53.2376 26.8217007381
13.836 22.0388 55.4902 27.0923942194
22.6317 14.8806 46.8823 30.3293694287
22.6523 18.9061 54.6708 28.6093243238
20.2722 12.3816 46.8866 30.3390541487
20.3362 24.5026 50.7505 33.187861924
22.1879 15.6237 50.8175 30.0580669218
21.9211 15.1986 44.3316 29.862018528
18.005 24.0887 52.3957 29.2021383976
24.4192 19.7413 46.6569 26.3919297661
12.4486 17.9613 55.0357 25.1766331687
20.103 24.3109 47.9558 26.2672776495
16.5738 12.8263 46.5389 37.0361141706
13.275 34.247 14.7194 30.9658385116
14.1445 27.9586 14.9507 27.863980095
19.4488 33.9826 4.53585 30.8936880246
18.0132 27.1035 6.89558 27.7828981671
20.1507 25.8073 5.34041 29.074374996
13.3105 36.3998 5.1479 32.0272837773
14.0484 26.1928 6.4102 28.3959315809
21.3623 36.3105 12.8543 31.5073298108
13.7505 33.5876 5.87219 27.3095105821
20.0563 29.9824 4.66022 26.8893965829
12.7199 27.3219 12.548 29.7593157233
23.8592 25.0816 4.02728 28.3401795171
18.0241 31.8236 5.79282 28.805409037
13.6358 30.9167 10.1447 27.6052137142
21.2871 25.5223 8.46367 29.1631020771
23.4869 32.674 10.6951 29.6081086255
20.8606 35.4323 15.6509 33.4719924255
17.0729 35.8402 7.5321 33.9772914908
21.6068 35.1735 5.97773 29.5235159821
24.1319 25.3464 15.5861 27.3938355409
19.6749 34.8881 8.11819 32.7793596694
18.5749 33.9239 16.4154 29.1663450195
15.0105 26.7544 10.3698 25.7104321465
14.0503 24.7706 8.83681 28.6799024336
17.8581 29.6246 16.1713 30.4429012212
19.3098 27.219 10.858 30.6875998215
17.3643 25.8236 9.34549 26.2631211801
16.4868 24.5419 13.593 30.6229349923
22.483 24.8837 13.2656 29.8955091641
24.4154 32.1487 4.48409 30.6639312609
22.3834 26.3329 11.0074 29.4017440736
15.0976 32.4389 13.619 29.9233762184
15.6991 29.075 9.19041 29.1361296467
19.064 28.9514 8.57342 29.1518045809
12.9417 30.4191 12.8756 27.9032911481
15.6692 28.8513 6.32892 29.8337084896
21.4031 29.2904 7.14944 28.5579030587
17.3904 31.3276 9.89561 31.2922438256
14.6817 33.7345 10.995 38.9041756789
15.4299 33.3102 8.26588 32.8938956636
18.2809 36.3966 13.6579 40.6498580471
19.4288 32.2324 8.21864 29.2316000966
23.7409 27.924 7.10797 27.2596469296
22.1904 31.4678 8.28832 30.2236035718
21.7689 35.2757 10.2548 34.4343183673
16.1129 27.3073 12.8893 30.6037548259
21.7053 31.9783 3.65982 30.807872344
24.0381 27.8112 3.93268 31.445479282
12.9741 30.496 5.76761 26.8325450993
21.4622 28.2915 13.3503 28.8230791805
22.7047 33.7173 13.386 31.251643447
17.7747 33.6513 13.7482 36.4479522277
18.4977 28.5334 13.5692 26.6908198157
15.272 30.3867 15.5388 30.1167224617
18.6829 31.2977 12.3067 35.9738297919
20.1955 31.2854 16.4003 32.1468424103
24.2234 28.0827 9.70477 27.6628610558
24.37 29.9085 14.4156 32.2901860185
23.5806 30.0405 11.4486 30.0297202111
21.1944 31.1501 13.6141 29.3584761631
19.6624 26.3648 15.2362 27.4219315146
23.3295 33.4965 6.86012 27.0638426093
23.8208 25.1963 7.73494 28.1320310461
22.395 29.0094 16.1907 28.9212817961
23.0543 36.7103 3.74884 27.9929528186
24.9717 32.7172 15.0983 32.5194948788
15.4847 25.3765 16.2275 31.6037316267
14.7169 24.7232 4.05705 28.1125332119
15.7852 32.7071 4.30702 29.2712339817
13.9478 31.2768 17.9578 31.1733024173
12.1636 27.0287 24.2922 89.4185601807
17.9162 27.0353 17.229 32.394246272
14.4031 33.7648 24.1783 55.0889231001
15.3862 30.8998 21.672 29.0795838946
18.1244 30.2553 21.5665 29.0013414201
15.0474 33.9254 18.7862 28.0018244634
22.8356 35.3635 22.368 29.9493027904
17.3782 32.1732 18.0884 30.6159343733
19.1485 25.9854 24.2743 77.6570917001
13.4227 25.9338 18.468 32.4051373405
22.7018 27.0328 19.5123 28.2937071326
21.9136 33.2754 20.6258 32.2962162745
19.6275 26.9624 21.588 29.0243447169
12.689 31.3588 24.2204 74.3771374941
17.15 35.6205 18.3801 32.8783422634
15.2952 26.5368 21.4196 28.1514268569
15.0145 27.1127 24.2391 78.7967956993
23.9835 29.3512 18.3889 27.2173541745
15.2711 30.0446 24.2694 73.5354843101
17.3857 27.8834 20.2485 32.0377382825
19.3498 31.1914 23.9305 47.6535363881
20.2748 28.6 24.5095 102.2986530476
16.8652 24.6001 24.0884 66.7341068284
21.7031 29.015 21.3493 33.1821909419
12.1993 27.2479 21.0401 27.7222816247
