11.1273 9.64253 52.9436 32.7311394636
15.5693 10.9767 53.3328 32.7541298039
10.8557 0.582264 51.311 31.3897375287
13.8988 13.6958 56.3914 29.4155554351
10.5755 20.099 4.35481 30.6837861228
16.3038 32.2423 12.1585 30.3623818224
15.7933 30.5041 9.43166 30.4598890204
14.3318 30.1784 12.2948 32.2882731527
11.5309 23.4877 6.51652 30.4712857454
16.8773 19.1152 4.8156 31.2133433447
15.3775 22.11 5.62865 30.8542802601
16.4719 26.4304 9.62216 33.3549849689
13.9073 28.3656 7.12214 26.6247142222
11.2698 18.4997 11.2789 29.5350797549
19.2127 22.0417 8.88915 30.5152432973
13.8927 24.7679 5.05194 27.8429197516
11.562 25.8026 9.368 26.7398287261
17.633 23.5453 6.52301 28.4067557494
13.7133 23.9392 12.3581 27.9860638803
14.6385 16.6106 4.66517 28.8906638625
10.6576 19.6845 9.02689 29.3461209254
13.8867 31.725 7.52724 26.531668929
15.811 19.9764 10.1467 30.0738413822
10.7291 28.8474 9.73945 28.4410450875
11.977 30.0236 6.18767 29.3772661526
16.5942 29.5893 6.34483 31.5036490325
15.9329 26.0932 6.07259 29.469220565
13.52 20.2807 11.7551 27.2583226222
13.0357 18.0547 6.66909 31.2394215182
18.7163 30.6725 8.91817 30.441044621
14.1976 24.5964 9.5985 28.939897513
11.5981 22.2665 12.1776 25.9371148655
18.0174 17.3466 7.9637 29.7276939752
18.8936 26.2136 7.67729 31.7354387238
11.6172 26.6365 6.74509 27.2423641473
14.3804 20.464 7.7736 29.7596098879
12.5874 22.127 8.64533 28.6511209355
12.8391 16.5006 8.98492 29.0371440626
13.9605 28.0297 9.88766 29.2076888433
16.7523 17.5511 10.5289 28.6326556819
16.3464 22.6056 9.04292 27.2802076827
11.6426 30.6455 11.5609 29.6971438978
19.3771 30.5053 6.09404 25.7530731737
12.5591 32.4857 9.74151 32.902935668
15.5615 29.3711 3.77937 28.503356101
18.822 19.9434 6.79473 30.1643806305
14.0245 17.1255 11.5673 26.9082544326
10.2745 18.6381 6.50928 26.4476194193
10.1618 26.8567 12.095 28.6656432174
17.6013 22.8468 11.7456 29.9478109388
16.7023 26.7021 12.3749 29.233169609
17.9051 25.9695 3.82822 30.3876898423
18.9945 28.7721 3.77892 27.1786657312
14.8889 18.3435 18.082 29.3150498919
18.5112 21.5821 16.4348 33.4162308773
15.2003 32.2111 19.9226 27.6884667132
19.1203 28.2321 12.6797 34.6125468855
12.3307 22.2201 15.4227 28.1747874708
15.2029 19.7839 14.0305 28.6492086589
14.4146 20.6497 16.5342 27.9224366021
17.5159 16.3709 20.6164 32.7432382801
19.6131 29.3588 20.5197 30.4587063664
10.0629 24.6843 14.0162 28.9907153531
16.1023 22.6697 17.1537 30.0597956995
14.0631 19.0105 20.5765 28.1157188085
16.4878 25.0947 15.4298 28.2359234922
15.6381 22.7002 13.6098 26.5853879366
10.3342 16.6107 18.2588 34.3777638049
13.2067 16.4566 17.4958 28.6821302377
11.8313 27.8298 16.3869 33.408906303
15.1678 28.1165 13.9491 28.0380620333
9.95668 20.4082 13.5813 29.5462716228
18.5462 31.0753 13.2645 32.651878413
12.8653 30.9544 16.0824 32.3217931685
18.0602 30.7625 16.2544 37.2385961529
12.8565 25.5814 18.4471 29.8730719878
13.1389 17.5036 14.6341 27.4227076774
10.7873 18.5386 15.3169 27.9328414077
19.3954 19.3943 17.9144 32.9287938269
9.79455 19.4996 20.0572 34.2866176157
11.5996 19.8625 17.703 29.8914562928
10.583 31.6995 14.1826 33.3802831594
13.3196 24.7784 15.7753 27.7538197367
18.1355 20.4635 13.7275 29.5182077817
11.3189 23.3903 19.9141 29.556479638
13.9383 28.0446 20.8199 29.9158317905
15.9827 23.0239 19.9381 32.2457333597
15.6073 25.7984 19.5291 28.9008221235
11.2113 27.3189 20.2527 33.4236748454
19.3979 25.5403 15.6772 30.49698179
17.107 26.753 17.6595 31.2341678764
10.319 22.453 17.4534 24.9127784491
15.9235 28.9464 16.4586 30.7287525009
12.866 26.6033 13.6155 30.044056037
17.5445 17.1587 17.8243 30.7733284619
14.339 29.8059 18.5854 29.4166983754
13.5994 21.9741 21.0239 32.7400849598
11.4792 30.3471 19.0194 28.4510420335
17.8719 17.5801 13.6253 30.2088006711
19.0435 24.8224 12.9784 29.8168108952
13.5017 19.8711 24.6068 86.1573137931
15.7733 18.4451 23.901 38.074498978
12.0528 24.2419 24.6771 92.1665407377
12.2668 31.9284 22.7898 31.6841560391
18.2867 19.1275 24.4995 94.9104277649
17.6266 25.1068 21.6533 30.9761752998
13.9037 22.3258 23.5967 30.7174704746
16.3527 18.7732 21.3917 28.0044169769
16.2741 23.2792 24.5017 89.6344902021
18.6483 21.9103 23.8521 40.9392151693
18.6018 27.6083 24.3705 106.8414323779
16.8025 30.4043 24.011 76.3657715536
10.3641 29.9376 21.6698 29.464876031
17.6361 31.4398 21.5704 28.4440015025
13.8744 26.7984 24.4311 102.1073622795
16.5132 25.7302 24.2856 57.0730238239
10.2873 21.801 24.167 48.3005004105
14.1177 29.7715 23.1637 44.3534646915
10.9469 19.1297 24.6778 81.8405928202
16.9439 28.2844 21.6125 31.3336019099
9.84461 26.0363 24.4958 70.8342182491
11.8783 18.6478 21.7961 30.1729553883
10.0068 28.796 24.3174 82.5020176623
17.8978 21.2003 21.4472 31.3247394155
10.0495 25.2127 21.811 31.6290790712
10.3098 30.1299 38.7262 29.7904068666
11.0681 20.7636 35.6117 82.2228158784
14.6454 22.982 38.4515 25.5605217729
15.74 19.5579 35.9536 56.3964850541
13.8011 21.5325 35.5884 82.6817551976
10.8222 28.9393 36.0281 63.089195132
17.7004 26.007 36.1833 43.4996845733
18.2616 21.2605 35.7897 64.6973750948
19.1662 18.6417 35.5994 69.2426859369
17.0425 16.8079 35.3723 96.3116785541
10.7097 25.0271 35.9087 67.6057254665
13.6399 27.6396 36.8148 37.3122399344
18.8115 17.6387 38.4153 32.6327491808
13.9057 30.6617 36.08 60.5283877868
18.4427 28.9141 38.3428 29.1254182078
18.2267 30.5385 35.7103 87.7595317501
16.2795 28.1951 35.8164 88.2901793101
13.5088 24.8666 36.2352 53.7574098586
16.2044 23.7655 35.5179 96.0570344512
16.0312 32.4083 35.9492 61.1723807768
11.0531 20.9119 38.4585 30.8090262147
17.1881 22.0155 38.1122 24.4999528123
15.2311 18.8282 38.3277 28.7700598668
15.763 23.1032 42.1394 28.1104087323
17.6505 21.2724 46.7427 28.5503471746
13.927 24.9426 40.5632 28.8767953003
12.2009 16.9599 41.59 29.574625395
18.3494 24.3972 44.3716 27.3479324113
11.2791 25.3913 42.877 33.1247484228
18.5132 16.8263 47.0336 27.6790502044
14.0729 18.6002 45.837 31.1663402805
18.5299 17.667 44.2971 28.7191340527
10.5278 31.2523 44.3467 27.6413204734
12.905 27.8828 41.5665 29.1430049608
11.3683 23.7318 40.7453 29.4407954303
17.5667 19.7599 39.4365 28.56358291
18.4126 21.6813 42.4453 31.8708505431
16.7929 27.3672 43.0736 31.1499938859
18.3457 31.8389 41.5749 30.5996353974
15.8182 16.7164 44.5594 27.8710592003
18.9787 29.2782 46.3299 29.6926425951
13.3278 26.715 46.0695 31.1747804861
16.6939 28.0486 45.716 31.1811957415
10.7902 25.775 47.1748 30.6509494704
14.3155 25.8193 43.5085 27.476867555
13.1046 30.1983 43.5361 30.4877242309
15.1449 31.2453 41.7863 28.1060982647
13.6082 20.8335 39.3079 26.3307213335
15.3768 23.5349 45.1061 26.4838316282
14.4881 18.5431 41.5699 27.4606569105
10.2237 31.6553 41.5594 26.8408757285
12.9011 23.3281 46.8118 31.1158234118
16.8223 29.0167 40.6618 29.7370802753
17.1012 19.3213 42.7773 28.6631891438
11.6169 30.3917 47.3743 29.5389778637
14.7118 27.9261 39.5822 26.9323498086
11.1861 21.2883 43.2929 28.6022987034
14.8562 32.3112 45.938 28.9147049901
11.9997 18.7939 44.0646 28.0680915162
13.5254 21.185 41.993 28.020139541
17.1417 25.3669 46.8479 26.7721090952
15.7776 20.6724 44.8585 29.1354020298
18.1098 24.8556 41.527 27.959455075
13.9813 29.6964 45.9782 30.8212309415
10.8879 23.4275 44.6193 27.6267214944
9.94265 17.4302 45.607 25.2280863581
18.8671 31.7642 38.8138 28.4372244706
10.3498 28.7311 40.906 32.7706639612
16.7181 25.3605 38.9152 29.7466174833
13.4004 30.6096 39.0041 28.2792107069
15.7154 32.5283 38.8998 29.7639335239
19.408 23.6362 38.7376 27.7830301937
12.3278 20.2652 49.4653 30.593849234
13.9748 22.7384 55.5695 30.2098337775
12.8513 29.4464 56.2654 28.323221653
15.0379 20.6593 49.7858 31.0615714746
10.5836 16.6078 51.0516 33.2874508645
19.6034 26.1623 48.2495 26.250192987
16.0809 28.0136 50.0986 31.3989731844
17.4895 30.6642 54.7853 28.3018769392
16.0853 23.0111 48.1823 27.4556413811
10.7759 25.7052 49.6353 25.6246536736
11.533 20.0546 52.2765 29.1957911169
19.3044 21.4698 55.1366 27.5698597873
19.6148 18.5539 50.276 29.6736959216
18.9527 21.0173 52.1933 31.3912391689
14.6927 25.9518 48.4808 30.0509658714
12.4524 20.2042 54.8733 27.6409628788
12.0158 29.9818 50.2429 34.8992545625
14.117 29.1593 51.8649 31.7046310645
10.5383 28.7171 54.3864 30.9367817768
15.485 17.5807 49.5829 32.51172237
11.1366 17.8808 48.6982 29.1964661856
10.0279 31.9514 51.0916 29.897864294
14.1328 25.7596 54.3267 29.2506744762
13.593 17.47 54.9445 28.2342208457
17.6559 28.5942 52.5666 28.7108086599
18.1558 17.9852 53.2408 28.2460392867
18.6051 24.067 54.2834 28.2122886266
12.8489 32.1161 55.2683 30.667121023
16.9035 31.8936 48.8035 32.7387045061
12.9724 24.154 50.0643 30.9610197627
14.6989 21.1945 52.2761 26.2783935373
18.3365 23.3282 50.3511 32.4889275899
12.404 26.8596 51.8602 30.2399310121
12.3996 23.2335 52.9357 28.7235859531
15.6899 19.2386 53.7897 28.8937031186
16.0969 23.3667 53.148 28.6684740893
9.95104 25.1409 54.151 27.9213082078
17.0973 25.4601 51.1514 28.3030189004
19.2175 26.2288 52.4846 26.736722588
14.8059 31.3704 53.4718 33.4158209221
17.5575 18.9117 48.3052 28.6992005768
10.6506 21.8768 47.9737 30.7982415086
16.5852 21.0478 55.7024 27.2578645353
16.3419 27.3276 54.5332 27.1887399542
18.6868 17.5963 55.8886 28.4498620443
18.1801 29.4095 48.7875 27.9073332651
12.2622 26.5941 56.0952 27.4866637036
16.4811 16.3678 51.9949 26.4250042904
10.6821 17.6202 53.6706 29.4886657448
10.12 22.2749 54.4072 28.3724677388
13.4582 16.8268 47.6219 27.5448151297
11.9852 33.4141 5.78468 33.3084632267
17.3808 46.4526 8.51695 32.4125786473
11.5956 39.0884 10.8062 29.0070811392
13.3422 39.5772 4.57171 27.56147412
16.3848 42.2257 6.78785 25.4074407914
11.7114 36.8856 8.29169 27.1895906902
14.7674 33.5159 4.25223 28.3092518445
18.5971 44.0687 4.24217 28.1073772364
15.8931 42.759 9.70267 30.0344447924
17.4405 39.0154 5.30043 31.2031072946
16.6681 34.0181 10.0956 31.5814699468
13.9428 41.3807 6.6555 27.3701603345
13.3397 39.591 8.69863 31.5581624212
11.5549 43.1515 6.6839 31.2912428443
12.9116 43.0337 9.29382 28.3317060418
15.9972 46.8359 3.95277 29.0555260249
19.3647 42.2025 11.8248 31.1345687811
16.8912 44.7845 6.21845 29.7029603783
13.1137 45.5745 10.5656 30.8680674917
11.604 46.1842 6.51864 30.4956445586
15.1373 37.7912 5.16719 28.7471193476
10.9543 38.0736 5.31812 27.8640245849
13.9581 44.7891 5.50993 31.0631221307
13.4383 47.8551 4.23053 29.3701745393
17.4204 48.6552 5.27716 29.3272913437
18.6805 33.609 6.10376 28.4591868112
11.5089 42.017 11.3908 27.2305174449
19.4974 36.3529 5.98196 36.3848798077
15.0185 47.5231 9.42115 30.919944042
15.8989 33.7587 7.11466 31.4302470628
17.0392 41.6116 4.16516 29.6574533527
12.4733 35.3002 10.6327 27.2657003799
11.0753 46.8433 9.11744 31.071635208
18.3168 40.3429 7.75148 33.6544415192
10.6602 40.9947 4.84826 29.4569305827
14.4405 36.3137 7.49941 33.7023798455
15.1578 36.4121 10.3084 36.857898336
18.4106 39.4918 10.586 32.0041985858
17.9 44.2549 10.5994 29.8682671937
15.5936 39.8852 10.5385 31.0528846695
13.4199 48.5281 7.25535 30.2249243174
19.3875 34.4878 11.4667 24.3816475939
19.3664 48.3954 7.48385 26.5771364171
14.1316 33.5112 16.0096 31.403878055
11.538 38.1065 16.1236 28.2649242467
10.5465 33.7753 18.2675 30.7609436956
17.7006 35.6106 17.182 30.5210635364
13.6403 44.8394 20.9382 35.0522957595
16.395 42.8618 19.0115 26.1053546327
18.3702 35.7216 13.4894 30.672716679
17.1261 48.4186 13.6737 27.2079871688
14.1543 46.8158 16.9755 31.4893198568
10.9871 34.6458 14.3486 29.469525167
17.211 45.4068 18.0358 30.7712559913
17.6335 38.7764 13.4178 31.6752361266
17.9847 42.3118 14.5891 29.6123141289
12.8644 42.6145 13.8602 30.8954496002
12.1694 45.321 13.3354 30.5689910939
18.7893 44.8163 16.1322 27.4392984567
13.8415 44.3237 18.1534 29.5188592255
16.4148 33.0771 17.668 32.2073806893
11.0592 43.9906 17.7713 29.6823315859
14.1362 47.3601 14.096 29.1354112018
18.2366 39.2887 19.6147 28.9110763197
10.9118 39.8584 18.2905 26.8107686525
12.6281 38.4264 13.5305 27.8551186042
12.3142 35.4482 17.0759 28.1971809401
12.0414 37.6756 20.3949 30.1544531856
10.847 44.5641 21.2633 27.6899059854
14.1324 36.3353 19.1653 29.7652957494
17.5669 39.835 16.0392 27.0616526192
12.5919 33.0529 20.3756 27.7615098779
15.0263 39.891 13.4676 26.8232712903
16.33 37.6215 18.1609 27.7173777838
18.52 41.9523 17.9747 28.0435982522
13.5038 40.2431 20.0838 27.7530981794
14.2526 41.4897 17.7226 30.5456634803
14.833 38.7996 15.9495 31.9089507934
11.007 48.1334 14.3973 35.1234718471
15.8201 34.4579 14.1051 33.7181502867
9.96174 39.8282 13.8373 29.2214926196
15.9889 48.2833 18.6886 27.5213302669
11.7891 41.7328 16.4096 24.9506291911
18.4304 46.0964 13.7521 30.534952345
11.969 48.1915 17.3683 28.0130916061
11.3078 47.4042 20.1202 30.6451488864
18.6035 35.0586 20.0886 28.043166593
13.2134 35.6385 13.1987 30.4260372673
15.5697 34.8027 21.0236 27.2714283409
15.5212 42.6611 13.0201 29.737379798
19.4926 46.4453 20.0002 28.0897202466
15.9028 45.3415 12.7137 31.3162810109
13.6482 48.5231 24.482 87.6219515669
19.2026 44.2619 21.6044 27.4642856113
14.4771 34.2032 23.517 37.0094968213
10.7615 35.1274 21.5577 29.2008818903
16.2679 46.9241 24.2912 72.0171772228
12.8772 38.6349 23.112 26.4472020736
10.7545 37.3713 24.4379 86.014652508
11.6647 34.7315 24.343 79.9040655401
14.7596 37.0319 24.0993 70.5269393533
17.6569 37.7656 24.5707 97.2091134461
13.342 40.9224 24.2243 94.0403849828
16.03 41.696 23.4986 39.3088156515
16.9574 37.2874 22.0066 28.0044733083
11.9663 41.7265 21.5941 28.5767018003
18.4215 40.4898 24.2696 62.3652908873
10.7806 42.4343 24.3899 87.9393408254
16.5947 43.6788 21.4769 26.8826150239
11.1726 47.232 24.7547 118.4688291019
17.6798 44.5504 24.6127 105.9452719498
16.4929 46.6771 21.3952 26.4586219658
16.0223 39.7085 21.5436 28.4840316546
18.5146 48.8496 21.5333 25.6541895008
9.96926 44.8453 23.7478 32.8768423931
16.9278 33.3507 24.3865 110.6574555794
13.8837 47.8197 21.6254 30.9837308651
19.6803 39.8722 36.137 46.3362742456
15.6648 42.1296 35.1819 101.8923555481
14.4347 35.1045 35.9131 56.3802952619
12.3757 33.1225 35.6569 83.156704616
17.1178 36.1433 35.8191 84.941697058
10.9868 40.6714 35.6536 80.105809408
12.0054 36.6937 35.622 79.3719433735
10.9601 46.7104 37.9243 30.3575058901
17.3876 43.0624 37.864 28.4513799304
13.3518 39.05 35.7591 65.2403965509
16.5057 39.3829 35.8321 62.2444163026
18.7803 33.5504 36.1837 55.0663884417
15.667 46.7112 35.7669 77.6495063846
14.0115 48.9381 35.6369 85.6379753135
14.8775 38.8255 38.3071 29.6752959656
13.8035 44.2402 35.6009 74.1714846919
18.2729 47.2192 36.4596 41.5225207466
11.0528 43.575 35.8061 83.7127453747
12.6423 44.3777 38.3596 30.6689387723
11.2492 48.2128 35.6128 95.3367859335
18.6192 42.5166 35.3098 89.9692186718
11.3864 37.0218 38.5756 31.6415080724
12.6326 33.9671 38.6388 27.5859589153
19.4264 44.9225 35.7694 61.7687104223
15.6492 45.2945 38.2646 27.1893052107
19.4723 44.8786 38.8893 28.2866065295
16.593 35.1935 38.4973 28.846459893
14.4676 48.5232 38.7 31.1576472258
10.6697 39.8456 38.357 29.7547945185
18.8622 35.5654 47.1635 31.2101078519
16.6101 33.1897 43.7195 31.8736438056
17.1974 40.1564 44.6669 33.1546149625
18.0513 36.5642 43.4214 30.2248951443
12.714 33.7669 45.4223 26.9422901354
11.7274 48.5795 39.6724 32.5086810745
13.0422 32.74 41.1748 26.9171856048
12.0788 46.3998 46.3004 30.9530529477
10.4297 39.4081 42.5923 32.9416391557
13.2648 39.2192 42.8016 31.6119009011
16.7005 41.6652 40.1968 33.0504572566
15.4459 48.5226 44.3058 31.5445031932
17.7131 38.6779 42.0607 32.5029421675
14.0091 40.7989 40.1377 35.3666047437
11.24 46.7684 41.7222 33.483889563
10.8636 37.8137 44.9865 30.0974137035
12.7369 47.854 43.8974 30.84602203
17.9264 38.2645 38.9665 32.7152510356
12.9175 44.3833 41.7293 30.5516365038
18.1144 32.9372 46.2806 29.6080816431
15.2762 45.5184 41.3774 31.7521353477
12.0111 34.6973 42.7904 29.12547505
18.6611 48.4436 41.4524 27.8953677637
10.5217 33.0508 46.8111 29.0277307132
19.5322 34.2334 42.3052 28.9388318981
10.1056 41.7752 43.6123 28.7620924512
17.328 44.0209 42.4456 30.0563494904
19.2649 35.2763 39.3237 32.8220322159
14.0456 36.607 42.0397 32.5689000527
12.5852 42.372 43.5258 33.4525196575
14.9861 42.9328 46.865 29.5301704841
13.517 36.5132 46.2961 28.1220064743
14.7029 38.9485 45.4031 32.0284088607
15.5531 35.827 43.9888 29.230766283
14.1082 36.3917 39.1283 26.1330446587
15.8446 48.2399 41.4244 27.4327233341
18.5601 46.1645 43.8654 28.1226367241
17.3045 47.1457 46.0912 28.7452245025
19.3009 40.5149 38.9631 29.4044060193
17.1791 42.8288 44.9268 32.1833704698
19.6117 43.8799 45.8513 27.1798586426
11.5611 42.4333 39.8514 28.0319786383
12.5658 43.7165 45.9697 32.4095623016
17.7723 46.8578 39.0555 25.9356033879
18.5747 39.1507 52.1563 30.5082419726
12.2166 36.04 56.462 28.0613266336
16.2878 45.36 47.7173 29.4529392861
13.2498 44.4679 55.4506 31.3341705367
11.161 36.2447 50.2886 29.5677611768
13.1831 38.1785 51.4071 30.9220525772
15.703 33.3721 51.4552 33.5739310724
12.1778 40.1487 53.3148 28.8937853835
11.7991 46.6678 54.6482 33.0988714799
17.926 35.6411 54.6723 29.0342442528
15.2383 38.2539 49.3389 31.0800537489
11.9621 37.86 48.2263 28.0594830108
15.8613 42.6683 49.8977 32.5546757675
16.9607 45.3087 52.9783 31.7737418728
17.6495 44.7848 50.1217 28.1540863561
11.7118 33.6956 49.3316 31.3618078286
11.9511 41.8977 51.4216 27.0079177317
12.9764 45.8678 50.7879 31.0942210444
10.8625 42.8745 48.0012 28.1774449449
17.4663 33.2806 56.2631 30.3291221021
10.8115 33.848 55.8002 26.5243098408
18.8395 47.2029 49.0965 32.2472613553
11.6409 36.5807 53.595 28.4065949269
10.3981 45.5452 49.977 30.2291175153
19.0416 45.6953 54.7418 31.1301008246
17.5424 35.7116 51.7534 30.5178585082
15.4052 43.386 54.0418 27.6650839558
13.0328 48.0578 52.6968 29.1301456249
12.0337 40.6186 48.8695 30.3380422394
14.492 35.7662 52.8319 33.87737012
10.9286 42.8544 54.6676 31.4188541144
14.4362 33.6305 48.7053 30.6917322187
16.3868 38.3881 53.8684 31.9888916703
16.0406 35.927 48.1974 33.7875754484
13.7662 46.6466 48.3984 30.1877043166
13.902 43.4999 51.6709 28.9160427083
17.4545 40.1241 49.8825 33.4561460897
15.9144 47.8864 53.7924 31.6587089626
14.6999 40.4932 54.9902 31.1233511078
17.7047 41.6294 53.7817 31.2453966054
14.6307 40.4667 47.7328 27.6335469743
14.9816 35.8946 55.7611 27.4204822887
19.242 37.9095 55.8428 28.3092558578
18.7758 33.1455 50.7363 29.9042567743
26.8755 12.835 4.62703 31.2406658387
21.6097 12.8204 11.6214 29.8442048663
27.4999 1.13482 11.2709 29.8852420527
26.1662 8.0913 10.0352 30.8253408452
27.0207 3.22347 4.46896 29.7432227413
27.5692 3.57887 9.8251 30.9901580365
24.1051 4.33317 4.48295 29.2023040521
28.4859 12.0076 6.89121 29.132569548
25.6591 8.5606 5.65401 30.0215551812
26.6526 5.62035 6.33789 31.6180336668
24.7008 4.53956 7.8407 27.8872749835
21.7084 10.232 4.20904 32.4100074608
27.7201 15.7754 4.96323 29.5445392602
24.6693 10.7754 4.47337 29.6076222191
29.4385 11.9746 11.1728 29.196939498
22.756 1.11341 9.83134 28.9001111928
20.6661 10.2674 10.7948 29.7009751142
20.9024 13.9304 9.30247 26.9823771952
20.6099 2.28007 5.70418 30.9690724451
28.1617 13.8601 9.69112 27.6623356862
26.7292 1.32396 7.99473 30.6109788148
21.6927 12.3691 7.18926 32.7756127783
25.5715 12.7269 9.25003 31.9152619966
24.5492 12.7303 6.54062 29.5549403487
20.3973 2.77716 10.5113 29.9506757091
28.4633 8.75863 6.06886 31.5530858738
28.9623 14.7875 6.99997 31.4933819819
20.8391 5.40387 9.98237 27.4728100007
22.7693 16.2647 11.9028 26.426933303
23.1929 0.376844 5.146 28.7603108974
23.9372 1.84444 7.54395 30.7463505716
22.3597 6.34096 8.16532 27.4597120572
21.3972 9.61145 6.90182 29.0267950781
29.0124 7.26644 9.83821 26.8174962944
24.0108 15.2157 9.57257 30.8457964591
22.4369 8.47387 10.7692 26.9418984721
21.7869 5.08699 5.78692 27.4230672636
24.0642 8.68381 8.04433 32.4433289503
23.7775 15.3841 5.65064 28.5472905541
24.4247 12.2724 11.4503 30.1034724136
25.7053 5.43269 10.272 29.3032677211
29.4232 6.45835 7.34487 29.914481161
26.6356 15.5616 11.6753 30.4133330522
28.9854 1.88996 5.75924 31.2821508956
21.534 14.146 5.14992 29.2094790413
23.6943 4.40981 12.01 29.3831356693
27.3894 8.89518 12.3725 28.4718097222
20.9666 6.84386 4.03202 30.0204046878
29.479 5.0046 11.2144 26.853516825
27.0229 11.7531 12.4752 28.7738080647
24.4205 9.4769 12.2478 29.377859022
21.424 14.9382 19.124 32.0712897112
23.3802 1.88208 12.6143 28.9995351047
25.0214 5.31585 14.0127 29.87892231
22.018 7.71542 18.9769 31.5921947498
20.7971 4.25446 14.2145 29.4875407036
21.9366 14.0613 14.0561 28.4463063765
27.2817 7.07841 14.4593 29.3283028752
25.6582 8.38537 16.1418 29.2555501862
27.4255 5.74013 18.6788 29.0017600317
23.855 4.84138 16.3894 30.1218173496
20.1504 15.9267 14.8617 26.1712740771
23.8542 10.1007 15.0076 31.0725829583
29.3343 4.45477 13.9518 28.8094236416
24.6926 16.2077 13.9306 31.2010366767
26.6114 14.1353 19.97 27.1672083545
22.2282 2.06519 19.7853 28.859905874
25.7709 7.71636 21.1596 29.0336619912
21.4529 6.13207 16.404 28.4696890145
27.2593 3.38658 17.5739 27.9454879423
21.3828 6.73351 12.4775 27.9373069713
27.7686 0.577496 19.7175 24.8983872962
24.5427 13.741 15.681 27.0760214246
21.9364 2.1144 15.7727 29.8596125565
26.0088 2.41675 19.6306 28.2076207906
26.7168 12.5626 15.073 29.016098021
24.1788 1.87484 17.4312 28.3893797748
25.4432 15.3681 17.6585 31.1978165031
19.9713 1.59082 17.9914 28.8407108444
20.7624 0.508358 13.4958 29.7881820351
24.76 6.85386 18.4179 31.0977562655
26.5866 11.3717 19.5612 32.7778344468
28.9068 10.834 21.2729 32.5792450704
19.9354 12.2118 15.4938 29.2106133028
22.7788 12.0793 16.8829 33.1001112641
27.2524 10.3759 17.0052 33.3647592577
22.039 10.6898 19.3029 35.282198978
26.8738 3.41098 14.9147 28.7043620272
25.7732 1.12287 13.6793 31.9947044115
28.9968 14.6616 18.5543 31.8031856901
21.5995 8.40396 14.9393 31.0344088677
29.1379 6.8803 16.5699 30.3397695158
24.6128 10.329 21.1023 31.918457491
28.7913 14.1354 15.6458 33.3758964116
21.7589 12.7222 21.2101 28.3755683593
27.8812 16.0924 21.5833 27.3838020551
25.917 0.772761 24.1011 56.2834373004
21.0338 0.273323 24.4825 81.6166844532
21.1796 3.0923 24.1311 57.4516198463
24.4171 13.7191 21.6981 30.6192618017
23.6554 5.24932 24.5373 93.1043280398
28.7018 15.6053 24.2889 77.6762431295
26.0125 3.58964 24.2062 64.9091644865
28.634 4.90521 24.381 70.433232044
21.7864 14.1631 23.9176 58.4669799995
27.8114 7.39434 24.5579 83.3981642812
21.3626 7.06029 23.9079 43.7524835874
21.4071 9.98464 24.5717 112.6342882782
24.1421 10.1256 24.0424 53.0496405766
20.0999 16.0391 21.5869 29.1968750661
24.9426 7.55156 23.9773 44.4768199985
29.2279 11.2417 24.2587 55.1224733357
20.3046 2.13639 21.715 24.6304612763
26.0383 14.3857 24.2567 70.7382641899
26.6066 11.5407 24.4885 91.5691734758
28.3947 8.13617 21.8582 29.2144885332
28.8164 3.933 21.9145 29.0882406688
23.6368 16.1149 24.3126 81.1772179943
23.1001 4.16893 21.73 31.7511741051
26.0564 4.67246 21.5442 27.2857512957
21.4108 6.2338 21.3432 31.022215116
20.5959 9.27177 38.3672 28.903034217
21.6775 5.7032 35.5737 85.3294571645
27.0309 4.36573 38.7479 26.8020089352
26.7285 4.4665 35.7432 69.6089744477
24.473 6.31236 35.7107 65.662735421
24.6383 2.68098 35.5367 72.7599491962
24.2516 9.13358 36.054 49.8792463355
26.028 14.6035 35.6352 70.74956358
24.9001 6.62674 38.3314 28.1805000241
19.8763 0.878085 36.1652 60.240662517
21.4213 13.6893 35.8462 65.4511084039
28.6632 15.7007 35.5619 85.3853732128
28.9061 2.25749 38.6159 29.9923275757
21.7304 10.5808 35.7401 84.0089903086
25.6251 11.905 35.7415 78.2044643541
22.2178 2.85848 35.9955 51.6666687559
29.0388 6.21224 36.724 32.4087345612
27.319 8.53262 35.7203 96.9611800702
28.3372 11.1761 36.3412 42.0864187852
21.7003 6.62668 38.158 28.8141315955
23.784 12.1692 37.8082 26.5984742851
29.0526 2.4492 35.9293 66.3205317303
23.3918 15.9543 35.4349 102.2320334448
24.6694 2.08417 38.4098 27.8443810701
21.4323 3.32182 38.6496 27.7230176617
21.7761 14.529 38.5784 33.2608003397
26.897 0.324354 38.6795 27.3898418842
27.5243 11.3859 38.9173 27.6832966467
23.3598 5.45864 40.4398 28.9391925147
29.0033 6.08146 39.8601 26.9944851559
28.3147 15.3548 44.8612 33.0233806406
28.8131 8.55538 42.8804 28.3181098744
27.809 4.32334 46.6781 29.3401570518
25.8936 10.4085 42.1865 27.8841691795
28.368 11.7595 42.8954 26.2010542429
28.536 14.3485 39.7457 29.2684025866
21.399 5.36081 42.4775 30.0890840328
20.3325 12.3573 39.7781 29.3588450976
23.3178 12.9433 44.2316 37.0972402734
19.6987 9.03918 43.6363 30.4509773708
24.603 12.9056 41.5385 31.4069501489
22.4265 0.459882 39.3771 30.8204068519
24.2622 2.10941 44.7811 28.7012479966
20.6898 2.91148 41.4679 27.795742029
27.8872 8.72703 45.5157 27.9363012654
20.9601 14.3151 44.3845 31.8554634617
23.2422 1.90731 42.0319 28.0968406722
22.6961 10.7121 40.21 30.7770455121
27.7142 5.61206 43.8524 29.1422022816
27.8152 2.60921 42.6722 32.4267521375
25.2532 9.45117 39.0049 29.0603284867
22.1699 10.6349 43.0968 28.55420286
24.2526 8.57554 43.7859 31.0732333314
25.2 6.2544 42.4886 27.1141837305
25.4635 7.56278 46.3391 27.4007079374
27.3114 11.1377 45.328 27.1188325713
27.0035 7.86038 40.9039 27.7667763866
22.2733 6.40527 45.0555 28.0128841942
21.0388 0.108519 45.4101 28.7875703207
26.9861 14.1244 42.3544 28.0896099363
21.5323 3.18772 44.9191 27.614677812
24.9755 12.1571 46.3247 34.3120257962
21.3151 9.2914 46.2519 32.5344895109
24.7568 4.88547 45.2356 26.4769434189
25.3824 3.2685 41.1142 27.4091509684
25.6816 13.8955 38.9959 28.2191099357
27.1942 1.99689 45.1476 30.0154629607
21.2819 16.3986 46.9475 31.5240240932
29.1284 11.7941 47.4185 29.2846169258
24.0689 9.72438 47.743 31.1624460911
26.1888 5.13165 50.8227 33.0120770626
20.5885 10.1618 53.7971 35.9519585074
25.3027 3.90242 48.2296 29.9137010177
26.4654 0.266734 49.7089 32.0775812064
26.9477 8.09729 49.3769 30.2896603508
27.3352 7.37931 54.3632 28.3354861945
28.3917 1.85786 48.3598 33.00239972
25.5029 13.7825 48.5341 32.7228136564
28.671 4.581 55.3015 34.3644041291
21.7348 10.678 51.1605 34.6225281177
24.6652 4.01732 52.9306 34.3151129212
28.1248 11.4261 52.5625 28.4291061494
23.1619 13.1769 50.2337 30.8857382891
20.4165 15.9719 51.4428 27.6711206583
20.6971 6.91435 47.6528 26.5832186704
21.4937 12.982 55.0641 29.403791959
21.0977 14.7181 49.1676 28.2196907332
24.4282 9.835 50.725 26.9099647703
25.0238 15.185 51.5578 27.336900914
20.7505 6.15183 50.6842 30.5943180438
24.5923 0.293926 53.8057 29.8085587226
25.1973 6.77721 56.0661 30.240028036
20.8276 3.57254 50.103 26.9798371394
24.174 7.0441 51.3665 27.8039656743
21.7248 15.5186 53.9768 29.6823105594
25.9377 11.5037 54.576 27.9966941561
26.9476 14.4533 54.5298 27.0291024048
22.2894 3.79247 47.8255 29.5716289047
28.4544 6.5317 51.8141 28.2810056506
29.3007 5.95859 48.6931 32.5914565608
23.4376 2.09993 55.5264 28.8609506132
19.6818 12.5789 48.2224 31.2125792522
26.8111 11.2317 49.9084 30.7106540369
20.1157 4.16622 53.3883 28.9568898087
25.3068 8.93317 53.4584 29.0983441413
27.7708 14.116 51.6298 27.5132815266
22.2456 5.72812 53.4056 30.555448842
24.4639 15.7079 55.5375 28.3797599027
23.9691 13.2027 53.2952 30.558397811
22.6935 8.11352 55.0186 28.1813817019
28.1871 15.1348 48.8837 31.4500778804
23.3735 6.72634 48.6488 28.447459098
27.1275 1.93697 54.5138 28.2048059454
22.8601 1.98647 51.4905 29.6007531995
20.6016 1.728 54.8982 26.9245630078
24.0621 1.28813 49.1286 30.2940011691
20.2069 9.99095 48.9694 29.709666358
29.2037 9.22662 51.6856 29.1507857997
28.8209 9.43689 56.0882 33.457259172
21.0243 32.1805 4.2879 27.7528242458
27.8195 20.4504 5.05485 29.7946563741
25.106 27.1303 4.68601 29.2533309991
29.4654 31.5735 10.3581 31.4379280338
21.6704 19.0217 5.89037 29.7586643008
20.6005 16.7185 8.9414 26.6118334142
29.5285 24.143 9.33253 32.4324520703
23.5074 25.4124 7.83338 29.7947410285
28.0702 20.7106 10.5532 28.3202845423
27.2269 24.9769 5.86835 34.3350295849
23.3998 31.8968 6.54823 26.6207879482
26.7414 18.0586 10.2178 33.0038896515
24.6602 30.1808 12.037 31.7223015031
23.9394 28.2798 7.70127 30.6965607023
23.7056 24.8275 4.88617 26.9808180275
26.2197 22.3662 6.01478 28.4641793667
29.1536 28.7381 10.0906 31.1485786528
25.2631 19.002 8.06427 29.6717448605
25.7995 30.789 7.30955 25.8586273204
22.6066 29.2608 4.97661 25.5367195341
26.4454 30.6507 10.0357 29.829303284
23.7203 20.1216 4.58026 26.3101970827
22.7777 27.5436 11.5569 28.8856654253
26.9149 28.7642 6.10452 30.2375508122
22.8553 22.2926 9.03959 27.3250724317
20.5915 28.9586 10.2571 29.3480488461
21.3685 19.805 9.82597 29.453229677
20.1031 17.3389 11.653 27.0445353928
24.1749 21.1997 12.0982 27.5770708245
22.7508 22.3882 6.41635 27.7792031983
26.141 18.3788 5.4449 29.5808488263
26.0711 21.5651 8.7378 30.0620751338
25.4955 26.875 11.5859 31.3594110298
27.849 32.1408 4.15847 32.7004944341
20.8946 28.6693 7.31693 26.7223787054
26.6901 27.5854 9.14154 25.8933325701
20.7635 24.6561 9.07207 30.9803289621
22.316 31.0104 10.9962 27.5040889125
24.6815 24.2993 10.3731 31.3832149578
26.9307 25.1216 8.62872 27.9298018172
23.7292 18.9227 11.0036 27.9333405912
20.9494 26.6507 5.20309 28.7651261384
23.1978 17.0986 7.61152 26.5358180086
20.1 22.2083 5.43182 29.537155515
21.5632 24.7939 11.6666 30.3709752119
21.1418 17.0945 3.77449 27.3664194376
29.6684 16.9648 10.215 32.8293148565
20.5465 20.4433 12.5187 29.6808373561
25.0566 30.7997 3.97923 26.8052631399
26.6938 17.6259 15.8921 27.8420947848
29.3812 23.8285 16.4623 30.9683670587
27.9248 20.2579 14.7996 27.6940928378
21.3416 17.8069 16.4391 31.7692365832
21.2913 31.4065 19.2894 29.7497288161
23.4734 26.0077 20.8841 28.0529144072
23.2353 17.0114 18.4732 28.4960645159
29.3783 30.6417 14.9471 28.8360771335
22.9539 22.3029 15.7241 28.4172217707
26.9035 21.8575 12.8979 31.2408629245
24.9679 20.2185 15.4462 31.5135623821
24.9919 24.3993 15.6822 33.7276187693
21.8899 27.6164 14.2635 31.1838783926
23.4782 26.6126 16.1764 32.9531444242
20.6166 23.5142 16.7208 30.0056044375
27.2549 26.9614 13.6413 33.2440229456
25.7678 23.6506 18.125 34.4513394973
22.1169 22.3657 13.1271 28.6110969929
29.6238 32.2146 13.094 30.4637435434
20.6759 30.0814 16.8676 29.7541473534
22.9307 30.3498 14.6296 27.3760540337
27.3939 29.0458 15.8011 32.2231572272
20.0281 27.6689 18.2904 32.4242521845
27.875 27.9962 18.3077 30.2487772466
24.5972 19.4508 19.3322 27.9156662075
28.1602 16.4526 14.0647 33.4046469669
21.1926 22.9272 19.6054 28.7600354496
23.7434 21.8334 18.5867 27.5830692686
23.8079 32.2719 18.3463 26.7361727689
27.3037 18.623 20.0616 28.5162651992
27.3295 29.0027 21.2502 29.6022879252
22.0437 25.7072 18.6112 28.6510222378
24.9813 30.7912 16.2752 25.5734541268
27.3076 21.3783 18.9921 29.4993938154
24.6614 28.6793 20.8921 28.847734313
27.3424 30.9841 18.8973 26.3605996518
27.665 24.4072 14.3791 29.966360003
24.8614 28.5072 18.0782 32.7077616922
29.197 18.9794 12.6817 29.3409036794
20.8612 32.3804 12.907 25.837808836
22.8654 18.9209 14.5112 30.3033468875
28.5957 17.363 17.8851 29.218965104
29.0472 21.1238 16.9853 30.8309640501
21.61 18.1826 20.8075 28.0799830171
20.2887 20.3873 20.1884 29.3028321685
22.1345 21.6709 23.9496 49.0063995222
28.1879 22.3518 21.5748 27.9560128814
21.7628 18.6986 23.9563 55.4651254169
25.8292 19.5889 24.45 83.6117018752
25.4978 24.8465 24.1318 57.393009455
23.0868 25.8244 23.663 48.0964762086
24.7544 21.9562 24.8213 105.3640731572
27.8309 22.8924 24.5593 83.0580292972
28.6254 18.3746 24.0182 48.5559355911
20.8749 27.8905 22.5894 28.9202955235
23.8454 28.5175 23.9413 72.1412906175
25.3787 32.1116 24.1389 66.7924180404
28.29 32.6527 24.2604 61.5166685945
19.6824 16.6901 24.4212 71.9158836081
27.3476 26.9304 24.0674 58.2526101463
21.3311 30.55 23.8787 66.1187593687
23.388 31.0459 21.5999 29.3954346047
20.4605 24.0357 24.0884 81.6221012068
23.3907 22.2842 21.5192 27.8206954015
26.4316 29.4837 24.0911 54.2740228714
20.3176 25.0356 21.5055 28.6945947571
25.5835 24.1855 21.3424 33.4869914783
29.2489 19.9946 21.8481 26.6365341937
24.1876 19.5078 22.1023 26.5591313342
24.8171 16.6517 21.6036 29.4667164838
26.9512 21.556 36.245 42.8643302652
27.4562 26.3521 36.4084 57.6170274315
23.7621 21.4571 38.6656 31.2562792573
22.557 21.383 36.0341 57.0470821214
24.7608 23.1419 35.6788 98.0374379018
24.595 26.0187 38.7829 31.588524685
20.4016 23.1224 36.074 68.749451939
22.9646 28.3033 38.3958 28.9640549655
20.2535 26.0929 36.2129 67.6835729623
28.0377 18.8344 35.5319 106.2974011079
27.5243 29.2046 36.5781 46.8182724917
24.8549 25.7761 36.0732 57.9873375979
24.7658 32.5277 36.3586 41.8781732585
21.9014 18.7688 35.6643 81.5284660747
26.7274 18.0524 38.134 31.3985707888
28.8687 23.7076 35.7632 93.0625965715
21.158 30.4518 35.999 58.811643928
23.0855 28.069 35.7167 82.6329995307
25.0514 29.9281 35.5009 121.6915489732
24.3904 16.5683 38.1086 31.8338061831
21.66 17.8036 38.2414 29.8928328356
21.2372 27.3487 46.446 33.6859343417
23.0621 19.3686 44.4619 34.243747536
28.2783 19.9186 40.6274 31.5536183807
21.0116 30.5238 41.6864 33.7958977753
27.4077 30.1838 45.0454 28.0406972345
22.1971 19.8138 40.0514 34.153700297
23.7298 23.8526 40.3244 32.0781890651
26.3012 27.6582 40.2316 32.9715019613
25.5406 23.1613 42.2411 32.324705435
27.406 25.3585 44.8906 29.1372463343
22.7828 31.0987 46.9737 29.0630855941
24.2136 28.6174 42.9209 34.8118643607
25.6104 16.7971 41.9621 33.8176661272
21.1937 24.8127 41.0961 27.6826171754
20.6788 16.4253 42.7393 36.3105642309
27.3875 31.5783 42.5715 30.9869804448
25.6916 25.7791 42.8686 29.9198082507
20.3264 31.6372 45.7442 30.4268188063
19.9007 21.4738 40.3321 32.078927671
25.3952 30.7881 40.6314 32.2249439737
29.1676 25.543 42.3097 34.1161243651
27.8461 17.298 40.7803 25.5393997489
24.5648 17.9099 46.5481 35.3359690052
24.8184 22.8486 46.8454 36.3153507484
28.5671 27.8254 46.068 32.4400686434
27.809 19.9859 45.6677 31.8379489906
26.5917 17.5059 44.5611 33.714539315
21.4656 27.655 41.7314 28.5349284172
21.5976 23.9045 43.7774 30.6326543046
23.0575 18.0159 42.1759 35.7127519232
23.6905 22.0764 44.1217 34.241190419
25.7961 25.4119 47.0985 28.2514885157
27.657 21.3384 43.1694 35.4888202832
27.3602 32.0564 46.9835 29.8445134041
27.6448 30.1381 39.0133 33.0857219902
23.1249 26.2175 44.2837 29.6333318901
24.7589 29.8519 45.5441 31.4997706096
20.5564 19.3289 46.0611 31.1238656507
19.833 27.03 43.6938 30.4248244421
20.1778 22.4448 46.1854 32.2214275407
29.1556 23.1415 44.7912 28.0524383733
24.4412 27.5938 47.0543 27.1158792279
26.3957 20.7335 38.8383 29.7470666136
21.4592 32.6455 43.4658 32.9506381092
20.5055 27.2707 38.7992 29.0858803285
24.1294 32.4977 38.9216 28.5336535639
28.4646 25.8298 39.2587 28.6563538782
28.3266 23.3279 38.8395 34.3992216402
21.9056 30.9572 39.0594 29.7518878579
22.2826 18.4154 52.2603 31.3749469303
20.0396 29.9908 50.8321 27.4168150875
20.4395 23.8453 48.3574 30.9929146449
24.6561 30.6027 53.9938 28.712801576
25.4482 20.1144 47.9965 29.158088049
26.9695 20.6092 52.0885 32.0371060814
28.0807 20.6729 48.8 27.5882565485
21.7602 18.9381 48.701 29.8231408385
22.2103 30.8608 49.7676 27.6692954133
29.0934 23.1713 49.2163 33.5620658693
26.3846 17.293 53.0681 27.541112754
23.2786 24.2738 49.1539 31.19391372
26.6366 24.5126 49.9405 30.4342588888
20.9083 27.3853 54.4522 29.4405082264
20.8712 27.34 50.4993 29.1485062958
24.3478 29.0362 49.6519 28.3151059716
23.3561 26.6646 50.6188 28.8488798
20.0825 31.9396 53.2289 28.2633894141
25.1009 22.9509 51.7551 29.5629218965
22.4438 32.4259 52.0791 27.669715988
28.0117 17.6431 50.4659 28.1836239205
27.1982 25.4385 53.3753 35.1081606282
26.1549 29.133 51.9391 32.0822814006
21.7451 21.2427 52.3067 30.4777640575
21.681 19.6878 55.0843 31.0776260648
25.4175 27.5356 54.5175 35.4859044484
26.8201 22.9475 54.3597 32.0997443022
25.1384 18.2094 55.3211 34.1822363845
27.3243 31.1956 49.7853 26.2331819131
23.228 21.3696 49.8609 29.6503534015
24.7519 22.5644 56.1292 29.5218656446
22.8858 23.4008 53.812 31.7715872122
29.1166 21.3455 55.4027 30.3937528668
27.8319 26.9952 50.6336 29.021480837
23.331 26.1789 53.3481 31.0415115312
25.0864 18.8819 50.8459 27.480918982
21.9061 29.9169 55.0096 29.6904981084
26.9865 28.5727 48.5045 26.8145989514
23.7969 16.5629 49.2074 29.7761482397
21.0351 24.3188 56.0861 28.1868968221
29.138 31.3309 52.0575 33.4266149193
29.4922 17.1091 52.9162 25.746069183
24.5853 34.735 6.20856 26.1180583767
20.3664 45.1016 8.80019 32.6380187374
27.3828 36.7886 9.59214 32.9428450339
22.379 32.7666 8.8742 30.9639285266
24.8897 48.2638 10.5941 30.7296501991
25.5468 47.8116 4.88041 30.5632534451
25.2196 46.2062 12.3977 30.741152364
21.2262 37.305 8.01908 30.6688647902
21.2104 47.7723 9.5047 30.0391879486
23.4419 39.4545 4.76014 32.9490096113
22.7715 39.6238 7.3357 33.1391903585
28.2197 34.0325 9.19879 35.3949973707
26.9417 33.2632 6.7969 29.5318719315
20.7558 43.1801 5.16464 30.952539662
28.0531 46.3351 11.7829 29.2988107207
20.0927 37.1108 10.4984 33.2332445167
28.8691 39.3418 4.49038 27.895882689
26.631 44.7992 6.52843 29.4828165841
20.9917 47.8784 5.24037 30.0861224122
22.1996 45.364 6.20939 31.3263481895
23.6946 46.2078 8.37182 30.5447900686
26.3234 47.3711 7.64462 29.8812942676
28.3419 43.7746 10.7601 33.6471746179
26.3543 43.0016 8.79151 32.6573167214
23.148 35.5601 8.42987 29.9196066867
24.5198 35.7512 10.7421 28.4913560379
26.0182 33.3645 11.1584 29.3574376363
25.952 37.2747 5.68789 31.9657310204
24.58 45.1609 4.59786 30.5638621762
27.7579 38.2318 7.34312 26.9965518725
24.6939 38.4362 10.9637 32.3920842739
25.2607 40.2624 8.6683 38.990498642
29.0792 34.8618 5.48866 28.1001876582
21.8924 34.7829 5.01398 27.0841677689
20.713 41.4723 7.32674 32.2878208752
21.4715 42.4025 9.88648 32.3713209645
19.6734 33.2022 9.13279 29.3232690415
24.0549 43.7932 10.1723 30.9290289374
28.0083 42.6931 4.92404 29.546985611
28.2665 40.975 7.34378 34.5210604837
29.2907 48.2437 7.85696 31.8002576199
29.413 48.3965 10.5908 28.435582768
29.4997 37.3154 11.4175 31.8101198352
21.2459 46.817 12.2859 37.8057263729
22.099 38.1409 12.4798 29.7640818764
27.8374 36.7294 3.65505 27.4355041343
24.3385 34.255 15.8665 26.2640360595
25.2424 48.5619 16.1456 30.1017842082
20.0653 35.3079 15.5991 29.0986871973
27.4797 33.8424 13.6844 26.5512158152
28.5053 32.8598 20.6475 27.1676292443
28.2331 40.4335 13.8663 29.761897081
24.3484 43.0488 12.6034 27.9703743865
23.9294 40.4956 15.2235 30.692873611
27.5683 34.4104 18.283 30.3353923568
23.6886 47.0016 18.1879 30.8569614819
23.7951 38.4378 17.2764 28.8685805342
25.7363 39.2589 13.5183 33.0055114072
26.9663 41.7421 18.2192 28.0538102939
27.2177 42.9168 13.2407 31.9651764972
26.0077 36.5013 14.8814 32.0275911035
29.4487 39.3006 17.9853 32.2407354829
22.7567 44.8814 14.1378 31.9894658247
25.2921 45.9178 15.2425 28.5743625389
20.8972 42.1986 14.6841 27.8774768987
27.4043 44.2366 15.7104 26.5597686846
23.3397 35.4538 18.7306 29.9545599851
20.2956 39.183 15.2459 30.4574949756
27.0571 32.7068 15.9809 27.6111575229
28.9486 35.9862 13.8216 29.8468217693
26.2337 36.7879 17.6076 29.4286183767
22.4659 36.85 14.9768 27.3209031856
20.8404 42.3525 19.6912 28.8767352999
20.8999 46.3122 17.5114 29.5662999165
27.9455 45.6625 18.1107 28.0405207619
27.6166 48.2298 17.3491 29.987425097
20.9811 39.114 18.1246 28.0146621682
20.6972 36.4706 18.4267 28.4164692174
25.2841 44.8127 18.7763 27.4415147132
29.0069 46.1219 14.3798 30.7124096177
26.743 39.0545 19.2208 29.4456911334
19.7705 48.386 15.8335 30.4670688321
28.8538 41.4758 16.3228 30.7380516134
26.7995 42.8767 20.7919 27.1290196259
22.8869 48.4408 20.2876 29.3273123212
23.3675 41.0914 19.2594 26.6415538938
22.0257 43.8013 16.6855 28.2810917921
24.1216 32.9912 13.2757 26.3690408404
24.4594 42.5292 17.2706 25.947405559
21.5637 32.773 15.8645 30.2457367496
25.4234 36.2334 20.9669 25.7148734037
22.2482 35.0737 12.5569 27.7062727138
25.3394 33.046 20.4506 27.6873042185
19.6386 32.8949 20.7964 28.1881216379
22.4802 41.0435 12.5352 28.493225111
21.1123 41.4755 24.7243 93.8635944345
24.2188 42.4315 21.6667 28.7889278389
22.703 33.528 24.6371 100.1420494266
22.2718 38.8568 21.3408 28.7154779393
23.8683 48.0988 24.6103 95.4006899783
22.8961 36.373 24.601 77.8498296288
28.384 35.3004 24.4019 70.9969919551
25.8123 36.5274 24.1758 60.1439303166
26.4144 39.0639 24.0285 55.4739234382
22.6648 39.2251 24.2457 54.6136726467
24.7863 41.1822 24.3051 78.0279200849
20.186 45.9326 24.3061 59.2275766894
20.6992 36.4569 21.5834 28.869597511
28.9587 45.9771 23.8717 57.9050208011
28.6919 48.8009 24.2746 91.6211687106
24.6057 45.402 24.2753 70.1454442675
27.3189 43.4858 23.9503 63.8331643312
29.0552 40.0595 23.9499 52.2562792721
21.1569 47.5748 22.1214 24.7035187945
22.1737 44.1424 24.485 67.3690386499
20.0255 35.9334 24.3479 69.550545405
25.4733 45.6855 21.7038 25.9335335554
25.5548 48.6044 21.5569 30.8757138307
19.7965 40.7441 21.7656 30.8532125706
23.1664 34.8218 21.8113 29.1108103251
29.1463 48.5273 21.5337 27.5606742318
27.9911 35.3791 21.5119 30.3407001134
22.181 44.7012 21.6423 29.9326157402
25.0444 38.9444 21.4003 27.588293773
19.9481 32.8985 23.7125 39.4204298281
28.1088 45.9253 21.3568 26.0643036882
21.2941 37.5477 35.6423 105.4544085106
26.8056 34.8431 35.9877 83.1008087443
23.8568 38.8015 35.7089 73.5611111005
25.7915 45.1741 38.4785 25.4036172044
25.1002 49.0621 35.4853 95.5219568819
28.8008 39.0497 35.584 86.4225196843
21.88 42.1031 36.2998 42.9056441836
26.1598 37.6231 35.8265 71.0913322294
24.403 47.4355 38.1129 27.571499571
24.6208 41.3821 35.8781 68.9764450939
22.1909 47.9114 35.8376 71.3902745634
27.431 42.1714 35.6623 85.03804273
22.269 45.0583 35.6068 93.2816325516
27.3511 47.9361 36.3275 37.011398536
22.1979 32.9235 35.8392 89.5434921957
24.0297 38.0556 38.5422 32.3233442661
26.7185 45.0749 35.9431 79.7738467422
21.2644 35.2235 37.1102 30.3777235863
25.0316 42.4459 38.731 27.8768309698
27.8173 41.5263 38.6186 31.9776105334
29.1913 34.3465 38.6533 30.7484861785
28.3631 38.7237 38.5976 28.4747133732
22.2577 45.1169 38.6392 29.8119526011
25.1486 36.7061 47.4264 26.8928848991
23.5466 34.5736 43.4956 30.5028421227
24.6201 39.48 46.5839 29.6896678392
27.4796 48.0191 44.7258 30.3529334261
27.6221 45.7174 46.7741 29.3456585824
27.9906 45.8541 39.9765 25.8487053795
23.6806 38.2141 44.2443 27.6566805389
19.9564 40.4451 42.08 29.6877772036
26.1587 34.1404 42.3878 30.178265146
22.0976 38.4653 42.1249 32.5428079182
26.5175 34.7596 39.4948 30.2058423629
25.3852 40.9304 42.4121 29.0930096462
21.7798 35.7709 41.308 32.5780428799
22.9999 44.9756 45.9439 28.5914783794
23.305 35.3014 38.9295 30.4334527763
28.6691 42.1329 47.0795 30.5653964933
25.5383 44.3445 44.3848 27.2240222972
23.6024 45.1211 41.0847 27.5193039796
26.6073 48.7108 41.3189 32.7188204953
20.1234 37.1186 45.3961 31.71386692
27.6079 39.1864 46.5514 31.983187842
25.9124 43.7583 41.5451 28.2475471152
25.4451 34.1406 45.827 28.8819892525
28.2261 35.0686 44.05 26.8056384526
26.3451 37.4266 39.7982 28.8767224282
29.16 43.4361 40.7292 27.6742836124
25.9624 38.0885 42.469 30.806718816
23.6956 40.2456 40.2038 29.5840858453
22.8213 36.1639 45.5143 31.3421119514
27.7509 36.2521 46.9185 31.0094568495
29.3026 32.9126 45.2802 27.3014407179
28.1798 43.4591 44.8361 27.5174259296
24.0899 41.9284 44.6437 27.922630766
24.1967 42.5114 47.2454 28.8730015162
21.0836 42.0236 44.563 29.1926347484
23.8293 47.8244 41.9192 27.6225445083
21.6428 44.3729 42.8668 28.9587082738
28.8928 46.7783 42.5635 29.3201319107
24.5861 47.1492 44.4229 29.6008078317
28.3674 41.3802 42.7236 28.9271267426
28.3979 38.0058 43.7094 27.2577230949
20.4319 46.6932 46.6408 27.8441433651
23.6481 48.9507 46.7945 29.7547154644
20.938 47.3403 43.0681 30.3993215971
19.7413 43.2728 41.2287 26.7043630224
19.7346 39.8044 45.6665 31.2101034888
21.8622 42.076 39.0243 28.1584919025
24.8558 35.5183 54.4707 27.7313759468
21.7211 48.5108 52.3345 31.0450179517
27.6709 48.4935 55.8515 29.7112755738
19.9626 42.7435 48.5667 32.5417838231
28.0305 35.4852 53.7706 28.1485787916
27.7005 35.4802 50.1886 32.4155848891
26.3582 43.429 48.6053 31.1548993097
20.2551 40.2677 54.9205 28.537351536
23.5168 40.6035 53.7065 25.7383825536
20.5475 34.2351 54.8132 28.2706951259
23.4231 46.8151 54.5865 31.3432128415
25.4704 40.1658 51.3965 32.4067309032
25.5553 38.6682 55.3849 27.6527346972
22.5733 41.4262 49.2536 29.1809737555
21.3159 46.6005 50.2126 33.8128571263
20.2377 44.2423 50.9966 30.2634558013
26.177 37.5642 52.6083 27.8971395214
22.1083 37.2499 56.39 29.2354806003
24.5629 36.4832 50.0971 29.1437959557
25.6726 45.0627 51.2877 31.7443816822
23.3732 46.6529 48.2361 31.4194060759
26.6807 46.8192 53.5442 28.7050923037
27.4125 41.9226 50.7957 27.5555895181
26.2366 46.5846 49.0466 28.3375493165
28.0065 43.6962 52.6476 28.2687910283
22.5116 41.7135 55.9644 28.4600525087
27.724 32.6993 53.9914 33.4152066769
29.1475 40.9107 53.5203 29.3977487302
20.7743 47.8401 54.9063 28.6207968506
24.0052 33.3725 47.85 28.3799580226
22.2662 34.9993 51.0935 27.4972810244
27.7003 44.9554 55.2978 29.3565793991
25.1412 43.0741 55.416 28.8173358354
25.7547 33.3167 50.1783 27.9140520996
21.2444 38.2413 50.3697 28.599576689
27.2219 40.7963 55.3905 28.2967511592
20.2859 43.341 53.7768 30.9693704723
21.6395 38.6696 53.0886 27.8070874897
24.0853 44.4184 53.3105 29.1044374292
22.6168 42.3703 51.9091 30.4067593217
22.1518 36.0203 53.7026 26.7673710988
28.797 38.4519 51.8814 29.8422561324
29.5503 40.5486 49.9794 29.8481539844
23.8603 39.0551 49.2527 27.8913961243
27.8382 49.1964 52.142 29.4366772867
20.988 33.5946 48.6571 30.5277484386
25.1508 33.1221 52.8316 26.1168167093
19.6946 36.1704 49.7614 29.4558944759
19.8393 40.1674 48.5424 30.552874624
29.3319 46.9389 50.7343 28.8429685718
24.736 33.4304 56.3395 29.0803143959
37.4541 0.542438 8.06637 33.6187534265
34.9858 2.45275 8.56956 32.2411656226
31.7388 5.97044 5.98414 28.1457035271
36.4899 13.1473 11.3132 29.6906855209
31.0779 14.6925 10.8349 32.0267168113
37.1028 2.2373 4.56253 31.2839301434
36.7579 0.930657 10.8614 29.931046975
33.0726 10.1718 11.6025 28.8006651106
33.0734 1.69548 6.77033 30.7787909719
37.2184 3.39026 6.95649 29.798884315
37.0498 7.89671 8.64157 28.8457258784
33.639 7.18505 7.30913 34.2182639593
33.699 6.64541 10.1027 30.1707849234
34.2529 0.248245 11.7868 28.710690438
39.0319 10.0798 7.99731 29.261383506
34.9672 9.79325 9.24174 27.880834081
39.1684 6.85843 4.64963 31.4100803976
31.9652 14.6247 6.81396 27.7144593466
34.2662 13.9485 4.75488 30.1804602997
34.9388 15.9495 11.3045 30.3954747642
35.6881 13.8318 7.47841 30.2526857635
38.3695 14.5047 6.4307 31.2831299972
31.5869 1.56465 11.5228 29.6503952165
34.0636 4.00292 10.7357 27.5917493241
33.0721 13.9169 9.15387 28.8391834934
31.3361 7.57412 11.5446 29.1219207445
38.7194 3.92563 9.43348 30.1086428306
37.1834 10.8067 5.30184 30.5362430811
31.1836 3.62545 9.82261 30.2745781197
36.6268 6.33247 6.21194 31.4378044259
34.6915 9.57742 5.94005 31.6019990406
36.8835 6.55766 11.2001 28.9980793986
39.5328 0.82217 4.93439 31.0161803214
30.9894 3.54696 6.98924 31.3404113293
36.8779 11.6819 8.87792 29.2207144341
34.5814 1.31587 4.25992 30.0356576623
37.013 3.88417 11.3642 26.6988345655
32.5177 11.1194 8.53181 31.4693689707
31.2715 11.9116 6.00697 34.7464744014
38.217 15.1969 12.0558 28.0549787976
29.6264 10.3445 8.92204 33.074966492
37.8395 13.3795 3.88101 28.6165918646
38.6385 11.6896 12.4856 28.8119301747
33.4014 5.12522 3.79799 31.6622428993
32.7918 10.4639 3.88461 33.2389778893
29.6758 1.57672 13.6891 29.5989713023
33.9859 2.43615 16.9783 33.9885228785
32.8565 3.37577 13.2347 29.2266202326
32.8051 14.4702 13.0263 32.5742229133
35.2332 1.92499 14.3965 30.2550887061
34.3781 12.5518 20.933 27.3532950057
37.8053 3.39585 17.2064 29.5960712552
32.7195 6.26113 13.9555 34.5103992824
29.9736 9.578 17.1302 31.0962618598
35.0955 8.24183 12.6985 30.4908003319
36.9542 10.2239 14.2384 30.0146188501
34.5206 7.8554 15.7362 29.790149869
36.9717 14.997 16.7373 35.358576382
35.0918 12.6835 17.396 34.2416518999
29.8639 6.13012 20.422 29.7345512774
34.1426 10.7568 15.5995 27.6785210426
39.0574 8.164 18.3023 29.6830211904
38.7985 10.4524 16.4585 31.073731146
29.9683 2.18146 18.7687 33.9098150754
32.6441 14.5322 17.4685 27.0556122055
33.3792 -0.0283717 18.4485 29.5044024837
31.4222 10.532 15.1521 29.1415538869
34.4329 15.7838 21.4161 27.3947922141
33.1025 8.61706 18.2834 28.8477613926
38.5728 7.91532 13.2669 29.6643968324
37.6422 3.25611 13.9397 29.9916936835
36.5638 15.5395 19.3952 29.6917848354
31.4183 5.33951 16.4054 26.6517702416
37.8189 2.3875 20.1367 30.7808234804
31.5329 13.1564 15.413 30.6185292272
30.9211 10.8367 19.5346 32.4580021725
38.3775 5.7501 15.0001 29.219815166
