4.19003 6.23056 17.9301 30.4726191743
4.94329 7.48574 20.7509 31.1333798913
7.03194 5.08085 18.3778 28.8909399965
7.17326 7.918 19.2227 27.1947485397
9.6829 5.89929 18.3025 28.9563607832
4.3482 10.078 17.2864 31.2630294863
4.17019 12.0221 19.0583 32.1158035922
10.9619 11.5673 20.3194 27.9800505957
9.41885 10.83 17.6648 28.3799805973
10.5958 8.32913 19.2242 29.3555170756
3.35699 1.5135 24.0236 50.1004282918
4.76478 2.48536 21.6772 26.9539822853
6.94439 2.52118 23.9975 68.1543491222
11.5056 2.61411 24.4748 106.609623817
9.59546 0.828719 23.4873 32.0449340806
0.409198 5.03693 23.8514 42.5342516613
0.702684 8.07506 23.415 33.9553906594
3.18685 4.29825 24.8206 114.697754075
3.81183 5.16768 21.8058 26.7382839718
3.11422 7.20849 24.3769 76.435921173
5.91211 5.17511 24.1105 51.7173089849
8.26943 6.36445 21.858 25.4860837509
8.43203 6.74896 24.4804 86.3735957414
11.2026 5.52783 24.3874 82.7786638838
10.7227 5.53833 21.5166 29.5564010374
1.41242 10.3305 21.7767 28.841839897
2.0864 11.3801 24.1995 68.5749729637
4.40854 10.0503 21.3783 30.2820780419
7.20945 10.9098 21.6291 29.6209855564
4.36833 9.45423 24.1501 61.3033658173
7.21271 9.18877 24.1907 66.1332692006
9.39579 9.31222 21.454 24.2431099734
11.2485 11.8593 23.4125 37.6728087905
10.317 9.37589 24.0047 65.9405008717
3.70122 3.1431 35.6334 76.6137177071
2.58485 0.632555 36.3443 59.8095136274
3.62888 3.48975 38.4167 26.5095112348
6.29713 2.35112 35.6381 84.7898591803
6.55052 1.37952 38.292 24.164292679
4.32141 0.0671059 38.4203 25.2459447874
8.92201 3.59603 35.8461 68.803434988
8.92234 3.28777 38.5334 28.7812916311
10.0454 0.594907 38.1054 27.9685091225
11.4304 0.170228 35.7899 83.1495657386
3.51163 6.18385 38.6503 29.062720164
3.18755 7.21508 35.8321 59.3560645548
1.66933 5.01307 35.3644 95.3756237641
0.111047 6.05359 38.691 29.0929465809
7.93534 6.33641 36.0161 69.5401578093
5.78814 8.00708 36.6375 30.4122676939
11.6494 4.18908 35.7667 82.1555585403
10.5832 7.23609 38.2216 34.6702635023
11.8353 4.49172 38.7861 30.2633071789
1.95666 9.70768 35.4134 94.0571079445
3.99338 11.4707 36.574 32.0925067939
6.05002 10.0623 35.298 115.3661729858
9.68565 8.79351 35.5759 80.095202847
8.50149 11.3075 35.9078 53.4659892449
10.8767 11.0362 37.5675 28.9394150865
1.25567 1.64941 39.1421 29.1056951697
0.987174 0.334053 43.1047 29.4144489441
3.83711 1.95391 41.2278 28.3461506235
6.60148 0.190034 41.1356 29.3022936511
7.26372 2.6489 42.3681 30.2398935156
5.86134 3.73176 39.8996 25.2876460675
11.6248 1.81199 42.5103 31.1274552799
11.7909 0.145677 40.0178 26.614347634
9.16091 0.552459 42.6877 30.0455950323
0.273941 4.40423 42.6708 31.6360638307
1.89614 6.18932 41.0708 29.9080469913
8.18097 5.92315 39.2203 31.111483637
4.56576 5.22699 41.8137 26.7681544359
6.37035 7.18588 41.6293 28.9289454414
11.7373 4.70932 41.9058 30.3628094345
8.93203 5.12055 42.1506 32.460700461
2.08612 8.82914 42.0321 35.1732955735
1.47504 10.5384 39.6843 31.873761235
4.8729 9.61364 42.8304 32.6818306371
5.92744 11.7506 41.0941 27.9727956916
4.40285 10.8439 39.0776 29.9873744319
5.40088 8.17354 39.371 30.9994929987
8.63449 11.1903 41.5909 35.3226826646
12.0814 9.25016 39.8745 32.8991700271
12.301 8.48686 42.6964 31.8657587526
1.90358 2.88363 46.6796 25.3059466758
2.22706 2.71218 44.0254 27.2008579342
6.16857 4.08081 46.042 28.6613835397
5.00507 2.15374 44.3554 28.6353223749
12.2093 2.02554 46.2119 31.030307995
10.9652 4.03023 45.0131 30.5007744446
8.38103 1.95852 47.0471 32.6438873376
2.33442 5.62753 46.4157 30.3317803466
4.46249 5.85946 44.5964 30.7525197916
6.04517 8.01879 45.2596 30.4679853703
10.9016 7.81051 46.5957 29.4475496468
9.1367 5.45713 46.3694 25.1616827219
8.48069 7.33968 44.0491 30.6897700148
3.77572 10.8868 45.3308 33.3585764288
2.38072 9.60442 47.3141 30.8915727738
9.42249 10.4585 46.965 26.7416553365
10.0493 9.68073 43.9798 30.7727895825
3.12004 4.06095 51.9145 27.7058583573
0.689266 0.3692 50.3431 29.4022905392
0.0346428 2.62972 48.8622 28.5446702146
5.46404 0.799654 49.3613 26.5743420088
4.40793 3.05915 48.0015 29.5919949635
12.1219 2.76913 48.8909 30.783321501
8.36186 2.16259 50.0571 32.3325792571
10.9838 1.22073 50.7129 35.874529694
3.54654 7.32775 48.2891 29.5927223043
1.87158 7.54851 50.5027 27.613238092
0.766239 5.04694 50.287 32.5888326619
4.60593 5.03361 49.9133 28.1945658691
7.41906 5.14204 50.9575 30.9474056868
7.08673 6.24861 48.1731 28.8271653349
9.96269 4.58111 48.8841 29.7217182415
11.0908 7.16129 49.3065 27.3483849829
8.83072 7.89915 51.3972 31.9093934898
0.337086 9.68767 50.8178 34.770196136
2.05896 11.5424 49.3875 29.9487836447
5.20197 11.034 48.8147 30.0858894341
4.56439 10.1147 51.528 32.2527648568
7.05699 8.9882 47.7918 31.9865503533
10.0781 10.205 49.6584 32.2172521432
1.56316 2.9052 54.9881 28.0368419149
2.47788 1.35485 52.9842 27.743129334
7.16955 2.60485 52.8332 30.5200201558
5.07644 0.999531 52.2233 28.5029117353
8.87254 2.10071 54.9181 31.6360558188
11.2763 1.78677 53.6265 34.2684912076
2.92322 6.58747 56.2724 28.451562712
3.66144 7.41028 52.4918 28.3571307955
1.89268 5.76217 53.9197 26.119593548
5.41064 4.45922 53.8572 27.6193080857
6.51137 6.87902 53.4429 31.589123814
7.47521 6.84847 56.2966 30.8398631954
11.1179 6.88294 52.9139 36.6365770891
11.4214 7.42689 55.6782 29.8296685871
2.74485 11.7731 53.4528 28.3434322773
2.0361 9.34141 54.8489 29.65675039
7.19182 9.96189 52.8278 35.3130129881
9.05368 11.1672 54.8993 32.4445155287
12.203 10.1139 55.4004 35.967051785
2.89631 15.544 7.84044 30.3423452076
1.88406 13.221 6.82827 30.7369844205
1.46889 12.9557 4.17754 30.5862767886
5.37744 15.7638 6.59255 29.2672437393
7.55854 13.9744 6.93178 31.3911087337
5.01483 15.6321 3.83906 32.0069335509
7.97233 13.1899 3.7689 29.7414933369
10.4624 12.8807 5.50233 32.4135211083
12.0756 15.217 5.07784 32.3204431736
0.912055 17.649 6.67527 35.5804339131
2.13026 19.3041 4.71965 32.6623591651
4.87093 19.888 5.49404 32.4569422803
5.75784 18.2725 7.62566 26.3515711449
6.71389 18.0605 3.73092 26.7763806065
10.5146 16.9066 6.67735 28.3502373422
8.47067 18.4151 5.87018 26.9654605873
11.746 20.2896 6.15653 28.398180813
0.532243 21.3336 3.96394 27.9548369264
2.41475 23.2772 5.14039 30.9958029302
6.19613 22.3334 5.14153 27.3510848194
4.40413 23.3202 7.40098 28.1644085196
8.86556 20.9209 5.89343 26.3188060736
11.9293 23.0337 7.17952 27.5101775734
3.48274 12.5398 11.644 29.2431959938
2.40723 15.3096 10.9501 29.6311849075
5.64515 15.7321 9.94925 26.3684268811
8.16071 16.0391 10.8343 31.4351261366
5.60572 13.0749 9.58865 29.4772016715
11.0113 12.565 8.69645 30.5682386579
9.65315 14.8976 8.48343 29.2522183175
1.03025 20.0186 11.9601 27.4912840201
3.55883 18.462 9.39118 27.3555951578
0.849113 19.5389 9.1027 28.6334921523
4.22162 19.2379 12.0804 28.7570508133
8.10573 18.5554 9.23113 29.1962264091
6.7342 20.317 11.3295 31.9088733625
12.0164 17.255 9.27191 28.8116099464
10.9537 19.2533 10.5474 30.2426121927
3.66821 23.6745 12.4768 33.9357377371
2.45556 22.2038 10.5409 28.761085265
1.17003 22.9611 8.14429 30.2867069147
4.40803 21.0676 9.21013 28.5404503287
7.30539 22.9994 9.34657 32.6153459801
8.55971 24.1253 11.9737 28.4365073613
9.35659 21.2671 8.54947 28.0875404236
10.8259 23.652 10.2479 28.3620411498
1.90106 15.4993 14.0308 31.8251293669
3.47545 14.1363 15.8634 27.1540025168
5.53182 13.318 13.3876 27.7108025395
5.8475 14.8685 16.4639 26.4114408038
9.38086 16.2792 14.0998 30.5507971036
10.7923 15.1718 16.3465 31.7338307502
12.0744 13.2496 14.9289 27.0019174016
9.4155 13.7853 12.5087 27.15321721
0.212117 20.0852 16.1172 27.7568965346
1.59307 18.4214 14.2471 31.5079923919
6.61562 16.4323 14.3434 27.661049621
4.51359 16.4793 12.5027 26.4904971319
4.60382 19.1481 15.3157 29.8877973157
7.16364 19.2835 14.0733 27.1894319632
11.4268 20.4153 15.4486 28.0265444815
10.4015 18.7811 13.3007 30.871828445
1.72701 23.8019 14.3776 31.3747114883
1.97565 22.2146 16.6586 35.1605362108
5.02629 21.5489 16.4645 27.9823625929
5.49373 23.7711 14.7384 32.9723609016
7.83593 21.5263 16.5567 26.2394789299
7.67833 22.1524 13.7319 28.239670114
10.5869 22.6506 14.5633 27.7908364638
1.55627 14.6432 17.6839 30.8407705636
1.52853 12.7423 19.9001 29.2358192054
5.86061 14.2268 19.5065 30.9388907996
8.32038 13.0202 19.8511 27.4905157581
10.0408 14.8678 21.0838 28.1021243353
9.16938 16.3033 18.5307 32.2697687912
8.30385 13.5531 17.0289 28.5011281453
2.16926 17.2329 18.6177 36.3140543405
6.97243 18.3833 18.8536 31.9103024222
4.8227 17.4639 17.4671 31.8517078471
8.73905 19.3467 17.022 28.3775781481
2.36504 23.9924 19.0057 28.4924666031
0.56698 22.7186 21.048 30.8116588209
4.80102 22.4688 19.0554 31.6575986812
5.71395 20.892 21.2 32.1605625544
12.2304 23.9692 21.0664 29.9311152758
10.9027 20.4692 18.5299 31.3972847355
8.44896 23.4385 18.4988 28.678681698
11.4719 23.4268 18.4004 29.7587011624
1.26762 14.8104 21.6926 29.9358757764
2.25993 14.1413 24.2341 64.362383747
7.01705 12.5959 24.0686 74.9814205229
5.31311 15.7384 21.6322 28.7999428013
5.10446 14.6874 24.1466 69.4153228655
9.43831 14.284 24.2185 82.4889300939
2.87671 16.978 21.4364 35.2915893172
2.38906 17.6955 24.1602 57.2396757959
6.35841 18.0388 21.7076 26.0839075806
5.61875 17.7957 24.4504 79.0531530101
10.6198 19.1229 24.3698 69.0620720037
10.9551 19.4406 21.4373 32.0166210082
8.95074 17.2937 21.7018 28.8512700887
8.34084 17.0483 24.5027 84.2597334784
4.0314 24.2324 24.2283 83.154222698
3.18282 22.1958 22.2537 32.3610197164
2.401 20.6107 24.4639 97.9009341562
7.7219 22.9421 21.3345 31.2565423034
5.50738 20.6822 24.054 55.7661663203
7.35955 22.9256 24.3858 83.7361980591
11.8543 24.0339 24.3634 89.0315408199
10.1838 22.3533 21.9065 30.2742768212
9.89814 21.8148 24.6365 93.2908139837
2.17741 16.2032 35.529 99.5577508133
1.71973 13.2352 38.3957 28.6402825207
0.440921 12.4797 35.9776 66.5675359382
4.23203 14.2767 36.4865 41.6482125878
6.93598 14.0852 35.9084 68.5617055226
8.17785 12.5302 38.7803 31.1102905892
10.1276 13.9289 35.9747 61.1033936948
3.64993 18.5116 35.7795 75.6792690865
3.20142 17.5291 38.3649 26.9540984928
0.613133 17.7879 38.7002 26.2840549621
0.00354163 17.7634 35.9296 53.162916323
6.65114 18.8989 35.9654 65.3600978204
6.95242 18.9002 38.7719 29.9915661832
8.45068 16.5887 35.406 101.6399633295
11.0003 18.0348 35.7055 60.3845098239
10.8038 17.7508 38.2445 29.0241311369
1.40108 23.6502 38.5596 29.4093254183
2.88531 20.9817 36.2587 48.6968795021
0.46805 23.8593 35.843 76.2303951125
4.95549 22.8072 36.5201 46.3497866717
7.97738 21.3349 36.1131 61.4126037924
7.62554 24.4194 35.9902 62.1532293688
10.6523 20.668 35.9132 59.6499485158
4.0498 15.0343 39.2526 30.907607008
6.99662 14.9986 38.8925 29.6445387001
4.78327 13.9912 41.8693 31.3568048149
7.43312 15.0286 42.5285 27.532021955
10.3779 14.8946 38.8434 27.4108662557
11.0581 12.7507 40.3389 28.2916376632
2.54547 18.3877 42.1247 29.7138735627
0.166616 16.8539 42.0536 31.482597511
6.92185 18.1883 42.4269 29.8546962159
4.48497 19.3244 40.155 31.2475657265
8.53743 16.8822 40.0411 26.0398733822
10.3521 20.3656 39.6094 28.5893810229
10.8279 19.5804 42.398 31.906453945
10.0448 16.7396 42.8704 28.5112825956
2.29311 21.0195 38.8848 27.0673122834
2.25081 21.1953 42.9177 32.2807260405
0.435444 23.5906 42.7521 28.4583398738
6.67256 23.5605 41.4719 27.2326679387
8.01486 21.5158 38.9895 26.9218079227
5.11883 22.4596 39.1262 27.7393320084
8.65107 21.9906 42.0234 29.1169406613
3.23098 13.1984 43.9429 31.9705379824
0.542274 13.6849 43.3198 32.5408965369
1.83861 15.5283 47.5455 30.6723479695
0.143808 16.0684 44.9295 30.4662472815
4.24903 15.0035 45.8963 29.666396332
5.7166 12.7855 46.7472 30.0914820234
7.18117 15.8386 45.2083 27.5616145315
8.4294 12.6959 46.1341 28.1894476874
9.88285 14.7538 47.1411 33.1177651288
11.569 13.7213 43.3561 29.4222293328
8.91121 12.9243 43.541 27.6855594851
4.06978 19.1828 45.8402 26.0112385822
1.6258 18.5843 45.2438 26.4009564368
4.70875 17.1829 43.6721 29.5140444284
7.1206 20.3956 43.9441 30.8319146639
6.04254 17.8019 47.0461 29.0884703893
9.56136 17.4811 45.6024 32.5577472253
8.89028 20.0191 45.8726 27.5275870968
12.077 19.3629 45.1761 35.1948164335
4.52559 21.8436 44.4727 30.8405862205
4.4198 22.1373 47.188 33.6176273676
5.07729 24.4247 43.4582 31.2875340925
8.53316 23.6881 46.8212 30.4971299441
10.7283 22.1721 45.8936 31.2037919628
10.7341 23.4684 43.2241 29.5643105694
3.14558 13.5319 51.1774 29.0311737266
2.61439 16.3179 50.4127 26.8869045365
0.223572 13.5409 48.3803 31.8549001652
5.98021 14.1386 49.6289 30.1207859707
6.88784 12.7316 51.7854 26.9441372605
8.98423 15.3233 49.7659 31.4181086542
9.53317 12.7311 50.7822 35.2297939449
2.66982 19.8971 48.4503 31.825906185
0.3813 18.0129 47.7444 31.7577575656
3.06548 18.9997 51.0497 31.2936241673
7.74597 19.8613 48.4704 40.2389504841
5.33927 16.8723 49.505 30.2409668592
8.08726 19.3735 51.7816 29.2504860964
10.8585 17.0089 50.8844 32.0357355919
0.73577 24.2665 49.5266 30.5447646915
0.582954 21.7548 48.2934 32.6724677117
6.76933 22.6247 48.5128 29.1831656279
8.15924 22.2939 51.0782 34.2872733663
10.7003 23.178 50.6512 30.7440530375
0.463356 13.3259 53.9472 30.1511443429
0.51297 15.2151 52.0222 30.295128429
5.89992 13.9171 53.7382 25.1324633684
4.34724 12.7493 55.6425 30.3126575504
4.54865 16.3195 52.8955 28.8799693007
7.7665 15.7799 54.7591 28.1551262106
10.5877 13.2684 53.3724 34.5797993558
11.441 15.789 53.5237 30.380092244
0.487119 19.3891 52.4741 33.9263344288
0.75653 17.1012 54.358 29.90971866
3.31459 17.7842 54.9811 27.7400626105
7.30509 16.8022 51.9735 28.6129995041
4.20346 19.6547 53.367 29.8864025165
7.0363 19.5696 54.2201 27.5673072769
10.2788 17.0314 55.8908 30.1186061319
10.2954 19.5426 54.8709 31.6122920835
10.8721 19.4487 52.0188 33.1544456628
0.245277 21.6431 53.8241 30.4889817381
2.99063 22.09 53.2217 35.1924195624
4.0505 23.245 55.4958 27.3650746996
6.83739 22.5716 54.8599 29.4782397718
11.2558 23.9492 55.59 32.4017554665
9.31773 22.0077 56.1681 30.419744737
1.65649 25.9196 3.84115 29.9324162552
4.31295 27.7805 7.04731 28.4777021403
7.02525 24.9254 6.92618 31.2031953766
6.676 25.3134 4.07762 29.6372337745
4.34981 27.027 4.37318 29.28570798
9.98861 27.7078 7.96959 35.0845928089
10.9276 26.286 4.35331 28.7480122692
10.2253 25.3025 6.8183 31.9471894476
2.78788 30.1403 6.99537 29.2831246196
3.34092 31.6445 4.60487 26.5741786426
0.493537 29.0914 5.94269 27.3434422039
5.29647 29.5674 4.48119 28.9650781764
7.65118 29.9816 6.3219 32.0710003497
10.8099 30.2006 3.79684 26.3967630231
11.0942 29.9616 6.54186 29.2909562164
0.692831 32.776 4.97189 27.6833148303
3.34434 35.3816 6.465 34.9171531945
5.02419 33.7068 5.05777 33.7090220656
7.46327 32.7341 6.27205 32.6886450621
9.61035 32.8053 4.28801 28.5616357028
11.3398 33.6273 6.27575 28.8428145278
9.8701 35.8133 7.09042 28.3568719318
11.4506 36.1021 4.16334 29.9736722238
1.30918 28.0818 9.00152 27.1724126027
3.96881 26.1224 10.9766 32.5701333397
3.10709 25.6714 8.45662 29.253740624
6.95969 27.6725 8.41674 29.4624908847
6.78886 26.1344 10.7778 32.7997084334
11.5363 26.3055 9.93855 28.7162337818
10.9717 27.5933 12.3724 29.627038015
3.33866 29.9668 10.2674 27.9581132094
1.13353 32.4632 8.12103 29.4443051649
0.385055 28.6213 11.7177 30.9445182976
7.15695 30.1745 12.3572 30.402141814
6.14322 30.3081 9.86875 32.2154048792
10.0273 30.3931 12.0542 35.5793477769
10.4798 32.4161 10.0817 32.8080083329
1.79664 35.2988 8.95505 29.5288484592
2.49823 32.7521 10.7223 32.290407582
7.67889 32.7557 8.92428 29.7186090322
5.44567 33.5723 10.443 31.6369372173
4.8777 36.3679 10.0894 30.3031081416
8.31354 35.4903 9.40492 30.2353727401
8.73803 36.0145 12.2943 29.6549291198
11.2656 34.805 11.345 29.0163142357
2.2371 28.4799 15.0604 27.7473450911
0.692978 26.6082 13.6564 31.7905552797
6.48237 27.7952 13.3582 28.7476716593
5.31375 28.3739 15.9363 31.4384220343
4.65364 25.698 16.6511 31.5594400213
9.04212 26.1517 13.8308 29.4059040678
10.4812 24.9624 16.0197 27.3492294503
8.39225 28.2027 16.1175 31.2374354318
3.80205 28.8442 12.537 27.9422484946
0.463798 30.6705 15.8622 27.3588794256
2.75984 31.6393 13.7548 33.1276487476
6.26318 31.6655 15.7466 29.7864580126
11.7164 31.4462 13.9977 29.271709269
11.4207 28.8817 15.3355 30.5263266751
1.19569 36.7057 13.0065 29.9109028596
3.53259 34.3561 13.5671 27.9079035369
3.42104 34.5899 16.2827 26.7199694398
5.93115 36.0195 12.6612 28.2639159493
6.40196 32.8817 13.2949 30.7827058232
6.09056 34.0479 16.781 29.3643793942
10.5428 33.1184 15.6588 29.4504618272
8.41645 34.7132 15.0575 30.6116727747
2.20562 28.4015 18.6946 29.5999185011
0.0997378 25.5656 20.9365 32.0651682075
1.84823 26.1239 17.026 27.684766569
5.64498 26.856 21.0874 30.8945608053
6.19876 25.0219 18.9191 28.9435433484
10.1947 27.9621 19.977 33.8710505084
8.91808 26.3399 18.0496 31.912386939
3.75418 30.4486 17.4735 27.4212059945
2.13992 32.4931 17.1722 28.4931730958
7.98275 31.4097 19.5661 31.6671676195
5.06304 32.0831 19.2352 30.5683978755
7.86827 28.7225 21.2288 31.9355172976
11.593 30.252 18.6877 28.857057725
9.01642 30.96 17.0091 30.2670776516
12.0071 32.4101 20.6698 30.8907315831
3.84433 36.678 18.6303 32.2298345093
1.22659 34.8306 20.9456 29.6883625687
1.0999 36.5309 17.4796 32.4262729237
7.84617 34.5062 19.171 31.2363319261
5.94118 35.7097 20.8148 30.0181219654
2.97224 25.6725 21.5265 26.7335154186
2.17713 26.0977 24.2476 80.3008768358
2.7108 28.4295 21.4092 24.9591813702
6.5295 25.3308 23.1393 34.4986635597
12.1151 26.7975 21.2898 30.973830057
11.074 26.9376 23.9094 44.4041838166
8.39042 27.3274 24.2491 100.4319223556
2.39979 28.7905 24.0474 56.4051714803
0.819799 30.7173 21.7769 33.6452862871
4.98637 29.9572 21.3483 30.2858286429
4.65198 30.4092 24.1148 93.2580572598
7.70653 29.9634 23.9794 65.9444873114
9.82132 32.0418 24.12 63.1537530841
2.79457 32.6895 21.2707 29.5188678536
1.2652 34.6824 24.2445 88.369121379
3.63558 33.1163 23.7056 55.8581799142
5.54456 35.2157 23.5866 41.5000666086
8.16115 34.4891 24.3863 98.0447476193
12.0236 36.7495 21.4462 27.6347200473
9.33525 33.0481 21.4926 31.0323783087
9.30102 35.9293 21.7706 28.3397953495
3.0951 28.2361 35.6618 90.3088338449
4.09761 27.6104 38.0851 28.2955476043
3.38213 25.1598 36.2165 46.8953613332
5.78493 26.3649 35.3393 113.441814446
6.80618 27.0855 38.4068 28.6562145802
10.9939 27.6491 35.7451 64.2798382164
11.1911 28.0684 38.4353 27.2655889896
10.4419 25.0046 36.2206 45.456124358
0.634308 28.9961 36.8773 31.2374512608
3.94832 30.2576 38.5556 30.4097693189
4.4633 30.895 35.8639 83.1006263173
6.81818 28.9557 36.1928 37.8733206129
6.62809 32.6216 36.7049 35.7930017192
9.3422 31.8013 36.962 27.3887108443
9.24714 29.7745 35.3155 123.2834728948
11.8525 31.3851 38.7675 31.0479666599
3.68083 34.2042 35.6942 101.3234821982
1.27316 35.8494 35.9666 56.8404828852
0.836007 35.7557 38.7512 32.0836111105
7.96958 35.2611 35.9781 60.7909536912
5.03071 35.1275 38.1597 30.3251240332
8.12303 35.5019 38.5348 34.2501824358
10.4418 33.8326 35.5408 109.7773242891
3.71878 24.8896 39.6636 31.5958860298
2.52862 25.2091 42.3341 30.628242242
0.70888 27.1709 40.5623 31.8099803751
7.40053 26.4539 41.5637 30.2797401396
7.90045 24.739 38.9483 26.9414470803
12.0666 27.3931 41.9702 30.3511115149
10.7628 25.5456 39.0858 29.7526662684
10.1947 25.6357 41.7725 24.7893514041
0.45769 28.8223 42.8287 31.5203264945
1.36722 30.1383 39.8626 30.8366806733
2.13605 32.1515 41.5962 32.9497138583
5.78721 31.8787 39.531 28.938530205
6.50672 29.2201 40.8161 35.0591488984
8.70274 32.0101 39.8645 25.5630022783
8.82078 32.1388 42.4527 29.1203944957
10.1744 29.4077 42.9498 27.4597096214
9.41303 29.395 40.1307 28.7244797841
2.06862 35.5664 41.7571 28.2651711433
4.32922 33.8492 40.9145 35.2873883051
10.6218 35.2046 43.0274 33.2296722323
10.5152 34.4566 40.2329 33.2866474126
0.982481 25.8562 47.4424 29.947359058
1.86704 26.6959 44.4669 34.1947673936
5.38655 27.0426 46.636 30.1657435153
7.04957 25.2036 45.1932 30.200242577
8.5792 27.1181 44.1957 27.9058435664
11.3625 26.9549 45.3189 28.8113258076
3.41643 28.7601 45.9689 29.8930636378
0.202909 31.8246 45.5545 30.4925956232
2.2407 30.6422 44.0581 31.2601241394
6.73661 29.9509 43.6013 35.0007174499
4.91268 31.4816 45.1123 31.0804542763
5.94211 30.1287 47.5435 28.1973597842
8.40526 29.7419 46.2713 31.5969951703
9.66147 31.9621 47.2358 29.0811401127
12.0051 31.659 46.0056 27.9119464239
11.5425 32.3314 43.2535 27.3366025016
0.711579 34.9123 45.0182 30.8232161501
4.03402 35.6908 47.4095 30.3027559211
3.34821 35.9509 44.2672 31.290453114
5.36956 34.1219 43.7666 33.636676929
7.79252 34.0173 46.8793 29.3147136019
7.91605 34.3337 44.2154 28.9960656659
3.57072 25.034 47.7967 32.6009478722
2.59154 27.7336 51.4164 26.0944465458
3.07994 24.9173 51.1585 28.5646690208
0.677617 28.0425 49.3993 29.9419103703
6.06119 27.0856 49.362 28.4638277725
5.56048 24.6478 50.2738 28.5050067297
11.6273 27.3339 48.093 30.0687444675
8.57146 27.0431 49.9443 27.8808943966
10.0533 25.1422 48.7692 28.4598160857
2.52309 29.9299 48.47 31.9300245578
0.356082 32.174 48.5371 30.3659160519
5.05083 32.6067 50.6679 27.4348438501
4.87627 29.5295 50.291 25.8928534259
7.36816 30.3449 51.3119 28.7126771003
9.84165 29.2213 48.9592 26.8865746022
12.2274 30.5381 49.9364 29.4475390357
11.0986 32.6426 51.2464 25.5062052623
1.50686 34.529 47.7687 28.4689443933
1.52819 35.6114 51.4862 29.6265296108
2.23997 32.9479 50.6943 27.0460117837
0.163107 36.4577 48.8954 27.2525829379
7.68681 35.7723 50.146 30.0545192933
5.28965 33.2193 47.8827 29.5760420024
4.64044 36.324 50.0679 27.6438762883
10.732 36.0299 51.8447 27.5698169038
8.35526 32.9019 50.0539 28.3809151379
11.4834 34.5594 49.455 27.2209449468
9.7107 36.007 47.8394 35.0272995346
1.40926 25.487 53.65 27.4965068438
0.633349 28.4403 55.315 29.6812775744
6.98022 24.6569 52.6983 31.653716099
4.56599 25.5866 54.0858 27.9643616598
11.1374 24.8097 52.7907 30.2286117
9.34701 26.6767 52.7452 30.6894686546
8.78469 26.8792 55.7701 30.5536249313
1.33907 30.6539 52.1405 29.2378509563
2.65766 29.9286 54.5912 25.5781865533
4.39728 28.6188 53.4674 33.3707269495
7.32 30.8801 54.0156 27.7256843427
8.12503 29.4441 56.0445 26.8594247174
11.9615 29.3791 53.9864 27.5330739026
10.0389 29.4575 52.1803 27.1883323539
9.67411 32.1324 53.9044 26.5342660059
0.52722 34.3484 55.3688 30.4747884748
3.21475 36.1216 53.8176 29.8438031183
2.54289 32.7931 53.8689 29.0569039863
5.68541 34.5196 52.4013 26.8150678186
5.28914 32.8344 54.7701 31.5063157477
8.57865 34.5881 53.0449 28.5638357369
8.78964 35.7809 55.6436 31.3092699716
3.74095 39.8682 5.31334 27.9832367304
1.21288 37.5148 5.75979 29.8435174448
5.09693 37.2509 5.27665 29.6182149946
7.749 37.5205 5.59689 29.6415282521
11.4169 37.9559 8.01576 31.8758047616
9.18139 40.2303 6.0222 28.2620728849
11.6544 38.5389 4.98394 26.5821872011
3.43404 43.2523 4.79566 33.6332633932
0.877601 41.4859 4.83329 30.4252103693
0.887476 41.9137 7.9069 31.9485624795
6.5001 41.1671 6.2794 29.0173141092
7.43743 43.5121 7.38227 29.4396982627
10.463 42.3448 3.95963 27.2945000596
11.7181 43.0423 7.89537 30.0886610416
9.74777 44.3773 6.14943 29.1162931557
1.22579 47.3604 7.85792 29.835353489
0.893803 46.5728 4.96098 29.1439741315
5.52362 45.1617 6.31558 30.8782487727
6.42527 47.8641 5.76193 33.7193596726
11.6952 45.6124 4.50154 29.6569795851
8.51068 46.5343 7.98622 31.6847492599
2.2801 37.6373 10.5994 27.3678669562
3.84995 39.7776 12.0637 30.7813866821
1.69179 39.2018 8.17303 29.384982008
4.69695 39.8659 8.1416 29.2568740773
6.84689 37.9472 8.68482 29.2218675298
8.05165 39.6792 10.4872 31.1959991099
9.88251 40.2866 8.72676 30.5635599201
3.20597 43.2668 9.69117 36.5261703563
2.09856 44.0822 12.2941 35.4286158952
5.32915 41.3565 10.3758 28.536326308
7.32718 43.3154 10.4633 29.7878094453
10.1991 42.854 10.6386 29.3697484071
3.54772 45.6578 8.22385 33.3724065184
7.22641 46.2062 10.6779 35.9106614742
4.42896 47.3541 10.2435 33.3390047234
10.9248 47.0844 9.12027 28.6239539935
11.4136 45.1294 11.0488 28.3424497321
1.33137 40.0115 15.6427 32.8737784209
2.95903 37.4901 15.1735 28.5997041973
7.70563 39.8919 14.7254 32.6495626929
5.42556 38.5582 13.7269 32.5334555882
11.6019 37.0331 14.1562 29.3784483305
11.4318 37.8058 16.8299 29.9779843217
9.34133 38.7695 13.0176 29.6462844045
2.06394 41.5699 13.3455 32.5278560529
5.43376 43.6736 15.3295 33.4947140564
7.36551 42.6833 13.438 34.6520894637
11.1957 42.4111 15.0945 30.238125627
11.0386 40.9478 12.5959 30.4561148567
9.26176 44.3317 14.6544 26.8615853587
2.88367 47.5102 12.6049 29.2207889778
3.19064 45.2676 14.8416 28.3351846289
2.04014 47.4294 16.8299 29.1523990584
4.47597 48.6253 14.4252 25.9561598059
5.55218 46.7675 15.6453 28.566507312
10.4769 46.0537 13.214 26.5929910733
8.43231 47.545 15.4443 30.9812605949
8.42151 47.8578 12.5111 30.065887963
2.19735 37.436 21.154 27.3460763316
3.61403 40.2715 19.9866 30.0556935341
4.41902 39.3608 17.4215 30.6686742909
7.85211 38.0437 20.5333 29.4213377961
7.18451 39.2171 17.5294 31.266276105
8.83519 36.8022 17.1962 35.0788262893
0.994384 41.4704 19.9047 29.4542279122
3.49158 44.8378 19.1015 26.6947116595
1.39038 44.248 16.89 27.4360562011
3.34471 42.1693 17.317 31.1635537918
7.02237 43.3538 17.6625 29.9151033226
6.3989 43.914 20.3649 25.47824953
10.9643 40.8852 17.2456 30.5222713552
8.49083 41.3796 19.0204 27.5584079678
11.1536 42.5599 19.4238 26.310903269
3.18433 48.4855 19.4839 29.0579602842
0.201757 45.3985 19.3604 31.6355718951
5.04701 46.7695 18.2653 26.118745952
7.48992 47.1427 19.1984 30.3037831614
8.99199 45.0933 17.1041 26.9799910237
11.3587 45.1185 18.2197 32.891720092
11.3686 45.8016 21.0556 31.26830061
2.19853 37.3853 24.1102 61.2967708377
0.51449 39.5019 24.0036 56.6181101041
6.53949 40.221 24.8249 103.1483744667
7.2665 40.5882 21.9239 26.2388256703
4.85522 38.225 21.6929 27.6813491719
4.89052 37.9372 24.5312 92.2347196257
9.44403 39.4291 24.238 56.2403534157
9.95351 36.8701 24.5069 82.6795209878
10.4812 39.3296 21.4111 29.9248686648
2.27484 43.0464 21.8223 25.579421923
1.71612 42.1093 24.3416 87.7719530308
4.93944 42.2578 21.7168 25.6402290106
4.95114 42.9768 24.3805 68.8336933223
8.50221 42.594 24.1601 57.1935582056
9.2075 43.016 21.5398 26.5422041549
11.4155 43.7737 24.2486 86.5823031232
11.6847 41.0981 23.8305 43.9342812994
1.1175 46.2277 24.2256 64.9930426343
2.24763 45.9184 21.5114 25.7210900638
3.87841 46.342 24.6745 103.3617284925
1.0526 48.9184 23.9768 71.2072482391
0.763884 48.9301 21.2769 38.9086192757
4.98616 45.8076 22.0502 24.8525433101
7.00297 44.954 24.0685 50.5349918574
5.48221 48.8291 24.1987 55.938686597
5.94019 48.5843 21.5215 29.9091675481
11.0528 46.5855 24.1843 66.9869256609
8.45152 46.0792 21.5597 27.9015382265
8.33753 47.7192 24.4987 96.2567137333
11.8316 48.7381 21.411 34.138293415
2.54764 38.3652 35.7442 75.4860331804
0.80195 40.3628 38.3601 28.0059697989
3.68345 37.666 38.514 27.9836225804
6.84742 39.3288 36.0098 59.6652881311
5.31079 37.0186 35.5738 85.9784302128
9.79502 40.7992 35.8409 80.0191553043
9.56866 38.0367 36.0473 62.8637172709
12.1858 37.0926 36.4181 39.6945382972
2.79178 41.2033 35.8928 76.7446159618
1.89703 44.1703 36.1178 58.3924804434
3.70731 40.964 38.6617 30.1258510606
5.5596 41.6809 36.3209 54.2636263107
6.65607 44.5134 36.1862 56.380792905
9.18291 43.937 35.9768 67.2975997192
12.2615 42.5941 38.5109 32.1535115175
9.52712 43.9318 38.6711 26.8188971026
0.895921 45.2609 38.5198 26.1514278477
4.22895 45.8955 36.0287 72.3204948489
8.06788 47.1641 36.0413 63.0376213947
5.55343 48.4644 35.7325 80.2494233835
11.139 46.1562 35.6797 87.4776309158
10.8127 46.3547 38.3405 26.6799454647
3.89358 40.6122 42.2163 27.1242565605
0.80292 39.3828 43.0675 33.1972248735
2.35259 38.5225 40.7845 30.469871737
6.35387 38.7743 38.9935 32.8960700742
6.86009 40.0167 42.018 26.572953561
9.59383 37.9592 38.9495 27.7110076703
8.9244 38.5118 41.7758 30.6409280245
2.34354 43.5639 40.71 34.3324172222
5.31605 43.1483 41.5784 26.0092460743
6.82803 41.7413 39.481 26.0445380843
9.52758 40.9442 38.9068 28.4412286137
10.5172 40.9654 42.1688 26.7429347686
8.68981 43.1368 41.7581 29.3467946691
3.85733 46.0605 38.7985 31.4452141637
0.601705 45.6844 41.8221 29.0908401168
2.19331 47.9855 40.6302 26.1041896613
7.98974 47.6408 38.9385 26.3135042871
4.39526 47.8403 42.569 31.4706154546
6.6708 44.9371 39.3745 31.7028613398
9.6808 47.2566 41.4385 28.6817264833
1.41713 38.6056 46.9874 30.7311001778
5.34582 38.3953 44.0787 36.2021589928
7.14641 39.8944 47.4526 29.2911875249
4.41015 38.7386 47.2779 30.7233676805
8.26489 37.0682 44.2217 32.9064411944
12.1509 40.2512 47.1991 29.4724821221
9.56919 38.6911 46.476 27.5391090479
11.2235 38.6393 43.951 28.1491347959
2.0119 44.3446 44.1526 33.9045705796
2.47776 41.5838 44.4211 27.8553138308
0.842863 41.1912 46.5178 29.4820215169
6.5087 44.6108 45.699 27.9074635439
6.86667 42.3233 43.8879 24.5623761565
4.96015 41.1969 45.3584 25.3550994647
9.48951 41.3334 45.4117 30.2528693924
2.02434 48.9642 47.0074 29.3653330202
1.8039 46.162 46.4431 28.9891007386
6.61979 48.809 47.0602 29.1514662383
4.33318 48.5835 45.3133 31.0959134657
4.84707 45.2597 43.495 31.7993299209
8.90303 45.4826 43.442 31.7799617535
8.55448 46.6828 46.1862 26.6642855545
11.0199 45.6178 47.0227 30.5484892423
11.6761 45.0247 43.9621 33.5142150612
9.99731 48.9967 45.4244 35.1733303537
2.23623 38.2579 49.9223 31.3657606079
0.81292 40.7499 50.8626 33.7847717114
6.46682 38.9208 50.148 27.5871062046
9.85032 38.2602 49.8776 28.8267466727
1.68127 42.5328 48.6859 32.2849707873
0.714911 44.734 50.0092 33.8806067975
4.64209 42.261 48.0888 27.1087912743
7.76374 42.4938 47.6321 29.3878544613
8.0303 44.0584 50.3102 28.7590566601
5.42309 41.8648 50.6048 31.6301524347
10.942 42.8477 47.9193 29.5349297185
11.6519 41.9484 50.4552 31.9956755145
3.00158 48.6082 49.398 28.3249478916
3.41895 45.79 50.8211 33.3200997054
4.29392 44.9685 47.5655 29.3030218333
5.61826 46.6075 49.2041 26.1366430819
8.48646 46.3093 48.9926 28.7066799089
12.1771 46.1662 51.5491 29.6398660664
11.1972 47.619 49.4568 31.8435762934
0.803252 37.2581 55.513 29.8255776506
3.08006 39.1175 55.2079 29.1700773737
0.688117 40.6945 54.1065 30.8471386242
6.56927 39.7499 54.583 29.4726428124
4.9209 38.5177 52.5923 27.1633250318
5.7555 36.9028 55.1148 29.6096111564
10.7559 38.6565 53.4593 32.5847857482
8.37785 39.6864 52.0878 30.0139122342
8.93998 38.7631 55.6245 28.3034144905
3.71115 43.1081 54.168 30.9334817959
3.31497 40.9112 52.3042 29.0060015028
5.77473 44.4266 52.4288 29.378343218
6.18352 42.0697 56.1438 30.4972102271
8.43056 43.961 55.3957 31.2246661727
9.29357 42.3497 52.3814 31.4645766166
11.8249 42.4927 54.2594 27.4738275911
0.365296 48.3279 53.3123 28.1777266948
2.97155 46.1555 56.1426 27.7052330228
3.36203 48.9284 55.6042 28.7403846862
1.75966 45.6471 53.518 31.6828498222
5.76306 45.4109 55.2564 29.0268171748
5.6762 48.1787 54.3011 28.4282972349
7.1688 47.0586 51.9781 33.5561209227
8.11854 48.5251 55.6301 34.8618947786
10.1515 46.9186 55.2829 28.9817137934
9.51188 45.5949 52.8475 29.8261188641
12.0778 47.92 53.6263 30.2309482892
15.5967 2.27792 3.96068 32.223454956
12.5114 2.04631 3.89792 33.5829621282
16.5928 0.744883 7.21372 29.6944832892
18.2644 1.56071 4.82144 35.0063112324
23.6314 2.46456 5.03711 30.931002341
23.0846 3.83824 7.53549 30.9666745183
15.4649 4.58599 5.26242 27.8753405472
13.2839 4.62524 7.35702 30.5336954722
14.4494 7.81563 7.73435 27.1309243038
12.3273 6.95456 5.94203 26.8637430136
17.8986 5.51321 5.58121 28.6181757809
21.6136 4.25507 4.25204 30.710559018
20.5374 5.76256 6.33428 30.2827495406
13.6524 10.01 5.61815 27.2876185697
15.4984 12.2027 5.48592 31.3341090081
15.8867 8.8426 4.22397 27.4521174959
17.4384 8.18388 6.21732 26.97686894
19.4163 10.0762 6.01408 31.5729689617
24.0882 9.39786 6.54093 34.2339419618
21.4044 8.25916 6.89893 30.8327954375
12.7461 0.270939 8.61395 29.5806801269
15.3332 2.83482 8.7785 32.3238982607
14.1108 1.20057 10.932 36.0554709109
18.5395 2.37881 11.3831 29.5693390735
20.4399 3.97184 8.89162 32.3224435183
18.3251 0.0352971 9.11013 31.1238367903
24.2439 1.85204 9.53342 28.9006189316
21.6277 1.00969 9.54889 27.1355249155
21.3032 2.01581 12.0621 29.6749353046
15.9424 5.85188 11.5663 34.5099837577
13.3117 6.03656 10.1942 32.1026288287
16.9565 7.36996 8.84313 27.8925546337
17.5724 4.66163 9.18458 31.967992992
21.7178 5.93788 10.572 32.1692173961
24.2017 6.64453 11.6283 27.894388091
15.564 10.7927 8.19047 31.216995824
13.4527 9.26441 10.2653 30.264124454
14.7176 9.63188 12.4336 29.6272262893
18.6348 9.09969 10.1543 30.3058666284
18.5837 11.4627 8.44648 31.4485171478
22.1277 10.2718 11.5839 34.9125587407
21.1766 8.45088 9.55636 32.6869220502
12.3229 0.562607 15.1346 35.6254029199
14.289 1.95211 16.7656 33.1066910586
18.2703 0.175753 13.0959 29.1331905931
17.8157 0.2918 16.5961 30.8478721824
16.5953 1.89801 14.8158 34.8234112187
23.1919 3.26294 14.178 29.2577699037
24.2514 0.342357 13.2429 29.8522193906
14.4106 5.09762 16.3259 35.4087136397
17.7535 4.57584 13.2246 30.9049551024
20.4164 4.84165 12.6672 35.5714841066
17.1781 4.8494 15.929 32.0800396642
23.6976 7.20145 16.3496 25.6682652192
21.2289 5.81406 16.0132 33.8252578441
24.3543 5.74196 14.1717 26.7799270245
12.8988 8.64418 14.6664 32.0428425556
15.5379 10.4676 15.4481 29.0226132458
17.1179 8.32269 12.5943 33.5626719336
18.2204 9.22678 14.9862 31.1512676126
19.551 11.428 12.4976 30.017197846
23.9276 12.1586 16.0424 31.2422425837
21.0316 10.1539 14.7366 30.6307866034
23.9952 9.60401 14.627 27.8451405674
13.4459 2.92576 19.2373 30.6621997934
14.3507 1.11867 21.1145 28.4828656336
16.1788 3.53742 21.2508 31.8599395475
15.7363 0.0390397 18.4527 33.3101395692
18.7844 2.80409 17.6363 36.5145925682
18.963 2.98235 20.415 31.9044752402
19.7506 0.396809 21.1757 33.2136227761
24.0163 1.87274 20.9731 34.8955094331
22.4689 0.398446 17.2127 29.9165433995
22.0454 0.0254639 19.6619 29.5591718786
21.7888 3.20681 17.0234 30.17265558
14.2365 5.58998 19.3589 32.4035149874
12.6097 7.48893 21.2464 28.080958614
16.9746 7.86731 18.9571 28.1628154869
19.5107 7.76408 21.1719 28.2114174622
18.7886 7.0048 16.95 30.4724483691
22.793 4.19782 19.5251 29.388811225
20.679 5.20715 20.7966 30.9467765095
12.9129 10.5471 18.1871 29.2219616956
14.5965 8.21698 17.5 32.7311919447
19.0759 9.91883 19.2316 28.1769395127
17.3844 11.6798 17.6312 27.9823370732
16.4505 10.2519 20.6893 29.0192510151
21.9054 9.28933 21.2363 27.9726994727
23.6719 10.5907 18.3904 26.7087481077
21.3559 11.9919 19.2045 29.937051849
21.1533 8.90101 17.2714 30.6290415095
13.9771 1.47624 24.0544 62.0511424462
15.7476 3.52546 24.0589 67.1900888468
19.9752 0.122345 23.7128 33.7610545783
18.3241 2.49223 24.3116 98.4207739108
22.6825 3.63587 24.1556 87.3232933395
24.24 1.34091 23.7412 39.6175615193
15.1763 6.5471 24.0559 62.0216481104
12.7669 8.01288 23.9619 51.1059724108
16.473 6.28967 21.4781 31.7624764873
17.2661 7.99896 24.4432 103.6216910995
19.751 7.48837 23.8858 50.5961788859
20.0932 4.50365 23.892 58.9059087732
23.1293 6.77856 21.5555 28.9644955345
24.1904 6.01122 23.9178 48.1863836977
13.5728 10.2245 21.4391 27.8176485763
14.0671 11.0449 24.2489 86.0900061556
16.8182 10.5172 23.4383 32.6259967679
21.2903 11.9776 24.2775 59.8104845379
24.2749 8.72832 24.4972 89.0639731686
21.3802 9.40692 24.022 53.6910429295
24.0735 11.7771 24.43 75.495109689
24.3264 10.6766 21.8049 26.9549974337
16.3748 3.00137 35.6462 102.6564343865
13.57 2.24561 36.273 39.8888625189
18.0325 1.25481 38.1897 29.3541047773
19.9341 0.167392 35.386 109.5222543599
17.1652 0.252602 35.6697 62.8267648103
23.8236 2.69459 36.0381 80.9811969721
21.1947 2.31844 36.6369 37.8967726669
15.7037 6.12031 35.8819 65.2250898175
15.3163 6.40084 38.7108 28.9447457151
13.1713 6.46585 36.0216 46.337237246
17.7742 4.12773 38.015 31.7502370568
20.5124 4.93912 38.2969 28.243403728
21.4023 6.19807 35.8433 88.1069299842
24.2207 5.6677 35.7113 78.3911967927
14.3888 9.1023 38.6369 28.8234993973
15.0682 10.5354 36.3681 42.6004165042
12.4507 9.04493 35.4781 107.3833988875
17.0168 8.35321 35.6815 93.0103865916
20.1299 8.30158 38.594 28.5046158481
20.0209 8.6889 35.5825 94.2911661881
23.0449 8.83561 36.1408 46.7888638604
21.7796 11.444 35.9327 63.4631942004
13.5979 2.33023 39.0171 29.1108784873
16.395 0.920178 40.5008 29.3415501003
15.7088 3.25787 43.0508 27.9979735679
15.5783 3.90057 40.4536 27.843569888
18.3272 2.40106 43.1042 29.2078746164
21.1344 1.47104 41.9872 28.6105360336
20.9222 0.878202 39.0292 26.8537661243
22.2076 3.88934 42.0675 28.7609225591
23.0303 3.67383 39.354 25.9027799544
24.4026 1.32634 39.6314 27.5099298848
14.1248 5.9957 42.1081 28.6801565031
19.5653 5.0547 41.6983 29.8503735065
17.9413 6.73753 39.8067 27.618380981
16.5779 7.66972 42.0526 28.5114535182
23.8948 8.10743 38.9621 30.3855490099
21.724 6.80367 40.5194 28.6720130664
15.9521 10.1554 40.8268 30.0267211461
13.915 12.0198 41.6474 28.2800355896
18.2724 10.324 39.6708 29.3504955352
19.9135 10.9206 41.9881 32.2678995755
21.854 10.8713 39.2863 28.5847901526
23.1665 11.6105 41.7834 29.5254286453
14.2629 0.860624 43.5496 30.821474866
18.1594 3.45491 46.3211 28.7734399968
19.6478 0.882484 46.9442 26.6495377303
16.5587 0.758077 45.2869 26.2872576872
21.9784 2.27305 47.2752 31.592713461
22.8413 0.32876 44.7996 29.8782594733
15.5587 4.47889 47.0779 27.9897718588
13.7731 7.65936 45.5902 29.0319704072
13.8529 4.77632 45.0577 29.5315879439
17.0685 6.96091 46.35 30.686677446
18.7862 5.53637 44.4736 28.6480192382
21.8643 5.87365 45.1147 30.9009728963
23.9119 4.11758 45.9604 30.0148133519
22.0523 7.72186 43.2213 26.9865005838
16.2969 9.20326 44.5497 30.5457393039
12.4985 11.2757 46.3229 33.8976832886
13.5428 10.5404 43.8995 29.6744926876
17.8607 11.2344 45.6664 37.1760808613
19.2057 8.23686 43.5223 31.7689993374
22.6854 10.186 44.2324 31.3826427042
24.4502 9.60734 46.5769 32.6885751483
20.8891 11.4534 46.0257 33.5595575581
15.063 1.19504 47.7897 31.933830416
17.6153 1.41255 49.0467 28.258043894
16.7364 4.01497 50.3158 30.9836818367
19.9988 3.88352 48.8155 28.5372051335
22.4109 1.41293 49.9581 27.9706675891
21.29 3.70729 51.2659 27.7250005426
14.0254 4.8329 49.6119 29.760212952
13.9795 7.58812 48.5259 27.5074408545
14.3704 6.19261 51.8594 26.2463897445
16.2588 8.12936 50.5233 29.163128093
18.0804 6.22824 50.5476 28.6924133584
18.8473 7.64868 48.3198 29.2529664429
21.2412 6.42191 47.7581 33.9038547778
23.2336 8.12708 48.8275 28.7289238341
13.1413 10.1317 48.8872 31.5881108307
12.8904 8.56747 51.5396 29.5904561253
15.021 11.8393 50.2096 32.274973534
19.3746 10.3524 48.2217 29.3816673882
17.9167 11.6504 50.1116 29.7649734471
21.5606 10.0428 50.1678 31.6899109437
15.8914 3.81204 54.4248 32.021552343
17.9053 2.57464 52.6111 35.4063996507
19.4637 3.14631 55.4549 30.944601582
23.4411 1.62774 54.4846 30.0541253262
20.7946 1.96714 53.0883 27.6200738281
12.8068 4.32676 53.5772 37.8649806005
14.2776 6.00522 55.9242 27.5753784957
15.7053 7.68887 54.2485 26.1475183874
19.6096 5.55472 52.7958 29.9533585394
17.6441 5.90749 55.313 28.0233512094
23.2376 5.62942 52.2957 29.1481571094
23.8502 4.81684 54.9058 29.7082750953
21.8448 7.52864 53.5734 29.0843613022
22.6211 7.27453 56.245 34.0636240001
14.3419 10.368 53.5818 27.5255664674
17.1945 9.98909 52.2618 31.0078143715
16.4681 11.3746 55.4708 28.8093574899
18.9443 8.40223 54.0994 29.8423602531
20.1424 10.1573 55.6673 28.9782933171
21.8152 10.2882 52.9267 28.8719685265
22.6769 11.9202 55.8731 29.6328721897
14.3387 14.4629 6.7788 32.1200761832
16.9375 15.5447 6.6903 34.8559766244
20.3387 15.2781 4.08791 27.4783299324
18.3745 13.1694 5.63042 28.7215583299
20.6329 13.9931 7.45433 31.6682512577
22.5431 13.583 5.65876 28.0294293388
24.3233 15.4603 4.84812 27.5579301771
16.0161 18.4875 5.95783 27.5658424394
13.5741 18.7944 7.6491 28.7527140327
12.8469 20.3494 3.76542 31.8636105825
19.8692 16.5381 6.66778 27.2562447312
18.5304 18.1166 4.33488 29.6055490618
22.4779 19.403 5.66449 28.2075210524
22.5918 16.9555 7.59235 26.6040517836
22.433 17.2444 3.96133 28.4342037859
14.2842 23.8326 6.87287 28.8909369351
16.1205 22.6179 8.0347 26.9193866415
17.1035 21.1353 5.97202 28.877850312
19.9835 20.9437 7.27633 32.3156162373
19.6958 21.1088 4.11614 31.4317346712
22.3794 22.1619 4.36362 29.6992417165
23.1894 24.1997 6.50618 32.93639198
13.6908 12.8769 9.41296 29.0901157345
15.2103 15.3301 9.59491 28.1156820204
12.7866 13.7653 12.4879 28.1367779061
13.3198 16.2437 11.5947 31.4672675037
15.3293 12.5504 12.3481 29.9541431149
17.4614 16.2018 11.6909 32.4532985252
17.643 12.9321 10.7379 31.8807136295
19.9633 14.4634 12.0539 30.3649714425
23.6568 12.9498 11.7439 32.2509233698
22.0003 14.3887 10.1196 31.6701482943
15.6782 18.2461 9.3595 27.7158082856
19.3661 18.2429 10.7841 34.3661649202
18.3141 18.7069 8.24472 29.3177954853
21.8801 17.2262 10.0999 28.40337367
22.8372 20.0451 8.60774 31.3757100324
23.811 17.6865 12.2135 33.2535553813
15.4367 20.6456 10.2005 29.2015467575
15.9047 24.008 10.8646 30.5644403998
12.7467 21.2178 9.41632 27.6820310425
18.2777 24.2767 8.5109 29.9307341742
20.0029 22.1827 9.87994 33.4528790853
19.0698 20.9342 12.1667 32.678553328
23.701 22.7525 8.90362 31.805268509
16.1215 14.0915 14.8 28.3419626584
14.355 12.9571 16.5865 26.3513226138
18.3748 12.503 15.1979 27.9632994484
19.6579 16.1265 15.9487 29.9612580714
24.1087 15.4604 13.7569 28.6600205386
21.4256 14.8945 14.3757 31.6920240514
21.355 12.9086 16.1271 28.9999705877
15.0955 16.9359 15.2299 31.8714803522
13.2979 18.3661 13.4538 30.9830660273
17.761 17.3476 14.1208 33.445160234
16.8983 19.9383 15.2068 30.0802016
23.9058 18.8783 16.6635 33.1486735272
23.7622 20.21 14.0065 30.361290579
14.0811 21.0296 16.201 33.2152783609
14.251 20.7876 12.8172 27.9186937183
12.3553 22.8317 12.5032 30.6789178359
16.8506 21.9521 13.2212 29.3158438029
19.1577 20.7536 16.7576 32.6953867144
21.4429 21.6315 13.4625 34.3405930408
24.0971 22.9071 15.2845 28.455370447
20.6116 22.8204 15.6539 28.9687964719
22.9749 24.31 13.1768 26.6701921652
12.8712 14.9681 20.8281 27.4893311024
14.2735 12.7837 19.8478 27.2168763275
13.1176 15.4036 18.1478 30.7242680793
17.2239 14.9954 17.6794 27.0153679643
16.821 13.2725 20.019 27.0583531458
19.8679 14.5731 18.5379 29.259939518
15.2133 18.6093 17.5159 29.7866984613
15.2475 16.4731 21.2578 26.4835454908
12.7954 18.238 18.7551 30.8783798298
16.8376 17.2165 19.2822 29.3515075736
18.7127 17.6966 20.9675 28.9892266037
23.2504 17.0721 20.9763 34.5913315623
21.0143 16.9464 19.4349 31.272572358
22.3899 20.2277 19.2825 28.0515928563
20.9072 18.6059 16.9096 35.0122854762
14.1917 23.2366 18.1131 32.6182396211
15.0473 23.5158 20.985 26.8354967689
17.9022 21.9147 19.0928 36.2199596541
22.4542 24.25 19.8936 29.101200703
20.8649 21.7735 20.9143 26.6821791738
22.5958 22.6548 17.8658 26.0959148864
14.9911 13.6475 24.3641 81.8271248907
12.3097 14.9429 23.8535 59.6808842119
18.4751 12.5334 24.461 102.3295188969
19.9603 15.2054 21.877 28.5452176572
17.1152 14.0417 22.5659 26.5996787987
23.3678 14.8357 24.7148 95.9571402405
22.0396 13.2046 21.7796 29.4023156946
15.3415 16.5712 24.1012 60.0492824249
13.727 18.8176 21.2843 29.1579827906
13.4618 18.7612 24.3145 71.6556576873
18.0879 16.8607 24.0282 62.393341209
20.1604 19.218 24.4399 91.7026403428
23.164 18.2972 23.6594 36.8048926443
21.0177 16.3659 24.4215 73.4581440212
24.2915 19.8789 21.2738 28.7462301602
15.7589 20.8671 21.5691 31.7923099019
15.2292 20.9323 24.5247 99.6279733991
14.5442 23.3896 23.7352 33.317430816
19.3321 24.0497 24.0637 52.2548115517
18.524 20.4337 21.554 26.4343722789
18.2019 21.3809 24.0729 56.8679188993
19.7497 24.3502 21.343 28.2030086118
22.3007 24.025 24.4773 104.1546184833
21.9667 21.2033 23.479 31.6411050682
16.4011 12.928 38.6998 28.8817055961
16.0826 15.6212 35.3775 95.6881590291
13.2247 15.2729 35.5726 86.8871308404
12.842 12.8296 36.5359 36.0920642412
19.4988 12.6476 38.5702 29.5485084702
19.5699 13.1819 35.9707 66.2014489154
16.5992 13.0859 35.9606 65.771939928
20.5157 15.5675 36.0088 61.9745015644
23.9277 13.2508 35.9172 75.8091777545
24.0931 12.4876 38.5433 30.5993148192
13.6221 18.469 35.8008 65.4181841477
15.4518 16.7276 37.822 25.7483683244
18.4096 17.4796 35.7917 62.0370283059
17.3749 18.8202 38.0595 29.0757279082
20.2431 19.6054 35.4984 87.5021214978
23.4427 16.3697 35.9756 74.7408153753
21.5913 16.8805 38.6878 27.7769668592
22.9464 19.3714 36.5768 33.4430177693
14.8893 20.9714 38.5856 28.5353303133
14.604 20.9729 35.8783 56.9510463854
12.3936 23.0021 35.5381 92.9279868417
12.3794 21.827 38.6695 31.2677872992
17.5279 21.2582 35.6487 76.5438040901
16.7738 23.1836 38.6371 27.7777585734
19.6336 22.4347 38.4389 28.7584903234
19.8472 22.9614 35.8459 50.3306296485
17.1233 24.4924 35.7323 69.4537208156
22.7842 22.0954 35.3465 93.4022887665
15.3035 14.5476 42.1186 31.9525457686
13.6707 13.704 39.0273 26.7829332779
12.8088 16.1731 42.3068 30.6273140961
19.5096 15.2521 39.7375 31.669179972
16.8522 15.4927 40.0425 27.6036481839
20.8461 14.9308 42.1759 30.9339328651
23.9451 15.1564 39.1377 30.5524295138
23.6423 14.4524 42.1904 34.5347195132
13.2646 16.5364 39.5839 26.636212268
14.8597 18.5756 40.6779 28.337077681
13.8743 19.439 42.8877 24.668609393
17.1855 17.4795 42.5543 29.055283682
19.7623 19.7182 39.1126 29.4431060905
17.9263 20.0004 41.357 33.426243895
20.7472 19.5602 42.3162 34.471836984
22.7574 18.5235 40.3707 28.0840607783
14.1845 21.9204 42.449 29.0792322437
12.7569 23.7249 40.784 29.1776322884
16.864 22.7241 41.3427 27.8092632791
22.4031 22.7165 39.6468 32.6836438711
23.0403 23.2006 42.4205 33.6390977479
23.899 20.6058 39.1158 29.8238462802
15.7802 15.4952 44.6987 32.3464562145
14.2381 15.5164 47.3428 35.4278165033
12.3415 14.0917 46.1334 33.4354426828
17.7191 14.081 46.195 30.3952653332
19.3542 16.2487 46.8624 28.9207209152
19.424 13.0839 43.594 35.7687283719
24.0314 14.3026 47.0732 32.2747674907
23.9729 15.8792 44.7191 31.959202631
15.796 18.4271 44.9135 32.9362515282
19.8775 17.0483 43.6238 31.8419910882
17.8474 18.9075 46.8382 34.8959666349
23.5162 19.5159 45.7019 33.7825861793
21.7645 17.4715 45.8707 29.6024484033
14.2834 20.8985 46.199 28.923042051
14.7444 23.0363 44.9947 28.7246967358
19.8468 22.6343 45.4448 31.4905085408
18.2564 23.7308 43.5204 32.4549153565
21.6777 21.297 44.2438 33.723511265
14.7305 16.1632 51.8886 30.040022545
15.8559 13.9718 48.5677 31.4152286413
17.0913 15.6068 50.4206 28.5108286659
20.0141 15.7694 49.8918 30.2572979973
19.6756 13.3469 51.284 27.168206209
21.2368 13.9275 47.57 31.5629912197
22.3166 12.5844 49.9535 30.0137405192
14.3933 20.388 49.1109 30.8568199424
13.1497 17.4184 49.6004 38.4365869474
16.7871 18.5297 49.6626 32.7215891986
19.4284 20.0362 49.9254 29.6765023448
21.4601 18.6085 48.6517 30.8013598468
23.9037 17.9993 49.3314 27.2465854247
22.228 16.7602 51.4163 29.133774662
24.097 19.4445 51.5708 29.2077058828
15.9613 22.9631 49.1115 29.0655523116
12.9695 21.1936 51.3798 30.3506579826
12.9842 23.2718 48.2253 30.5234025171
18.1128 21.4793 47.7262 31.0418430583
19.803 23.1911 49.9914 27.9068397161
16.7857 23.1465 51.758 28.9878750231
22.1956 22.5067 48.4303 34.7472118647
22.3074 22.1129 51.4834 28.8363149829
24.3693 24.0891 47.99 37.3504659942
13.5264 13.028 52.3156 34.7228594198
13.735 15.9708 55.3363 32.6011180207
15.2731 14.0193 54.1505 32.2678407967
17.6507 14.7768 53.0932 29.8364030012
19.0774 12.6635 55.3748 27.8189683149
21.1928 13.0363 53.5426 27.3700723263
23.6387 14.3134 52.7054 28.9490586717
15.2124 18.9575 52.2091 34.8842552344
14.8558 18.3783 55.99 31.244678824
17.0858 19.0578 54.5465 29.668354564
19.0496 16.6019 54.6055 29.4903940666
20.5215 20.3974 52.3945 27.1503205015
21.0459 17.8902 53.3698 28.9387560478
23.4619 18.8705 54.2625 27.1734776664
13.9497 22.6271 55.4759 26.6880749176
14.46 22.8441 52.9387 28.1189902602
18.4727 21.4565 53.6383 29.0728368269
16.7456 21.9482 56.0337 27.5015324907
20.7214 23.9208 53.1319 28.8253264793
24.1203 21.5294 55.1147 30.3576941622
20.5903 24.3279 55.8556 30.806579901
13.6696 27.0813 4.18501 30.9200238196
14.8926 24.6457 4.38718 29.1131559759
18.6176 25.9457 6.48738 33.257907096
17.8848 24.7299 4.0177 30.8259968657
21.275 26.689 6.56972 28.6419624473
22.2804 26.5843 3.79873 26.6049624341
13.7788 29.1439 5.86905 32.0826891099
15.2523 31.2925 4.77186 30.9874250122
18.9153 29.3237 5.96282 33.1920676609
17.9128 32.056 5.98905 32.5229451469
24.5562 31.6347 4.75114 33.4745786086
24.1832 29.3681 6.32534 27.4245064534
21.4141 29.5932 7.3835 28.4335137649
15.8417 34.2417 6.1989 32.1672736118
13.7512 33.8304 8.08997 30.3250783485
18.3577 35.2209 4.06123 28.9349213832
