11.3082 18.535 53.748 32.2792057006
15.7556 17.8604 53.2813 31.2628020287
13.0945 30.8268 51.9788 31.1968480193
14.9617 30.5029 54.4133 28.2947525604
16.6941 20.1692 51.5424 35.2050607127
9.94004 18.107 56.1369 30.9321777263
12.9032 22.2727 55.5924 36.3652206025
10.8528 21.2465 53.713 32.8776146042
14.0528 24.6831 54.7452 32.1524511331
17.0638 24.5479 55.2442 31.9722844521
11.0754 23.1501 51.5476 30.5193465913
13.1799 29.9823 49.3566 26.8901513877
17.3064 31.0383 51.0964 29.2941075985
18.4714 18.6826 49.6128 33.5502074923
10.5987 29.7238 52.5084 30.004413718
14.3587 21.2771 48.3421 33.0779230704
11.9951 19.6189 48.7704 33.8032670407
19.5488 30.7671 49.7892 29.4251788976
17.4664 20.6205 56.4386 33.6554142165
14.6257 20.1491 56.406 33.0877322432
12.7025 34.4827 5.36967 29.2199459708
13.1425 34.2248 7.98611 28.8455013069
15.6002 42.5389 8.0654 33.7235028748
18.6143 42.1151 4.64816 31.4281789934
16.3805 43.391 5.44817 33.143734398
19.2836 35.6423 10.1348 28.3721836706
18.6299 43.1209 11.2492 29.4747503079
11.3951 35.8868 9.59957 35.5310065693
14.4026 39.9971 7.80986 32.1124247305
16.6758 34.9625 4.13594 32.4221681
12.0456 40.8471 8.85347 29.0988911566
12.5869 43.5701 10.8602 28.3239928228
16.0777 39.3042 10.1539 33.1144841931
19.1659 33.5155 4.00876 32.8782513933
15.7187 34.4006 8.37543 34.4314062071
10.5861 39.1742 6.54993 31.68237087
16.8831 36.1241 6.69887 33.6137589751
10.5137 42.724 7.14408 27.0098690125
14.4666 48.254 11.2191 29.4667351575
17.4969 47.0283 4.3983 32.004056844
15.6805 38.4859 5.81108 31.736468014
10.3276 45.1711 5.83667 30.9074978582
19.4377 45.6831 8.07745 35.0692040533
13.1897 43.9936 8.15529 31.5590134232
10.1037 36.3891 7.02119 33.4696878833
11.432 33.3201 10.8042 32.2098313461
14.7381 46.7133 7.52985 33.9040031809
17.5858 39.3953 3.81779 31.9775816794
17.2141 44.5513 9.30363 31.3802528789
19.6032 37.2591 5.93907 31.0034304563
10.9797 45.2969 12.4769 31.1003837346
13.9465 36.6982 4.11849 28.7755107175
16.4655 35.3671 10.7194 29.3299324978
15.8562 45.5648 11.5678 32.4382159329
14.9073 37.5544 11.7915 33.0407384921
12.1032 37.9313 11.5984 32.0784787655
10.7145 40.0912 10.9698 27.4212866151
18.6883 38.3374 9.99371 31.4835739659
15.0095 45.7305 4.79128 33.1136138448
11.7846 46.9921 7.548 34.1103491786
13.2105 39.7269 4.99736 29.6456776397
14.2997 33.5565 11.5455 30.5993557239
11.5477 41.7793 4.57369 30.5896597346
10.1207 46.6518 9.83742 30.3269315854
11.7175 49.148 11.1051 29.6567214676
14.7032 32.9228 4.33109 32.4815491069
14.8664 43.0369 12.4486 29.9709626234
10.0641 32.8379 15.9734 36.8833681313
12.0071 34.7963 15.3402 33.5691859273
15.2894 39.9642 19.9479 29.6868236002
16.7828 33.1872 17.8673 30.5122347898
16.6151 34.0826 15.2196 30.8313447543
13.8732 46.4173 16.2462 27.058819314
12.2119 32.9804 20.6739 31.9463386058
15.4443 38.517 14.3708 31.2057322663
10.9272 35.3828 19.9763 33.1721788789
13.1868 40.2045 15.411 32.3506450289
16.489 47.8948 19.561 27.6143863254
17.0922 36.7163 15.4254 31.5574860215
16.4338 40.5451 16.2131 27.4392046179
16.4396 40.8217 12.3663 30.2810362558
16.5629 48.0415 15.5939 29.3526642772
18.6537 40.0503 14.4629 30.6810752738
18.2936 44.3998 13.7962 29.8067105106
18.1287 46.9075 13.1149 31.601643059
10.1941 39.4251 14.1447 26.9109777858
13.0322 43.639 14.8152 28.8513856091
18.0999 33.7439 12.7092 33.2388527119
12.9812 47.1265 13.5952 32.6946183074
16.8182 45.7137 17.5963 30.5094652672
11.4986 42.058 13.2139 27.2098111873
11.4153 38.387 17.0829 29.2055791276
12.3606 36.0772 17.7125 32.2491420883
13.6545 47.1848 19.9426 26.6131131551
12.5439 42.3396 17.1979 28.1917196017
16.3734 34.5032 20.508 27.8749213617
11.483 47.2949 17.5925 29.5457221099
10.7281 36.6377 13.6819 33.6190316322
15.9856 43.4673 15.6414 30.3953284505
14.907 36.1827 19.0074 31.3593476975
16.6414 38.2093 18.0193 27.9641271497
14.216 33.586 14.1832 31.5083877895
16.0711 42.7008 19.9373 29.6867949517
14.1551 44.2124 18.428 27.6610929517
12.3608 39.997 19.2181 29.4199690293
17.8517 42.0272 18.2002 30.6901430698
18.8398 38.2176 19.1952 28.1355315495
19.5505 37.4614 14.643 33.6412017649
10.9941 38.3347 21.3598 30.7761898392
13.8908 37.4726 21.3039 29.4073353998
19.4553 44.5189 17.4928 31.0978015136
19.5647 40.5657 20.3205 30.5263482624
14.1991 34.4785 24.3173 82.7000030387
18.8588 40.5727 23.0592 27.1218725938
17.3663 46.7426 21.9333 27.5620294577
10.6733 45.5951 21.2202 27.1759351591
11.951 38.1934 23.8409 38.9055141256
18.6054 36.4278 21.2416 29.6550777951
18.7163 36.7163 24.2985 84.9749265334
14.6187 37.195 23.9249 54.8204394194
17.367 34.1963 23.7301 47.0620010632
16.8715 38.7952 22.1786 28.7465056778
12.1676 44.4628 24.3743 84.9905425482
14.8133 40.107 24.2367 72.2765293727
14.8753 45.0809 23.7572 47.6958261923
16.9719 44.1522 22.1759 30.84872176
16.8546 42.0379 24.647 134.3486907987
13.2063 44.6855 21.2489 26.3553039845
12.406 42.0375 21.4556 32.2689493057
15.7758 47.7695 24.2564 88.9232479756
18.5973 48.3221 23.9029 63.063940427
11.5267 35.3053 24.2385 65.8520048032
12.0175 41.3274 24.3067 77.0715622448
10.413 48.8906 24.1211 48.7487134188
14.6948 33.0496 22.005 27.9138397335
10.1452 48.4037 21.4837 29.370758686
11.7272 34.4543 35.5983 107.868139887
16.9124 33.7785 35.6718 100.3772389973
17.1589 48.8341 36.0536 64.2282117423
10.495 44.7362 36.1335 50.2307331554
16.522 43.6781 36.0937 55.4823981862
14.2981 35.8435 35.9422 55.507292639
14.2946 40.7773 35.4846 104.5602460647
14.2564 34.7256 38.8178 31.2447958291
12.977 46.2949 38.2824 27.8611051637
19.6137 37.408 36.0211 52.8649419575
16.8015 36.8553 35.6589 83.7396308271
18.9288 45.1025 36.0349 67.5259217525
16.9438 40.5482 36.031 45.9075300889
14.6158 45.5095 35.875 82.0466770453
13.0949 38.474 36.1205 50.6137622743
12.257 47.6403 35.8615 82.2310827861
12.907 43.3108 35.9519 63.6196624545
10.5261 39.6336 35.9694 66.5692095325
19.0248 41.0432 38.3383 28.3917125963
16.3186 38.2523 38.2749 28.4119432364
10.0801 35.1365 38.5699 29.2526330852
10.8022 48.5015 38.7452 27.9810241108
17.0622 43.4216 38.7348 29.4300234568
19.0628 37.0828 38.6528 26.6963096156
14.9249 36.3679 43.5148 34.2842291098
14.0488 39.7641 41.1509 29.4187062245
10.5894 35.4308 43.4802 28.5550487692
16.8574 43.9695 42.2528 25.4216351138
18.8867 33.0529 45.414 32.7235513693
19.1346 45.2129 46.7313 26.9644869658
12.4822 37.3483 42.4412 26.8824980066
17.4927 35.2035 42.5423 32.9010589052
19.2946 39.0527 40.9962 30.1172271472
13.0429 34.8785 45.5555 28.6190781963
16.4423 40.5508 39.9841 28.4731635046
14.3987 44.0522 39.662 32.0175217898
10.3811 39.3267 39.0774 31.4837184449
13.4676 42.9692 42.0434 27.642341914
13.4222 38.4436 38.9269 28.4688363204
15.26 45.3513 44.2415 27.4368373654
17.7649 34.584 47.2602 26.973509475
13.7297 48.0427 40.501 27.5847828056
16.5752 46.9045 46.4257 27.9868774574
16.7998 35.3977 39.7114 32.324980645
11.2881 44.0575 45.1376 29.5474146657
12.4417 36.1752 39.829 30.8225178383
11.1206 41.6855 46.9509 34.2258365199
15.4455 36.1054 46.3999 27.8486136162
16.3453 42.4844 46.2315 27.5680948343
15.2066 44.7653 47.4438 30.3506535474
11.663 37.0621 46.9915 26.4801962206
12.5546 48.1814 45.4197 26.4852281146
16.7866 48.1169 43.2211 28.3788841803
11.362 40.6229 41.6624 30.0114912677
15.5144 39.2172 44.1431 30.1017589284
19.1586 47.4967 41.7377 32.088580972
13.9509 42.1867 44.8436 31.0496971253
17.799 39.4535 45.7265 30.3108077121
12.6502 39.5004 46.029 27.5154225315
11.4357 44.6067 42.4573 28.9311110139
18.3224 43.6775 44.8033 25.5780889569
15.2277 38.6111 47.286 26.9268768372
12.5376 45.8245 46.661 29.3675131047
16.0364 46.1991 40.709 28.0610885465
10.8605 48.5898 42.6151 30.9166099214
19.0777 36.844 45.6053 29.8994273837
13.0228 46.7744 42.9733 26.3443400594
18.7998 33.0678 39.3439 30.2202201677
17.1086 41.1708 42.4522 29.140358331
10.8279 38.8858 44.0212 27.4223835742
17.1853 48.5117 39.1363 33.4407890176
10.9624 44.2548 38.9115 31.6111803273
16.2862 46.5432 53.1577 29.242151891
19.4228 35.273 49.3755 28.7206981046
17.8278 46.8942 48.9934 26.0031703509
16.852 33.2529 52.9153 31.5435467963
14.1803 39.9436 49.7303 29.4269169644
11.0975 34.4492 50.0876 28.8330847481
10.0751 43.6635 52.5323 27.7455727825
17.4338 37.1831 49.8861 29.8496065057
18.8018 39.4993 49.5545 27.527953861
11.2998 36.935 55.601 32.7039423756
10.4392 48.45 49.3956 33.2322351267
16.6946 41.0967 48.7118 27.1572407988
14.3354 37.2895 50.6216 29.9628667661
12.6464 42.3357 50.9422 31.0717634818
11.3821 38.3239 49.3753 30.4426788846
13.5688 35.4289 48.8082 29.5093489833
18.9057 40.1428 52.3533 29.5801917528
15.5398 43.889 53.4394 32.1141165172
16.4699 44.462 49.9211 29.117737105
18.63 46.1143 54.4495 29.2988935231
13.6389 45.0375 50.9017 28.8419243032
16.3082 41.4455 51.6909 28.2548687468
14.3236 33.1892 54.2385 28.9794625269
17.2706 35.9769 52.2608 27.5093192406
15.8415 47.9974 50.7213 28.9156932972
12.6977 45.5885 53.362 28.0152589007
11.1495 48.1672 52.6318 28.0714908766
12.4768 36.1393 53.0512 29.229965563
11.812 43.2039 54.9822 26.1298366467
10.3007 36.7704 51.3847 25.6042310886
15.0225 36.0139 54.5549 28.3357396466
18.9254 42.733 50.0844 29.1528434439
14.8863 39.7801 53.1127 28.2788956208
14.7307 43.0213 55.7286 28.649736679
12.3666 41.0047 53.1469 29.3322242328
17.5773 38.1783 53.9169 30.1472030693
11.3772 45.9397 49.1528 32.8631800868
11.9553 33.3293 52.55 28.1913112945
15.1304 40.4647 55.6137 29.2605451283
14.2229 47.1559 55.1245 31.3839403119
9.92597 41.7766 49.458 29.0577445572
9.94588 44.8226 56.1807 28.7957408123
16.0987 33.1978 48.9744 34.1018410513
10.1317 39.6468 52.6659 28.8259830854
24.0903 0.98533 5.092 31.4983271681
28.2752 4.26049 10.9478 29.2446873764
23.004 11.9759 9.34845 29.3293765184
24.0368 16.0661 8.24843 27.8610940805
26.6434 8.89774 4.44566 31.9983402361
22.2506 7.02767 6.29939 31.8917498293
21.2667 4.79966 11.8301 30.0409858118
26.8293 -0.0250226 5.09541 29.9227347454
25.6211 10.6432 8.4301 27.4828885388
26.8788 4.09068 4.36315 32.6287027529
28.8519 2.05117 4.07392 29.4127126514
26.9266 4.17178 7.39681 33.4647513419
28.8108 15.9076 11.4211 29.2664635288
20.5211 10.2468 9.19851 29.4772295552
20.3863 1.45359 6.73329 28.6212506765
21.6649 16.2012 11.6478 28.3353561878
24.3556 8.92575 6.58042 30.6588730337
28.7063 15.8305 5.43221 26.2542119345
23.5525 5.93339 10.3737 31.050122752
29.1014 5.37539 8.6433 27.6781727975
27.361 12.5382 7.27177 27.011992094
23.54 11.5466 5.59078 28.9833237519
27.0353 12.337 11.5941 28.9442042882
27.1408 1.38447 7.95559 33.196609535
20.5349 16.0147 9.1196 30.0387665166
23.0403 1.40209 7.91721 27.7553306105
28.879 9.88529 5.95252 29.7782036485
19.7688 10.3614 5.35869 33.3543088085
22.8363 4.52244 7.91515 31.7113248283
22.559 13.7167 7.38274 28.3672325621
26.377 14.3455 9.33628 29.5950255028
29.2276 8.2374 8.15775 28.9148354178
25.2816 6.35986 7.69849 31.5251899737
22.9612 8.8068 10.5985 33.5515098938
26.742 8.31488 9.4009 28.157920746
19.7202 12.5044 7.58427 30.1269898881
29.217 10.8831 10.0705 29.8095653072
25.0989 14.0057 5.2907 25.6292361036
27.677 13.0155 4.56528 29.6862368397
26.1548 2.96288 12.1997 30.5869743643
21.5712 2.47608 10.3406 27.5652480704
25.5395 9.98672 11.661 27.8217586766
26.2473 6.98924 12.0125 30.0656135534
20.4388 4.06796 6.47612 29.2314591695
22.4459 15.1482 4.12902 32.1396039924
24.152 1.28288 11.2135 30.523493132
24.0385 13.2236 11.5251 25.7638378252
24.4259 16.1311 11.1033 27.0355372994
24.3732 3.13933 3.71929 28.4082249113
23.0086 5.52711 4.03834 31.2597757049
20.9862 9.27009 12.7039 28.6280244677
28.953 1.8604 18.1682 30.9155582781
23.2892 13.7472 18.299 31.2826187077
26.8177 5.64178 16.0473 29.6855570743
20.3772 1.58879 13.1208 28.3978206645
22.0979 8.20058 20.1995 31.1823201587
27.8656 15.0811 19.1393 25.0913458983
21.4134 3.97863 14.6677 29.3202623904
25.4768 9.88319 14.481 27.0815796253
28.6868 7.23947 13.8379 32.909922447
27.8524 10.1803 15.6129 30.6718569929
21.0822 10.4124 15.395 28.8710993693
21.7093 6.85187 14.5914 28.3822462033
27.1361 9.11368 18.4895 29.1281685954
27.6415 12.3829 17.1854 28.1960530614
24.4239 15.4691 15.4751 28.8167570002
22.3075 12.9074 15.5854 26.9602884355
23.7691 10.3304 16.7305 29.4308125426
28.8575 12.0955 20.9172 27.6991982193
25.5083 6.63258 18.2552 26.1690554507
25.5666 8.60345 21.2584 26.4709117575
25.252 15.5608 18.494 27.5224976709
24.6326 12.5793 13.983 29.2504117546
25.3398 11.5429 18.5994 27.2825594127
24.0495 3.59614 15.5284 27.8577486736
22.4267 4.73152 17.8409 30.4336785942
27.2984 2.46324 14.6122 30.6036504288
29.2595 6.33985 17.5228 31.3135131124
21.0443 15.9284 17.8784 26.4743187842
24.4322 5.09139 13.0088 25.9436360206
21.3899 13.5128 12.6435 30.4780187504
27.3051 14.6725 15.4582 31.8926013803
24.4508 7.20844 14.9467 27.3283186719
27.8999 4.23297 18.8487 26.6863189523
29.0108 13.9231 13.1373 29.4973461754
25.0561 3.6414 18.5688 27.2282215133
22.9825 7.6674 17.6547 26.1747573804
25.0732 1.08269 15.8981 28.9187846794
21.9176 3.24444 20.4403 28.5619811388
21.8927 0.189959 16.9845 30.1849812145
23.4634 0.805957 19.584 28.1625524177
23.6545 13.263 21.2515 28.5220445574
26.8604 1.47088 21.1905 27.9946893469
20.8349 14.8803 21.0963 31.6350495093
22.6649 2.82856 24.0169 67.2991467905
28.6761 4.9394 21.5685 27.3669085394
27.139 16.1533 24.4365 107.3660713668
28.0748 10.4432 24.0591 52.2993196627
25.0616 0.868574 24.0018 76.5706698897
28.0928 9.41336 21.7198 27.28263699
20.867 0.558416 22.9188 31.3835378647
20.0707 6.87189 23.7469 41.0884511749
20.6247 9.41994 24.5044 104.7604049189
22.7536 5.60031 24.5448 101.9236357932
22.5435 14.8919 23.8812 65.1878640323
25.5651 6.14498 24.3627 83.1446315583
25.5926 8.94335 24.0758 64.9553911403
23.285 10.0966 23.9551 46.2518849419
28.4368 5.00707 24.3235 72.4817832307
29.6053 2.49397 21.4071 28.1047697362
24.5294 2.99014 21.6716 26.7093249855
23.8367 12.6212 24.2458 87.3708584863
26.9065 13.1993 24.127 67.8852322605
29.3885 2.19379 24.1497 67.3147735595
26.5222 13.4376 21.1482 27.0779280046
22.7794 6.06045 21.6101 30.7877041093
25.831 5.63103 21.2065 27.1401199792
23.5497 10.3773 21.0438 32.7278543797
23.1289 15.3332 38.4567 28.7220448333
24.1803 14.2528 35.7908 71.8917181925
26.2656 0.468033 38.4389 28.775829059
22.0791 1.41692 35.8895 63.4506846813
25.9549 3.17756 37.8342 27.1270996762
27.6985 2.30782 35.8107 85.5786933624
26.0769 6.62831 38.56 26.8250933144
21.1637 4.49531 36.1539 55.7323508575
27.4066 6.80817 35.6776 89.6723455881
24.2262 3.78595 35.6761 89.4643647052
24.1575 11.3651 35.7777 74.5000114357
20.7927 13.9343 35.4921 92.7650188037
29.2059 4.55498 35.9998 51.3110570756
21.9986 8.11947 35.7108 89.7695614447
24.4747 6.38619 35.964 57.1403961818
27.03 14.0851 35.8728 58.0479235077
26.8577 9.46342 37.62 28.847765487
21.4694 10.8323 35.7565 63.4214577108
20.4815 13.5394 38.5617 27.6656388633
27.3493 11.4113 35.7144 77.261028623
21.8153 11.1693 38.8689 29.4733914943
28.6179 4.11792 38.753 26.1327408153
24.6448 11.1071 38.5163 29.2857013442
21.8184 6.88483 38.186 26.8389875677
27.5349 13.9968 38.6581 27.7350131303
28.3705 1.98303 40.4618 30.7885066472
22.6005 6.1562 41.8168 30.598535
20.4964 16.1329 46.0021 31.1815377061
21.9684 9.39805 45.2335 27.0285391321
25.5782 6.88925 44.051 26.8444869777
21.3342 11.8046 45.9461 30.4774602312
24.4579 14.1137 47.4158 30.1715936065
20.5913 13.8954 44.0327 28.7631021705
20.2736 8.73357 39.7894 31.3965000176
27.8285 2.20904 43.4017 33.941585764
22.5898 2.3403 41.7208 28.7031577617
19.9348 0.503628 46.4496 31.6762902755
29.2158 0.292696 46.825 34.8208313143
23.6034 8.95048 40.4277 28.4636345989
28.7744 10.7113 39.397 29.4707444519
26.8033 12.8877 43.1887 32.1834004261
22.6141 4.60576 45.5457 32.2134588167
26.568 4.74507 41.9604 32.171662171
23.8262 14.3239 41.0113 27.6549334477
22.2787 2.23408 46.8896 32.3340870506
22.1258 12.8537 42.0322 30.3166560443
20.1754 2.79113 39.4914 30.0585598599
26.0593 12.6574 40.4912 29.9884130872
28.2559 6.55471 44.7968 31.6587244172
29.1549 15.0843 43.2077 32.1717415074
28.4906 6.34185 40.0376 25.257821383
23.8031 4.40673 43.0497 26.7814624045
29.2859 8.70296 46.384 31.6494791457
24.9775 1.06591 42.9574 30.1687015187
24.1674 9.01219 46.9307 28.7839744842
26.2772 8.0086 41.5121 27.8961124134
25.0441 9.56851 43.6965 30.8786945215
25.3579 14.9367 44.8814 34.6695811105
24.9251 6.18404 46.7243 34.7089980564
28.659 9.74685 42.0567 28.3446412045
25.5783 11.3761 47.2842 29.7234285593
23.7797 5.13809 39.2727 28.0632677567
23.4529 0.140783 45.1925 32.2076183005
22.3869 10.1256 42.4409 27.9659037106
20.6953 6.68014 45.5516 28.5188016082
27.4822 10.5963 45.1406 28.0086254915
28.5533 15.8631 40.5375 30.3661839866
20.1728 5.37768 42.9547 30.8507080051
28.0073 15.9985 45.6518 30.6228997417
24.5375 16.3702 42.6738 29.2274291272
20.0236 14.712 40.8434 28.0060562988
22.9079 2.28556 38.9953 28.6714340233
29.4917 3.97532 45.3566 31.810717484
21.8581 14.0492 47.6434 30.3876385603
20.7933 2.75638 54.3998 32.5008671604
28.7778 5.60991 53.2596 31.7008715706
24.6445 7.264 54.9331 32.2429382897
26.5718 5.62258 48.8378 30.305346394
26.5803 3.09 49.5125 34.5931461623
26.6836 3.77178 52.5217 32.183701869
29.2113 3.24815 48.3528 29.2939690709
20.5135 5.28826 55.9221 30.3181412476
20.3666 11.4245 52.2481 32.7847297162
23.019 9.30418 54.1778 29.1786897631
21.8857 5.44472 49.0902 35.0156697397
27.8346 6.44217 55.9193 30.4908762414
24.4199 1.65214 48.8232 34.6109630724
22.4007 12.3774 49.9147 27.9654417228
24.9814 12.4199 50.1682 30.8460621195
24.6599 13.8501 55.1939 27.4585332267
20.2682 7.95049 48.3652 30.2375949898
27.0732 16.0179 52.1205 27.2743770999
19.8022 6.57423 52.3191 27.0008106989
21.0866 2.35288 49.8426 31.3470731046
26.1413 1.61384 54.0459 29.4213912566
22.4829 9.44046 49.4111 27.8347688336
23.1779 0.73606 51.5734 31.5594137149
29.2521 1.30679 54.4676 30.2920179905
26.0522 15.6394 49.2157 29.2582054222
20.7586 12.9944 54.8116 33.0913278667
22.3818 15.5129 53.6551 29.983006244
28.1664 8.22534 48.8784 27.7476212133
28.6884 15.013 48.1109 29.9608333242
25.5948 9.35783 50.0054 29.8647363386
21.7753 15.0123 50.9529 30.9747767957
23.6057 2.80712 53.9531 27.287975107
24.3738 5.36908 52.617 31.5945259646
25.3129 10.5635 52.9908 31.5042423121
24.2095 6.9401 50.3442 29.8302773177
21.6597 4.45917 51.6202 27.4232444731
21.479 8.92579 51.977 28.4281307711
29.0317 12.4013 51.9662 32.3003682811
27.298 8.86979 54.0995 32.6264255445
28.3504 12.1823 47.7256 29.7078436113
26.3863 13.4723 52.8789 30.9950997265
26.7275 15.7757 55.227 28.7620070145
29.4744 10.5687 49.9363 28.347994196
25.5582 11.1961 55.9698 28.4593970549
28.9443 8.11794 51.9515 30.5891013009
20.5011 -0.0989364 52.0698 26.4188613421
21.9202 11.059 56.1888 30.9423330633
19.9217 7.79082 54.8261 32.3393158997
26.3667 23.0874 8.56989 29.6536866217
23.5265 19.9697 4.56464 29.8216594831
22.9499 32.096 11.0149 30.0141236264
19.8579 32.3531 9.75031 33.7186687886
25.6548 19.4902 6.1904 27.9602147509
24.4548 31.8339 7.16279 29.7484711773
28.4729 16.4668 8.34921 28.4752281028
25.7299 32.0623 12.4051 30.849155208
27.384 18.876 11.8746 28.0396626746
21.0279 19.9325 6.08878 35.1390142362
26.7804 22.0679 5.09048 27.2486855467
23.9037 22.1571 9.33573 30.0305010188
25.3308 24.4317 6.32327 28.6869888088
27.7577 18.5343 4.02908 28.8646622156
23.0064 27.507 4.66111 29.912059584
23.8013 22.9514 4.21338 29.9412708518
20.7315 26.018 9.00852 28.7908772934
29.0416 29.6321 7.69361 29.1269691114
25.9785 26.4776 8.57914 30.8723220935
20.5791 30.4184 8.10114 31.2009020254
28.0687 26.5415 4.96296 32.0435651832
27.0315 27.4981 11.4112 30.0353783511
25.223 29.7432 5.30649 29.0614278757
23.1698 29.6372 8.6499 32.2353563454
27.0065 28.284 6.7804 29.6376455254
29.3585 31.5569 11.1197 30.6758590554
24.2112 19.2859 8.99261 27.1502949466
22.8787 32.4702 4.75462 30.5048075148
27.4582 31.9214 7.48436 30.9561661483
21.0408 22.8981 5.5339 32.4590636365
27.4572 24.4816 10.8946 32.2509568097
21.7828 18.1181 7.97224 29.4718672073
19.803 27.1671 4.9989 33.616866118
27.3586 18.9545 9.08145 28.9935385804
24.2308 27.7968 10.9088 30.0116267512
28.6766 21.3071 7.67953 26.2883210047
21.2238 30.1686 4.63712 29.2715597007
19.7252 16.5257 4.53762 28.1660128208
20.9942 20.0855 10.244 30.6883909957
23.3181 27.1161 7.48172 27.7842339287
22.6594 24.1814 7.38563 29.3874843579
26.9097 21.895 12.3008 31.4578556082
28.8892 23.8857 5.81796 29.7879037261
24.4829 17.324 3.74081 29.1952377911
23.9924 22.2781 12.2052 29.6780727528
20.9911 22.7269 11.0899 31.6000587269
22.7821 25.2993 10.9824 31.9414008373
26.1069 16.7527 6.31876 25.483387701
29.3292 28.6632 10.1094 34.8398064983
24.4189 19.6561 11.6845 24.7712002127
21.8577 16.987 15.6853 26.8485921095
24.1951 18.3392 14.1218 27.9382449841
28.3606 29.0427 18.7375 27.9869604249
28.1836 31.6062 14.1078 31.5883127137
25.615 22.5156 18.979 26.463964517
23.9463 18.0207 17.7771 28.2295504401
22.3151 31.0238 20.425 29.5877600084
24.7271 20.6773 15.5443 26.9362858612
20.8835 28.3906 19.8519 32.3677145657
26.1058 19.8614 17.9049 29.9244877851
25.5775 23.5828 14.5616 29.7348737971
23.2688 16.6497 20.8974 27.3116577249
20.0633 23.678 14.7987 28.8778366705
29.2252 16.8568 21.0604 28.4489019546
22.1203 26.8449 13.444 31.1650350724
23.2756 25.2119 15.6044 28.4826630469
26.893 26.1439 13.9571 31.7978608835
25.0053 27.524 15.9931 27.9935582361
21.4385 24.6393 17.6678 28.0590055846
26.5424 31.36 17.6829 32.2955088358
26.449 19.4152 21.0276 31.9686324653
22.7204 29.8096 12.7393 31.3315634174
29.3329 16.3771 17.3692 33.7558004959
21.5745 18.6985 12.6248 25.3598148783
25.6907 29.3387 13.3544 30.3910367873
21.7805 18.9684 19.2908 24.8706987849
27.4951 29.1461 15.8824 29.7192837727
27.5692 21.7799 15.3399 29.3766864304
22.7033 22.1826 15.8857 26.5812950833
20.9516 19.9236 15.3772 28.8363830236
28.1434 23.2588 17.775 31.2844035688
22.3169 28.851 16.0522 28.1834932354
23.9416 24.6867 19.0638 26.5112263087
28.4021 26.2872 18.1293 27.7612412236
22.4984 21.6664 18.7569 28.5575018245
26.2949 16.3221 13.067 30.0509741752
25.758 26.8761 18.635 30.1385339435
23.5528 30.7337 17.814 34.287002249
20.5185 27.3841 17.5132 30.1854838148
28.9065 19.2688 17.0348 33.9752404757
29.154 26.653 15.387 33.0115744276
20.0667 23.2803 20.0394 29.2579579722
20.8509 30.8613 14.9286 27.9724092825
20.7564 20.7823 24.5401 94.3973040472
25.9795 19.143 24.1446 51.1678824314
23.5012 17.5968 23.8785 60.7832674299
25.3668 31.0987 21.5568 28.022423855
21.8378 31.0468 23.6859 45.0297386986
23.871 21.9591 21.4865 28.6271364843
21.9657 25.1299 24.1735 64.9070966217
20.1522 23.1184 23.3031 30.721142017
23.6949 20.8202 24.963 103.7364272871
24.194 23.5266 24.6469 81.9512441897
22.2954 28.0584 23.939 46.0945616106
26.1434 24.7713 21.5177 32.5401025699
26.9249 24.4636 24.3492 68.6184229791
24.8837 28.8469 24.5537 99.8039561672
26.916 27.1673 23.9302 46.4872950478
28.6665 29.3843 24.3386 73.0710495282
24.667 31.7053 24.182 59.6673213915
22.8172 27.6316 21.3334 29.181784148
22.3378 19.6241 21.9648 28.6819233921
29.1688 32.3529 21.7078 31.7358649114
27.9133 21.4126 24.379 74.9666814565
27.4501 22.243 21.4016 25.8231042079
27.5931 31.9406 24.5043 98.6383552717
28.4554 29.6207 21.6267 27.3043330603
25.5895 28.1612 21.2732 28.7712270619
25.9377 16.4758 21.6613 27.7012517475
22.4204 24.3969 21.3457 26.9251344005
23.1063 19.4534 35.7316 67.6097657365
21.467 25.2747 36.3507 52.4303431056
26.9619 16.9677 35.9774 68.0861950088
22.8994 28.1116 38.5721 33.0774197445
25.6936 19.899 35.91 57.2592834645
23.1278 23.1774 37.3053 28.2899605273
21.2297 30.4474 38.1461 26.4157713673
25.7076 31.8315 36.1365 41.8509228153
21.3961 21.5871 35.4736 98.5961243825
21.9948 16.6708 35.8621 63.8925504387
25.1178 22.691 35.5258 106.2452665632
27.2371 24.5767 36.0971 60.9281011162
28.9209 27.9373 38.6182 29.4333852751
28.414 32.1559 35.6952 70.5628260795
27.3023 27.2941 35.9539 79.6740746403
22.5074 31.618 35.6234 81.0966276261
26.2345 23.762 38.775 32.3833426804
25.0445 29.1147 35.7362 82.73181325
22.2413 27.9625 35.8629 75.6296942369
28.7732 20.4055 36.0803 69.064340769
25.8911 16.6672 38.2908 33.0218920208
19.8756 29.5492 35.552 92.1689494618
28.6418 32.2535 38.5786 29.4153629337
23.008 20.4553 38.4929 28.6455257039
25.9376 28.8171 38.4388 32.2279672825
25.6576 20.8657 38.5815 28.7131893335
23.7587 28.647 44.1629 28.928707676
21.7998 17.9221 39.0861 30.9244151599
21.889 23.5247 39.9008 30.1796934837
28.054 20.1136 41.9573 30.9252953663
28.4374 29.1203 45.0633 33.9130246358
28.3049 29.5479 41.9253 25.1808597632
28.5401 23.1199 45.929 27.186981858
24.6685 29.9382 46.3027 27.4810423945
19.6755 23.2775 44.285 30.8890107035
23.0454 19.3473 44.617 33.5884778095
22.0712 20.5951 41.3438 30.6432612792
28.689 20.7156 39.1008 27.1278884808
26.0789 27.104 44.5934 30.4872214129
25.6499 23.4625 41.2801 28.810200572
28.9492 25.4765 47.66 29.0904311631
22.4044 23.5686 45.1278 33.9231818973
23.2025 24.8264 42.2561 31.9348290925
19.8048 16.7617 43.055 30.5507275753
24.6282 21.5477 44.5938 26.3099980678
26.4045 17.8656 41.356 33.0198445669
21.2779 27.0742 42.4087 27.2370675125
23.4558 31.1674 42.4066 31.6154946985
26.1515 31.0404 41.8003 29.5279229156
24.3396 27.4475 41.1828 32.0708084666
25.8708 21.3457 47.5158 28.3998762808
25.7644 31.6446 39.0338 29.9837710039
21.7143 18.5097 47.0499 34.7241694314
21.0448 31.6739 40.846 30.0493782433
25.7629 18.456 45.4557 31.1052483959
25.0224 20.8613 41.9544 28.2606889457
27.071 27.4959 47.4649 26.5046587502
28.3275 24.5533 42.2127 31.5590779898
26.9737 27.1438 42.001 28.6164942003
27.7157 20.5246 44.7527 28.8139241731
28.7602 23.6505 39.7085 29.0222449946
22.1961 17.7502 42.2302 29.5824735313
21.306 27.4424 45.1302 29.6349471586
26.0725 24.1642 44.9863 29.8984498166
26.8043 31.6095 46.3572 30.2973917819
23.2156 32.2791 45.0412 31.7388180221
20.7474 26.0272 39.085 28.6833206567
21.1568 25.2972 46.9808 29.4952654457
29.2867 31.9729 43.9067 30.5320243322
24.465 24.0982 47.486 30.7932331759
19.5777 20.2819 47.3292 34.8599794144
29.4868 18.1627 38.7857 29.8863576863
22.2909 31.9794 52.8368 28.473698183
27.5221 29.0855 49.6045 26.5503638922
26.4253 30.4605 55.7099 36.7196727387
28.2351 19.273 49.3022 29.582205194
24.7725 32.6856 55.6303 26.3583234919
24.8842 27.9887 55.2431 30.5462398011
19.7084 27.9251 53.4952 29.1377766467
21.3403 22.0111 50.7104 32.7206941051
23.5671 29.676 50.9502 30.6417425759
23.0788 19.1484 49.4278 28.2449790675
21.048 18.9079 51.1032 29.4690682285
26.7338 25.9892 55.4733 32.4556560434
26.0165 21.2816 51.8949 27.747080461
23.8958 27.651 52.7427 30.6820219462
27.6191 23.2472 51.2013 29.4679644138
27.1543 31.9054 48.9894 28.8594103315
26.1259 25.2649 49.5091 26.9729241081
23.7108 24.4943 51.1008 29.0661787412
26.463 27.3887 51.3978 27.587210848
27.2488 30.6888 52.843 31.8881134081
22.3201 26.0589 49.4358 28.05418998
25.3424 32.4351 52.677 27.4918373616
29.1058 22.1899 54.1307 27.5365980432
24.2378 28.0965 48.6839 28.0820734969
23.3669 20.0683 54.6095 29.6349765466
20.556 19.588 53.7385 31.024210864
19.6737 23.2374 48.653 32.7247288091
26.9003 23.209 55.3017 29.7388436135
27.2461 18.9536 52.3153 27.9282839226
28.6052 19.6458 54.356 27.6881426708
21.7568 22.7857 53.4564 28.5929522059
24.4886 22.374 53.8067 28.9024508383
24.6089 17.9476 53.4374 29.1346674432
24.1834 21.9586 49.7475 28.2334618146
24.2526 32.3723 49.9873 27.4810086255
25.683 18.4827 48.3033 29.2188439248
20.0439 27.6881 50.8837 33.8797398782
21.4927 25.6489 53.4117 30.5478159138
28.1776 27.0873 53.3418 31.1824834704
28.5464 22.2425 48.8702 27.2118206988
23.9132 16.8291 50.9168 29.0112505829
21.2499 29.964 54.5995 32.4263917942
22.2358 31.4649 47.7696 33.2541087504
20.22 17.0171 54.7268 30.4833697134
21.7769 25.1451 56.2924 32.9657131011
21.4769 28.6219 47.8427 29.7382038479
25.4267 36.5864 5.37935 33.5937576412
21.3566 34.9066 5.68513 28.9308260238
26.6658 34.241 3.97441 32.0102177561
27.105 33.329 10.2524 29.7933674861
27.2879 46.5806 6.25506 27.6468852455
28.5757 33.092 5.61711 28.0680665429
24.5535 33.6663 9.01535 29.4588245943
25.1448 48.9321 9.01878 26.5322487564
20.6672 47.4037 12.0294 27.9290984679
28.1909 38.5647 5.22428 30.6951097916
21.3964 34.6403 8.37379 32.6258774529
20.7684 43.1013 9.08112 26.6840137012
24.1744 41.0816 6.36311 30.4853413925
21.5074 47.8907 5.82822 30.1255284062
26.853 44.8624 4.44022 27.6382192973
21.8657 40.8325 4.41245 29.1449016089
23.1478 46.7978 8.09188 32.1163649462
25.5691 39.2718 4.56892 30.177286228
20.0958 41.4557 6.83035 34.5996695955
20.4759 38.8585 7.90021 29.5314469748
27.5613 47.0272 9.67186 28.9664538918
22.6443 43.9426 5.08414 29.7250421357
27.2125 42.1918 9.03372 34.1009825555
22.8512 44.1221 7.79651 28.8844681184
19.8079 40.315 11.4823 31.2362306854
24.6121 36.2181 8.05518 31.1437921708
25.7755 44.8708 8.10076 31.0531102525
20.6873 48.1296 9.42597 30.518929407
19.8113 45.7107 5.28408 28.0748262645
22.6085 37.5325 9.06762 27.5778457856
23.6353 39.9787 8.69198 29.3986316962
22.5532 41.7403 10.8126 27.6318258932
27.1692 35.7192 11.745 31.0839133777
26.9514 37.4228 9.5918 31.3111666854
29.074 37.807 7.92407 33.3459737311
29.2832 41.08 5.10667 34.1203312063
26.5758 44.1709 11.0637 28.811021159
26.7558 42.3802 5.8814 34.2612297568
25.2386 47.0272 11.4242 30.3310817011
26.1466 39.8434 10.062 34.1941730547
22.9415 37.086 11.9713 33.6517353024
22.7697 36.6004 4.26908 31.001569692
24.0 43.5985 12.259 30.7127422987
21.2502 44.7866 12.0773 32.3063301772
22.6435 35.3566 17.7428 30.6714136708
24.2564 33.5878 14.4068 31.5034216642
29.1237 35.4763 20.9298 27.2432137351
25.1752 36.4345 13.5215 32.3903571315
26.256 35.5236 19.6501 29.8725335559
26.9156 33.4882 15.9603 30.7905805604
29.0026 39.2798 14.2695 39.4570863972
25.1091 36.0469 16.6632 28.1884082791
23.0264 48.3004 12.9443 31.2523890943
29.2317 48.0907 19.5327 28.2415713186
25.9067 39.0182 14.8191 32.1048319813
24.4119 38.7064 17.0866 32.8849928487
26.4477 40.2029 21.0532 28.1861094606
28.6834 43.8067 12.8148 29.6158236686
23.5836 45.8708 18.943 27.3866050095
29.11 41.9295 19.3411 26.4177975193
26.3291 43.6701 14.6248 30.788964027
28.9943 38.8376 17.1116 32.9471652915
22.2755 32.8031 16.4882 28.4019139919
26.9892 46.3215 14.816 28.6596772439
20.6133 35.7911 12.5778 28.9470115561
23.5822 44.676 15.39 28.778739589
21.0125 46.8282 18.1603 30.0534642707
23.6936 47.4477 15.9058 27.2639764117
20.6748 37.1079 17.3417 33.9870616479
26.5016 48.7652 13.3832 27.7275595035
23.0596 36.5134 20.2756 32.1663415487
25.0347 40.5151 12.7572 32.5376480992
22.2064 41.3333 19.9249 31.0678913994
29.1477 48.6272 12.4797 29.4952784942
26.704 40.1214 18.3643 28.2960379507
26.1008 46.4622 17.3795 26.5214911815
27.8288 44.595 18.4724 29.0466758031
21.2992 41.2248 15.1056 33.9012353773
26.9413 32.8412 20.0699 29.9304546349
20.9574 43.9592 15.2245 29.7028789413
21.99 39.8537 17.5721 31.6229863009
26.2477 42.6273 17.3861 29.0527022896
23.5001 43.2476 17.8692 30.1256165806
21.5378 33.4056 13.1352 29.370810115
20.59 48.9124 20.0937 26.4386533667
26.2885 49.1569 18.5415 28.4436729792
22.5736 39.7659 12.9218 29.3379979063
20.6916 43.8684 20.5478 28.6573732893
19.6488 33.0378 17.7724 34.9295270581
28.2108 36.0395 17.4714 30.758907569
20.5723 33.0991 20.4474 28.083737215
25.9788 42.8589 20.5738 26.2631883907
24.6192 47.5379 21.3031 28.5953666534
28.6926 38.2911 21.0269 28.5495265319
21.3535 35.4657 24.2681 73.5948857301
29.071 46.1765 24.4299 71.9644174795
24.0783 34.6517 24.1023 55.9819129144
22.7725 38.1562 23.7749 59.0261059103
22.5041 42.832 24.3234 100.3143134403
20.0056 43.3843 23.357 35.6205505878
23.7374 40.9661 22.551 29.6669944927
20.2757 39.1119 24.407 93.7005100219
27.3412 38.9006 24.3552 98.0408679533
26.015 41.5446 23.9436 66.155497952
24.1927 44.9942 24.1275 64.7956596008
20.1341 32.9558 23.9737 65.0087669883
26.7532 44.3634 24.2507 75.5660841471
23.6481 44.1125 21.3852 27.2269771773
26.1318 36.207 24.4175 87.3612162426
27.5029 48.8554 24.0911 67.5812657257
23.5791 47.6169 23.7458 56.3708115428
20.5959 46.181 23.9614 85.9700433012
28.4418 34.8037 23.8925 49.3344864112
25.3424 37.3655 22.0439 29.2797220322
20.31 46.4085 21.2744 27.2790793421
27.9072 44.5486 21.6665 27.2575323754
23.9715 33.8874 21.3901 30.1866046031
27.3174 47.369 21.7498 27.5717380498
21.1215 35.3688 21.6029 25.1547076557
24.5668 36.7735 36.3421 46.75759382
21.059 34.7216 36.0967 61.3275416481
21.6113 42.7077 38.3995 26.7928568559
28.5059 35.0158 35.5186 112.6484622902
27.24 37.2225 36.5073 35.7962308434
25.5011 45.067 38.4908 27.7681037316
20.7685 42.8457 35.9203 54.0890914669
19.8851 40.3894 35.3022 109.3293120966
24.6993 42.5489 38.4883 25.3980039098
22.5812 38.8197 35.9178 65.2885662941
27.0029 39.9306 35.8073 74.8753905206
26.6422 44.9 35.6443 92.4067431146
21.4432 39.2342 38.4977 28.3499695371
29.1292 48.6995 35.9987 52.8967692644
26.3753 47.8262 35.9832 53.5029291309
24.4162 40.9689 35.6939 75.6226690936
24.0399 43.6546 35.5886 76.7554314417
19.9714 47.8453 35.8426 75.4951727294
22.3318 45.8664 36.1183 40.8974913231
29.0173 48.415 38.7181 29.5321531136
29.2107 44.2508 36.7689 32.1473279424
23.645 48.1293 35.4043 109.9846198509
24.0099 34.2026 35.5782 96.1305183998
23.3714 33.0734 38.6663 30.6408037219
27.1542 41.5161 38.176 28.8446433699
19.9397 45.0851 38.7778 25.6861477403
19.8181 47.7986 38.6331 28.1446535825
25.8708 40.7726 45.1015 30.8134671793
23.5588 37.0253 39.1784 32.8518819561
19.9011 37.051 42.719 29.7542357031
27.8192 45.6056 47.0875 29.4391567419
28.0225 33.1853 41.6826 30.2953731607
22.3204 36.9132 45.3734 32.2544640756
21.1121 34.397 41.8187 26.6870024603
24.0333 42.5773 46.2762 32.9382011468
22.4963 39.5995 41.253 26.7630933215
29.2914 45.1275 44.6924 32.9419408158
22.9505 45.8896 38.8132 27.0670002076
26.1035 34.6855 43.2063 28.7634411913
26.9119 42.2366 42.7357 30.9448079461
29.0944 46.9492 42.4975 31.4957142549
24.5025 41.4296 40.9824 27.6074067422
20.8518 41.5024 42.3592 32.6063906687
28.2927 41.1621 46.9181 34.4590812123
26.7868 46.1863 40.8027 26.9651023065
28.6169 36.4906 42.9143 29.4404081302
27.0283 39.846 40.422 30.3605164064
24.9559 44.6041 42.1735 31.8919620501
26.7397 36.6588 45.2426 30.4768035547
25.3426 33.8718 45.9049 30.5310351983
21.071 47.017 46.1197 26.4442553878
23.8529 34.3214 41.3475 28.8169406565
25.426 47.014 45.9962 30.3467969333
22.8941 37.3623 42.6392 28.268124191
24.8422 38.6775 46.3522 28.9112600988
21.1249 34.4028 44.5505 29.9297806929
21.2506 45.6359 43.76 30.0206793424
25.4347 38.8564 42.9049 29.8649591553
19.6333 41.4662 44.8263 28.6477923393
22.554 43.6366 41.142 26.5174031545
23.7378 44.8388 44.592 32.5739573601
25.8797 36.7772 40.8227 27.7403900933
21.7863 41.2246 46.4611 32.2610037875
28.1198 43.6263 40.1915 27.00157802
22.6264 48.3265 39.9899 30.7385873085
21.7926 48.5504 42.8699 31.8758397552
27.4964 48.623 44.4955 33.0232082366
25.4619 48.5788 40.8471 29.5819605704
28.3426 36.8377 47.631 28.1223762896
21.0353 35.0781 38.9046 26.7933470265
19.6543 44.4319 41.5085 27.8228788078
29.5176 42.8557 43.1358 29.5557958052
28.0137 36.8172 39.2821 29.3732915906
21.0155 32.8704 50.4562 28.0550222185
27.6772 37.9925 53.7676 30.379506895
20.5008 47.1462 49.9736 28.3485100429
21.327 39.6043 48.7758 30.9920084425
28.6451 44.3367 55.4701 29.2615439447
26.9061 38.9714 48.5968 26.289614831
28.6433 48.8341 51.7652 28.975569556
24.1381 37.8304 48.896 26.3910868269
28.1849 43.163 48.8004 30.4372875005
28.1145 38.3582 51.0408 26.0523898398
20.2209 43.9441 55.9451 30.256129035
26.4129 41.1198 50.6283 31.917014287
27.6315 35.4135 54.4415 29.0468620634
22.88 43.2267 49.9595 29.8048819547
23.1586 41.4623 54.7654 29.3822032026
24.8745 44.4726 48.4276 29.4485819157
20.8432 43.3888 48.0387 29.5909703454
22.7967 44.8757 52.177 30.8567074324
22.6073 46.5856 48.3322 28.6204294456
24.1367 43.8414 54.3059 28.3777241515
20.4312 47.959 54.7161 29.9432573916
24.2843 47.325 51.2433 28.0152147281
20.1003 44.8285 51.923 29.8381917916
23.3094 35.0433 54.7944 29.7784672622
26.7461 45.3933 50.6992 28.2922470433
23.2448 36.0742 52.285 29.5826721617
20.9462 33.9002 54.3948 28.2553650539
20.7495 38.1254 53.5619 29.2566794455
22.7364 35.2806 49.576 28.7684460804
25.8049 36.5989 50.9135 26.5457110851
23.1035 39.1353 52.8389 31.7589261481
25.666 39.9558 54.8433 33.4263642603
27.2082 34.4658 51.8498 27.0076973607
27.9336 47.6315 55.4493 28.7084637818
20.0795 35.5741 52.3256 28.9951029087
23.6954 40.4958 50.6166 31.0761771161
25.0745 48.2056 48.6535 26.1460804481
23.0766 48.0059 56.0458 36.1059180546
27.832 48.0355 49.1056 28.7453412272
26.7406 44.4932 53.5204 29.9489489384
27.1994 41.6844 53.0279 30.4866863868
20.3504 42.4243 53.3931 35.3064859772
29.2904 35.777 50.2833 29.2082761464
25.4614 34.8304 48.622 29.0100234956
26.3704 48.054 53.1052 29.6477426513
20.8068 38.3839 56.3933 30.5868893374
24.1945 45.4483 56.2469 30.6336084407
21.0705 37.0035 47.7171 27.4353616031
30.3311 2.17811 11.1372 29.3110076374
38.2275 0.918626 4.56644 33.8173199214
37.7419 6.47809 4.6242 29.5256116342
37.3744 10.1261 4.7119 30.8448775761
37.627 3.94394 5.32139 31.007894247
33.4263 2.25569 11.404 31.995422584
32.0975 6.41519 11.4338 26.216415968
34.7839 11.4235 3.81108 30.4473979529
34.8653 1.52945 9.18437 32.7145805328
30.1377 12.6174 8.12771 28.4075298723
30.5472 6.0086 3.8554 32.5176032463
35.2835 5.28176 7.26608 29.3026413468
30.8969 1.81488 6.22384 27.7180556119
38.338 8.20698 6.91392 33.7874233475
37.3993 2.16892 9.7777 33.8645334592
38.6301 11.8324 6.37229 30.0226372301
30.8955 4.43209 6.15799 30.5259814639
34.2807 10.3877 6.30844 27.9283307136
37.4106 14.0911 4.58654 29.8678180883
34.1054 13.1316 7.58059 31.8193953888
38.1785 4.3641 8.01525 30.6297058417
37.5817 14.7692 8.06033 30.7055440314
33.6284 1.83314 5.33865 34.309347152
31.822 10.3959 7.44287 28.0170452359
30.9758 10.5571 4.06563 28.0005077428
30.7055 12.9828 5.22147 27.2750391978
33.2339 14.8468 5.23636 26.888927347
34.8215 6.42298 4.81028 32.8772252915
33.559 3.41047 7.89016 26.8394134367
32.0861 8.03062 4.84413 27.9481075122
31.5842 4.57472 9.40936 25.4103392313
35.09 16.1967 11.7935 33.4875941595
37.3555 6.66252 10.5723 35.6699825434
35.4751 15.8105 6.14294 28.210258708
29.9418 0.735043 8.67028 30.0797159611
33.1801 12.2571 11.8949 27.7484548415
36.0498 9.3501 8.18981 29.0349103666
36.3238 9.22344 11.58 28.4036206162
36.6651 12.1612 8.5219 27.9969436759
34.5724 7.40731 9.22622 28.6801044722
32.2917 13.7522 9.57369 33.6108702225
31.7456 8.82727 10.3024 29.0622944739
37.3599 11.6152 11.0076 33.9702654104
31.9192 7.07131 7.76544 26.698476618
38.7676 0.116796 8.02363 29.0563215524
38.8627 15.9355 12.1171 29.9424488263
34.5463 4.69976 12.3277 35.5720513803
35.6244 13.4851 12.2659 29.155753655
33.6124 9.52211 12.1299 27.6635174249
30.3664 11.8291 12.3138 27.444216481
35.9881 10.0518 20.3785 28.3584356064
36.6095 1.10736 18.905 28.7886314889
36.2991 3.90352 16.5808 30.2803110546
38.6824 5.26985 15.8669 27.6263694634
37.8663 0.112359 14.5179 32.4943800833
29.9169 8.5286 18.9029 28.712074481
35.4543 6.59863 14.8221 28.8159648056
30.0219 12.8321 18.598 27.8064503742
32.4474 7.6324 14.3443 29.8005963165
35.4737 1.30455 15.1659 31.9857730538
33.5884 10.5644 15.1066 29.1189996167
31.1908 10.8359 16.9909 31.5869608574
36.1426 7.36267 19.1175 30.4890839309
30.3418 9.63456 14.2181 29.7521159106
31.5748 14.9098 16.7646 33.8350004125
35.4273 12.543 17.9123 29.5915782381
35.5812 9.04097 16.6264 29.3507825367
35.0835 14.7698 19.5929 28.9574116628
32.0326 14.3143 13.8547 30.3783376398
38.9925 1.27763 17.0155 27.3765994921
36.1662 15.3947 16.0943 27.5658537734
34.5356 13.1187 15.0821 29.9767464757
37.7137 11.0876 18.0151 31.0225117155
33.4144 10.6179 18.7514 27.7968862872
35.7086 3.72645 19.2769 28.9503920854
31.5556 2.51469 17.4756 34.1829018321
33.1202 3.2375 19.994 30.2217333155
31.2621 5.16678 15.8071 30.0803283193
30.093 5.26786 12.8392 26.4278946325
37.8891 14.1791 21.0325 29.3072260621
33.6687 5.82859 17.1236 30.991696883
32.6041 7.66135 19.1994 30.3060505638
36.747 3.74058 13.3406 27.9905525111
38.9699 9.68587 15.9931 26.7520429412
39.4365 7.33226 17.3783 29.9055510641
37.8442 14.227 14.0599 26.7351526343
31.4073 0.157215 14.0653 30.4126825975
38.5654 5.71606 13.2387 31.2720096046
37.2595 8.65051 13.9493 34.1926277095
38.769 6.36202 19.9352 31.0951328282
32.0417 11.7343 21.069 28.0555678696
30.0204 2.88738 14.4288 30.6344343531
34.0335 -0.0370628 13.0946 30.2572904706
37.7236 3.83753 21.1743 29.000549776
38.6845 1.6761 12.4562 28.3437422419
32.5656 1.79112 24.4072 79.0446540079
32.0407 4.84664 21.5906 28.5753213401
35.5089 1.46324 24.3093 79.2270987548
32.668 9.59449 22.791 29.9168864064
33.4795 0.876503 21.5638 31.6128789625
34.7989 5.74829 24.2136 73.875219857
32.5786 4.41846 24.2807 58.0129530844
30.3487 7.65138 21.7844 27.4841952863
38.8231 1.53504 24.3088 76.246096803
36.984 3.92377 23.8483 43.4460973551
33.2843 14.2954 24.284 57.5031968217
30.4725 6.47148 24.5735 83.8831644657
35.2486 8.7267 24.143 68.9428225499
35.5168 12.502 21.982 28.880683089
37.4614 8.5572 22.416 27.9682330771
39.0817 14.0382 23.4946 38.9386873264
29.4993 13.877 23.4179 36.2152486092
36.3073 11.0863 24.361 86.4795897546
31.7238 12.2282 24.313 81.7984282544
30.3288 9.40293 24.6109 95.2293121411
36.3009 14.2585 24.4371 93.9325863304
39.3521 11.3869 24.0234 68.6424184265
34.0667 7.0897 21.5713 29.5676117681
32.9269 14.2701 21.2805 29.3624071439
38.2338 0.816372 21.6257 26.7044215919
38.7664 6.78858 24.3974 84.0223519207
33.1229 14.0207 35.4926 98.033308758
31.9645 3.61048 35.7988 74.8888834618
31.8991 0.595006 36.0512 53.281919554
38.9598 6.44538 36.0881 46.1190908366
36.9244 2.37707 35.6917 77.4933155864
35.7487 12.9462 36.2055 45.7002068239
30.2452 14.7161 35.8207 70.0933313315
31.8273 6.74143 35.7307 70.2506650697
34.605 4.32547 36.1263 48.3323388832
39.1282 10.6223 38.7404 31.6009624709
36.3841 6.69403 35.5752 90.1936479833
39.1985 9.39117 36.0763 69.5540494165
31.6126 3.16823 38.6805 29.9625803359
34.8665 8.50828 38.2863 27.4933817108
32.8649 11.151 35.7218 60.7543143622
34.6542 0.248437 35.6031 89.4405768147
36.5904 10.0023 36.1668 54.6527210458
33.9799 8.69064 35.6054 74.008829809
32.6487 11.2849 38.4427 27.9434345567
30.1061 11.208 35.7643 62.2113518784
38.1491 6.06676 38.6788 27.8930882069
37.3946 3.23237 38.8316 30.1188322317
32.3399 5.93612 38.5531 29.5466326033
38.7099 14.1026 35.66 94.3740835595
38.1302 13.6013 38.5728 26.4536641642
31.9693 0.135327 38.7564 26.8467907917
35.9909 15.4021 38.1983 27.0800493761
30.1802 12.7691 38.1477 26.5717536214
29.6166 8.41299 35.8857 53.663749938
35.5203 0.963876 38.1433 33.9259100928
30.1581 8.26453 38.559 27.8189237539
37.6936 15.7394 44.8129 30.7215441646
35.3838 0.942335 45.7687 28.4028869801
36.7861 4.96561 46.082 25.8065407844
32.7916 3.02967 41.3766 30.2799106936
36.3156 6.49435 42.1462 32.2759157722
32.6468 8.91281 39.9061 28.6031020544
31.2293 8.80691 42.4777 29.7858425552
34.3494 10.5419 41.8124 26.9958419184
35.7191 3.82574 41.2374 29.3555251582
36.2758 13.1433 45.6251 31.6138205096
32.7926 12.5236 42.8283 31.090468586
31.7284 9.95185 47.0365 31.838896439
34.1357 0.243564 42.0678 28.0869135411
31.5681 14.8751 46.801 26.8030738518
37.5768 6.88375 47.2674 28.1552743452
36.1583 10.2698 45.7392 28.8032468095
37.2265 12.5663 42.5271 33.8098521475
30.8533 0.717959 41.53 25.9318890532
31.4193 15.2853 39.4032 31.8737019563
36.5967 11.1591 40.0175 26.1616262353
33.372 14.3431 40.9864 30.0646415633
37.3498 8.02907 40.2518 27.973025869
35.0668 3.05678 47.2933 28.2577752884
38.9089 14.7798 41.2947 29.9558926068
35.112 9.00268 43.6366 29.995425679
32.1804 4.23177 47.1117 30.2298119575
31.7833 4.31569 43.4123 29.6430752567
33.5908 13.6144 45.2317 32.046024578
37.8803 4.63812 43.6232 31.2960086015
34.0011 16.0807 43.5577 32.5232577762
36.1632 1.74153 43.1165 30.3265995061
38.553 0.586318 43.4325 33.4436421939
33.9061 5.46896 44.8735 32.1296580607
29.826 6.24976 42.5129 31.0101344363
30.2955 12.4289 45.9878 29.2788579618
32.6905 8.37502 44.5438 31.0211852552
31.0292 1.70934 44.2099 29.1966670465
34.6801 12.8456 38.9858 25.7353124107
38.7002 9.3296 45.376 30.8774752866
29.8301 12.1991 43.1332 31.0138079943
34.2521 7.42223 47.2657 29.2434916196
34.8061 5.49009 38.8701 28.5873223175
33.3761 9.5184 55.2949 27.9764547356
29.6236 5.8142 49.4988 33.2259490399
34.7584 2.46001 50.1636 27.6638554323
34.6345 5.06168 51.0309 29.5102468465
38.5781 11.6917 48.9431 36.8076172077
32.7585 6.10647 49.1533 30.965141783
37.3622 1.44474 49.5471 26.6112979747
35.908 2.55127 54.0377 29.9707067752
38.4419 14.8424 50.9925 31.2543995385
32.1516 10.1131 49.8811 28.8197819405
33.9059 12.4964 49.7216 28.4362874104
36.7177 9.65923 50.19 31.6932088262
34.908 10.1769 48.1703 27.3706900395
30.3224 11.6087 54.3736 30.9455039498
32.793 14.992 49.2815 27.4412253511
30.6855 2.02968 50.8898 34.1522783217
36.715 0.294286 55.0305 31.1676828996
31.5129 13.8283 55.3439 27.4365602749
31.2237 13.988 51.5909 28.5477225314
34.7952 3.67871 56.4266 30.1982388734
34.8107 14.1204 55.7964 24.6523011343
33.5274 2.15514 52.6471 30.2768027132
33.5015 14.7977 53.2703 24.8747331654
30.5963 3.45455 53.4822 29.6126005796
31.6693 7.83956 51.6094 30.4404209208
35.2781 8.02066 53.9525 30.020775637
33.5156 6.27215 53.1449 29.1818147626
32.386 4.71001 55.0495 30.1809759633
32.219 1.82095 48.736 27.8083502948
37.2614 6.3773 54.4886 32.1837070675
32.3895 10.4172 53.0495 28.0272842823
34.3296 12.3484 52.4779 28.106781216
36.6139 10.6023 52.8639 30.405523091
36.3322 13.5579 48.6016 31.243983633
36.4497 7.06476 49.9601 31.0113453592
37.9439 4.18533 52.9111 35.22170967
38.709 12.621 53.5757 25.3938890334
36.6569 14.48 53.6759 27.7062660105
38.9326 2.13529 51.527 28.1838336786
39.1503 8.49538 53.2347 31.093133448
38.9839 6.33502 51.2811 30.732589998
39.0318 10.7766 55.4363 30.1077183822
29.9584 16.1272 55.5156 29.5066324798
35.5131 16.1617 48.5957 26.0708740166
38.4127 3.34188 47.7944 30.9843780054
35.8157 22.5643 4.39047 25.6846816404
30.0067 20.566 10.117 29.5580441072
31.3531 16.6311 10.0492 30.1667236121
32.5384 19.3743 4.32833 26.304336261
29.7338 20.2731 4.94844 26.6502956358
32.1278 21.68 7.93482 33.5490080729
30.0138 18.8366 12.2714 28.8454850876
33.9926 27.5098 5.04402 32.2033379457
33.64 23.4074 5.94253 30.2292262437
37.0029 16.7732 9.81941 30.2664239588
35.7158 17.8206 4.237 27.4107549595
38.8276 22.8616 9.57111 29.1514458255
30.8163 27.0554 11.9029 31.4885519038
32.4018 25.9409 8.08331 34.4207539928
32.398 25.242 3.99895 29.9964167273
30.7936 24.0061 8.22253 30.59006506
35.1313 25.0314 7.8671 33.0813659123
32.9427 19.0291 9.33852 30.2397414624
37.1237 20.3151 8.99044 30.286760763
33.3367 29.6526 6.43576 34.3616068193
34.3761 29.7764 9.17368 35.4179314879
37.5155 31.1032 4.43078 29.4000043089
31.3396 16.9676 5.28516 28.3057259698
37.2405 26.5665 7.14203 30.2968175044
35.8003 21.5141 11.3461 30.6268145067
30.5148 18.5976 7.26329 27.9748330278
30.6471 32.7815 8.99673 31.262412117
35.2626 18.4614 7.90829 30.888526691
30.6581 29.9996 5.62147 34.6153268611
33.0878 20.7904 11.6502 29.649810806
33.0179 27.5805 10.26 32.8484794959
34.7145 20.0559 5.73954 28.7940501584
38.0826 28.5562 5.15077 29.3965002373
37.9324 21.4987 6.41437 31.5071400715
39.4132 18.558 9.83923 27.4403936011
34.6839 31.6373 4.64569 34.4884065019
30.2615 24.3994 11.0203 32.5311234934
36.7453 31.7917 8.83092 32.8066881453
35.4776 24.2732 10.7881 32.1218347063
38.5318 32.3604 6.5449 29.2460643579
38.5312 27.2899 9.50323 28.7108111125
30.5977 22.7434 3.80823 30.2733383175
37.5393 24.6938 4.41711 28.6672585394
38.0907 25.197 10.9782 27.6067078839
30.747 27.4797 4.28615 31.4587296712
38.5634 24.1806 7.17957 26.6822260156
37.9232 29.853 10.4271 28.6164360122
38.4856 19.4366 4.30036 30.9187484474
33.0493 32.2719 9.87328 29.0931167609
32.2793 16.6073 12.5087 29.3062192258
29.9759 20.5564 14.3525 30.2532871453
33.511 16.9716 17.332 30.8515334904
34.4829 32.7636 19.3703 30.2855119872
33.7117 18.9993 13.7686 28.2006557565
31.7669 32.2906 19.5971 27.7435047685
31.878 16.369 19.9878 30.6987954734
35.843 20.6895 18.5362 32.9696693428
36.8506 25.4879 17.3955 32.4803531318
35.7717 20.9243 14.5184 30.8017410849
32.7746 21.1457 18.5753 27.5380442113
33.3498 23.4053 17.3907 29.8876179481
31.4094 24.1496 15.6462 33.6397354875
38.5816 18.344 13.5579 27.0903667358
34.5797 30.7892 16.0492 29.612902113
38.3998 27.5184 16.3768 31.5414689572
39.2711 25.6743 20.9536 30.2831623336
39.0075 31.7036 16.5979 35.970617376
