0.548027 9.72639 24.2013 53.0415478225
1.36457 9.56658 21.3425 29.1621768434
3.16429 11.149 24.5678 100.631751713
5.30342 10.1883 22.852 26.4574463427
7.73787 10.2182 24.2882 90.279937882
9.24767 9.98102 21.7497 28.7033309946
10.9523 10.7669 24.5138 87.3452017495
4.03274 2.32566 35.6164 68.2693856624
0.306145 0.472994 36.3396 51.735311821
6.74377 2.20088 35.4479 101.5353076962
4.26352 2.68758 38.4075 29.3549248407
6.95161 0.721274 37.8452 34.5028570833
11.7648 1.554 36.0883 47.1421520395
10.4911 3.94968 35.6795 91.1102602769
9.1767 0.143538 36.0373 58.0695529892
2.0922 4.56659 35.5192 95.8784591653
2.29583 7.67491 35.4182 89.3025533979
2.15695 7.63556 38.2947 28.6770483866
2.17054 4.72929 38.7982 29.6918766137
5.09318 6.82843 35.9756 60.9058260259
7.53599 4.71668 36.1322 43.3327681512
6.35917 4.54143 38.7367 29.8129489499
9.83282 4.59212 38.3299 26.1975135643
9.26781 7.60098 38.8226 29.754944537
8.50915 7.25498 36.0919 57.2025137794
1.81563 10.3375 36.0441 48.8312018875
0.0842956 11.6371 38.6485 29.9865664651
6.1532 9.60392 35.6516 77.0794574026
6.92267 9.25416 38.6097 31.6394426583
4.11239 11.8802 38.5617 28.758499144
4.37157 11.6023 35.7922 65.2767617469
9.05287 10.4058 35.5299 82.8802316593
11.614 8.98051 35.6412 70.4719268204
11.8001 8.62447 38.6946 26.6684244906
0.411072 0.396175 39.0824 35.0172598554
3.32318 0.375481 39.9098 28.5723990631
3.83405 2.18092 42.0933 30.8654054645
8.05349 3.26995 42.2285 30.3578706415
8.62844 2.22918 39.7621 31.3191566127
11.8917 2.24715 38.8538 27.4211141027
10.5574 0.2462 40.352 36.6270560789
3.36191 4.95628 41.6607 30.7969314705
0.467021 5.46995 41.7735 32.7645584803
5.15243 7.06069 39.0719 30.0387616193
5.84905 6.85681 41.9918 30.8861633185
8.44229 5.87565 41.1826 27.5554694172
11.0594 5.25251 42.3134 29.4068418836
2.21369 10.176 39.5123 29.6353212313
1.65849 9.92442 42.3876 32.5149559549
6.35717 11.2508 40.2829 29.2782025153
6.48214 9.57992 42.6531 29.5209369375
11.1183 11.9691 41.5891 31.4678750125
11.7468 9.22618 41.472 30.6889216314
9.13333 8.70534 43.1819 29.4771569727
2.1386 0.959686 43.8137 30.7072514606
3.16744 1.8472 46.4358 29.1278698204
4.92495 3.43185 45.2273 27.332552163
7.28012 2.67091 46.701 29.037896774
6.15652 1.6732 43.3662 32.3848490119
8.11543 0.00987702 45.7803 32.4489632614
10.2217 2.87586 43.629 31.1781146602
0.753044 5.92353 45.7755 33.4919399754
3.49753 5.65008 44.3087 29.5287292313
6.27829 6.93342 45.0918 26.7765708618
6.20411 5.33426 47.5777 30.0309221693
9.97469 4.1324 46.2237 28.8588176643
9.0651 6.62262 44.9313 27.2996959337
10.3059 7.4444 47.1757 25.4249063164
3.33435 8.52448 44.5957 32.5047822285
1.24715 9.21038 46.615 30.3650227055
3.52025 11.4166 46.3933 26.2163775261
5.15402 11.6476 44.0066 27.0697730213
6.19109 9.33126 45.9016 30.907239956
10.0394 11.1685 44.288 31.5815467321
11.897 9.37556 45.4534 27.5885473793
0.551138 3.9465 50.3833 33.1763549026
0.5131 1.18108 51.0987 31.1980369019
4.08873 0.546757 48.7883 30.3815410164
1.61158 3.86606 47.6538 29.7287499032
0.0161421 1.26479 47.7592 28.8366833537
6.90775 2.05802 49.5079 24.9748397788
4.49709 3.0278 50.7925 28.9025096686
11.4537 1.02069 51.5675 30.9124823683
10.0806 3.53445 48.8003 26.9557067625
9.38868 0.678411 49.5201 27.9424808192
3.20586 7.12479 50.1502 33.7165255453
3.70439 4.81487 48.8489 28.4589347714
7.8688 4.29955 51.0882 32.6077733445
8.14697 6.27821 48.9251 25.7739754859
7.27366 8.0713 50.7874 29.3400194272
11.3175 5.39132 50.4345 29.2772183526
0.92528 8.25085 49.3964 31.3570005884
1.1553 10.9237 49.9422 29.7702401777
4.0572 11.72 49.1029 31.3990401898
4.80206 9.21578 50.6311 31.2527242109
8.10553 9.22524 47.8335 30.9337970768
11.0508 10.454 48.2966 31.3171230003
8.30157 10.6529 50.3946 27.6607657477
10.7176 11.7989 51.1918 28.4486104186
2.5049 1.6342 52.6551 27.2065167326
1.85164 2.66622 55.2015 29.1785674044
7.32827 0.743499 52.2834 29.047902178
4.95125 3.63852 53.9535 30.8520751478
5.72011 0.675511 54.6031 34.1310154337
11.1371 0.621105 56.1654 31.3690061773
9.60761 1.57607 53.6421 35.1138921292
2.47076 5.05203 52.1613 31.0135318972
1.20144 6.73287 54.1457 31.3855675596
3.23048 6.50956 56.1027 30.20903078
5.43079 7.72806 54.6835 32.5762391741
7.34568 5.14417 53.807 29.2909757015
11.4882 5.65102 55.2338 30.7781305639
10.7076 6.89634 52.9657 30.3435157043
9.17997 4.11061 55.3097 31.9523797899
8.2616 7.73004 53.3658 26.8050121477
1.41327 9.612 53.8161 34.8068368361
0.342681 10.4 56.412 29.9831700977
7.2814 10.5376 53.4442 28.3521376291
4.43775 10.0177 53.2462 30.256661835
11.4247 9.58011 53.0429 29.7117828962
10.3594 9.69911 55.6193 28.1958330596
3.18053 15.2833 7.43769 27.3056560694
3.87565 14.5144 4.55133 29.3847370688
1.17019 16.1449 5.20045 27.8576750421
0.708561 13.2825 6.38635 29.3373895901
6.576 14.7004 5.4709 28.3216075648
9.67469 14.0983 4.96947 33.0716157144
12.2922 15.108 5.8284 30.1775335621
3.6672 18.2894 4.5221 31.6467528039
7.23701 16.9749 7.39741 29.9826510389
5.19974 19.0338 6.83485 30.1522101029
9.04296 19.7621 6.64432 27.1240779272
11.6271 18.2619 5.1175 30.0832037797
8.97826 16.9089 5.04188 28.0105650935
3.21921 22.0415 6.55066 33.2441166717
0.454229 22.5325 5.58402 32.5655844218
6.93415 21.1578 6.91668 29.3079802767
5.56611 23.0663 5.29836 32.3884778144
10.9384 22.8385 6.65109 28.7792545713
10.6959 21.06 4.54755 27.090475898
2.40027 15.9297 11.2559 30.7850234943
1.11565 14.2767 9.20338 29.2500814507
7.11243 15.0301 9.64723 30.4398364243
5.28093 13.5397 8.04127 29.459818041
8.18384 12.8357 11.5835 31.0762556726
9.21438 12.5022 8.71523 32.8022494745
11.1054 12.3292 11.6019 29.9575813027
0.16989 17.6238 12.4297 31.7414072663
1.01071 18.4438 9.51867 30.8961065419
3.66265 17.5995 8.77908 27.4345066676
5.24149 16.7666 11.1002 31.5036507083
7.29621 19.1352 12.2571 29.3328026481
9.50216 18.0226 9.05146 27.0521944235
8.87802 16.9009 11.4798 28.2151117933
10.9197 19.6756 11.81 28.6921270283
11.6021 16.3406 8.17708 31.6590550006
11.8082 16.7219 11.903 31.3786548855
1.755 24.3279 10.382 29.2083770333
3.54783 20.5906 9.42692 34.8995967944
0.720603 21.2352 10.3187 29.3221122115
6.87081 24.07 12.3687 27.3824893829
4.57565 20.4598 12.2208 34.2635321996
7.22258 22.8861 9.16878 30.894550532
8.99602 22.6413 12.0592 28.5945525933
8.62536 20.5906 10.1214 25.9308761832
11.1331 21.2971 8.8534 27.7613688917
11.2634 23.3519 10.7672 32.8041892202
1.91377 14.1428 15.9504 29.4474074748
2.00101 13.4859 12.777 33.0666567125
4.63849 13.7975 15.68 24.7399682952
6.77741 12.6591 14.3484 28.878767593
8.20251 15.5849 14.3509 27.5619971851
11.1192 15.2786 14.1924 32.8063610259
1.59171 16.8902 14.7975 30.5711591071
3.91281 18.4717 15.1885 29.078359771
0.269864 18.4604 16.6441 25.8005048136
5.39453 16.354 13.8045 31.307966061
6.54326 18.215 16.7398 27.6682249403
8.46297 18.4534 14.6942 28.3576744177
10.8257 19.1538 16.746 27.5278210943
2.32913 20.7292 14.2738 26.773277549
2.58428 23.1243 12.9065 29.6844902036
1.56236 22.1402 16.4606 29.0668083928
5.16083 22.7286 14.0085 32.3297482261
5.91546 23.8501 16.6816 31.8400074124
9.73386 21.0874 14.0989 28.8445497438
9.0357 21.7042 16.7826 32.3436274365
2.35102 13.3691 20.1117 31.7072465444
1.61435 15.6356 18.3052 30.6359107851
5.69288 15.3239 17.4022 29.0378328537
6.89095 14.3038 19.9851 26.7412117565
9.64945 12.9724 17.7969 28.3062410653
11.7452 15.4741 18.5735 28.203961338
10.8459 16.0484 21.1417 28.1886517632
8.95349 12.654 20.3978 30.1890192004
8.58766 15.409 17.2288 27.4493420599
1.72624 20.2846 18.3423 29.6979610156
3.4094 17.9897 18.0528 27.0003791226
4.4376 19.5724 20.5226 28.8629000104
4.7713 16.92 20.4785 28.5256776252
9.24352 17.8646 18.6193 29.5962574848
8.40536 19.3933 20.9374 29.3557704076
3.17787 24.1897 20.3919 30.667012822
1.93977 21.5424 20.8519 28.5121709877
6.51284 21.0121 19.8944 29.4130286591
6.23286 20.941 17.1451 32.4106733825
12.2403 24.4501 19.6029 29.9947433919
11.9319 22.6467 17.1361 31.6097142663
8.30508 24.2981 18.27 33.0303369813
2.49145 15.6824 24.4799 92.4919073417
2.65857 15.8531 21.8094 25.7264040375
1.29695 13.3476 24.1581 57.5626411025
0.141814 12.6201 21.4908 30.8024628936
4.90618 13.5347 24.1324 52.7266143529
7.96774 13.2446 24.0731 51.0571778683
4.93699 12.5692 21.3584 28.9732587955
11.4378 13.4178 22.0296 26.461906365
10.5782 13.3819 24.6487 83.99711627
11.7401 16.222 24.3254 70.2114650839
0.511502 17.1161 21.2485 30.5175256082
7.74606 16.5037 21.4551 29.0990638747
4.20405 18.4098 23.2775 32.7062719815
5.72547 16.415 24.6844 96.0213208574
6.29371 20.005 24.3068 93.6278201652
8.39363 16.343 24.3303 64.0573927661
8.86752 18.9811 23.7277 35.8236100777
2.19038 20.8473 23.7182 62.9442721924
3.28151 23.3193 24.108 92.0334376675
5.95302 22.8976 24.0186 63.0672136694
5.51184 23.1277 21.2915 29.6696800428
10.9236 20.7478 24.5317 93.5539843767
10.9558 20.7048 21.4301 31.8538027946
10.0945 23.3496 24.4326 85.5778416027
10.5167 23.3996 21.6173 28.9807158571
1.53294 15.0584 35.8205 85.7280536852
3.70189 14.5409 38.1612 33.7450365086
4.74714 14.3515 35.5754 99.4428252547
7.25444 15.3777 36.3979 34.2816375293
9.19163 13.3479 35.6541 92.1285154806
10.1281 15.6566 38.541 27.2464112103
10.0248 12.6198 38.314 33.1428515985
10.9184 15.7763 35.9441 64.4308091616
1.20452 17.6891 35.873 84.6875947838
3.23657 19.5972 38.5984 34.542756869
1.79156 17.0139 38.775 32.7674651788
7.21059 18.087 35.5682 111.330633596
9.75231 18.2219 36.4335 30.1198462596
11.3247 20.1339 35.0875 131.482399559
9.2096 20.2336 38.4936 29.4705713976
1.17136 24.2282 38.3567 31.4931766052
3.29921 20.4394 35.7555 98.9024901915
1.62774 22.6282 35.86 65.2950404652
6.16127 20.6446 36.3082 40.6279177904
7.8392 22.7983 35.6683 98.2651838456
10.9161 22.64 36.0977 46.3414191793
9.10005 23.3188 38.7099 30.5583801505
3.5586 12.6237 42.04 28.6454555983
0.0412649 16.0552 40.5742 31.5290267834
1.53202 14.2007 42.8057 29.9270113201
7.32294 15.91 38.9446 33.0582579705
5.22168 14.3138 40.6689 27.3935285846
5.1933 16.1246 42.4101 28.5035083566
8.41207 12.9874 40.6646 31.3122793344
3.81486 18.0763 41.1679 30.7382698217
1.72353 20.0419 42.4704 27.6981342234
0.373486 17.5758 43.0226 29.5852520226
6.17714 19.6149 40.9642 29.9121000283
11.7497 19.6822 39.6339 29.5348994194
11.5616 17.2261 41.0375 27.398925073
8.5024 18.2112 40.1275 27.8831622797
9.34549 18.297 42.8204 27.993703523
1.45756 21.5754 39.8087 27.5186450584
3.20088 22.3232 43.0134 27.4935390662
5.68301 21.0686 43.1601 29.545549842
6.19306 21.6406 39.0457 30.9471917654
4.20713 23.1481 40.8162 30.0986276731
10.5254 24.0236 41.2985 29.1734477952
11.8224 21.3939 41.748 30.4917608392
3.51377 15.3439 44.4783 26.1564245314
0.948163 15.1308 46.1548 30.2633071402
1.06319 12.4466 45.9263 27.001240813
7.35121 13.9699 47.2781 30.7228025887
7.72511 12.5084 45.1186 29.8686998942
4.66514 13.9445 46.3318 26.9289989947
11.2369 15.6696 43.9159 28.007828286
8.82046 14.2763 43.353 32.1886886956
3.01006 18.1143 44.7652 29.4532636684
2.31446 18.9387 47.2179 29.3287291297
5.76812 18.9978 44.9648 30.5081660321
5.58129 19.7752 47.5582 31.4513619484
7.49821 16.862 44.2213 27.1703561369
7.96417 16.4729 46.8498 30.3359715101
10.5744 17.2281 45.963 28.2783376606
10.5068 20.0086 46.1247 31.7410790057
1.93099 22.9527 45.7459 29.3291663676
8.07991 21.1191 47.2551 32.6161436239
8.02223 23.4627 45.9331 34.1207049488
7.8465 22.6712 43.3558 31.0633101513
9.8361 20.8718 43.5134 30.8472038065
3.43309 15.259 48.5249 29.5004673091
2.1117 13.9453 50.5449 29.8413436901
6.2983 15.1393 51.4958 27.2676189131
6.76209 12.8449 49.4786 31.7636651028
11.2219 14.9388 49.7669 29.8739177165
9.04514 15.2893 51.3499 27.6117974718
12.1627 13.1786 48.0775 30.7542462226
1.29588 17.0675 48.674 27.2083868128
1.52649 17.871 51.7234 31.8145384006
6.69559 17.7884 48.8625 28.3789714094
4.50486 17.0664 50.5054 29.7333010073
8.76909 18.3517 50.4526 29.8003094085
11.477 19.2678 49.7519 33.4871139796
2.36163 22.2835 50.5477 26.4650168868
3.20865 21.6408 47.8347 35.6447750082
7.38377 23.7591 50.6818 36.1869135886
5.28798 22.0608 51.4977 32.3666611937
9.18803 22.0891 49.84 31.7207629797
3.87934 14.3378 52.7174 29.3989609667
2.10431 16.0829 53.8807 28.1451509399
4.19609 12.3656 54.6867 31.2260885085
6.7089 15.5616 54.2943 27.4909236256
6.65594 13.1431 55.5695 27.3114169988
11.4467 15.7474 54.0523 31.1860608023
8.66606 13.0208 53.0301 26.8102837175
10.3789 13.3067 55.2107 29.1281229678
2.45724 20.3532 52.6916 25.6485756829
0.935931 18.2227 56.3714 27.9377278156
6.58131 20.3828 54.8401 26.5885075384
4.56138 16.739 55.1782 25.9962577607
8.08237 18.3422 55.8646 31.8091982938
4.67808 18.6457 53.0771 28.626953446
7.24696 20.0544 52.1469 27.9783277696
11.3795 19.2415 52.7103 29.8512960428
9.33154 17.3613 53.5679 27.4751270779
0.496622 22.9481 52.4791 28.5703671931
1.55848 20.744 54.8853 25.9954723586
2.27308 24.1253 54.6864 28.8656235416
4.45025 22.7581 53.9794 28.9963461219
6.59052 24.1882 55.6412 35.1321679494
4.22325 21.012 56.3792 28.4708074264
11.1545 23.1971 52.1886 29.795179739
8.78647 22.2069 55.7766 28.503204958
9.6796 21.1153 53.4643 28.3685307131
10.6174 24.4006 55.8147 27.3157611746
1.48736 25.9946 6.4651 30.07168232
3.28606 28.196 6.85073 31.9375375699
3.09483 24.5872 7.99254 29.3721079046
1.0293 26.2343 3.65922 32.0089265842
6.04516 27.4397 6.42914 30.6695745572
5.75834 25.0746 7.86802 27.3189292743
8.77713 26.132 5.12222 29.7701096727
9.08286 24.7001 7.59241 30.4242718091
11.7317 26.4206 4.79254 26.8530992749
3.26512 29.8762 4.82799 27.6132214565
1.02919 31.3822 5.07857 31.5031692744
7.2111 29.8847 6.7083 29.505459246
5.63154 31.4449 5.16358 29.7065005766
9.52494 28.9297 5.33528 27.6956344281
9.36641 32.115 5.77974 27.8809612985
11.735 31.012 4.35226 27.9745606038
3.41226 35.0626 6.19078 29.9156031812
0.885999 34.1448 7.28827 26.1965549684
1.32141 33.9245 4.02829 27.2494025799
5.31799 32.9454 7.31524 28.7683835296
6.46779 35.1613 6.09398 28.4608977463
8.34054 34.2238 4.09957 30.1286234336
11.422 34.0239 4.33537 29.0331575784
8.85563 36.249 7.66732 31.9326601274
11.6339 35.2652 6.80393 30.3313129936
3.30958 26.4707 11.4072 33.3749911593
5.87538 25.7505 10.6502 31.0974279049
7.8651 28.0131 10.7862 33.4574349429
11.8698 27.5019 11.8004 28.9110804693
11.0431 28.4718 8.28032 29.8377566381
10.3179 26.0559 9.68358 30.868097095
2.60046 29.9026 9.07693 32.3518379811
3.49231 29.1973 11.4934 34.5177021411
0.0873628 29.722 9.15457 28.0073786794
11.6583 31.9835 10.273 27.8037115256
8.98408 29.9142 9.06107 30.6703901683
1.68944 33.042 11.6157 27.3690587279
2.75894 32.8843 8.93955 29.8414314151
3.48059 35.9226 9.02446 30.0671943914
4.42531 34.8444 11.6596 30.3443598815
7.4919 32.6979 9.04996 33.2029283756
7.03178 33.8296 11.5594 31.8419365943
9.99622 32.9636 8.37829 29.550333156
9.47387 36.1212 10.6501 32.3779467185
2.9723 26.8252 14.3887 28.58884627
1.01788 24.8244 14.7952 30.4709677914
5.55707 27.4531 14.5751 27.5985030477
7.59509 25.7617 14.4309 27.7127732245
9.41494 25.9473 16.5008 31.6219336977
9.51307 27.1253 13.1241 31.7520558399
11.8814 27.4532 16.2405 28.8814849448
1.43392 30.7143 12.9772 27.8020366561
1.13462 28.7404 15.3761 31.2194231009
3.46019 32.5381 14.4236 31.7442816512
6.27107 29.4721 12.7304 30.0332770294
6.01883 32.0375 13.6241 30.7705652168
5.64947 31.2107 16.5392 31.585471701
11.6809 32.2732 15.8121 29.3867450594
8.63566 29.912 14.2075 29.3386648377
8.37283 32.2353 16.2113 30.7536835125
10.8301 31.5384 12.8994 30.1847018942
1.20277 35.5982 12.7875 32.5187594238
4.17694 36.0217 14.3952 30.3950468461
6.90509 36.7388 14.417 28.8608680903
10.2213 34.3841 12.7859 31.7031121265
8.86421 34.9091 15.1586 30.3752600492
3.5653 27.8512 18.2319 31.5256624477
3.71548 25.3647 17.003 29.880196456
3.8386 26.9738 20.6424 32.2332956649
0.626789 27.6729 18.3668 26.4064638735
0.930481 24.8124 18.1719 28.1999118106
7.7772 24.8115 21.0984 27.9686207196
8.64061 28.3949 19.9475 30.751590131
10.2892 26.5353 21.1653 30.6398238921
1.0499 30.6112 20.2241 31.5402270633
3.53538 31.8172 21.2271 32.9044230842
0.70257 30.7901 17.2029 27.6510663493
5.97627 28.625 16.9167 31.7950033305
6.37633 30.7028 21.2154 34.8186827085
8.12883 32.3588 19.381 31.0280338462
11.6049 30.2808 17.7096 30.6579830841
10.3236 30.6303 20.398 29.3194630994
8.99825 28.693 16.9885 28.1072585179
2.19172 35.1258 18.2491 28.1523117558
3.18484 34.7799 21.1642 28.5865868803
3.05819 32.8274 17.2463 30.2104444088
5.53161 33.3669 19.1768 26.5215845502
5.48493 35.3175 17.2665 29.6802796858
10.3528 36.3918 17.0304 29.0109102736
9.08791 34.4657 20.9193 28.8672857469
12.2563 34.5599 17.3766 33.2569967585
9.99086 36.5221 19.6964 28.3038532416
1.39397 25.3668 23.7597 48.1029239318
0.72467 28.0119 24.2059 95.0517949505
1.51258 28.1605 21.5809 29.5708249794
6.32416 27.5497 21.5037 31.8880212588
6.97695 27.8329 24.2102 110.5588826753
7.80343 24.9323 24.0052 58.7997851066
12.1222 25.6248 24.196 83.724623996
9.94588 27.6015 23.7229 55.4025991369
1.61245 30.7675 24.1881 85.9798791878
4.20259 31.9829 24.1157 72.5812459404
6.79627 30.7396 24.137 65.5607138298
10.7866 30.0988 23.3121 34.8999328662
9.12714 32.0807 24.4053 109.3405403928
3.01839 35.8136 24.2735 85.4219263685
0.564014 35.6223 21.6276 26.3400741972
0.164105 34.9046 24.1728 80.7565326287
6.09189 35.0498 21.601 27.4587002738
5.47959 34.5432 24.1074 61.5702660946
7.6042 36.7243 24.3837 93.0395180486
12.1119 36.0398 23.915 57.3049644168
11.674 33.0708 21.5828 29.5425803436
9.48104 34.7153 23.8535 46.2925564459
3.16789 28.3295 38.7127 26.0586380881
2.77698 27.8099 36.1296 50.6961162868
3.38124 25.0866 35.9095 77.6876217139
0.0976952 26.9733 36.1051 58.8785415525
7.62125 27.7039 35.6262 93.0244690391
7.74782 27.3446 38.3225 30.9502121865
6.17188 25.2735 35.8289 70.3843204794
10.5361 27.6267 36.0312 62.9580961247
12.173 25.1762 35.7051 94.4066084093
11.4915 25.1887 38.7511 31.3152628126
2.25838 30.745 35.6873 74.702788528
1.86325 31.0558 38.4417 31.4905296625
5.30564 29.3249 36.0015 58.6346677186
5.72891 31.6023 37.739 30.7386613222
8.17661 31.6559 35.8775 75.9483270639
11.1848 30.4138 35.8804 74.9671215187
10.5584 30.8427 38.4619 32.215718491
8.38826 32.5788 38.771 29.6657678823
2.95117 34.2726 38.3162 28.4722791539
3.12405 35.2332 35.6177 88.3955308622
0.771099 35.6185 38.7754 33.7637636689
0.342837 36.0576 35.9899 57.1017073046
4.37509 32.681 35.5735 89.3417174218
7.58953 36.5021 35.5445 90.2898578124
5.13719 36.1202 38.4532 29.5288757371
7.79849 35.6964 38.7996 28.2175275462
9.2419 34.3818 35.8536 58.6574065637
12.0181 34.506 35.6805 62.8468575728
11.8376 34.0343 38.3807 29.7022851777
3.02403 25.6573 42.2074 30.664699946
1.91475 28.4223 41.508 29.9014301108
3.33543 25.7538 39.1509 28.1020612474
0.593522 24.6047 43.0651 27.2491931221
7.56303 27.6044 42.1507 31.7859725988
7.80547 24.812 41.2939 32.4068310512
6.25574 24.8852 38.8408 28.5738668769
10.1673 28.4725 42.0415 31.8798011257
10.6742 27.822 39.1905 30.1062727208
11.4523 26.0576 42.8194 31.9354279659
1.37522 30.9436 42.4726 29.427574603
5.66896 29.0024 39.1521 29.0282983138
6.07838 29.9291 41.7093 29.8604541071
7.4035 32.2257 41.6666 29.5473943
11.5607 30.6068 42.5919 29.8262709256
3.3901 32.8527 40.9957 29.9002870738
1.62851 34.7042 42.0645 28.6649009452
5.60638 34.1375 42.1595 28.3697953289
7.37997 36.0024 41.6415 27.9185016236
10.1945 34.8371 40.9124 28.368866554
10.0655 32.9182 42.9236 31.0317061798
2.22507 27.9522 45.7151 29.8245015438
0.269811 26.1371 45.4066 30.7375399033
3.46338 25.2313 45.0494 30.7376679988
6.80623 27.514 44.9458 31.6700513312
5.99903 25.3794 46.3167 34.0881659073
10.3227 25.4201 45.4488 36.0789759506
9.35311 27.8502 46.1606 41.2589611476
2.61698 30.7933 46.3469 28.5336126045
3.94368 31.8452 43.8971 26.2862814073
3.98854 28.6952 43.4386 28.1079626128
5.84194 30.2923 45.7241 33.1877742008
1.62324 33.3937 46.8961 29.2255497877
3.31992 34.6082 44.6856 30.1619134374
7.26041 32.6854 44.8043 32.6503290172
5.94252 35.1045 45.378 33.3848824554
10.0879 33.0935 45.9241 33.9787041978
9.22932 35.7927 46.2715 35.3596039019
3.05263 27.5183 48.3005 29.8561801937
0.670367 25.0965 47.926 30.1697832785
2.86798 25.0637 50.1898 29.3258936133
0.655279 27.633 50.0066 29.4429825998
5.52296 25.6137 49.217 34.2159600176
6.57368 28.1249 49.9176 32.6721268436
11.0666 26.3504 49.7755 32.671642227
11.9115 24.5983 47.7147 31.3315092732
9.45349 25.463 51.6465 32.0027537219
1.61097 30.3449 50.9579 42.3663523871
4.7592 30.0006 48.5625 33.4596690588
6.50781 32.06 49.5842 37.1677854803
9.12162 28.7764 48.8639 33.0595892774
10.9672 32.527 50.088 30.1643750478
8.86921 31.5513 48.2781 33.6603683226
11.8747 29.7662 49.4663 30.7094219594
3.35947 35.2009 48.4245 35.5567492246
0.852037 35.9103 49.8467 30.3747841621
5.88425 34.8664 49.619 34.2046185015
8.27303 36.4497 48.9172 36.0389557035
10.3575 35.4207 50.5102 34.2030045152
3.31915 27.8319 55.6556 30.0935371222
2.35013 26.0015 52.7309 31.4591034276
7.65469 28.1612 54.6251 29.4208037376
5.89869 26.9599 56.3425 32.5134135657
9.52123 26.3772 54.2276 27.4328668333
11.5784 27.9009 53.592 29.0347433321
3.42082 28.7164 52.6487 32.0986770383
2.67221 30.4879 54.6321 29.6741675133
0.508482 31.3883 53.3052 28.1211059867
7.13204 31.5619 52.6248 35.128874673
6.3019 28.9798 52.594 34.0987354894
6.85595 32.5632 55.3888 27.7321327492
8.91801 30.421 55.5587 28.8899846439
9.9614 32.1779 52.7874 30.9687824316
11.5867 30.6155 54.0871 28.3537778778
0.478016 34.0832 53.8985 25.9776938944
3.08375 35.3232 53.6939 30.7892228379
4.08139 33.0086 55.3439 32.78461965
3.6293 36.3832 56.4294 29.3206218471
5.43659 35.1807 52.3798 35.4116071248
7.47938 35.751 54.4587 32.2472631617
12.2023 34.9819 54.7371 31.8912797852
10.0761 34.8055 53.2694 30.5633728541
1.52264 38.7631 4.60548 29.2679892157
3.62065 40.5193 5.64496 32.1913170672
0.0233251 37.6232 6.60963 31.126489153
7.94397 39.4232 4.80484 31.7055745405
6.2269 37.2879 3.75283 35.4226120998
10.1364 38.5939 6.25166 34.4220992703
1.79975 42.5704 5.80291 31.3449669917
6.3197 41.448 5.6354 34.0884448066
7.09538 44.0721 4.67341 34.7314385558
11.4311 42.9056 6.36233 35.1262704391
10.0102 44.6732 7.91878 31.55158531
2.15563 45.1598 4.36697 29.6105316657
3.36081 45.7714 6.90906 32.8790799604
5.33179 46.2162 4.85544 37.3018933344
6.73596 46.7826 7.3097 30.963589349
8.78392 48.3431 4.70743 33.4941767955
9.27467 45.7819 5.40895 29.6216734064
0.400311 40.0173 10.4865 29.6974855216
2.98614 40.7725 8.55318 31.3819043824
1.50177 37.8472 8.90581 30.9044802413
5.58139 39.6682 9.51081 33.3729957304
6.11238 37.1113 8.54447 34.1678673859
6.68639 37.0154 11.4877 30.8314038916
10.106 40.8422 8.04149 32.6644886958
10.8104 38.5028 11.4132 35.961995448
4.01214 42.7333 10.4117 30.380348264
0.735308 44.157 10.4399 28.18422365
2.05737 42.6151 12.1334 28.5977164723
0.19359 42.2233 8.09965 31.4362354632
7.54677 41.4215 8.35255 34.5141080692
7.69161 44.0202 9.23589 32.8178451459
7.79906 44.1643 12.2215 37.1590908735
11.6888 41.0441 10.2318 34.9855669617
2.33695 46.4905 11.23 31.1295907932
1.99241 47.8961 8.39386 27.6171689778
0.513804 48.8653 11.5428 31.9358064781
5.06866 47.7466 10.8906 28.6511321491
5.08019 45.3839 9.22532 29.9151264808
5.49777 48.9573 8.37684 27.907322483
9.75546 48.3463 12.1662 30.8019845742
10.7117 48.4996 9.40327 33.444509271
11.9635 45.8308 9.52651 33.7893650251
0.270047 37.1948 16.6727 27.8805138907
1.49362 39.6395 13.0749 32.5589973602
3.77293 39.012 14.3492 28.710894637
5.75205 39.8832 12.5465 33.755299957
7.71044 39.4431 14.8392 31.8510417664
11.7745 38.6158 16.0552 30.9914642421
10.2563 39.7067 14.0332 33.1944738372
4.06699 41.167 16.0844 31.4609478704
3.89055 43.5116 14.7008 31.0265974266
0.875709 42.5582 15.0626 27.8515587171
5.66008 42.7689 12.6966 32.5272471081
12.0053 42.5622 12.63 30.4427900651
12.2656 42.6723 16.4799 31.9310600184
9.89327 44.4783 16.3582 30.4422078608
9.65607 42.8001 14.0532 36.52742044
3.0399 46.8605 16.2222 25.0639747847
1.59256 45.8193 14.2191 28.0758811744
2.78911 48.9938 13.9636 25.6658846346
7.25846 47.1657 12.5292 31.9104183556
7.80817 46.7176 15.5369 31.2177807585
5.35556 45.4288 16.6202 30.7955638959
5.43311 48.4704 14.8132 28.0633073109
11.3575 46.7347 16.0428 28.8679557086
12.2359 47.1396 13.5508 32.0807970891
3.55226 38.104 19.6404 29.7843512029
3.1076 37.5708 17.0707 28.9143313267
7.3837 37.06 17.8341 28.5069442444
6.97804 39.8658 17.4038 32.1498929371
6.2273 37.4524 20.4137 30.2377656121
11.5424 40.4455 18.0628 32.5980747748
9.26471 39.0238 21.1916 30.8082569313
2.38783 41.1314 20.3828 27.9882740349
1.59939 41.6302 17.6776 29.5124979761
2.15203 44.6432 18.9875 27.9865181593
5.67564 43.9528 18.9404 28.3780554089
4.95052 41.1391 19.2682 26.902454491
8.43766 44.0135 18.6778 29.3572985732
8.90965 41.0364 19.0641 34.7170631098
0.266862 46.8374 18.6537 25.9368559191
3.61944 47.1299 19.2505 24.3450363639
5.63981 48.4787 17.9128 29.8486478549
5.02551 45.8764 21.1486 27.5567694602
11.7012 45.7094 20.9426 31.9105662841
8.43807 47.239 18.2493 28.9081120158
9.13766 45.4225 20.6548 27.325991826
1.76927 38.2787 21.7648 30.1632707065
3.59505 38.7883 24.1022 64.2702093372
1.59831 40.8243 24.2401 61.4144245424
6.57168 40.4213 21.6295 28.2301811205
5.93865 39.7762 24.265 65.7989217813
9.08011 39.2791 24.0764 64.3864374774
12.255 39.3057 21.6901 33.7623873578
3.8038 43.1957 21.7474 25.9545513387
2.59619 43.1836 24.4409 76.6496071442
1.2942 44.881 21.4329 24.4703784983
5.26339 42.6057 24.3532 61.9986329478
7.21395 43.3132 22.0208 28.7793679045
8.59606 42.0398 24.3566 77.4299642851
10.8151 43.8061 24.4295 98.0000684428
2.01943 48.0888 21.4092 26.0472008059
0.408474 45.5271 24.1316 65.3031246951
2.90118 46.8549 23.7267 37.1285994786
5.41838 45.4077 24.3863 86.2372863403
5.88992 48.6441 22.3101 28.0610092083
11.3951 46.5534 23.7691 48.3310313276
8.24955 45.6054 23.9857 62.7328897805
8.46758 47.9726 21.6976 27.4238380198
1.81854 40.6566 35.9728 70.6907649998
4.50469 40.0053 36.0076 68.4715149303
4.9987 37.1959 36.0055 53.2525631187
11.2592 37.2538 35.4809 90.9992106837
8.95925 38.8519 35.9517 53.2801779207
9.5156 37.9563 38.6731 28.5851642075
12.1304 38.2991 38.8167 27.7268075319
1.52477 43.5658 35.9579 69.3844380872
2.98424 44.6314 38.2849 32.5110830718
7.71295 42.3439 38.3755 31.5222183961
6.3925 42.3042 35.6317 95.965894352
9.28947 41.7926 35.5691 89.7768117034
10.2467 44.8057 36.0903 51.9393667196
3.26994 45.9561 35.3574 116.4357771951
2.87463 48.6976 35.6935 75.2641440764
5.75938 45.082 36.3898 33.5550750214
8.06676 46.4275 36.0191 76.6508034686
4.4277 47.9005 38.0076 29.6797089541
11.0142 47.3401 38.323 28.283442902
11.9396 47.3493 35.6446 86.8028106392
3.53195 40.6212 38.9265 36.0363179727
1.70549 37.3444 41.2984 29.9418046461
4.25172 40.608 42.3313 26.1596656849
6.7159 38.9131 41.5068 27.6172216377
4.41363 38.0347 40.0842 31.8751155898
8.60768 40.204 39.8808 29.9103515299
11.0579 37.1592 41.9605 32.5845005171
1.29483 41.01 41.3572 30.9802396431
1.62396 43.4905 42.3082 27.2670164658
4.32927 43.7708 42.4073 27.6192612189
5.33241 42.8643 39.6386 27.6249754592
6.88644 42.0232 42.1539 28.5323158046
9.19062 44.3788 41.7782 36.8557973476
10.59 41.8439 40.6518 31.0870222648
2.22797 47.4318 41.6816 28.401793806
0.929025 45.2771 40.3058 26.5772400031
5.04214 46.5138 41.5681 33.0876268932
6.02769 45.6997 39.0967 26.7913825003
8.87198 45.594 38.9462 33.5548265472
1.42176 37.7713 45.9989 28.0115315078
3.16005 38.2129 43.6253 28.6012876768
0.247168 40.2849 45.2463 28.8455734252
5.14017 39.6036 46.44 29.262344714
7.71423 40.1906 47.2719 32.8833678416
5.75226 37.7254 44.3332 28.6081687111
8.91983 40.211 44.7799 33.6787749663
8.75682 37.6973 43.8543 30.3872678166
2.89967 41.3537 45.0418 28.7504634098
1.85183 44.5787 45.2326 26.4299982387
4.88778 44.3139 45.3268 27.9730849194
6.59998 42.1007 44.937 27.427608543
10.9366 42.213 45.599 29.1394298067
8.66163 43.9279 45.8779 26.6422510879
11.8433 43.4935 43.3788 34.798713176
2.88837 47.453 44.827 28.6399943632
0.367102 46.848 46.8257 29.1821393683
6.61668 47.5995 43.5932 32.603593982
5.08033 46.9293 45.9239 27.0397480244
10.8435 45.5763 47.0707 28.2483746711
10.6718 48.3651 47.0194 30.8467643927
8.77503 46.1649 44.2106 30.9558377112
11.7121 46.7164 43.6615 33.492826244
2.568 40.8083 49.4456 24.8254705154
3.26082 37.9144 47.9799 28.8562241898
1.95874 38.2456 50.9023 27.6832829722
0.444711 39.868 48.1953 27.6438373983
5.05658 40.1465 49.694 29.1553958648
4.76663 38.1011 51.9279 30.9565103729
8.86229 39.019 50.1074 31.1541908256
11.1766 40.1062 51.6591 28.8867571513
0.623496 44.1733 48.2871 27.816971689
1.82814 42.6964 51.6173 30.1619181259
3.15131 43.0289 47.7047 28.4285482951
7.52547 44.5881 48.146 30.2923918503
5.42345 43.4292 49.8279 28.7979717172
7.93539 41.7059 49.6668 29.2566238204
10.5778 42.4289 50.0848 29.953942964
1.81767 48.0961 49.1614 29.7339673017
1.7505 45.6469 50.4781 28.9762488259
4.79311 46.5484 51.9217 32.4375548962
4.58141 45.9304 49.0986 27.1536633874
6.33436 48.0239 48.198 26.4857646724
8.36534 46.9262 49.9181 27.3167915127
10.67 45.6588 49.9669 25.6443050937
12.2424 47.5292 50.8804 30.2249918951
3.87498 40.7922 55.3684 31.1113829888
0.275547 37.2544 53.58 25.8037272557
3.20925 38.4359 54.1075 27.5486274765
0.506921 40.0782 53.2365 29.6944929758
6.99735 39.8814 52.1651 30.6812756724
9.22424 40.2659 55.5011 27.8940618277
9.32846 38.5165 53.5216 32.1571884351
12.1846 40.3806 54.3652 28.4822913827
11.8627 37.8993 55.6052 31.2103226571
2.08468 43.0178 55.0111 32.7855633585
0.57976 41.0816 56.2228 25.9594711778
4.20494 43.7933 52.2004 30.353748983
5.61947 41.9442 53.6471 32.9996081606
7.80915 42.6169 55.2145 30.3081433153
11.135 44.1135 52.5612 30.7113438092
11.0406 42.6215 56.2914 31.4983690764
3.45128 48.301 53.5222 31.9835951178
1.56572 47.4171 55.2368 32.2269924393
7.57157 47.1235 52.508 34.8407238398
8.94044 45.0214 54.0068 37.1355496201
10.7169 45.3734 56.0423 28.4651043338
12.3283 2.36456 5.29994 27.0161549182
14.2756 0.868936 6.37514 33.5097342911
16.7948 1.97546 4.82559 30.082114249
18.2612 0.0610234 6.0356 28.9018487695
23.6426 1.62608 7.13369 30.363441127
23.3366 1.47075 4.31535 26.7827087314
20.9879 3.28323 7.93924 33.0919037026
20.6979 3.67672 5.29471 27.6064498409
14.763 4.09402 5.83902 33.7368240463
17.7005 5.96701 8.00365 28.6824741563
18.0431 6.48765 3.91812 31.2178070815
20.4545 7.91609 5.42215 32.3506828911
18.2766 4.68812 5.54622 28.1825115154
23.2484 5.58043 7.74431 30.529619455
22.1837 5.85658 5.29614 28.7040091709
16.057 8.2846 7.78271 29.3011722402
12.4227 9.301 6.37743 35.0804819248
15.2662 9.77755 5.54417 28.2689646031
19.4872 8.20783 8.0232 29.6559966548
18.7739 11.2896 3.87141 30.1353706325
16.7842 11.7059 7.40822 29.919208894
19.8298 11.9293 6.83455 27.7699663666
22.0796 10.6001 6.38849 29.6303023822
14.7623 0.177569 11.1245 34.3416915591
15.9217 3.08297 10.7482 29.3009742934
12.5235 3.0627 9.93838 31.0786963097
13.1837 0.766294 9.08811 29.659519311
18.1213 0.781472 8.8969 32.0904849932
18.523 3.52471 9.38034 28.4687524102
18.5157 1.5469 12.2575 28.8757381422
22.7049 0.630901 10.7776 31.1374428562
20.8426 0.445344 8.64272 29.0492068509
13.5517 7.4623 8.49852 27.0328274132
14.9212 4.96173 8.92889 27.8518243622
15.2114 6.46392 11.5546 27.8895797349
18.9152 4.50708 12.0056 30.8987159715
18.1603 7.78344 11.2578 31.3469381012
21.0782 6.39775 12.1018 31.9198360546
21.8052 7.26756 9.56602 34.2374386058
13.0425 9.83994 10.5215 29.8571079139
19.3621 10.8974 9.62113 26.1964113252
16.6046 10.0189 9.88551 27.6853835081
23.4541 9.38695 8.60478 31.8441280193
21.6739 11.1649 11.0393 31.5297340186
24.5467 11.5901 10.6468 31.5954160621
12.6826 2.18325 14.1516 29.874399593
17.768 2.15917 14.8638 29.2725887563
21.0967 0.630382 13.1881 29.234408098
20.6038 3.11127 15.1956 31.17334317
23.4098 2.70156 13.2806 31.626997634
13.0354 4.61104 12.7795 28.2196036531
14.2969 4.8035 15.777 28.7199289966
13.5696 7.32462 14.8192 28.1818340847
17.5354 4.64196 16.6678 26.9722785948
20.1879 7.47205 14.6782 30.6246397024
16.4299 4.67243 13.2634 26.5177755018
17.4633 6.9056 15.1091 30.6671311126
23.6035 5.75339 13.2264 30.5804264695
22.3937 5.48459 15.9065 27.1733725247
23.9378 8.14735 16.3972 28.6251014566
12.5701 10.4328 13.4744 27.3666987296
15.3243 10.3162 15.5545 26.6855244344
15.2252 9.08127 12.7632 26.8830051767
17.4208 11.0339 12.6663 29.5923389683
20.0154 10.0257 13.0105 29.4944580799
19.8707 10.3525 16.464 28.4669202636
21.7107 11.5406 14.6569 32.8075523074
23.6505 10.8574 16.2817 29.4183299606
14.0622 2.53863 18.4622 30.5014576165
15.4522 0.186298 18.327 27.8394710447
18.1979 3.18152 20.7213 28.5972878762
18.0818 1.83477 18.0646 29.5249808355
20.8832 2.23919 17.8471 27.2598917473
20.7356 4.06236 21.0786 28.8445543264
21.1323 1.35937 21.0909 27.4758767264
23.0994 0.0506561 19.7725 26.8850599509
12.8621 6.14376 19.5792 29.3218267617
15.4441 5.11386 18.4919 28.0169607407
20.0369 5.32409 18.0158 32.2263353629
16.6721 8.09546 19.2969 31.7164348497
16.9523 5.38481 20.9843 29.7765851302
22.7532 8.04674 20.2271 30.8714333711
21.1439 8.16074 17.8542 33.0043587228
23.0567 5.44221 20.9415 28.0216894726
23.401 4.25105 18.1666 30.3260183837
13.9625 9.06713 19.5555 29.3240039546
12.9212 9.40991 16.8569 29.1630705656
17.3943 9.25134 16.8842 29.2707939494
24.5216 10.2368 20.689 33.7013078781
23.7354 11.9683 18.819 29.5650382532
12.3563 4.02854 21.462 32.1944543735
12.3599 1.34167 24.0659 58.9590444076
13.9073 1.44756 21.3752 28.8984084547
16.1581 0.47993 24.2857 64.0807827522
14.9811 2.71403 24.6005 92.2486188147
16.5643 0.957305 21.5514 28.2238644452
21.2486 1.32513 23.7424 39.3211189599
21.027 3.91012 24.1175 59.5617779353
23.9377 0.778381 24.3732 92.3836076243
13.7309 7.45933 24.167 84.0977430003
15.8416 5.22723 23.5546 36.1822110211
18.262 7.88956 21.7481 30.5307757084
18.4611 4.22433 24.7839 103.5530623129
18.7829 6.81374 24.5562 78.7633567079
22.7629 5.92022 23.7001 49.102726622
21.2972 8.15735 24.4109 98.6185928022
13.6581 10.3359 23.9119 42.8400392738
12.4885 10.6836 21.3555 28.2254906487
16.0175 10.1665 21.4484 28.7244590012
16.4497 8.60367 24.0772 69.9980671913
20.3579 11.7306 21.7457 30.5592718921
17.7554 12.1358 21.3913 30.6973567578
20.8153 9.02144 21.7771 29.80580063
22.5881 10.7209 24.0143 69.7193706306
14.9131 2.25231 35.5542 90.2505621216
14.3025 0.732073 38.6248 28.907466696
17.8944 2.48468 35.7674 62.0763004111
16.6602 2.10145 38.361 27.6908139601
20.8759 2.50618 36.1149 46.3820647424
23.0898 3.67762 35.4835 122.2672841835
12.4943 6.17966 36.0581 49.328497699
15.4367 5.07518 35.7543 61.6154752801
15.2019 7.73278 38.0485 29.0383247834
12.5787 5.72204 38.6728 27.0083431045
18.2633 5.2281 35.7473 69.7678389596
19.9001 7.58488 35.8132 78.1280074284
18.4951 4.90932 38.5981 30.6102879522
23.779 5.93825 36.9512 35.5727810155
13.5906 10.8109 35.7081 74.3682536836
14.914 8.26521 35.4082 91.4738103332
12.5713 11.3717 38.3473 27.8431105381
18.7993 11.6047 35.8448 77.3864445374
20.1391 11.2532 38.4586 29.9979409645
17.5572 9.12157 35.9559 54.0981858225
22.6664 8.25266 35.9427 61.7675468306
23.4291 10.833 35.2997 106.4540247699
13.0551 4.03342 40.8617 29.1449879937
16.8262 0.320033 40.5886 31.1694357626
18.9055 1.39818 42.2062 29.1584228576
19.5734 3.5229 40.5941 31.6358086045
23.5617 1.73714 42.2217 26.0323420225
20.6701 1.66108 38.9486 30.2425636358
22.494 4.0528 41.3221 32.7428148133
23.1971 0.404886 39.74 26.1708125373
15.9791 5.29646 41.8673 30.6278327808
15.4928 4.89044 39.0254 28.0352806615
14.648 7.84301 42.2782 29.2518138856
19.2529 7.32472 39.8386 31.5969152515
17.9502 7.19373 42.5545 27.8117653826
22.753 6.7747 42.1927 34.0277843664
24.5841 4.45018 39.2009 35.4364866071
14.765 9.89376 40.0877 28.1705111787
15.0689 11.3413 42.4316 27.9601630066
17.6671 9.31376 39.0276 29.3241247208
17.9971 10.1161 41.6632 30.2702708582
21.4726 8.75636 38.836 34.7402131194
23.1032 9.40789 41.0774 37.4088477211
22.3374 12.0391 42.0712 32.7191602935
12.9179 3.20826 47.4157 32.1416378639
12.7112 1.67501 43.2653 29.4572492902
14.79 3.45536 43.7697 30.6485722186
12.6064 0.906852 45.8661 28.8619481071
18.3487 2.32104 46.7233 28.8332094375
17.2878 1.89818 44.3195 30.253857742
22.1666 1.12496 44.5577 28.679713367
21.2633 2.049 47.4804 27.0396227264
13.8772 5.35374 45.6497 29.5346583666
15.9876 7.00797 46.6112 27.3371553729
12.4253 7.17782 43.9564 26.5375652147
20.4967 4.28022 45.2978 29.6512552007
19.8809 6.59249 47.3365 29.6518872188
20.4758 6.86352 43.9688 30.9137322877
17.6546 5.2161 44.8536 29.3605865824
23.4465 4.3194 44.6641 27.9665794934
23.2069 4.2857 47.54 29.9616771613
24.4653 7.07774 44.5464 34.5911586718
14.0869 11.1092 45.2213 29.500432993
15.916 8.92088 44.6668 25.8627929227
15.716 10.692 47.4249 27.4419149965
20.4739 9.07477 45.6447 30.0199241021
18.1895 10.479 44.8997 29.5274385524
18.3283 12.1041 47.4351 29.2180728455
23.2806 9.5603 45.898 35.0500771969
14.9217 3.53924 49.3768 30.4460115418
13.1086 3.68525 51.4403 30.0968083352
16.953 1.63035 49.9765 32.2511673881
19.642 2.91817 50.1047 28.4924049571
21.4265 0.482617 50.3157 33.055491788
15.4883 6.32696 49.6653 26.1485718371
12.5649 6.45468 48.3695 26.7149734811
17.7592 4.84987 48.0514 27.3703962459
17.8012 5.85701 51.3682 26.8206061954
20.5801 5.64465 50.6346 32.0763490438
22.4837 6.81571 49.0644 33.504377046
13.3617 9.18631 49.1194 31.6317931514
14.1281 8.66494 51.9173 28.4981259647
13.5412 12.2343 51.7706 27.7871011928
16.9617 11.7685 51.6727 32.2538813226
17.6959 8.72503 48.5764 30.1785465199
20.2423 10.3148 48.2967 34.5148993621
16.8327 9.05855 51.3185 28.358528043
22.2131 11.6272 49.853 29.3552228774
23.7622 9.47381 48.6254 28.0188382757
12.8835 3.37185 55.5592 30.3069185775
15.8523 2.87731 52.6358 28.4842583445
13.2334 0.879563 53.7671 29.7800801402
19.757 0.898788 54.5866 29.0037366863
16.7541 1.51464 55.1889 29.8250644786
19.1552 3.02909 52.973 28.2793481424
24.4471 3.51335 54.9095 28.5809148534
21.582 2.8901 55.5038 30.0016640501
14.9496 5.8768 52.9497 30.2007589938
15.1184 5.53331 55.8359 30.0336327881
18.2817 8.08549 53.4074 28.8839563465
17.9362 5.36621 54.235 29.7389316811
23.857 6.1563 56.0305 31.5806225254
22.5726 6.81917 53.7756 31.9664283809
21.9979 4.32787 52.7863 30.8070348553
14.441 10.4142 54.3456 27.5992744734
14.212 8.27763 56.268 31.8503356944
12.3136 11.5604 55.7453 28.2009417865
17.1473 9.44997 55.7422 29.1614722218
22.0003 11.105 52.5107 33.2565751744
20.8232 8.93189 53.8608 32.5016381082
21.3385 10.2496 56.2049 30.8130333486
23.8542 11.8304 54.6386 27.9058507269
13.9947 13.139 7.44114 29.279400791
16.2349 16.0041 7.70821 30.8044138258
14.1203 12.4682 4.72096 28.4431668172
15.2726 14.7796 3.91249 28.1836782356
17.3521 14.1053 5.95019 28.7815429185
20.2916 14.632 7.45352 30.3576334145
19.5914 15.1229 4.02162 30.8457125124
23.9871 12.4237 6.21932 29.5230639977
22.7678 14.9868 6.08743 32.212338961
21.9937 13.2199 3.73152 25.5936304396
15.8708 18.3308 5.48166 30.0175665699
13.6678 18.0689 7.2206 31.5382576129
18.3159 19.0897 6.394 32.3182201999
20.1805 18.1835 4.44381 35.9115249741
24.1591 19.3319 7.88249 33.191869777
15.579 23.5002 6.36435 29.9715471433
14.9242 21.0857 4.90613 32.3629862923
18.196 21.8461 7.21352 31.8266141319
19.1272 23.4436 4.87903 31.3181603394
17.3026 21.907 3.64801 27.6507996571
23.0871 22.1384 4.3705 33.095184882
22.2973 21.4508 7.0182 35.9278689417
12.6054 14.4588 10.2032 31.2925936381
15.3418 14.7563 10.0375 30.817572563
20.2027 15.4816 12.3102 29.1998619762
17.5886 13.1005 11.0001 31.444221951
20.7648 13.7731 10.2904 30.4335455301
23.7515 14.5173 10.7479 34.8543554108
13.7844 19.189 11.981 30.319703539
13.7608 20.2834 9.28705 33.1849270561
15.6535 16.8062 11.7006 31.337977717
18.9677 16.9412 8.31412 35.8016460275
17.918 18.577 10.4548 33.7102001095
20.2216 18.1152 11.9009 31.3497908903
24.4403 17.6525 12.0336 29.4095901241
22.3434 18.7556 10.4388 34.8206449432
15.5198 22.1482 8.99066 29.5195873986
19.8392 24.262 10.8186 30.7620819569
17.5246 21.468 10.623 31.7391432803
20.2802 22.2477 9.25972 30.4811102603
23.3583 23.7522 8.39704 30.0879774223
22.6274 21.3737 10.9027 29.007005183
12.9219 12.9724 14.5485 33.497844879
15.972 13.0891 14.5281 32.7539679313
17.5459 15.4077 13.0391 27.5070536893
19.5341 14.4364 15.9607 31.6424121567
24.364 15.6018 13.7931 30.3784020509
24.3571 16.2328 16.6965 30.6174346511
21.7434 14.4598 14.2228 34.1719177685
12.7161 16.7561 16.115 30.096762429
16.2414 18.6724 13.9793 29.459592565
13.8891 19.2428 15.4236 30.8293899748
17.0589 16.3726 15.6056 30.4604977262
19.4134 19.9832 13.9746 31.6107418459
19.6488 19.8964 16.8027 35.7052834316
24.1801 18.9454 16.3294 34.0651406197
14.6647 22.8805 12.9856 32.0795683342
12.7159 21.5125 14.5715 31.7676484526
18.1693 23.3012 14.9787 32.1976601928
16.9037 21.3286 13.3886 28.6172794507
24.031 22.0139 14.9162 28.0430304934
20.5562 23.906 13.5003 33.0764104913
21.7609 21.3465 13.4433 30.6863529985
14.3829 16.3036 19.3538 24.5174429318
14.0945 12.4517 19.6072 26.8224951872
12.3553 12.428 17.4191 31.0144673115
15.0269 15.2419 16.8699 27.7600817019
16.688 14.2612 19.7009 29.1178494132
19.2995 12.571 17.8162 29.8148964402
16.5382 12.4367 17.4806 28.5749858401
22.0567 15.8909 18.0805 31.1339759418
22.5835 15.7212 21.1665 29.5990397636
21.6458 13.2367 19.5229 31.6043630433
12.4503 20.2614 18.8284 30.7159414277
14.7942 19.1496 18.5303 32.1262800052
18.0487 16.7878 20.0898 32.1458393774
19.3121 17.0715 17.5613 32.5009024172
23.4332 19.5793 21.2283 29.6151112757
21.752 18.5263 19.5248 27.779145503
15.0811 23.8119 19.9853 29.5692439391
16.2006 21.6676 19.043 33.1608909426
19.6973 24.3737 18.9852 30.3539334511
18.4631 22.5382 17.4927 32.2376910527
23.8022 22.0784 19.9102 29.231017541
22.271 20.6699 17.5678 29.984806027
23.3148 23.4196 17.2318 31.6306918151
14.8493 13.0123 24.4623 96.5389066231
13.9454 14.427 21.4849 27.0183632458
14.2901 15.6801 24.0656 51.7971551921
17.798 12.6648 24.1162 78.598077016
18.5942 15.4376 24.2468 83.7891148432
22.6918 15.8641 24.1453 77.7162910316
21.0828 13.2398 24.0106 71.9645202359
16.0063 18.3197 21.3017 27.3132856718
13.3187 19.0324 24.2131 71.5777744946
12.8585 18.2557 21.405 29.9658470995
19.9357 19.9382 21.3413 29.7080838868
16.463 17.6007 24.0306 65.7573192478
19.964 16.7451 22.1431 29.7047896076
21.1188 18.4675 24.4185 80.9166983725
23.2944 20.1112 24.1877 57.1030928761
15.8214 23.3979 24.5458 125.772534794
13.5689 24.0726 22.6707 36.7217840656
16.0605 20.6526 23.9519 50.9152945085
17.1987 20.8388 21.2547 31.2908306031
19.2273 20.73 24.3932 89.2096321837
20.1934 23.2952 23.9392 48.3252228619
20.5902 22.604 21.2707 29.7971352921
22.8299 24.0686 21.7809 28.9228777123
23.4226 22.9823 24.3176 64.631765426
13.0498 15.5511 38.8063 27.4587530287
13.6326 16.1287 35.9102 61.0032025756
14.7621 13.5714 35.7703 83.677494199
16.9933 14.1677 38.726 32.751338647
19.1909 16.0482 35.6224 71.3741692667
17.5046 13.9142 36.0776 44.7692700242
22.28 15.3639 35.4171 87.408125541
21.5591 12.5181 35.8035 53.1409985142
13.9562 19.2255 35.9382 43.7871844519
16.1482 17.0649 38.5746 26.4457817771
13.9651 18.9576 38.5001 28.1652204972
17.9278 19.9613 36.3363 32.8475126266
16.8048 17.3792 35.6661 79.1552020845
19.8581 17.295 38.1373 31.0514501371
22.8158 16.7212 37.7499 26.9278142989
20.5792 19.2894 35.5409 83.1301143758
23.3219 19.0088 35.8086 65.0246791708
15.7647 21.2621 35.5217 104.0820102828
16.5152 23.695 36.1799 38.2916136385
19.1949 24.4916 35.5748 83.0359223339
20.9328 22.057 35.7668 67.3608916375
22.4313 22.4166 38.0514 26.8520594062
13.3658 13.8411 42.1166 29.5888946235
14.2958 13.2643 39.5335 28.0183771811
17.478 13.1689 42.9884 32.2842858895
19.3994 14.9141 39.8916 28.6312701122
16.6737 15.7452 43.0818 28.8568666633
19.8063 12.258 41.0695 28.9018441266
24.2972 13.8489 41.3992 28.9206751906
22.1201 13.8241 38.9444 34.6402540704
13.4347 18.9189 42.62 29.2022186277
14.6433 16.3942 41.1445 27.0460216322
16.3479 19.4878 42.1594 30.3446563049
17.979 18.4386 40.0246 24.9737192372
19.0017 16.5579 41.821 30.657779047
21.2948 19.4914 41.9408 32.103205726
23.5549 18.478 40.3524 31.4184763438
14.5324 22.6264 42.4495 29.9125456362
15.2451 21.0988 40.172 31.6024317385
17.9682 20.8582 38.8769 29.4866238855
19.4609 22.8622 42.4845 32.4528018537
17.0094 24.3119 41.8002 30.5964067469
16.6367 23.7282 39.1274 28.3449862147
20.6238 21.4468 40.0476 35.4383536161
24.3889 20.9452 39.6796 27.7459631887
15.0362 15.4939 46.3177 32.8381415085
12.9812 13.8925 45.5134 30.4915394558
19.5011 13.6327 45.326 31.0371234606
19.5485 16.1837 46.2342 33.8528465654
24.4144 12.5074 45.9735 29.9329538172
21.9122 13.066 44.6711 32.6324996844
23.2248 15.6369 43.9941 27.0090288193
14.5522 19.4853 46.9726 28.2493800474
13.7483 17.6413 44.9589 27.667129377
17.1831 17.3869 45.4684 28.0550790612
16.9067 20.0692 44.8064 30.8903897654
22.8207 20.2482 46.126 30.7387037291
21.0739 17.1641 43.9087 33.5339658375
23.8731 17.7552 46.0086 30.0030018054
15.119 22.2056 45.0609 31.9292703453
12.802 21.8995 46.7298 33.6078216097
19.6447 21.5752 45.3514 33.711370375
16.574 24.2163 46.5911 29.912488465
19.5047 24.431 46.3254 27.918454854
22.3633 21.3238 43.6818 28.0162721753
22.736 24.1701 43.3829 29.5175545955
13.0773 14.8861 51.6801 28.0180727584
14.6986 12.6313 49.1634 27.7552948509
14.7831 15.5439 49.3099 28.7019831265
20.4337 16.1755 49.0517 27.6547656045
18.092 13.4933 49.7626 29.1431220548
17.5514 16.1981 50.0959 26.76530217
23.2928 15.971 48.311 31.9919756247
20.7036 14.021 50.5878 29.1879114407
24.2542 13.2648 48.6955 29.3361291673
12.6668 17.1751 48.0256 28.910694882
17.1931 18.7333 48.3828 33.7992249294
18.4932 19.0684 51.9981 25.149524146
20.9434 18.6928 50.2371 28.5826320103
23.8747 17.6343 50.2761 27.3454917901
14.2818 23.5888 51.6848 30.1506301627
14.9622 20.9647 49.7309 30.5806321041
12.3669 22.24 49.59 27.1386815883
16.7121 23.3255 49.3021 27.7533605855
18.5229 21.075 49.4764 29.0868337281
20.6777 21.0003 47.8819 27.7874141767
22.843 21.1115 50.3244 27.4639743291
20.9654 23.6438 48.7615 26.2869190014
23.8352 23.1019 48.4098 27.9416734559
23.4333 24.493 51.1603 28.1630071027
15.613 16.3313 52.3759 31.4917460974
15.42 13.6854 54.0898 29.5724601455
17.8948 15.5761 54.8724 26.4323357883
18.0391 12.4733 54.2039 30.2421993582
23.3905 15.6643 55.9281 27.884661755
20.8103 13.6769 53.6869 28.7298201657
24.0284 14.3506 53.4801 29.2174424945
13.2856 16.9761 55.8364 28.020589948
15.7511 19.6885 52.3988 33.3725107701
16.0081 17.6552 55.0607 26.7600279087
13.2247 19.433 54.3625 29.9558565189
20.028 20.2363 53.7139 29.0085682358
18.3021 19.4602 55.7456 28.6713381168
19.2611 16.4949 52.4926 27.9630957796
22.0822 16.4305 52.3029 26.8561181138
22.6814 18.9015 53.4352 31.2450728907
22.7094 18.4235 56.206 32.3265108531
13.2732 24.0759 54.4259 29.353078846
16.1978 23.5968 54.6046 32.3721694231
12.9974 21.6232 55.8695 28.8982903824
19.7218 23.0003 53.2534 26.8630414898
17.1126 22.3999 52.3508 26.2254974753
22.3704 22.6272 52.6225 26.1125455618
21.2206 23.3934 55.8164 28.6346823069
12.9548 24.6007 6.55709 35.0713541433
17.7352 25.6518 5.54885 31.9623427336
20.4341 26.3165 6.83014 33.1165509172
16.4259 26.8703 7.87487 33.4907336485
22.2814 26.9878 4.97226 29.9652572832
24.2585 24.8474 5.98526 32.921468499
15.6829 29.3282 4.83867 30.3654689196
14.7661 29.1755 7.9054 31.7165968813
12.7058 28.8223 5.82075 29.5480467164
14.3741 31.6359 3.84642 27.7009866394
18.6912 31.5568 7.61219 29.5326902929
18.3531 30.677 4.89862 29.6026114877
22.6758 30.8015 6.0506 30.9173445691
24.3928 29.061 4.50241 30.4942793013
14.4541 33.8779 5.84302 35.306743585
15.6251 36.3258 5.10479 28.9572825127
22.3998 34.676 6.72555 26.8950150185
20.6088 32.7007 5.12421 30.6749033168
20.5484 36.158 4.86112 28.3467302006
14.7388 24.8964 9.13167 31.5210491687
13.4379 25.1434 11.54 29.4514502093
15.8369 26.8421 12.0348 29.7656385849
17.8177 26.4141 10.3947 32.2283982734
22.5396 27.4162 11.0275 29.3694988265
21.4522 25.5751 9.25665 28.0584277167
12.8019 29.639 10.0135 27.6073692849
16.1263 31.7275 8.1664 30.943467478
15.2543 29.3508 11.9367 29.844927539
19.9689 29.0496 8.24132 30.7450924549
17.4905 30.8337 10.6152 34.1285368946
19.386 28.6415 10.914 29.101373051
22.4371 29.7856 8.60802 26.8148714334
22.5188 32.1159 9.80902 31.8399286768
22.3211 30.2777 12.114 35.4184762761
14.0175 33.0316 10.4771 27.8483287627
13.0871 34.7275 12.1616 28.9590644493
15.0099 34.5956 8.6354 26.941887028
19.8279 34.8139 11.2096 31.3820702588
17.1494 34.1276 11.5768 28.7769897187
17.6946 35.483 8.65243 31.5814609054
20.3618 33.8903 8.4397 29.6842673341
