7.76359 1.67061 21.8388 27.8160349161
6.96081 1.89778 24.3438 63.0785079244
9.82673 1.57319 24.6405 108.3573624537
0.667569 7.64371 24.2667 68.3449546581
3.62248 7.21777 21.4964 26.4636398246
0.849271 7.7592 21.6562 25.5937138787
2.56771 5.5972 24.064 58.1394871532
2.46521 4.41589 21.6209 28.9865592442
5.84192 5.64955 22.3181 27.5545167728
5.14128 4.33586 24.6654 102.7570188531
6.39013 7.80494 24.0636 66.794972512
10.5511 4.24412 23.7784 42.5628650685
10.9612 8.15637 24.4296 100.9433584503
8.74663 6.29945 24.2112 72.0252000335
9.15457 7.12184 21.2478 30.4633702202
11.9604 7.30709 21.7481 27.5808041495
1.28482 10.5756 21.4196 26.4638081839
1.05889 10.4849 24.1433 57.4293901892
4.48292 9.94405 21.6359 26.7635478109
4.23204 9.89324 24.3936 86.8686121551
7.69442 12.2074 24.22 84.6072575484
7.29071 12.0977 21.3949 26.2756418366
9.96471 10.7112 23.6886 45.0193176573
1.80592 0.938985 35.4558 127.7134035884
4.21977 2.07909 35.9581 66.5575741723
7.10784 1.21982 35.9458 66.5020083704
8.1636 1.23852 38.6591 30.3708869237
9.81036 2.79029 36.0851 64.9923583306
11.8686 0.988363 36.4734 31.4588510105
9.75266 3.77962 38.817 31.2257813441
3.75463 4.89109 36.3573 52.8103628132
0.131758 7.04644 35.6388 99.2229007812
1.14368 5.23026 37.0628 26.6166336604
7.11109 5.00504 38.8094 25.9626145692
7.42734 4.42998 35.8986 76.293871012
5.79583 6.79158 35.831 73.3253504282
8.0387 7.41478 38.3212 31.7815977945
11.446 7.70156 35.8302 84.1564108586
8.43879 8.02038 35.7502 74.0542911082
11.8761 4.87201 36.2037 54.3247229944
1.7022 9.09625 35.6195 85.9698214412
2.47814 8.6403 38.2676 27.532212892
3.3802 11.4929 38.2618 24.9590011956
0.536279 10.8468 38.7435 30.9107715164
4.63127 9.82965 35.8254 64.2310047904
5.56497 8.75509 38.3526 28.3427971184
7.78814 10.7587 35.6816 75.1755853485
1.70344 3.45822 39.9719 32.4370803585
0.956071 3.82006 42.6757 32.0402087507
6.56925 2.40063 40.5306 29.3716379472
4.27159 2.7458 38.9051 29.2878057424
12.077 2.895 40.7058 32.7470218037
9.72471 2.50756 42.1922 30.9780965414
2.72676 6.27737 41.6556 33.273048523
0.885657 6.36863 39.4873 24.9345141872
4.48228 6.07625 39.2649 32.501492756
7.7267 4.31128 41.9321 32.0475148177
3.78185 11.4129 41.1519 28.9815914263
0.299162 8.87516 41.0826 29.0591221017
3.00469 9.13752 42.4012 30.0001823545
6.28696 11.7973 42.5617 29.6928147959
7.18441 10.6754 40.0526 34.3085557309
10.1284 10.9709 40.2691 30.3954657837
10.8415 8.58308 39.0528 32.3395819068
10.7841 8.25616 41.9119 33.268807605
0.867224 1.9109 47.4567 30.1693029213
0.400613 0.0591288 43.4838 30.3388320081
2.07326 2.32385 44.6678 33.0745076873
4.98496 1.36858 44.3292 34.6576096856
6.57217 3.53364 44.4012 30.3355614418
8.04789 2.16258 46.3587 30.9472071576
10.4381 2.62242 44.9542 28.9171398703
1.25171 4.78917 47.1002 32.4602393975
2.66327 5.61667 44.4276 32.5318768003
5.27415 5.44473 45.7054 34.2599221267
6.90081 7.50776 45.5047 30.02970165
8.67288 6.71427 43.4439 39.1381769859
12.2456 7.43274 44.3981 29.0691001655
9.94939 5.61187 45.7241 30.2045408616
2.01496 8.59396 45.4048 32.1335210825
3.90491 10.6809 46.2209 32.4118322604
0.771546 12.2139 44.0798 34.5307505582
5.39807 9.49477 44.0121 36.7576223948
10.8578 10.827 43.2322 29.6751738985
11.8798 9.93141 45.7995 31.7434122195
8.60521 12.2358 43.9486 33.4776845138
2.81212 3.53465 51.3947 32.307428435
0.152313 2.64025 50.2718 31.6141771782
5.79007 1.88017 49.3639 32.8537786943
4.79087 1.72597 51.9801 32.8118574859
12.1257 0.885191 49.244 29.9677220211
10.2967 3.19244 50.4418 29.5753270361
8.37956 1.28657 50.4704 32.0647648143
3.05202 5.16033 49.1002 31.1167915401
2.82228 7.77936 49.8749 33.0159062405
5.7237 4.62888 48.7333 31.0723898395
7.03142 6.82231 50.4391 30.7851359963
4.81367 7.6573 51.6755 29.4220070869
8.54063 4.67405 48.3823 30.5912347302
10.2688 6.37153 50.0743 26.8535404149
0.730311 8.87296 48.1768 30.6398907171
3.90272 10.5808 49.0665 31.5768868786
2.07859 12.0669 50.6538 31.5755858244
6.80307 11.1722 48.1578 29.9953608653
7.65116 8.37134 47.7301 33.0623246326
8.69911 11.8221 50.1473 29.5778154552
10.4665 8.20179 47.6474 31.8249442535
10.3996 9.89665 50.2434 30.7721735595
0.221454 1.86643 55.6544 31.4918449809
5.41921 3.76944 53.9498 29.5387401322
6.93509 1.95907 55.3759 29.2573673181
9.33283 2.96929 56.0918 25.5527311243
11.232 1.272 54.2288 29.3929619779
9.60485 3.9232 53.1751 26.918855734
8.48039 0.940085 53.0347 29.7873502628
2.12928 4.24228 53.9349 27.9297812886
0.65449 7.59962 54.4582 29.7159790805
3.14969 6.62976 53.7492 29.3125130821
7.3544 5.5759 53.0261 28.9712156135
7.26937 6.96225 55.2012 32.4602326351
4.47617 7.70951 56.0924 31.3453341275
10.3569 7.86061 52.5556 27.817614828
11.6951 5.7283 53.488 25.1354193586
11.9386 5.57295 56.0839 27.3313117001
1.55848 10.2057 54.5845 31.5791964225
6.03599 9.92621 52.7846 31.478089638
4.63123 10.6293 54.9451 32.1533489101
8.44896 9.27973 53.8606 32.4009513384
10.4831 11.2616 55.7625 26.3966525425
3.53998 16.1166 6.95639 28.7475032869
2.29452 13.1268 5.70465 24.8981795897
2.03848 15.1699 3.65653 27.5179561816
4.98168 14.4241 5.5218 24.8800309351
5.28562 12.3093 7.42568 27.7417037605
8.38131 13.8642 5.685 25.2075402374
11.1484 13.2477 5.15187 26.2109913272
10.4674 15.912 3.864 30.3172344714
0.875165 16.7991 5.93324 29.917862746
3.82868 20.2348 5.9226 29.8440319589
7.39583 16.4603 6.72946 29.5212375841
7.58617 20.2616 5.71619 28.0697141006
7.05027 18.0265 4.66918 28.8377096905
11.876 18.328 7.71304 27.9532530062
9.38697 20.4186 7.83847 26.8492896349
10.9505 19.7654 4.93542 30.287721887
1.43329 21.2931 5.0575 28.7840708426
5.20796 22.4716 5.87407 25.6939467745
7.99472 22.1944 3.8636 29.3835444164
9.3185 24.2275 6.95151 26.2066687433
10.8362 22.4127 5.40663 26.6301544987
1.50372 14.8477 11.0413 30.2493322058
3.58096 14.2681 9.05098 25.3436436399
1.22045 12.901 8.07517 27.171728121
8.08572 12.5916 8.1511 25.754768354
5.37484 15.6826 10.6102 29.2324353198
7.41932 13.1693 10.8109 29.8341698395
4.47442 12.6153 11.6095 28.5029191673
11.4027 16.0299 10.9013 27.6519743866
10.6243 13.9123 8.25155 25.4565962934
10.5348 12.3092 10.4193 29.2705386503
0.402137 18.3648 8.60691 28.9355210736
3.25277 18.6951 8.16605 31.2940632748
3.51984 20.0997 10.9527 28.5590768911
6.17326 17.8242 8.89017 29.7703387103
9.66156 16.5423 8.56121 28.3925111457
8.8791 19.1119 10.6772 31.1851929667
8.23305 16.3747 11.2391 30.0002688548
1.27541 22.017 11.0962 30.8152913574
2.81289 24.4281 9.94246 27.4722664427
4.71823 22.6018 12.1049 29.9225777079
6.59574 20.5318 10.1858 27.1941761227
8.01592 22.723 8.79119 28.2594652401
5.01533 22.7471 8.69383 30.28130708
11.8177 21.9717 8.41307 27.3376287178
8.87725 23.4745 11.4145 30.5276703616
11.8492 20.5649 10.9204 26.5024748413
3.37241 15.0446 13.1405 28.7816672922
3.8536 12.7208 14.8826 28.4398992202
1.05794 14.9214 14.8338 29.3382117763
7.34682 16.1116 15.8365 32.6094862393
9.34611 15.3432 13.5631 31.5536108636
12.1569 14.339 16.1783 29.8161464286
8.96689 12.2926 13.4216 33.5244301956
1.37955 19.244 12.7719 28.953258455
2.52205 17.495 15.1982 26.3499547068
1.68276 20.3159 15.6423 27.6727972666
4.47274 17.7889 12.7446 31.100217043
6.18965 20.1527 13.3231 31.6856661163
5.46645 18.2442 15.7571 31.0405197248
10.7944 17.2519 15.3028 32.3656113889
9.64949 19.2632 16.6877 26.8373600272
1.008 23.77 13.2209 29.9348745648
3.35463 22.5318 14.6805 30.034050072
4.95196 21.0448 16.6496 29.2122096934
8.28277 23.3639 15.7414 30.469724064
8.49837 20.7376 14.8357 29.3934522433
12.1097 21.0649 14.7316 29.6522177898
10.2488 21.3474 12.784 26.8188629486
2.98575 16.2102 17.7777 31.1116977823
2.20565 13.6272 17.7166 26.1915223843
5.71419 15.5328 19.0002 29.3108687652
6.378 13.685 16.9504 28.3805128344
9.67221 15.143 17.3632 28.8928395642
12.1567 13.1846 20.9732 27.4840213242
8.40773 12.6314 18.5714 27.0515931044
1.05854 16.543 19.7269 29.8009510978
1.19345 19.3237 18.1442 29.1055008989
7.6384 18.0588 18.2227 27.8675443643
4.5243 20.2482 21.1423 29.3902557161
5.90502 17.8359 20.9288 31.7628072801
9.77042 16.5601 19.7893 28.959333078
3.0981 21.4854 18.5522 26.2735067639
1.47758 23.9627 18.326 28.0496607687
6.70344 20.7563 19.2371 28.3074417229
4.45066 23.37 20.159 27.3564090198
6.26523 23.7709 17.9296 25.6924355616
7.10124 23.2292 21.148 26.8412856213
9.16188 22.1758 18.8342 27.0747790168
11.607 20.9839 17.6442 29.5275625739
1.10387 14.1216 24.4344 91.3800892842
2.8569 16.3273 24.3734 80.9188130232
3.43678 16.3295 21.5811 32.9604665641
3.55377 12.814 24.5873 88.2405215295
5.2197 13.867 21.2502 27.4886412827
5.69585 14.7751 23.9926 52.9039611721
8.90174 14.803 24.2565 82.9955064068
9.55581 14.1106 21.2817 30.3630953611
11.8172 14.6957 23.8387 62.3832275621
0.717922 18.4768 24.3985 89.94303528
0.153187 18.5053 21.5307 31.5953239484
5.09425 20.1022 23.9464 69.6717794115
6.19595 17.7012 23.7523 47.8937599023
10.4131 18.6877 21.8786 30.3439546057
8.84974 17.7753 24.0613 69.9476186307
11.739 19.5067 24.4719 86.3768497687
0.292579 23.1875 21.4404 27.025306662
1.49135 23.6001 24.4552 97.7590458171
1.62868 20.8535 21.4766 27.8265160063
2.34048 20.9462 24.2385 75.5785264789
6.64478 22.4456 23.7771 54.4901511256
9.61208 21.3145 21.5418 28.578270617
9.44561 21.6417 24.3773 92.0223168824
11.3464 23.7668 24.308 73.6466489855
11.5512 23.0485 21.3802 31.3295863159
2.81736 13.3934 36.2665 44.6519396211
3.71619 16.2204 36.006 80.8651408977
0.156049 14.0392 35.8149 89.6568229858
5.45833 12.7974 35.6984 78.1602748557
6.42111 12.563 38.3547 26.6086616704
7.95666 14.7203 35.7956 62.6924635711
9.11265 13.7102 38.3174 32.3647739819
9.99913 12.3612 35.8478 81.6759510859
1.91428 18.6395 36.0693 67.4577757365
6.30265 16.5925 36.8772 29.3689453113
7.80117 19.1173 35.601 94.756721001
4.85764 19.5242 36.3953 49.7280068417
8.45893 18.8652 38.2931 27.4673424315
11.1768 18.1478 38.3397 28.1045235781
9.39238 16.9576 35.3872 100.9416000689
12.2363 17.6333 35.8517 83.8505009881
0.531353 21.1973 36.0638 64.6168529171
0.556606 21.5793 38.765 29.3347975385
1.48116 23.9886 36.1458 48.7741028102
5.87751 22.1566 35.8375 93.8428066309
5.29921 21.5662 38.7711 29.0398566995
8.9306 22.3446 36.1377 64.4133385613
8.42925 21.3726 38.6566 27.5469239965
12.107 22.5826 36.3718 53.3022526365
0.205468 16.2778 42.6473 27.4493403024
3.07464 16.2047 39.2227 28.7955858099
2.35372 13.6424 41.9158 27.5436016657
1.49633 13.8638 39.3604 29.5732850392
5.65737 15.2367 39.3442 28.4108012789
5.19681 14.4027 42.2105 29.70040834
11.0684 15.7202 39.3561 26.6011702044
12.0826 12.563 38.9358 25.1310958079
3.81211 17.219 41.8323 24.6687102023
1.89832 18.8368 38.9245 28.9458207446
2.19347 19.2079 42.6305 27.6759540835
7.17282 17.4582 40.3563 30.2986168085
5.4142 19.4515 41.2307 28.8794825986
11.4368 18.7487 41.8737 31.4990547841
9.66047 16.5805 41.4078 27.825603694
2.95234 21.1894 40.495 25.7919859259
2.56951 23.0355 42.4105 30.8748204114
2.43465 23.9949 38.9042 30.6049318718
6.91776 22.8607 40.624 28.3759411319
6.87971 20.9742 42.7936 30.8798023375
10.5458 21.7317 40.3958 29.7932167755
9.7441 22.5581 42.7208 27.9066049585
2.77817 13.219 45.9277 30.8658968529
2.73027 15.6516 44.117 25.6835493895
5.41943 14.6843 46.1905 30.4013313471
7.72503 12.9975 46.4963 31.5199262251
10.0372 14.6327 43.2787 30.0780618702
8.95418 15.2499 47.5585 29.4456524002
11.1944 14.9068 45.8581 28.7388784473
3.32964 19.994 45.0974 30.8621919054
2.04451 17.5323 46.0527 30.4993164492
5.80577 16.3975 43.99 30.6521223239
7.50992 18.0623 47.2837 29.2526913412
6.32992 20.3864 45.8922 30.6340935688
8.39957 16.6777 44.6971 29.1587963804
9.11016 19.5577 43.5282 29.3320765965
9.54033 19.5636 46.2427 28.3598006013
3.00056 22.9209 45.1099 31.5116184399
0.699962 23.1367 46.5386 28.2717172985
11.0403 22.9496 46.7788 29.7599887508
8.29579 22.4872 45.4201 27.675623741
12.1833 23.1768 44.2062 32.1526791788
0.918507 13.7726 48.3947 29.5198646599
1.58875 16.3246 51.2104 27.2477886984
5.6972 15.6944 48.7106 29.5924610554
5.12571 13.1172 50.0984 31.8443246575
10.9907 16.3119 51.4118 32.4668975936
10.5908 13.7761 49.7676 32.2208205354
2.57218 16.4409 48.5267 30.9780166882
3.5618 20.0505 48.2048 29.5197857915
6.47888 16.9748 51.3711 38.1338497019
4.11186 18.187 50.4939 33.108487818
11.9611 20.1555 48.7984 28.2364663774
9.16734 20.0445 49.5308 27.1668967051
8.65088 17.3768 50.0524 28.9480219028
0.961991 20.5892 47.6315 28.3573204324
2.31434 21.5749 51.0023 29.4642771638
7.10547 21.5544 48.5173 32.8296676358
4.18266 22.5871 49.1771 30.357158114
5.0642 24.4534 51.179 29.3102654482
7.91781 24.1578 49.1401 33.0357935545
9.40968 20.9598 51.9005 33.2576887031
11.7372 22.5409 51.4845 29.8475909423
2.93544 14.2691 52.2477 29.559821874
1.57789 13.3733 54.2803 31.4246483678
6.41596 12.9299 56.1629 28.7373226955
7.09814 12.6236 52.2964 30.087695409
5.61729 15.147 53.3811 30.9447203569
8.1467 14.733 55.0579 31.2591108439
5.11412 16.1841 55.871 31.2961069724
9.64637 12.7784 53.7656 29.4032895254
12.0605 13.9283 53.1933 27.3544380448
3.54699 20.06 53.1415 32.6408762402
4.03671 19.181 55.9666 35.2647373848
1.35517 18.3337 52.5926 29.3267874542
1.61574 17.5372 55.2734 30.6929041484
9.33931 18.3815 56.0921 33.1427947345
10.1633 18.3463 53.0619 34.6917758929
1.07207 22.7325 53.296 31.0498216422
2.73523 22.3564 55.6331 27.3488701595
5.23379 22.5197 53.3961 32.1089025864
4.99541 24.0522 55.8445 26.0234096545
7.8143 22.172 53.8675 34.1080910426
3.99422 27.0542 6.57729 31.7410897187
1.44487 24.8484 3.98558 25.7089642944
0.987157 24.5802 7.91198 31.5304736005
3.34042 24.5291 6.03551 26.8918795552
5.64111 27.6762 4.23173 32.1548711712
7.35769 24.5256 5.0505 27.7880282035
8.26691 27.0981 7.40179 36.5612464635
10.5168 27.0723 4.25301 29.932314804
10.8942 27.5219 7.59336 27.5443152091
3.00448 29.6995 7.16349 27.8336633566
0.923968 29.6684 5.51612 30.2381023711
3.9117 32.331 7.90781 32.6087890756
1.86413 31.5083 3.66428 29.5636280865
6.29097 31.5271 6.27531 34.8100370987
6.11864 30.2652 3.6898 31.6732261219
9.86332 32.2664 3.94201 27.9733514635
10.5108 30.1825 5.57167 32.0109012261
2.01787 33.7208 6.61743 28.9457373918
1.78757 34.134 3.91363 30.133892394
3.30945 36.0429 7.25379 31.5179187458
7.09705 35.5748 3.98016 32.8739403451
4.28669 35.5827 4.55027 29.1191501752
8.23488 33.4042 5.6821 30.1251695316
2.81031 27.26 10.8718 28.2713854083
0.117817 26.2103 11.8885 32.0611384679
5.16447 25.7675 9.12527 29.644226482
6.19488 26.9359 11.4328 29.9584391546
11.5134 25.1321 8.77397 29.4009119462
10.7409 25.3114 11.4118 33.1718704135
0.98372 29.4358 9.33578 34.1291992295
1.04718 30.9603 11.7375 29.7846381736
6.85469 29.2741 8.89365 28.1004469022
4.39147 28.8801 9.33772 24.5711342259
4.60744 31.6574 11.0737 34.3094729861
10.5007 29.684 9.5782 31.7733147817
8.85021 31.4303 8.20102 29.7184438183
8.21634 28.9734 11.3956 33.8822318968
0.0896126 34.9096 10.265 32.971666627
3.09194 33.9998 10.6365 29.3127673918
4.20889 36.4076 10.9098 30.1527245386
7.47008 33.0152 10.0992 34.2266907132
8.15742 34.904 8.13438 34.1584325313
11.8347 33.9004 10.2846 33.692124803
11.0457 35.938 8.16854 38.7085148227
2.70953 24.8317 16.0377 28.5901352036
1.16478 26.8957 14.8021 32.3776233723
3.60574 27.9204 13.4614 32.1957977591
6.80511 24.7212 12.7987 30.8666474942
5.81647 27.2687 15.1909 35.2674013578
10.2498 27.4345 12.9411 29.5718793301
8.30129 26.3618 14.4769 26.4089467581
10.7451 24.5371 15.5288 30.3715492556
3.86253 32.4156 15.3409 32.1743614233
3.32837 30.608 13.3814 35.1455836472
8.19225 31.1763 15.6866 36.0074084393
9.80212 30.8347 13.3588 32.0469389096
11.7143 29.2109 14.7596 29.8438823885
0.224217 33.3067 12.6447 28.7170997322
2.76056 34.3695 13.4819 30.2230897994
5.98954 36.139 13.2176 27.252787068
4.97738 36.4867 15.7351 26.7892639328
6.50151 33.4111 14.7058 32.8681230117
10.7581 33.5772 12.781 30.6956966644
10.3948 36.1315 14.1716 29.2386262249
8.20523 34.2231 12.4506 31.2697772292
0.358409 28.1149 17.1407 37.4730579732
2.09268 27.1948 19.4543 34.8634677875
4.74769 27.4145 19.4821 30.3615277963
4.85451 25.7704 17.3202 27.4293672827
8.78662 27.2594 17.2337 31.0373847631
8.74231 24.9932 19.0856 26.0914270218
11.0453 25.5944 19.9428 31.4086407855
0.28807 31.08 20.9116 27.1392761194
6.73661 29.2171 17.8412 31.3497511041
5.71064 32.0695 17.8526 31.131848321
7.5734 30.4372 20.2096 26.4643424819
4.78203 32.1797 20.904 27.9947640869
9.70232 31.5886 18.2385 27.2887351343
10.8784 29.2157 17.4921 32.5324367177
11.1225 30.7408 21.109 30.1111693784
2.42805 33.1603 20.461 27.7576773981
2.05204 32.8919 17.5069 34.7000284222
5.83186 34.7947 20.4644 29.8434251075
4.19453 35.4088 18.0913 30.4285394954
7.75388 33.9416 17.8659 28.0688831079
11.3342 33.8933 18.2073 33.7699327748
11.7045 36.1305 20.7336 30.2962550955
8.79943 35.3516 20.4483 28.9111767979
10.129 36.0564 17.0001 27.7691061314
2.42572 24.8982 21.396 30.5329453138
1.69201 28.1173 24.0305 61.3934868838
3.12003 25.7552 23.9974 46.6530953609
5.72664 25.2514 24.1576 91.6540503642
6.62319 26.0852 21.4023 29.5228550796
6.47592 27.9672 23.9705 54.1137059907
9.47055 28.5066 24.1362 74.8053968007
8.61378 28.0806 21.4343 29.3892848334
11.399 26.5687 24.3133 88.1409707139
11.5622 27.7586 21.4872 29.981845015
2.38141 28.886 21.5652 31.5978743317
3.945 29.2684 24.78 126.7572257336
4.05414 31.8478 23.8783 49.0915038777
0.124609 30.6646 23.883 56.3058592435
5.34272 29.3849 21.7775 27.5994003536
9.0722 32.6297 21.3997 29.8764323112
11.1265 30.9119 24.2946 75.5168472441
0.204949 34.9188 24.387 89.1963048082
3.58389 35.6275 23.9914 54.1415848471
2.65041 35.9256 21.2426 28.7146599626
1.74675 32.9331 23.4368 30.2571588302
6.06788 33.6186 23.9001 58.4661580156
6.22254 36.5327 24.5409 112.9232682254
9.00064 32.8603 24.0754 80.3842398286
12.0488 33.8633 24.5072 111.1658293938
11.4722 36.7525 23.6013 41.993101526
3.84339 25.4721 35.5323 112.3102433523
3.21428 28.1625 36.1408 44.5781510662
4.0167 27.8876 38.6703 28.5380382368
0.564219 27.8848 36.2821 40.8986773568
7.81101 26.6416 35.9498 75.5390484777
5.95737 24.7146 36.8888 29.0851384263
11.4891 27.7673 36.0597 83.8549901034
11.0598 25.4372 38.3989 30.0531241037
10.0294 24.9793 35.937 74.0167048976
3.16232 30.9829 35.4 104.3228996835
2.756 30.5762 38.4506 27.5231194905
7.64586 29.7129 35.7581 95.7335981904
6.11403 32.0391 35.7814 72.4340369452
6.52857 28.9564 38.3353 29.8129661959
4.79275 32.3602 38.1185 26.4990715645
11.5403 32.3327 36.0879 62.9922767273
10.2394 30.168 36.9023 33.9111805961
0.598425 32.6802 36.0638 51.4681382237
3.13459 34.1957 36.1148 57.045462851
2.44304 36.3893 38.1744 26.3789065703
7.77436 34.4169 36.3586 32.7702790636
5.59319 35.9061 35.8018 72.7174794406
12.0525 36.0455 38.2579 29.3497064969
11.3991 33.3926 38.659 29.6200763059
10.2793 34.6306 35.2079 117.8013205597
9.44009 36.7639 38.7316 29.66676
2.48798 27.5207 41.2947 29.6133682486
0.5047 25.6592 40.0491 29.2674144413
5.32481 25.3206 39.7747 29.6433753085
4.11822 25.5405 42.6462 29.279678709
8.22147 26.3299 39.018 28.8110314424
8.84016 25.0902 41.3808 28.7557104358
12.0062 27.9535 40.0659 29.5565133143
10.5241 27.1721 42.5652 32.0739372779
0.245287 29.0182 39.0791 33.1325811528
3.47344 30.573 41.6705 34.3746785276
8.08924 28.901 40.6802 29.190489348
5.93952 31.1087 40.6409 28.9552487228
10.6577 30.0292 39.7687 29.9788113349
9.07551 32.3541 40.6332 29.9428858307
1.78233 33.7937 39.1763 28.3975718339
1.04904 34.7577 41.7803 25.7480110146
2.6169 33.0974 43.0853 31.395660201
5.46127 34.411 40.2181 31.6014444954
8.00839 34.2942 39.0072 31.2084497208
5.07341 34.603 43.0984 29.2708134113
9.96684 32.8303 43.0086 29.9464536484
11.7468 35.1101 43.0994 28.7087765947
0.287132 27.3579 44.7819 30.4747114224
3.20004 27.3597 44.7421 33.7837532508
7.84926 28.1122 43.3529 31.4093077287
4.20684 25.2939 46.2033 26.5748438798
7.09486 24.8692 45.9402 29.1206537341
6.71944 25.7265 43.3979 30.2889240293
11.8679 25.8331 44.8015 31.215728995
9.80606 25.2467 47.2821 27.9330416044
3.79828 31.1752 46.7904 35.2556372178
4.71716 30.1564 44.4846 31.2797058335
7.50306 29.4971 45.7583 30.1331862836
6.36201 31.7852 47.2794 29.4853777568
6.55359 32.3505 43.537 30.4529517606
10.2446 30.7086 46.3667 28.6421594883
10.8753 30.3969 43.7846 32.6254899106
1.78535 32.7339 45.765 33.1579064817
0.212594 36.4482 44.0097 36.5290476031
6.74828 35.6139 45.4017 28.2087629656
4.17832 36.7305 46.4181 29.3745165362
11.6741 35.4006 45.5256 25.5453156991
8.43634 32.8065 45.5497 26.4296989475
12.0038 33.3275 47.0954 30.1003056798
0.990645 27.9804 49.1428 34.9361887528
2.37283 24.8767 48.106 31.6725623214
7.30828 26.4573 51.3061 27.4600224153
5.47451 26.5807 48.593 27.866161095
7.78401 27.4118 47.8742 28.7404435959
10.3273 26.5974 50.7708 30.1106341399
3.91937 28.948 51.1097 28.8976402588
3.6545 28.7795 48.5049 32.9841589162
6.4851 29.175 51.6985 32.9011586425
7.68147 30.8757 49.606 32.747273332
12.2882 29.2541 47.9592 31.9630592015
10.8246 30.1286 51.6937 29.9864152246
9.95103 28.9794 49.3449 26.4968731051
9.7459 32.6598 51.7475 32.9165422456
1.40429 33.2034 51.1754 38.7521263421
1.77518 34.4509 48.1043 32.987965819
6.8538 34.6209 47.9716 30.8660053492
4.17691 35.9119 49.1075 33.553534483
11.3832 35.0709 51.9815 33.7707871119
9.92587 36.3256 49.818 31.5369790407
9.40921 33.4744 48.7741 31.7035691741
0.97685 25.5278 52.7438 28.8303821842
1.34146 27.7361 56.0516 30.2612844146
3.83021 26.2136 55.2318 30.4463234304
3.46925 26.3576 52.4117 30.7299319421
8.07652 26.7523 55.7317 28.7540872878
8.0989 24.8212 53.5206 29.8584064065
11.007 24.6226 53.3286 33.0983878579
10.6383 24.5328 56.2651 30.2419482842
0.943093 28.9727 53.3438 29.8961149218
2.93375 31.1346 52.4345 35.6920254325
8.01314 31.2255 54.915 28.9465710627
4.12361 31.5224 54.9493 32.1673187559
11.5067 29.4363 55.1533 28.9219038738
8.66524 28.8079 53.8046 30.4687727977
2.48648 35.0794 52.7256 31.9011471936
6.96765 35.2125 53.914 27.6014688579
7.20518 32.6859 52.7242 36.8215667462
4.42047 34.3637 54.7269 28.5818457588
11.1719 34.6828 56.2119 31.6207870995
9.77296 36.0372 54.0999 31.994186304
1.55992 38.8449 4.46626 29.9931384572
3.3901 40.1613 7.98078 30.9637818993
1.42881 38.1817 7.29718 27.8530001798
7.07808 37.926 5.75569 29.8793113763
5.42988 39.167 3.65904 30.6184623063
9.52385 39.0606 5.58198 29.7777184206
11.3011 36.8401 5.45707 34.1325236883
0.893324 42.8413 6.48069 29.6744967964
1.81806 41.6269 4.00204 29.039400766
3.07993 44.1709 6.60173 28.4489892911
4.43148 41.1022 5.53256 28.5020961775
5.20332 44.1343 4.84029 25.6430933399
7.24402 41.3664 6.52712 30.1662753317
7.44907 44.7545 6.14008 27.7503282206
7.68651 41.9658 3.92049 26.7174167556
9.78013 43.6258 5.29509 25.194475994
10.8251 41.2647 6.89114 33.1934224472
0.191625 47.1078 5.17936 32.0642107853
2.30813 46.8594 6.81854 28.0004629886
6.32943 48.5373 4.00811 30.0926111738
4.30333 48.6244 7.46136 33.459293324
4.33621 46.4409 3.75052 29.9109455277
10.3814 45.2561 7.84293 30.83918789
8.26039 47.4831 5.31495 30.6126985341
10.7432 47.9606 6.83537 32.2507855236
2.31484 38.399 11.9696 26.3971005792
0.32501 37.6673 10.0228 31.8581374072
6.40183 39.3861 8.62866 27.8405154178
4.25643 40.234 10.9434 28.0195387127
7.17341 38.3209 11.2611 27.7461308782
5.98254 36.7978 8.34982 30.0962688486
9.09852 40.3184 9.31675 31.3673527132
11.355 38.3132 9.68747 38.4691689042
9.84866 38.1791 11.8568 29.1957978714
0.93718 41.4165 8.69618 30.306929624
3.9913 44.7473 9.24424 29.4227415202
2.94628 42.5445 10.8418 29.8185631518
5.75646 43.3922 12.0061 32.8998434864
6.74699 44.8041 8.92791 32.536977042
10.3548 42.9165 9.83029 30.3836138016
8.53418 44.4943 11.2431 31.8320565342
1.723 46.8385 9.34422 29.329058854
4.17526 47.1951 11.2832 31.9603719497
6.19996 47.6397 9.29614 32.0114849608
10.7319 48.2857 10.1368 30.548486989
8.41019 47.718 11.5604 32.0083793475
2.42811 37.0953 14.2422 29.2381180239
2.48166 40.7023 15.4915 29.080394593
1.18543 40.4549 13.1163 26.8837068329
0.0863485 37.7985 15.5011 31.7391403138
4.84518 39.3141 15.1309 28.5633186958
6.26198 40.2108 12.887 28.3277816014
8.04331 37.8364 14.6316 27.6092564042
10.0796 40.8331 12.5607 29.2518157568
8.68338 40.8236 14.8742 34.9090354761
0.996722 43.2616 12.8998 27.5753798371
3.08742 43.3563 15.5502 28.4754956846
7.22954 43.3078 14.5091 27.4358735518
9.92672 44.6126 13.9642 33.5744082008
12.1088 42.7656 13.0913 33.0500746322
2.10544 47.9106 13.675 29.5147647402
1.02871 48.4036 16.2383 28.5890398437
4.80544 47.3643 15.8688 29.2128543525
7.07438 48.6395 14.8094 29.6743173594
4.19113 45.4228 13.7783 31.6051671903
7.42017 45.7699 15.7433 27.3914258741
10.2113 47.2799 14.3077 30.9209060467
1.3075 39.3941 17.5285 31.9435422071
3.03897 37.7974 19.1014 31.7449177392
4.95218 39.8153 19.7325 29.4816987343
7.84062 37.9037 21.1029 28.3826940258
7.70437 37.0562 17.2621 28.5914975905
6.58624 40.2817 17.1995 28.7217737088
8.68722 39.486 18.9456 30.0483472878
11.5498 37.7693 18.566 29.1019866715
11.416 40.6312 19.5214 32.7168979548
3.17561 41.3073 21.1337 29.7422043902
3.44295 43.5698 19.4184 31.2825159044
1.72391 44.281 17.4579 27.1449830997
7.43194 43.5997 19.7871 29.0562203872
5.75848 43.1021 16.8961 29.0097574875
11.0884 42.7286 17.8774 33.3363883215
2.5669 47.0463 18.314 26.3317901291
0.639465 46.6418 20.4595 26.6702136971
4.78169 47.7596 20.4799 31.0829102134
5.6306 45.6622 18.3692 29.9551631209
9.05399 45.088 18.1895 29.7563235419
9.97804 47.8538 17.2232 29.8835802321
9.70951 47.4808 20.2199 28.6489416751
3.56588 38.8667 24.4553 88.6775001007
0.733671 40.1016 21.5937 29.992293339
1.18618 37.8484 24.253 60.2713554156
0.00163662 37.406 21.6187 30.225296428
0.141923 40.6726 24.2547 72.7266407183
5.26517 37.9387 22.0101 29.3257966691
9.66559 40.7181 23.8142 51.684888067
8.99156 37.8287 23.766 63.3952772618
4.09184 41.6165 23.8225 41.1478916547
1.64292 42.9373 24.4547 93.8666716475
0.405125 44.2772 22.4506 28.3701391488
7.2627 44.9271 22.3787 27.4040335939
4.9498 44.5345 24.0255 65.5218816706
7.18427 41.1981 21.2887 29.0692576443
7.14931 41.9949 24.1828 82.2793178535
10.0927 42.1618 21.3581 30.5072966435
8.83168 44.6473 24.6169 105.5629887873
3.30582 45.5402 21.7188 28.0051580371
2.51818 46.8675 24.2127 82.0733361863
5.12209 47.8267 23.9119 51.6621302704
7.5271 47.7905 21.5469 27.0065389484
8.13871 47.724 24.2804 67.9344550479
10.4545 45.0412 21.3991 29.149648756
11.3213 45.7571 24.036 66.2929482359
11.4952 48.4919 23.7536 36.8391939236
3.28062 37.9859 35.8163 68.1985271467
2.28053 40.6907 36.1964 50.6617738257
0.0731622 37.6597 38.5814 27.9930363878
0.3457 37.7741 35.6127 100.2019180281
5.30073 40.4148 35.7789 91.1413484244
7.03128 38.103 35.8691 62.7652951948
6.89091 38.5021 38.7741 30.3830460339
10.7273 40.0701 38.5585 28.561678644
9.71103 37.6008 35.7981 61.0516246017
11.1867 39.8909 35.8649 66.0668020051
3.68835 41.8541 38.5988 32.9128156713
0.32584 42.7494 35.5959 113.0096220443
7.33114 44.6058 35.6372 83.5300646842
7.59415 42.07 36.2981 42.4539161731
10.3611 42.4039 35.9345 64.9429139007
1.94084 45.3614 36.1647 56.4953521951
1.22028 48.2568 38.7312 29.1064856969
0.285995 47.722 36.0696 58.2346348335
5.82195 47.454 37.8128 31.3598689695
4.72136 45.7867 35.8312 94.2402984896
8.17079 45.4587 38.099 28.7951379094
9.62272 47.8734 38.4557 31.0106498526
11.1473 47.6938 35.9202 71.408834602
8.23055 47.3608 35.4888 97.8830843993
2.08622 37.5541 41.198 27.7488135814
2.43653 40.571 40.92 32.4775423157
4.78093 37.1498 39.6267 33.0671647849
12.2306 38.1961 40.326 26.8358916413
8.85902 39.2539 40.8949 28.3452205925
10.5391 37.5691 42.5746 32.7215971362
2.7752 44.2642 41.7853 30.9836147601
3.97946 44.5247 39.0124 28.6458373814
0.0897119 42.0165 41.2051 28.9223604604
4.32389 41.8406 42.5437 29.9722581237
6.39884 41.5175 38.9596 31.0948623439
6.69541 43.1583 42.1194 27.4247752219
10.9778 42.9963 42.6594 36.1289111799
8.74086 41.8111 41.2341 27.9898578113
9.67085 42.9487 38.8772 28.8075352653
1.15931 45.2803 38.8415 28.8349324035
3.77283 48.9673 39.1873 34.2582996684
6.25579 45.086 40.1484 32.5492916884
5.27074 48.9263 41.894 35.4775505419
9.70803 48.5409 42.7999 34.6233612086
11.6521 45.1104 40.6485 34.1814847818
11.4855 47.6938 40.7761 27.6509945609
1.9589 38.837 44.3271 30.631332625
1.3715 37.2109 46.7597 32.4554109594
4.56547 39.4747 46.34 28.4064321414
7.59616 38.9291 47.0605 27.2623637539
6.55723 40.4175 44.6322 29.9346596322
7.24767 38.0951 43.2812 33.7639784288
4.53581 37.2325 43.2642 30.2290328575
9.17903 37.0658 45.2769 30.5799292514
11.2244 37.5758 47.5901 30.3428935073
3.33663 42.0145 45.1443 29.1212407077
0.952999 42.8411 45.8415 30.750157302
7.99164 42.4126 46.0272 28.5364373563
4.75055 44.3511 45.3878 32.5462371231
7.27837 44.6373 44.4118 28.6351606513
10.982 42.5173 45.5395 30.1164032306
4.04147 46.3285 43.2963 32.5775927828
2.41039 48.6561 47.1743 33.9865093435
1.86088 47.4654 44.7716 31.4104100166
6.60007 48.7066 46.0214 30.5166865546
7.17789 47.2231 43.2938 31.5196577908
8.68608 46.6323 46.2626 32.1877398133
10.6371 48.567 45.167 28.7796105528
1.56399 39.1177 49.2651 31.4752012585
3.2732 37.4301 51.2545 26.001351505
4.39727 39.9762 49.2528 28.24222315
7.17549 36.9828 49.5054 27.4472714629
6.97421 40.0434 49.6598 26.1608510771
5.97587 36.9408 51.9968 30.3420531104
10.008 40.3207 47.6825 27.291917626
9.66753 39.1867 51.1577 32.2196674788
3.63613 42.5851 49.83 27.5103606798
1.23244 43.2202 48.7229 31.0274181949
7.90211 42.7992 48.6629 26.5205938344
5.48821 44.3433 48.146 34.001721982
9.93702 41.9996 50.5523 25.7860858898
9.87091 44.7539 48.1354 27.268743934
2.07889 47.5952 49.8883 30.6725951385
0.207657 45.418 49.52 30.3724155807
3.48038 45.207 51.4842 32.6859899441
4.99087 48.3483 48.362 32.261431339
5.74198 46.1465 50.1711 32.8010856099
9.84462 48.5665 48.4046 32.4025716731
8.26071 45.6126 51.6001 29.3534982962
10.2477 46.3531 50.237 29.6513277375
12.1834 45.7374 51.8828 30.7985703565
0.0195504 39.3882 53.5786 27.4724889269
2.80856 39.3993 53.3794 28.9690163199
3.20738 37.5193 55.7755 28.6279240043
0.204078 36.8266 52.9231 26.2730917248
6.25199 39.0667 53.6988 28.4527768488
10.0947 40.3933 55.7975 27.4389955795
8.89652 38.877 54.0371 31.0847320473
2.91706 41.9936 52.6141 33.1222109681
2.88967 43.6661 55.0102 29.7344107367
5.55643 41.4174 52.0756 27.8190086671
5.93685 43.2756 54.7817 30.7587734554
7.96341 43.0215 52.5002 29.0695176806
11.4744 43.0557 52.8467 27.7693021244
9.8105 43.1944 54.762 25.9871893665
1.6866 46.5207 55.5995 29.9548501307
3.49621 48.2636 52.5505 33.3346399309
1.23655 48.9237 54.1646 35.8228879202
7.90306 47.3092 53.9076 32.3478639333
5.17076 46.1625 53.9294 28.6409665921
12.0686 47.6541 55.4743 32.5667993117
9.54128 46.0276 55.7559 32.6276375299
13.5689 1.70986 5.58372 32.3927403965
15.3656 3.81551 6.53377 29.7055319642
17.7127 2.71928 7.32975 31.3957528923
16.7138 0.84567 4.98565 29.6657497204
19.7626 0.88318 5.28256 28.3688146868
23.6008 3.88687 5.62817 29.9321109226
22.1685 0.199474 6.8063 29.3596629538
14.2212 6.33826 7.32342 27.294544679
12.9374 7.46208 5.13052 25.6963409341
17.5007 8.05811 6.48345 28.9513259629
16.9147 5.43784 4.65016 27.8509766856
21.4076 5.73787 7.69567 29.6558549444
20.9253 6.1667 5.00104 30.1759322574
23.3868 6.07087 3.86501 29.5848605535
16.0713 10.048 4.9385 29.9273937527
13.1838 9.96398 4.5323 26.4981402843
16.9821 11.6392 7.28378 30.8671498907
20.1966 9.06269 4.43872 30.9522386477
21.2125 10.3204 6.75145 32.290618713
24.0201 10.0389 6.83586 30.4462096969
12.4503 0.377473 12.1699 33.101025308
16.5961 2.09637 9.4907 30.2236757378
19.7784 0.753883 11.9878 31.6467406795
18.8566 3.18054 10.4399 30.3942789026
22.7886 1.78673 9.3047 27.9507517006
20.6971 3.0786 8.08132 31.3383023236
22.2458 2.16189 12.0345 28.9319117828
12.9881 7.95203 12.414 28.6197509663
15.0227 4.35702 9.78055 31.5380281503
12.358 5.15056 10.9793 28.4300532938
17.3254 5.91132 10.4383 28.9859505765
19.2555 7.1168 8.72293 30.7359767524
23.3691 6.39089 9.59628 27.2505249944
21.4208 8.15201 10.6478 29.9996822274
22.9242 4.78509 11.8024 32.0994505749
24.5256 4.09064 8.1867 28.0172747718
15.6743 8.79832 8.44462 25.2311227246
16.0029 8.30126 11.0311 30.776417937
12.6894 10.7518 12.2157 31.8891638261
14.6372 11.2996 8.7294 28.2207605643
12.569 8.66731 8.87373 30.2920398109
20.4054 11.2913 10.6764 29.1297898615
18.9378 10.0408 8.5339 29.6043816853
23.0606 10.3793 9.81045 27.3824788831
14.2937 2.93999 13.5093 27.718921306
15.5643 3.64098 15.8446 31.6997605165
13.0752 1.66074 15.8601 29.4336479209
18.4002 3.33474 13.4256 30.4181364993
20.3457 4.02228 15.2645 30.3372686921
16.4071 1.37761 12.8646 26.8415582045
24.4592 3.88176 15.9349 30.3558962886
23.5935 1.49299 16.1557 30.8551583618
23.8186 0.329851 13.5241 27.2360296707
20.9411 1.57375 16.3863 32.8031527379
14.9005 5.38563 12.7146 25.7520701951
14.5251 6.51598 15.4532 30.2393424646
17.5979 6.27108 13.5429 28.8008998738
20.0978 7.75612 13.0532 31.5408833032
22.4708 5.67414 14.467 31.4232241717
16.3537 8.55082 15.4324 26.7791596021
14.4944 10.5058 16.6396 29.4008043716
14.793 12.0995 14.1803 27.8827697649
20.3377 11.3865 15.7757 27.9377218709
18.9802 8.66544 16.1567 26.0989217026
19.3 10.5352 13.1061 29.1954092947
16.6505 10.007 13.193 28.6180401105
23.8382 10.12 13.0441 33.6657845644
22.4705 8.33664 15.2402 27.5701859838
13.5368 3.16293 18.318 31.6375577511
15.8072 0.442943 17.2588 27.2578782859
15.3496 2.35837 20.7175 31.3271910013
19.534 1.53947 19.2207 32.0824911583
16.8914 2.49587 18.3614 29.0554778102
20.9068 3.1227 21.1665 31.8799507823
13.4222 6.14753 18.0761 34.597896201
13.6033 4.9009 21.1021 26.816186039
16.0357 6.49718 20.9404 29.896728059
19.2796 5.85814 16.932 35.2203145038
18.3819 4.86915 19.8802 35.31376137
21.7599 7.18456 17.8051 28.2181594453
22.5164 6.00035 20.8378 25.9935700206
23.8194 5.34964 18.4985 31.0999660358
15.0887 8.25983 18.9129 29.5084649843
13.2736 9.67931 20.7817 32.2498908865
17.8514 9.59443 18.5059 28.6310848532
20.4092 8.91984 19.4713 27.7945958831
22.2627 10.7319 17.7159 29.1026560625
14.0246 0.588777 24.4093 110.6420495411
15.1189 3.08026 23.6846 45.5467520055
20.1958 3.32693 24.0032 72.3356274067
20.3585 0.515716 24.09 59.6628252812
23.5239 2.08104 21.4608 34.2401220439
24.1106 2.63973 24.3336 76.0953638765
23.136 0.19109 24.5442 95.6224432202
13.1175 4.85378 23.9126 56.1972287236
13.9189 7.31122 24.3667 93.6285460842
17.4103 4.76202 24.2562 101.9303123704
16.6386 7.25737 23.2968 29.9626678171
20.0352 6.83584 21.3469 28.557106618
22.5324 5.13648 23.5699 39.3489581464
20.5274 6.8903 23.9815 62.287738673
24.3992 7.64235 24.1182 57.774423395
12.3495 12.0841 23.6435 50.6062063721
15.0136 12.0255 24.1011 68.8774949992
15.4849 11.4105 21.2871 25.8344065746
19.7296 11.6651 21.7831 30.7806720925
17.2077 9.98288 24.4788 96.7746853723
19.5317 11.2216 24.4366 73.2885166196
17.4714 9.68425 21.3947 27.6166340048
23.5237 11.7118 23.8608 37.1164333811
23.7339 8.23214 21.4722 29.9034190088
21.801 9.21797 24.5805 95.7605062182
22.404 11.0211 21.3443 27.3130745763
14.3152 0.999884 35.5378 100.1555278843
15.5707 3.85222 38.2545 27.6381812286
14.4533 3.75689 35.8159 54.403678871
15.3213 1.24674 38.7483 27.3192136658
18.9563 4.02494 36.1998 48.2378154569
17.0408 0.0485826 36.766 34.9901349474
19.5186 1.45464 36.6515 49.1011912802
24.2652 2.36222 36.0091 51.2009459665
22.1916 0.250481 35.7439 117.4842431705
23.7195 2.56773 38.7746 29.6627588439
13.3434 7.55716 38.3669 25.4705691846
12.7743 4.80683 38.6797 30.2722886072
18.7904 5.05878 38.6984 26.3983175248
16.7198 5.13177 35.0932 139.0695856174
17.0767 7.64987 36.1762 50.5758189956
16.4872 6.82149 38.7928 29.1388799952
20.9176 5.98022 35.9014 71.9683051292
23.5177 5.0231 35.6963 92.0608216969
14.3166 8.18569 35.8263 66.4218918354
14.4161 10.8314 35.8515 81.463499728
14.0549 10.6398 38.7635 27.9159593793
18.8294 9.87454 36.9976 34.3555001908
17.2108 11.7222 35.8786 85.1430243594
22.4129 10.7857 38.4942 30.4471215726
21.7875 9.01914 35.8774 78.5899933623
21.3769 12.0588 36.0368 66.0955683281
12.6965 0.560234 39.2375 28.8920616861
16.3979 0.030049 41.5133 27.573849662
19.5049 2.8816 40.3728 26.7006825722
16.8497 2.86179 41.0792 28.7141917721
20.0701 0.381196 39.2403 27.9424654386
19.6413 3.67839 43.1237 28.2118268533
22.651 0.214431 39.9391 26.0556027122
13.7437 7.97118 41.5559 32.4365506049
16.1279 5.72423 41.5977 31.2342817957
18.9192 6.26184 41.8669 32.3445315061
23.7872 7.31472 40.6218 30.513877067
22.2246 4.13918 40.3062 31.8210903214
21.1909 6.38788 38.8565 31.589416693
23.6359 5.32733 42.8128 30.039382527
15.3419 10.1417 41.0909 29.245388491
13.0704 12.028 41.8393 30.0516888619
20.4857 8.81865 40.6778 34.9348807454
17.9585 9.79056 39.7294 30.3512329127
20.644 11.8929 40.4138 28.3127759397
24.2601 9.90918 41.0382 30.0338768292
13.1106 1.72719 46.8663 31.539201378
15.9191 1.54269 44.1112 30.0111458951
13.675 2.96279 43.2677 34.7297806248
20.4551 0.149429 46.7772 30.3569675269
19.1172 2.26885 47.5412 35.2859314324
17.8264 3.17959 45.1636 30.5331174519
20.5075 1.09362 44.1069 32.2308800885
23.2651 3.50907 47.5292 34.4447724526
16.2937 5.0525 46.3815 33.3211043448
15.6262 6.78301 44.1586 29.7225528391
12.6523 4.71375 44.8384 27.4662635296
13.8924 4.28844 47.2095 35.1107470485
17.7538 7.09923 47.1684 32.8058403759
18.5523 7.89418 44.4091 33.2385917775
22.1361 4.62624 44.7408 33.3498534392
21.0021 6.81831 45.7655 32.6340435274
14.653 9.28091 45.3924 31.3187213931
15.7851 11.6549 43.97 27.923719681
18.7287 10.7275 44.0979 32.4205995911
18.8857 11.9642 46.5017 31.4585679863
23.1888 8.6311 45.5614 34.2947316383
23.6308 10.7528 43.7167 32.6646148792
21.01 11.7914 43.2666 31.8500618392
15.5882 1.2909 51.4052 32.3773726516
12.6333 1.8442 51.9492 29.2922050977
20.4621 0.781763 51.7882 31.9706686106
18.2462 0.625714 49.9706 35.3709209334
23.3172 0.71673 50.7936 28.5132100748
22.6328 3.57748 50.6323 28.0776757968
22.7709 0.305099 48.0783 29.7081500038
12.9738 6.02738 49.3223 33.4293312805
13.6648 4.83563 51.8454 30.265613018
20.4702 6.6637 48.3658 29.6956808207
20.0637 4.20779 49.4149 31.3059566276
18.7759 4.7838 51.7833 33.3649306924
22.4179 7.84246 50.072 30.4046661776
14.1301 8.42604 49.9406 30.7761537536
12.7965 10.6001 50.8052 29.6777789293
15.9413 9.17441 47.9161 30.2226327143
16.2081 12.0566 47.9783 29.1676917296
18.9228 9.33661 49.3892 33.1191302314
16.491 9.08109 51.4806 32.5507899131
20.6655 8.70848 51.9839 27.2298738082
22.8837 10.7653 50.6709 33.3654144615
20.7858 11.1946 48.4208 32.9895458192
23.6769 10.09 47.8859 27.567150922
12.8231 3.0316 55.9863 30.5690114013
16.2437 3.72547 52.5598 30.8924597428
15.1165 4.06879 55.0059 29.5963686906
17.7304 3.07254 56.1332 26.7716984207
18.2826 1.71818 53.6556 29.8223299197
21.1949 3.0052 56.3958 30.6293029865
20.593 3.64233 53.3216 28.7477018224
23.7562 2.98378 55.0503 28.9922633375
22.8668 0.150387 55.0069 32.1135262509
14.6071 7.44985 53.0968 30.9953704697
14.9985 6.7949 55.7528 27.520919063
19.117 5.56682 55.6126 28.4588724282
18.4203 7.36396 52.8713 30.7571005398
23.6745 4.73257 52.8793 27.6851371811
22.5715 7.23591 53.7493 30.185023297
15.9386 11.8792 52.7452 29.9372562543
12.3553 9.04379 54.5531 29.5383288919
13.3468 11.5023 53.5912 27.1952696193
17.819 11.0123 54.5539 30.712161576
20.2433 11.2302 53.1452 30.2973497082
17.8449 8.34439 55.8048 27.2807503384
22.7012 9.28546 56.0423 28.1454308976
21.9287 12.0799 55.111 27.3113986302
13.7165 14.3857 6.5983 29.4921941887
16.6596 14.3556 6.42201 27.730391188
19.4126 14.6571 4.33917 28.5084789646
16.7683 12.8314 3.93725 29.3889026577
21.3125 15.7278 6.20236 30.8393253395
23.2745 15.8049 3.69167 27.8976708254
21.5543 12.5022 5.15575 33.4539719697
24.5304 12.2994 5.3099 28.7864279168
14.2311 20.2612 7.69527 26.6809450856
12.9479 16.9504 5.44965 29.2591415961
15.5336 17.7702 6.96931 27.2592674908
13.8022 19.8035 4.64307 27.1889679932
19.8053 18.2576 5.72134 29.9931696088
17.6065 16.7985 5.0594 29.6810645085
17.5248 19.843 7.71141 31.1599318485
23.341 19.9594 5.61332 28.9682952956
13.4634 23.7616 4.59045 29.6215091427
14.6153 22.7677 6.72758 27.1323928801
17.5024 22.6544 5.70281 27.4941959469
20.4948 21.5247 5.42002 30.8754004045
22.2592 23.9172 7.11874 27.6651154266
23.6369 22.632 5.08543 28.4153184968
13.3552 14.4699 9.43492 27.0811903237
15.5631 16.3181 9.4561 28.3713625966
15.0644 12.581 11.1435 27.5447017881
17.9619 14.8466 9.03868 34.0284738163
17.8787 12.9952 11.2295 29.3513203243
20.5574 15.8707 9.20939 31.1636477328
21.5751 13.9255 11.2175 31.0714891333
23.5522 15.4182 8.15574 30.1804344534
24.0507 13.052 9.96821 29.1729566525
13.1186 18.1143 10.3836 28.260336387
19.9441 18.4758 9.09878 29.1637997551
16.4534 18.5325 11.8535 29.6526261909
20.8317 18.697 11.7157 28.8093845373
24.5457 17.8316 9.4977 27.8274653181
22.4078 19.2297 8.12955 28.4867056113
23.6007 19.2448 12.0674 27.7710850613
14.0835 22.3411 11.2056 30.6203009324
16.6924 20.916 10.273 28.5701504516
18.3409 22.9155 8.6242 31.3224205328
18.0935 21.995 12.2276 28.710730053
23.1993 23.7312 10.3502 28.3532045101
21.0773 21.5664 11.5771 32.1801061332
20.908 21.9188 8.69939 27.9001824488
15.4654 15.6716 12.5617 29.1075056765
12.7169 14.7564 13.053 28.4699535428
18.6192 14.9032 13.0979 27.2174072121
16.9355 14.0431 15.268 29.7659646156
20.927 13.8277 14.2448 26.1766728719
21.4166 15.2792 16.4588 26.0564193356
23.6817 12.5949 14.2836 28.9597303072
23.8704 14.4506 16.8193 29.089244434
14.1189 19.4016 13.1136 29.1225286126
13.8663 17.0703 14.7612 26.8954993596
16.037 17.2617 16.6323 34.6863513566
18.7108 16.8323 16.0051 30.4215432806
18.5031 20.3604 14.3456 29.2735054416
18.6586 17.7181 13.339 27.1759133412
23.7759 17.638 16.0283 29.2909261145
22.4018 16.7266 13.6264 31.4421814269
15.0618 22.1635 14.133 29.2336377809
12.3797 24.0376 13.5894 28.3831330639
17.8693 24.2498 13.7294 31.4032588634
16.5802 21.184 16.1658 31.4924650307
23.7183 23.9876 14.5392 30.9859564711
20.5098 20.9608 16.3752 30.8309998742
22.4971 21.2905 14.3203 31.9475504758
14.6739 14.882 17.2224 27.7694820826
14.1801 14.7587 19.9498 27.7921192306
15.4575 12.3534 18.6782 28.6753797976
19.8849 14.1298 18.3247 29.3396690715
18.0963 12.5041 17.2684 29.6116550984
19.2075 14.5457 20.7729 31.014993247
22.4421 13.0479 19.0632 26.9086450539
13.2755 18.7181 17.4097 27.8813353028
12.3634 16.9399 19.3176 29.1393574996
15.4259 20.1164 18.4702 29.1620971849
17.1089 19.6289 20.6652 29.9096201924
19.7874 19.3862 20.2895 29.4349117999
20.2551 18.7049 17.7595 32.4687602725
22.9406 18.4285 18.7033 30.1068109529
13.785 22.4197 19.0228 27.4434547774
15.7542 24.3133 19.8178 33.4991765503
17.3172 23.7988 17.4803 31.9529741137
19.9178 23.2634 17.6541 36.2278936527
22.6812 22.0817 20.5697 28.5742644443
23.805 21.1011 18.4213 35.1045040197
16.3981 14.3623 24.4199 88.5386026225
19.2556 14.1161 23.9804 43.5769477393
16.5608 14.202 21.5092 29.4471519219
23.2885 14.9051 21.4651 29.4383053388
22.4113 14.0401 24.3748 86.9045383666
15.7585 17.2499 21.5114 31.9977059145
13.0323 17.2333 24.1085 64.0002048452
15.9137 17.0147 24.2444 76.7448623348
13.314 18.5123 21.4799 27.3728099196
19.7528 16.9261 24.3295 78.4076282162
17.8171 18.8637 23.8217 39.9320375006
20.7086 16.7408 21.7214 30.6976366499
23.9702 16.5412 24.1513 56.0920715214
22.6484 19.2791 21.5915 24.7535289315
21.9466 18.6512 24.2472 73.2176252469
13.8869 21.2845 21.8232 29.7278867524
16.0144 23.2698 24.3799 77.8363616595
13.4121 22.2043 24.4041 78.4172936409
19.8916 22.0057 21.3956 29.7749837544
18.2933 21.2847 24.4459 94.4902833085
16.7895 22.3173 21.7174 28.2316841739
23.5534 23.4484 24.0426 64.3910261824
21.1635 21.3924 24.0759 64.9036500408
12.4313 12.8997 36.2879 46.6421055059
13.6717 15.2989 36.2184 54.4624774363
15.7704 13.08 38.1726 28.3036671586
19.4164 14.3001 35.9997 62.2753619788
16.5331 15.0287 35.8493 83.0000845753
19.0956 14.5094 38.717 28.0532133278
21.5291 16.2931 38.4754 29.2697395958
24.117 12.5596 35.7997 65.6525269726
24.3851 15.4801 36.0602 54.7354497806
14.876 18.8854 36.3345 43.6113792103
17.4317 17.7926 36.0827 50.6793397883
18.9895 19.7021 38.3474 26.2689331518
18.9556 19.8442 35.3514 99.1577164983
21.5653 16.4848 35.6877 85.1014579406
21.7586 19.2344 35.6887 61.2566345019
24.421 18.6753 36.1327 49.9993558249
14.8483 21.6445 35.5297 110.453318834
15.1525 21.2452 38.6505 28.0840704581
17.6942 22.5177 35.9269 48.8245920738
20.1416 24.0649 38.774 32.7183519498
19.8192 24.1291 35.9113 59.3683180551
22.0033 22.5573 35.3665 108.1668322415
24.4218 23.3552 36.1396 44.0332373328
21.5052 21.4712 37.8872 28.7450738102
13.991 15.3125 38.9685 27.4305983908
15.6991 14.2351 42.7015 30.3434105906
12.5695 14.6946 41.682 26.9940841224
18.2251 14.4271 42.1577 28.7350245771
17.6157 12.5497 40.2636 26.8207157479
24.1712 15.6329 40.0866 34.4333906121
21.3858 14.5967 40.8536 32.4312815932
14.9952 17.7478 39.1933 26.7051312647
12.8974 19.7909 39.7616 25.9475070577
15.3356 18.34 41.8436 27.5819369715
17.8525 17.2195 39.1304 28.4797192688
18.2089 17.1604 41.8528 26.1193962883
20.4398 18.9814 42.62 30.7431356169
21.3102 18.8058 39.8247 30.7194593073
24.3694 18.2241 38.9833 28.1488297363
12.6121 23.008 39.0907 29.7973101584
15.2554 21.0747 41.9308 28.9903556415
15.1338 23.9753 42.8951 30.0142576217
15.2814 23.9036 39.9663 32.9956435788
18.0727 22.1515 39.1432 29.0193902199
18.1206 20.5276 41.4054 29.5817517612
19.6915 22.4375 43.1531 30.5947777309
23.8109 22.9028 38.8375 25.3618675232
24.1214 20.7307 40.3882 25.7566704508
21.6111 24.3779 42.9059 32.2024630493
22.9183 20.7464 42.7704 30.3120179976
15.6661 15.8213 45.2942 27.4458786202
12.3827 12.5786 46.5738 30.5321104452
14.8627 12.9649 45.8208 26.6644118158
19.4208 14.7131 46.1813 32.0234632471
21.1526 14.6256 43.7648 30.6559043556
23.6251 15.2339 45.2647 31.2069631592
13.1065 16.808 46.3632 30.4719045825
12.4986 19.4887 46.2189 32.66943497
13.187 16.8436 43.5056 30.2592518443
18.1933 19.8402 46.2954 31.3063025011
17.0742 17.9668 44.2591 31.0199387649
20.1306 17.5316 44.9304 29.6995493396
21.9797 18.6191 46.731 29.4371950205
24.3191 17.2962 47.0271 29.0771149724
14.2021 21.206 44.6038 32.9737379415
16.2038 21.8181 46.8676 34.2169659706
17.546 23.7173 44.0037 30.2261319272
19.2765 24.2017 47.234 29.4678203145
20.3935 21.5164 45.7892 28.3439874593
23.0194 21.1209 45.7109 29.7374103028
24.3416 23.4297 43.6498 28.053244466
13.2641 12.9278 49.1715 28.0592872139
13.9931 15.7679 49.0046 30.0085798676
15.0489 14.4756 51.7107 29.7529761986
17.4394 13.5915 50.2567 33.2199940602
16.7945 15.4635 47.8829 29.353531307
20.0348 13.6868 51.6918 31.1948829008
20.6177 14.1844 48.651 31.4610432879
23.5579 14.3027 48.0602 32.3363531177
15.9143 18.6033 50.4574 29.2173678419
13.1689 18.2908 50.2135 28.9828709882
17.7487 18.1071 48.6779 34.0083010318
20.351 18.5347 49.4328 31.2983182239
23.4677 18.0349 49.6773 27.885012871
21.1477 16.383 51.0154 29.6253339155
15.7938 22.5578 49.5837 29.9441302827
13.0076 22.7487 49.1058 28.5525561803
19.0067 24.0512 51.1521 27.1791260438
16.5951 20.8515 51.7152 28.0729205968
19.1234 21.481 51.3698 30.7369337299
23.2724 20.9652 49.1455 27.5089502899
20.6791 21.6723 48.9723 29.5979446235
24.0592 23.3101 50.6313 32.233832041
12.9965 15.0314 55.2514 28.3879737168
13.9967 12.778 56.3137 28.4428103713
17.9178 14.5743 54.2898 32.4796756803
24.4651 12.6649 54.1232 31.6937048097
21.0996 14.8211 54.6798 26.1079113031
23.4992 15.5531 52.9318 30.5000474303
15.9978 18.6308 56.194 30.2401554768
16.1045 16.9024 52.6325 28.9912258815
12.6742 19.5368 52.7823 34.0713562957
14.0693 17.3842 54.4622 32.1848730733
17.7165 19.7867 54.3894 29.1727430696
20.3913 18.1207 55.5159 28.0848329838
19.0338 16.9651 53.2464 30.1997240941
20.5407 20.1797 53.5716 31.8657192954
23.1747 18.3766 55.8527 28.476124368
23.1809 18.4978 53.2165 27.8494111993
14.4741 21.7477 55.7191 29.6697448267
14.1784 22.3818 52.9762 31.8638973696
17.0846 22.2528 55.8498 29.7945958433
23.7077 23.3653 54.7752 32.0868979151
21.1417 22.2387 55.5157 31.2797031694
15.2872 25.724 4.06167 31.1831519392
15.2441 26.6706 7.32494 29.5710336839
13.1628 28.043 6.1555 29.7083974007
19.5067 28.1818 6.30214 28.3676910716
20.4516 25.2131 5.46711 29.1742827146
17.5596 25.1962 6.1608 29.431517622
22.7744 26.9306 7.44988 29.8959753989
13.2238 30.806 6.06838 30.7717833494
16.8609 30.8246 5.12551 29.4161804257
17.0233 29.017 7.17014 31.0502205942
20.7221 32.3789 7.77948 27.0345713336
21.8849 29.9387 6.64937 28.3962851617
20.8038 30.9673 4.03067 28.3394690189
14.7973 32.9523 4.85928 33.6900541503
15.9964 35.5134 7.03246 30.1506338803
15.5139 35.8644 4.2266 32.3104250368
17.9003 32.7337 7.44227 30.2024654296
