38.1212 11.9882 22.0157 25.0321757762
37.8606 8.42311 23.5544 39.011905316
36.706 10.6888 24.296 93.2568469565
30.6206 14.9615 24.0193 56.3078811625
33.1674 13.8179 24.3811 85.6176609812
33.64 12.5516 21.4407 29.6465344191
36.2452 13.872 24.2999 73.6679584407
36.8528 15.4079 22.0197 25.9198442462
31.9488 1.21045 36.1587 80.4435635214
31.416 3.99162 35.9807 70.0622244589
34.6828 1.89514 36.1267 67.4573070928
37.9896 4.04568 35.5472 93.9713823731
37.1725 0.0683183 36.1279 48.8990612343
36.7743 3.72566 38.3299 28.1711951793
32.8188 6.41722 35.5482 97.5062387518
32.71 4.09049 38.3693 30.4772424504
33.7971 6.79891 38.2997 28.9701235705
39.0151 7.91796 38.8368 29.4249045905
35.0934 4.69599 35.9857 58.1107669798
39.3296 6.34518 35.6712 74.2716450247
30.8433 8.63396 35.6475 77.1954797409
31.9378 8.94378 38.3779 30.066867268
32.3357 11.7594 37.7141 29.5600451268
33.7539 10.597 35.8975 68.3503884875
35.2717 8.61912 36.5889 32.304844853
36.2643 11.9323 36.0149 54.3065638001
37.8708 8.69243 35.787 87.7362124584
30.0287 14.7876 38.1272 30.3392562835
30.5514 12.9728 36.0642 67.4000223597
33.7415 13.8553 35.457 118.6207582581
37.3009 16.212 36.1132 65.6777115071
35.0597 12.6484 38.4564 29.6741961452
38.872 13.3265 35.6786 86.9304108716
36.4152 15.1786 38.2772 26.3698582223
38.8052 13.5791 38.8386 28.8359936106
31.1028 2.6102 42.4881 29.8299386376
31.9634 0.261828 41.1763 30.8713378508
33.9782 1.19781 43.0431 28.1985275576
35.7022 3.05729 41.7962 25.930515046
37.5032 1.49117 42.6282 28.1596299193
39.1463 2.55591 39.3227 34.3062686089
34.8309 2.06764 39.1601 26.7111318255
30.8724 6.45492 42.3987 28.8523282683
34.1091 5.28707 41.6847 30.9781725256
30.5129 4.47467 40.4357 31.7156475478
36.6663 6.5531 39.3772 32.3104168854
35.9432 7.58231 42.0156 32.6876720956
32.549 10.3258 42.5329 31.5811534367
30.8827 8.79968 41.0094 28.6447669656
35.2403 10.3381 41.5592 34.2818737868
36.3617 10.1985 39.0503 29.1126001684
39.1597 10.8957 39.2001 26.3159454268
37.2289 11.8911 42.9594 33.3145096293
38.1841 9.01276 43.0581 29.0890349031
31.7339 12.9026 42.0404 31.5849846366
32.4838 14.339 39.6869 29.8729311814
38.0093 14.3351 41.6842 31.4539670081
31.6317 3.59763 45.3754 26.6622585684
29.771 0.794009 46.021 28.282100438
33.4338 1.74028 45.6357 29.2476359403
37.2768 2.30447 45.3459 28.5828386112
35.3175 2.80632 47.468 30.0533951818
32.9133 5.90901 44.2259 34.3242048695
30.4089 7.07125 46.7167 32.2131500657
39.2904 4.18078 45.9629 26.4221226998
36.9603 6.18661 46.2077 30.4914068551
36.8971 4.98353 43.5268 29.0596187082
32.7807 8.23629 46.1349 36.9221270681
31.7243 10.8336 44.9553 31.2193656107
38.1973 8.56977 45.679 30.6521438208
38.7914 10.2245 47.4689 29.5505054675
32.5865 15.246 43.5298 34.581757031
32.5749 16.0942 46.5801 30.1053619893
33.5457 13.1633 45.5536 37.4277813939
38.3429 15.902 44.5487 28.8069219118
38.2199 14.057 46.4039 30.0966115709
36.3606 12.2678 45.8427 32.8793468906
32.5247 0.856352 49.6595 32.3425514434
34.4237 2.82562 51.4279 27.1728877519
29.7618 0.519401 50.6005 31.0875148957
30.9476 2.53769 47.9298 27.1383856793
35.8076 1.18885 49.7106 30.3026001809
38.0949 2.87642 49.6846 29.8412839477
31.8604 4.69338 49.979 34.886035075
33.5169 8.08735 50.5528 30.0205152278
37.7577 5.58362 48.975 27.5488005552
34.9083 4.79462 49.0189 30.3301299201
36.4222 7.16751 50.9878 29.3973467062
34.8944 8.05687 47.9188 31.2625868626
33.8685 10.7219 51.2209 29.8417956902
30.3195 8.84172 50.9412 32.452765823
31.0556 11.3153 49.4854 33.6283645844
36.2809 11.5461 50.4101 24.6802827429
37.7168 9.43794 51.5934 29.8082794965
35.8983 10.7011 47.9247 27.9442169176
30.3384 13.8975 50.1169 29.5558979229
33.4409 12.5089 48.6039 31.7250585766
33.7719 15.3603 49.3913 29.4895976131
30.4686 16.0247 48.3951 30.5701376513
37.2894 15.4993 49.0275 31.3902425579
35.4064 13.9438 51.4689 28.9173672365
38.4803 13.4281 50.0199 33.2879072099
29.843 2.23229 53.2662 29.5277635216
32.1344 3.53635 53.0785 31.0441181187
34.3216 0.280151 56.1748 30.5586840341
30.459 0.690879 55.3699 31.3380732385
35.3117 0.747085 53.4931 32.9625551521
38.5641 3.9683 52.7343 28.2825374153
38.2005 0.465275 53.8537 30.2204560884
38.7534 2.74958 55.3602 28.472289905
36.3968 3.87251 56.3419 31.3436913662
31.9519 6.56713 52.1638 29.1841932873
33.765 4.61391 55.295 28.3088593674
33.9464 7.30348 54.3782 31.0079203756
29.962 6.17237 54.6084 32.7764326824
36.8327 6.56413 55.2303 27.4302705466
36.0514 5.0214 52.8124 28.5298309371
33.1846 10.0847 54.3387 30.8046639021
30.5112 10.8952 55.0266 33.5366339215
37.3769 11.6614 54.5086 30.1611497434
34.7974 11.2137 56.2493 27.7137455623
38.6633 8.89702 54.5747 30.3364766214
33.2838 13.0781 53.4602 29.414918053
30.2623 13.2821 55.9238 30.7482205526
31.4443 14.894 52.4744 30.7491462117
33.1175 13.635 56.1901 28.7164840541
38.8657 13.6151 56.0892 29.4568785085
36.2132 14.6476 54.0853 30.1075150227
39.0259 13.4884 52.728 26.4816419641
32.0959 16.77 7.26753 28.5842140942
32.8611 19.677 7.58171 30.4341292913
36.6366 19.276 5.43522 31.1502652936
35.2382 17.992 7.57655 29.9510336575
33.0661 22.8894 7.4817 29.7605153688
30.3955 22.4895 4.0337 32.0226174977
30.5513 22.8152 6.78795 31.2127653488
32.8127 20.5634 4.72892 30.4205164363
36.9896 22.0333 6.56113 34.4561904559
34.7295 23.2889 5.21738 28.8512747805
38.1942 24.2325 5.32407 28.8062757643
29.7739 26.0303 6.86482 27.9544425888
32.5035 25.7612 7.12033 29.6415227872
34.0231 26.2061 4.86676 29.5337690483
30.3912 27.8641 4.76272 28.2121696651
36.9121 26.665 5.1605 29.624375814
30.4965 28.9397 7.90634 29.6932358909
32.9956 29.9177 7.22881 31.4090703218
33.0972 29.2104 4.47429 28.0745750029
30.1045 32.276 4.92893 31.0474485304
32.6068 32.5435 6.11124 29.5757819697
37.2961 31.2588 4.8812 34.0963918977
38.135 29.0244 6.00964 27.9614961164
33.3734 18.0211 10.2029 29.3454816362
37.925 18.6532 8.73359 31.2123706434
34.937 19.9317 11.7252 30.851825097
31.6017 20.7235 10.4226 31.1842898512
32.5527 23.4913 10.3839 27.8648016998
35.4425 22.5843 11.0173 29.0173707716
37.5748 21.6176 9.29798 31.6588340903
29.9865 24.6235 10.4846 30.7177691275
33.4867 27.5253 9.04314 28.518405089
31.2275 26.9825 11.2232 29.4923950502
37.1864 25.3871 9.7865 36.635540668
36.2612 28.0196 8.18758 32.0440910658
34.5081 25.8009 10.9046 29.7039546166
39.3691 27.4081 8.86387 29.9457364021
33.7902 31.1845 11.5842 36.1174129536
39.2513 30.6448 8.84654 31.2151561392
35.5515 30.454 9.42254 31.0447157402
37.3349 30.7649 11.7436 35.7518489429
33.1591 20.3565 13.9122 30.0944537576
31.9976 18.1938 12.5194 29.986509784
37.3208 19.1801 13.0955 29.8382611916
34.8859 20.2406 16.2839 32.2972014156
35.1782 17.6827 16.4467 27.3529108188
36.2563 16.8454 13.949 33.9902430397
32.8695 23.3433 13.8414 31.6865474379
29.992 24.0842 13.4185 26.7690772457
30.5518 20.7555 15.7012 31.5889852567
39.2952 23.0433 14.4347 26.7626213853
37.1152 23.6273 12.7492 29.9668925824
38.5167 20.4503 15.2796 26.8902128135
34.2474 27.1146 13.3758 30.416208535
31.5556 27.2506 14.1405 28.3729022964
31.6787 25.1694 16.1077 26.7645228757
35.2023 24.8329 14.4738 27.2155324597
37.5493 25.2271 16.1462 28.1271952267
37.7829 28.0411 15.0021 35.5404206987
31.4005 31.2696 15.6909 32.6656832026
34.005 30.283 16.1883 28.1399851236
31.6217 30.0138 13.2132 30.2710287867
35.2582 29.4966 13.8711 28.3233361763
36.3944 31.8584 15.7324 33.3403219752
32.7019 17.1546 18.3094 28.6596973967
33.9875 20.164 20.8904 28.5890780603
30.9447 18.6173 20.1691 30.9373790285
32.8015 20.1794 18.3045 27.6797980537
38.2498 19.8131 18.1751 29.2906839457
37.0022 17.2478 19.1626 30.1896584451
34.0917 24.5067 17.0749 29.3114950766
32.3859 22.8809 18.8325 28.9542671324
37.037 22.2397 17.2938 29.2267638052
35.535 22.4405 20.1831 29.0411101901
33.9894 28.0831 18.2102 34.1811652023
31.2104 27.3264 17.9135 32.7217354372
37.2529 24.7763 21.1613 26.284289292
39.3642 25.2059 18.9952 29.4373500068
36.2084 26.0652 18.2981 27.1909107512
32.188 31.2775 20.0389 30.1159402375
34.2436 31.9236 18.4054 34.3376137784
29.8375 29.5837 17.2519 29.4160447858
38.0532 29.9551 20.3283 30.6468329244
37.4288 28.772 17.7846 30.8414253167
34.1559 20.3845 23.7392 44.8608905439
31.2038 17.6263 24.1929 61.6801486866
34.041 17.7034 24.3834 90.796608539
30.6644 20.3724 24.567 96.9558943453
37.7756 17.1286 24.4463 89.3119359941
37.9038 18.465 21.6785 27.6568822509
34.8411 17.393 21.8776 26.7145595998
39.1552 19.6149 24.2594 86.7993272164
31.4595 21.5313 21.5514 27.6021569452
32.0281 22.8236 24.4822 82.9285857772
33.6539 24.2981 21.2994 28.4129310436
37.0521 21.354 24.0286 67.4247769636
37.2715 23.9315 23.9566 64.2692184833
37.9148 21.4596 21.5533 26.5907285416
34.3446 24.5232 24.0129 50.7741561487
30.5443 28.2691 21.4259 28.0283158846
31.1751 27.1256 23.8235 45.5819221317
34.1245 27.2423 24.687 113.0196614282
29.8659 24.6026 24.2261 76.5015183176
30.7549 24.8177 21.5253 28.3893418168
36.4855 28.5201 23.6736 39.4325242991
34.8074 27.0738 21.3738 30.3609052986
38.1848 27.4479 21.5226 28.0027084302
33.3016 29.4745 21.7554 26.7928200948
32.7515 30.2011 24.4094 75.1087141755
29.8143 29.9465 24.2386 75.2113029615
35.9706 31.1371 21.7009 29.0992200938
36.4721 31.3422 24.3363 78.084279798
33.2655 19.3374 35.9139 83.8942237645
30.4541 20.2445 36.2615 52.9494951981
33.877 16.4574 36.6137 34.9150283655
30.875 16.6515 36.1502 79.8817934833
30.9489 18.0281 38.779 26.4694508691
36.6267 18.7796 36.4984 37.8636814345
38.9752 20.1219 35.9134 81.4172808265
30.6538 23.2901 35.618 98.8931905041
33.4274 23.3644 36.1665 38.3244013927
35.349 21.4737 35.6889 89.6009944352
37.852 23.0153 35.9188 64.8069002741
38.2459 23.3792 38.6495 27.128177292
31.3177 25.9011 36.8605 28.320958391
32.879 27.7625 35.481 105.1873052796
36.0413 26.6204 38.0293 25.8882890963
38.3836 26.0948 36.1117 65.0238685473
35.1112 25.5738 35.4946 101.3994569341
33.2257 31.5322 37.7997 26.3517289292
30.885 29.8564 35.8936 58.1471880513
30.0204 30.0401 38.6103 29.3877763717
34.8647 29.3192 37.1956 30.1873354659
36.8072 30.8512 35.8231 83.4183522123
38.9195 29.1822 35.7701 79.5488215119
37.95 30.0117 38.6057 26.6628347368
31.5862 19.198 42.663 27.634624021
34.0931 16.5943 39.7664 27.3224428008
30.91 16.7421 41.1727 26.3288949707
33.9993 19.2039 38.9459 27.9358156742
37.0882 18.4812 39.2481 25.7210801738
36.4627 16.7012 41.2396 29.4136203562
32.9028 21.3938 41.3328 27.5965317625
31.3673 24.1367 41.5939 29.1055914404
31.4196 21.0478 38.9149 27.379147916
33.1876 23.658 38.8502 26.6891421394
36.8252 20.6167 42.4077 28.8330810459
38.8817 21.0569 39.9195 26.9936863242
35.6086 21.4641 39.9938 28.2604508293
35.7888 24.3259 39.6564 27.4727298508
33.4425 25.0091 43.2532 27.7160808018
32.0615 26.0709 39.5587 31.1463513511
38.5821 27.1585 39.5204 28.1076933952
36.7691 27.3825 41.5657 27.399459437
34.479 27.9082 39.9265 29.3243843457
36.0294 24.8069 42.606 28.2068855097
32.0744 31.2454 40.0448 25.9067365093
31.1023 29.6113 42.3293 28.0517049824
33.469 32.1272 42.7595 28.3613361631
38.1007 31.6881 41.171 27.9040877677
35.1926 30.5963 41.0097 29.1768250068
35.7505 32.4994 38.8723 25.2894494992
33.4836 17.8625 43.9016 29.2118367922
33.122 18.781 46.4805 27.9475660825
39.2707 19.6836 47.2809 32.6041644372
36.3314 18.0159 43.6132 28.6568877978
37.0752 17.9158 46.4482 29.3250076862
35.732 20.3977 46.1356 28.6933649243
31.8586 21.0254 45.0157 29.9475423719
32.3386 23.7439 45.679 25.5193078792
30.4355 22.5568 47.5904 28.2395032294
38.511 22.3983 46.5434 27.3453309859
38.0856 22.5277 43.6516 29.2889879346
34.5609 22.2151 43.6863 27.7162035002
34.6081 23.4213 47.001 26.9137971443
31.1766 27.6413 45.0829 27.6998654221
29.9485 25.5406 43.8454 27.977028551
33.4014 27.8781 43.4073 28.8271042119
31.3297 25.6808 47.5336 26.9899656794
36.9554 24.8751 45.6421 29.4448561464
35.0288 28.5207 45.5162 28.3927157202
38.9283 26.864 44.6284 29.6101441745
33.2917 30.8881 45.3571 27.3707416605
30.4258 30.6246 45.2296 29.0084030382
37.8175 31.2997 44.0379 28.7626319603
36.99 28.802 43.8732 27.035350634
35.9955 32.4598 45.9787 29.1066256311
30.7587 18.122 50.2197 30.0920732153
32.8817 17.1253 51.6658 32.6080217916
31.5621 20.1388 48.6729 26.809892652
34.9176 20.0457 50.4835 27.9384884839
35.3617 17.9938 48.7243 31.1484092046
39.1052 16.9271 50.608 31.2984781719
39.2133 19.6226 50.0912 30.7845908778
32.8705 21.6029 50.2803 29.7588902014
33.2379 24.2826 49.25 25.7701818152
36.5086 21.8229 48.4839 29.9985171487
37.1824 20.6536 51.9826 28.4208411911
32.4735 24.6081 52.0519 32.4564911192
32.9759 27.57 48.9753 30.1487016954
29.6974 25.5375 51.8638 31.1698916889
35.137 26.6642 51.6773 28.3329360215
36.2587 24.6852 49.9966 28.0850275175
37.0369 28.1714 50.2431 27.0979299693
38.463 25.9918 48.4186 28.2759284047
35.2859 26.6756 47.8597 27.6363490992
30.5586 30.7184 50.8051 28.6731288471
30.7887 29.4452 48.3478 30.5105741582
33.0711 29.5259 51.4762 31.7707659145
30.4108 32.2258 47.9275 26.3942708168
38.7568 30.1052 47.8772 31.6150769799
35.7514 31.3146 50.5948 28.7676651705
35.9225 30.0991 48.0439 29.7562920787
33.3904 19.3928 53.2616 30.1442250238
29.6819 17.4648 55.7153 30.8962119022
32.4583 18.24 56.0279 30.7892214714
35.998 19.1321 54.0588 28.4128369732
37.7387 17.0236 53.092 29.9001414747
34.5353 16.4159 56.1458 29.9263866619
37.7408 16.9632 56.4267 28.3372913455
31.815 21.816 53.1372 30.4945244547
32.8522 22.6289 55.3988 27.3758624561
35.4496 20.8108 56.0948 27.4847240745
37.2513 23.5502 52.5101 33.1699703547
36.9223 23.2474 55.6196 29.5658363559
33.373 25.1835 55.2499 25.2303263284
32.9902 28.1066 53.8957 30.3889289213
30.521 26.1645 54.5912 27.2230795078
37.2964 27.6667 55.3023 29.977324761
35.7271 25.4482 54.2375 27.5729677158
30.1446 28.9009 54.4946 31.2813207057
31.464 30.788 55.9487 29.5377737026
39.0781 31.5778 53.2617 28.6888293932
34.7977 30.8257 53.6794 31.5096803763
37.3759 29.3619 52.9213 28.4479931067
35.8073 29.7439 56.2084 28.6414452556
31.0451 35.6315 7.36326 31.6745714733
33.4127 36.6461 3.71161 35.8575506824
29.6586 35.062 5.12766 33.1891619687
35.4817 35.0851 6.63594 32.6646289583
37.5836 36.7345 7.8906 31.2648388866
34.968 33.0023 4.62363 30.6680861856
33.3203 36.8131 6.60557 29.9828676891
32.0765 40.6117 5.44147 31.4451238842
29.8366 40.779 3.59639 30.2030848677
33.9872 39.3654 4.07889 28.9392002454
32.4687 39.5099 7.80079 29.2393397922
38.4898 40.2574 7.89715 27.1159955792
36.165 40.3445 5.2748 28.7359855487
37.8501 38.2644 5.35772 31.8217145447
32.7562 43.7746 5.30704 35.322527402
34.9089 42.8605 7.2584 28.818868127
37.7294 42.722 6.72191 25.7640822163
30.8985 46.036 5.63403 31.9443528765
32.8188 48.2281 6.19975 31.7277593658
39.1852 46.9615 6.22303 27.8322380926
37.6328 45.0969 4.90216 28.4172334974
35.2577 46.7223 6.67522 28.9769375485
34.6592 45.1657 4.06141 29.5944548724
38.3393 48.9784 4.14834 27.9091039083
31.9483 33.3007 8.7681 33.7212950658
34.4169 34.2335 9.066 27.0184315287
34.4629 36.7088 10.1512 29.0007004579
37.2811 32.8487 8.56833 32.3561580889
35.1634 33.5257 12.0979 29.6419708668
37.4801 34.1569 10.9659 31.4349627297
32.1306 37.9467 10.1757 28.3938135836
29.7913 36.8176 9.74099 30.891245655
32.1982 39.7527 12.2885 28.2136390143
36.2932 38.6994 9.19779 29.0394491232
36.766 39.468 11.8004 30.4721019914
32.5011 44.5388 9.22514 30.0056620599
34.2018 41.0921 9.14734 29.7198528631
33.0352 42.5296 10.9697 28.0559329096
30.3169 42.6 11.8135 28.9924274885
35.7466 44.7501 9.42161 30.3667179375
37.3642 42.1624 11.9964 29.5415328741
39.2596 43.306 10.4668 27.5425462017
30.4335 45.9203 11.0841 30.7267469563
34.2277 48.1551 11.8939 33.6013072988
33.4839 47.3003 9.20929 31.4939416581
29.6493 48.0892 8.8339 28.321222441
38.4916 45.9483 11.297 29.3657257955
37.731 46.7552 8.68924 28.1816338506
31.4111 35.4882 13.7535 33.5197092732
34.0364 36.0539 13.0761 31.7941006978
31.5896 33.8631 16.0291 32.340762605
39.1829 34.6375 15.1494 31.1979497895
36.2693 34.5135 14.7656 30.2835630663
30.6313 38.1661 14.2292 30.2160268947
31.1106 39.115 16.713 36.8101682093
35.6388 37.5398 15.5888 31.4450763219
38.256 38.6862 15.5065 31.5622980657
34.6038 39.4072 13.5588 29.6176508731
33.716 41.8574 15.0538 28.6543675066
31.7288 43.398 15.8365 29.259378217
29.7095 44.0583 14.0053 30.7673869991
36.4941 42.9806 15.1583 32.4834865167
38.7102 41.2956 14.5149 30.8890967951
35.1999 43.8745 12.4324 29.9035630619
33.1267 45.9466 15.6156 32.9923678503
32.033 47.1487 13.2394 31.8652056076
36.3146 46.2266 13.125 28.1535708769
35.547 47.6168 16.6757 31.481043211
37.9213 45.443 15.5264 27.4340987584
37.5483 48.6329 14.5355 26.8329385955
29.534 34.9573 17.6175 32.4135207235
34.1321 34.3933 16.8215 32.9327662128
31.3828 35.6384 19.7773 32.4946205439
38.8765 33.0192 17.2791 36.9364943907
35.0111 35.7143 20.7066 31.1063326851
34.0024 39.9028 16.9068 26.5559440254
32.3214 38.8076 19.8575 26.8366665613
34.0774 36.98 18.307 29.7759766354
36.5634 38.1729 20.9853 30.2939832121
36.4066 39.2204 18.2846 32.8072044673
29.8324 41.5846 17.4235 27.5493275841
31.8106 41.4688 19.4451 24.5767902538
30.4637 44.4263 19.0202 30.4039895573
34.0212 42.7036 18.2534 28.2115430645
36.7659 41.9746 19.2908 30.263474334
38.6982 43.5156 18.3068 29.347220009
31.961 46.6816 17.9784 32.2810092939
32.1764 46.6162 20.9723 29.9812957152
34.6516 45.4081 18.889 29.5614532398
37.5296 46.0944 18.3466 28.172602688
31.2963 34.479 24.3125 82.2036350978
29.6618 33.2284 21.6161 29.3146782994
33.8885 32.9363 24.3257 71.0001913674
32.64 33.6233 21.7674 28.971427351
34.6756 36.0596 23.5779 37.6629538203
38.5388 36.5091 24.5839 99.7859198051
37.0537 34.4627 24.2657 65.0233745943
38.901 36.322 21.6179 29.1604672549
36.9639 33.9344 21.3899 30.5502568157
29.7646 38.572 24.4134 96.1364382013
33.9549 40.0264 24.3487 69.8635963182
32.2879 37.3948 24.0267 55.9800454805
34.243 39.8508 21.4531 28.4308005824
30.0053 40.8301 21.7408 30.4882945961
30.2761 37.6009 21.5129 29.2255695521
36.3716 38.1496 23.8174 41.6209774394
37.5698 40.8049 23.904 52.593326313
31.2725 43.6486 24.2294 84.250210094
31.3923 40.9757 24.2747 68.040287073
32.3043 43.6713 21.5375 27.6721110124
37.722 42.7878 21.7236 25.8379538434
37.9534 44.4672 24.4196 58.4273184978
35.2948 42.5496 24.678 92.7345030193
34.8465 42.5152 21.898 25.1638828761
29.6156 47.9614 24.3189 98.141261174
32.1719 46.932 24.1577 67.999638296
34.7531 45.3213 24.2055 58.3322681609
35.5735 48.5475 21.9028 27.4671565425
37.1156 47.2808 24.343 64.5243708169
35.7093 45.7453 21.5671 25.5292170425
38.4465 45.6527 21.2764 25.9651479574
34.1222 34.5356 36.0793 48.0427560265
29.6459 34.2924 35.7032 65.320320542
31.8826 32.6982 35.5441 99.1904993133
36.6021 33.5802 36.0012 62.5509148955
33.2781 40.746 38.3011 26.7055214975
33.9216 37.3009 35.5325 96.8504828718
31.498 38.5568 35.6765 61.4562724727
34.1539 37.7052 38.3031 28.0724777806
31.0691 38.6499 38.6446 28.8980068257
37.2264 37.1228 38.5189 26.4466915729
36.7596 38.2515 35.8555 69.3553348441
36.104 40.3088 38.7979 24.8875051363
39.1724 40.4222 38.7346 26.7926578583
31.646 43.6803 37.7895 29.1855225008
33.9204 42.2256 35.7092 74.7284460147
31.1796 41.1976 35.662 77.6632701172
36.3125 40.9887 36.1853 40.6417694975
34.7855 44.9157 35.77 65.0598237787
38.5687 42.3879 35.5827 106.4219965244
30.3966 47.5633 36.2414 58.6453284767
32.8111 48.7714 38.3933 29.3435586896
31.7861 45.3488 35.6593 103.7409729278
36.4419 48.7171 38.7474 28.8630612726
37.3155 46.1516 35.2847 113.6066320101
34.7265 46.7628 38.0393 32.1446218498
39.34 45.1459 36.6994 31.1389358861
31.0148 34.1035 40.2529 29.2357887363
33.6421 34.6338 39.0398 30.0476919191
30.6064 32.9239 42.859 31.3167338403
37.6552 34.4349 41.8073 28.3175803205
34.5331 36.0253 41.5515 29.0992371424
37.6467 34.3544 39.0661 25.6999880809
31.878 37.0627 40.7853 30.8206788137
36.6934 38.0923 41.2763 25.7117147485
34.5661 39.8542 41.6987 29.606424184
39.3151 39.4803 41.4629 30.2276657235
33.8762 44.4507 39.2293 28.275881996
30.3337 40.9357 40.3771 31.7679553194
32.6425 41.8944 40.8573 29.3394075658
32.9009 44.8904 41.7613 30.5907381095
39.2687 42.0584 42.7905 28.8265562796
36.2835 42.9471 40.0072 34.4551734485
36.3788 41.5744 42.7585 27.7609856183
38.5297 44.3477 39.1815 31.610548969
30.1236 44.9745 41.804 31.9203474864
34.1143 47.3334 42.7883 29.220639378
30.0186 47.5706 42.5302 27.4926465992
30.158 47.3857 39.2157 29.646701916
38.3576 47.0435 40.186 33.1972214107
36.6013 47.8418 42.2202 29.7848136409
32.9997 32.8614 47.1389 27.1393894779
33.8157 35.6489 45.6556 27.7991175436
31.0709 35.3739 46.3102 31.3660065468
35.114 33.9582 43.7556 28.8647336741
38.0269 36.5965 43.4295 32.6163416124
33.4092 37.6479 43.7713 28.9349895023
30.4636 37.8404 43.2732 29.4804991326
31.603 38.4613 46.2073 30.1917823767
35.7732 36.8087 47.2225 28.3497005478
36.128 38.6211 44.6536 30.1294525288
38.3853 38.0336 47.2979 27.8886262108
30.8482 41.6688 45.3017 31.6346977085
33.2991 42.6342 46.0393 32.9271070388
38.2115 42.5631 45.7356 28.6872759957
36.1328 41.0476 45.8896 27.1016154595
34.4674 43.4019 43.7502 32.1055212482
33.5909 47.6722 45.6094 29.4499081486
30.8405 47.7275 45.2568 28.9892392411
30.4396 45.4332 46.4889 30.1113544725
38.3405 48.7834 45.9568 31.9302575419
37.5756 46.7365 44.4596 30.376657515
35.3681 45.5399 45.5257 28.5719348819
33.9896 33.4727 49.4619 30.5791756274
31.6834 36.2289 51.1731 33.334685159
34.2366 36.6204 50.1203 30.7416632708
29.9287 35.3539 48.7684 29.1455014171
31.9342 33.2468 51.348 30.1618844521
38.3629 35.5612 51.516 29.1824092062
38.0127 32.7584 50.9842 28.3110736226
36.6836 34.1503 48.3239 30.4585154532
29.7646 38.421 50.7804 34.7499954089
33.5629 38.5157 48.2515 36.8203051307
37.2894 39.1897 49.7959 28.5836201074
36.0397 37.289 51.6649 36.4395111384
35.3744 40.6358 48.3412 29.2449025541
32.6721 44.7606 47.9922 29.300610164
32.5907 43.2767 50.9227 34.7408665007
29.8705 42.6186 50.4099 31.0765815681
36.6303 42.8654 52.0535 30.0838927931
34.9626 42.9006 49.5754 29.1723378055
39.2065 44.3831 51.2049 26.0687280322
38.5919 44.1706 48.1938 28.0898618199
38.5075 41.0372 51.1721 26.5142821047
32.3588 46.0992 51.103 33.889256612
29.7131 46.8457 51.9263 28.8108327379
33.4298 47.5705 48.5539 29.6304483441
35.9663 47.248 49.9002 29.2111159525
36.0384 45.0667 48.2801 28.0390235739
38.6514 47.0694 51.2288 29.7286037242
32.6656 32.8175 54.1763 32.3895575002
30.8212 35.2336 53.7691 33.4837054191
37.4484 34.8833 54.4921 32.8887310462
34.681 34.3421 55.3572 34.4110950863
38.7174 32.838 55.7117 33.1294904858
30.5872 36.7936 55.9752 33.6992099365
30.9745 39.1264 54.4939 33.736495818
33.6286 40.4075 54.4356 35.7337631334
38.1314 37.2992 55.7969 32.4060341454
36.0 39.9971 53.0424 32.1813962279
38.198 39.632 54.3055 28.290504787
30.3612 42.7818 54.5738 31.6062506665
29.6015 44.8214 56.2475 30.7690366718
32.9344 43.1363 53.8658 32.6332536773
35.7934 43.5507 54.8907 30.014626781
37.3007 41.5053 56.0904 27.6071123249
30.4242 47.059 54.5423 31.4975831282
33.3746 46.9021 54.9044 32.5937892251
34.897 47.3845 52.6048 29.0511690094
37.1787 45.8094 53.1803 27.0733307962
38.5865 46.6234 55.2451 28.4797841539
39.6986 1.83674 6.26243 28.3684375109
41.3414 0.0602383 7.65647 31.4749469607
41.1638 3.94594 7.82781 28.0570901972
40.8372 3.4384 4.32895 27.7653924661
43.6517 0.176712 5.94729 34.9524733066
47.4714 1.84637 7.64008 36.2913962932
45.1739 2.77865 6.30906 31.5057685503
47.904 3.72427 4.596 32.4296979767
42.3782 5.43637 5.20428 27.3064292305
41.3674 7.74189 3.67533 28.1619636021
47.8038 6.3727 4.46974 28.7402233389
44.674 6.75069 7.575 29.7542773633
47.5692 7.15982 7.05204 31.725225046
44.7137 4.3808 4.19026 28.9868811077
45.0162 7.18491 4.21643 28.9765420735
43.2739 8.71384 5.93684 28.5566191847
39.7736 8.72718 5.93325 29.3100572951
40.4628 11.9743 4.68769 29.261799841
47.9709 9.86752 6.53931 30.0787133703
48.3114 11.7444 4.24915 31.6078107582
45.9623 11.8152 7.33048 25.7816644922
45.3205 10.6148 4.46942 30.5079987732
43.1653 12.5613 3.78202 28.6243176945
39.9621 12.9956 7.48488 30.0738949501
44.1737 13.7744 6.05659 30.3320721021
40.5293 15.774 6.87365 29.3519452836
43.1859 15.6907 7.73665 29.8926734657
48.1131 14.3389 5.5754 30.6892393312
45.7966 15.6159 4.6657 27.0713874705
40.083 2.07395 9.80352 30.2119545613
42.1498 0.137586 10.8763 33.563765962
47.7721 0.601321 11.6091 31.13428003
47.2955 2.85195 10.4076 32.8750326187
44.6255 3.08434 10.6488 34.1755092363
40.2954 5.90256 10.0229 31.9286046509
43.8663 4.23695 8.26684 30.5295904136
41.9128 8.02087 10.9985 30.3846559718
48.8542 5.3073 11.3819 30.5610794097
44.4659 7.92947 9.9537 27.8551798527
46.1645 6.8141 11.7619 28.4510549567
43.2828 10.2013 8.22553 28.6760881501
40.4753 9.4781 8.54964 32.3385673564
48.1461 8.60699 10.2158 28.78425818
45.861 10.6688 9.90445 28.8431372599
39.7519 14.7356 11.978 30.999476607
41.7692 12.2739 9.56772 33.0166373397
42.8402 15.1621 10.5651 29.8793869717
47.1659 13.9541 8.11527 27.8329896615
45.2415 13.4834 10.8764 29.5284128795
48.5277 13.1043 10.3484 28.0426928403
41.0774 2.24685 14.2234 24.1969335433
43.8372 3.1016 16.7265 29.024111693
40.452 0.101468 15.3774 25.6223765994
43.1472 0.177489 16.3856 27.7683102265
43.4697 1.5823 12.882 30.1952220278
45.8167 0.0831257 13.5502 30.3837928009
46.0558 0.576645 16.6309 29.3098926452
43.0487 6.3726 16.0179 27.9408662926
41.3771 5.02909 12.7707 29.460097808
41.0759 4.23095 16.1608 29.0895435197
39.7033 7.48076 13.4862 27.9860815422
39.5877 7.15562 16.3256 29.6252683144
44.2021 4.98834 12.7931 28.344989163
45.5327 5.00592 15.0679 30.9804240829
48.2322 4.42751 14.1765 30.6575578552
42.6085 8.202 13.8273 28.1665637787
42.8065 11.0527 14.2291 34.5116302835
41.49 11.58 16.706 32.5221562535
40.7754 11.7561 12.4485 35.7950255928
45.3941 10.9976 12.9864 30.1279842713
48.4288 8.79258 13.2483 29.0358842183
45.6209 8.66716 13.9713 25.6903537238
45.8863 8.98764 16.6714 32.0441174581
46.9883 13.0151 14.3441 27.676075505
47.2327 13.8534 16.7737 33.8833439844
44.6809 15.1501 16.2426 32.1601076043
47.993 14.655 12.6353 28.1776607565
44.3919 15.1039 13.4663 32.2620786706
43.9331 3.65465 19.4145 29.8018258764
39.8279 3.71537 19.0288 32.458259153
43.4819 1.22144 20.6965 30.0328429722
46.0591 0.772453 20.9184 30.149994184
47.0351 3.22411 19.7598 30.379652555
47.0714 3.04197 16.8367 31.1645624602
42.1935 5.66944 19.2601 28.7956710735
48.6493 7.52313 20.1221 32.5005089564
48.2721 7.81519 17.2047 33.7327469118
40.9742 11.8837 21.0522 30.1938439144
43.7558 8.23027 18.3789 32.8709017019
41.2828 8.99316 17.696 26.7905571582
40.6965 9.14042 20.2518 27.0814915843
48.4585 10.5931 20.3464 27.984351187
44.9879 11.4989 20.2515 31.8304606849
46.7651 11.4086 18.1364 32.1275017345
39.8787 14.7118 21.0548 26.5603450828
43.0648 13.2582 19.707 31.1042124777
42.3019 14.1776 17.3602 29.6054317465
40.9266 16.2353 18.9193 27.4646708453
41.0923 3.32442 24.1014 74.4693391148
43.8516 3.24792 22.7997 27.6882645629
41.6597 0.836011 23.0096 30.3880104413
45.8595 2.45208 24.2506 84.7667925863
42.862 5.57011 24.314 74.1365958107
40.2707 6.60412 21.6036 30.347459262
40.7502 7.44247 24.2126 84.6207943386
44.0385 6.29618 21.8156 26.6603598344
46.8129 5.15935 24.2425 68.1345986697
45.3315 7.70629 24.4553 85.5762298723
46.6906 5.56237 21.33 31.7994152836
42.9156 9.16805 24.2006 73.0779097787
42.0812 11.9243 23.8845 42.1318892124
43.4849 9.13979 21.2834 27.333726839
46.4854 8.9748 22.3472 32.8163903606
48.6122 9.41622 24.3676 89.7910936059
49.1567 12.2256 24.2647 61.0742439076
39.665 15.1757 23.9736 37.2085624477
39.5117 12.3925 24.4991 97.3249587748
42.75 15.3994 21.5516 28.3181225265
43.7234 13.8047 24.2728 69.9395072558
42.152 15.9997 24.6088 106.3355439828
47.2921 13.0172 21.5727 31.3521665211
46.4997 13.8334 24.347 85.5523361925
47.5404 15.8941 21.2432 28.7667207769
43.5115 1.6795 35.6789 83.1306475043
40.6977 2.72363 36.2587 45.3493921822
43.3684 0.889442 38.7603 31.1314470582
39.7559 0.0954017 35.5243 101.0811563617
40.6391 0.0725091 38.4207 27.0978561963
45.7834 3.50097 35.6623 73.6015779898
48.1424 1.6347 35.7962 67.5605418286
41.8514 4.14372 38.5946 29.5617032303
42.1215 7.21178 35.7103 66.6768009748
41.7104 6.91006 38.6107 29.1913578903
44.9071 4.09328 38.4541 33.5752792432
44.5435 5.98521 35.506 97.488981963
48.2536 4.94871 37.1271 29.7828485759
47.8618 7.06835 38.5131 27.1192555875
46.4512 7.99983 36.4191 40.3434402683
44.6015 7.0391 38.789 28.0073348842
42.7578 9.86486 35.7289 82.825338109
42.1594 10.9966 38.3633 31.083689321
39.7454 10.7449 36.262 43.2268162889
47.3512 11.9122 37.8195 32.1291004409
48.5715 9.99029 35.3213 107.9090283939
45.3804 11.1569 35.6926 75.6894011899
43.2802 13.5679 38.6499 33.6493756175
41.4084 14.4703 35.872 69.7905665819
44.2143 13.701 35.8423 59.2230278516
46.1826 15.3824 35.4803 102.2628273313
48.7567 14.186 35.8575 69.8224198055
40.3548 2.01342 42.3626 27.27116263
43.5819 0.690612 42.9006 30.1474442498
44.6856 2.37892 40.9808 29.7704597924
47.335 1.26678 41.4867 30.5186913247
48.1576 3.23072 42.992 31.2549505825
41.4929 4.3753 41.4202 28.5574386944
39.5615 5.45595 43.2288 27.2577355837
44.0106 4.82478 42.7639 25.0579107818
40.3043 7.64137 41.5728 29.4533263382
48.1579 5.7972 41.4215 31.4309127006
45.4884 6.88602 41.617 30.3878267725
40.3753 10.8897 41.9028 31.138016467
42.9191 9.88712 42.7591 31.2846010318
43.9929 9.61495 40.1424 31.3804812024
46.3046 11.208 40.1865 31.6389089291
48.2578 10.5852 42.0035 30.6767623909
40.6503 15.661 42.1044 25.851873805
41.1037 15.2213 39.0263 28.3526828432
47.6909 15.9591 39.8162 33.2076120822
45.6144 13.9279 40.7234 32.5176211942
47.917 16.2913 42.6744 28.2409885004
40.8666 1.10481 45.0939 28.3718562185
42.3634 3.94834 45.1322 30.4161203156
44.0654 4.05922 47.4445 26.3704101132
45.9164 1.88463 46.3034 31.0046189995
46.0074 3.95816 44.4448 28.6177434105
40.5222 6.72341 45.7285 29.6812771217
42.5367 7.08247 43.6841 27.859845585
45.5809 7.88944 44.2932 27.8941309869
47.0503 6.37551 46.1171 26.1167121028
44.16 8.38417 46.6587 29.1927892673
44.2146 11.7266 44.3138 29.1342286277
43.2059 10.9713 46.5645 30.3458233317
48.2458 10.8997 46.8284 29.9484049798
46.8722 10.5207 44.3177 30.9054519121
40.1924 12.9306 43.7061 27.9212267922
42.8056 14.1264 43.447 30.3095395918
42.5904 15.9406 46.0748 34.6927231202
40.2082 12.2825 46.4865 31.5209484332
45.5558 16.1393 45.9704 29.5395551251
48.8691 13.6802 47.0299 30.8514635361
45.9529 14.398 43.5071 28.0488922894
48.671 13.7475 44.3596 28.997484601
40.0886 1.88672 48.0722 27.2384903057
40.954 3.13413 51.2523 29.3534199241
42.627 2.30283 48.9484 27.9353460953
46.2614 3.17621 51.271 30.3545918656
48.3948 2.02169 48.1822 28.4668730781
45.4453 1.27837 49.3053 28.6161422576
42.4524 6.33597 47.9225 27.2963966295
40.5641 5.65415 49.627 27.8573686111
43.2654 7.61724 50.3466 28.8359449267
48.7361 6.91026 51.1642 27.8640536778
45.8757 7.80928 50.5941 26.8637599455
46.1987 5.11363 49.021 29.9288357654
48.9575 4.88687 47.8823 27.7874134776
41.8763 10.2434 50.5775 30.2859926998
39.7172 8.95165 49.8456 31.2581577849
45.6804 11.5987 48.236 30.6094493736
46.0407 10.6167 50.8444 29.1081363078
46.6157 8.38685 47.7796 27.3080508443
48.3526 11.05 51.9246 31.1503361164
43.1673 15.1455 48.5892 31.5099637185
42.6817 12.3732 48.6755 30.911004684
41.7591 15.9375 50.9424 30.5303103811
48.5259 13.9555 51.7707 30.6996208733
45.8141 14.5105 48.7637 32.5440220511
43.8717 2.9931 52.5663 32.8890107638
42.6133 1.3994 56.435 29.6604091356
47.8116 0.957572 52.999 30.8174836702
44.3336 2.34094 54.9124 31.3264564497
48.902 3.1394 54.9347 30.3190619867
42.9556 5.89328 52.4959 32.881712285
40.3083 6.3432 52.6312 31.2946425231
39.7417 5.79177 55.3984 30.0874691812
48.9032 4.26902 52.0965 27.8038824866
47.4878 5.98962 54.6817 31.9454470456
44.8662 7.42273 53.7323 32.1695105969
40.6106 11.1199 52.9939 29.1908456859
41.5484 10.203 55.5095 28.1960125449
43.746 11.8802 52.3252 28.0119666758
46.8728 11.4807 54.4605 30.1894029132
48.1697 8.66116 53.6716 29.7373001741
44.4258 10.0837 54.3467 28.5331005907
41.9898 14.0286 52.8635 28.5232693303
40.0231 16.1732 54.2852 26.6303752802
42.7283 14.8533 55.3361 28.8407684457
45.6557 15.446 54.9022 28.2121677053
46.1919 13.598 52.8982 31.1387134097
48.3072 16.2889 55.5424 31.3306375864
40.0106 18.4523 4.54584 27.4970078874
40.2827 18.5633 7.29607 33.8051746809
42.6587 17.4112 3.87308 32.5508081959
44.7816 19.9597 5.05106 28.4608313981
44.8938 17.9031 7.84449 27.967654479
46.711 17.9245 5.80726 27.152848239
48.6635 19.2248 3.91587 31.4539112638
48.2613 19.5836 7.65917 29.9151325549
42.077 20.7136 6.41909 32.1834647483
43.0895 22.993 4.42093 31.6835722563
41.2104 23.4434 7.69359 33.4410253819
47.2624 22.1297 7.29661 31.1265384755
46.2393 22.3326 4.68841 27.9061864364
40.0703 25.8476 6.858 28.7801607944
42.0622 27.2958 5.67895 26.2759863347
45.5388 26.6785 7.00437 29.9814461195
45.651 25.2134 4.43174 31.875262956
48.3432 26.2814 6.9108 29.5183349113
40.5185 28.9386 4.33453 30.3882343479
42.195 31.7094 7.83167 28.9630079098
42.5089 30.6234 4.66081 30.6255856918
44.6426 28.8741 4.8527 29.2259070759
49.1211 30.4955 5.46254 31.2168902986
46.641 30.8913 4.27424 31.1918094142
41.7497 17.4782 11.8505 29.7474845418
43.571 19.7084 11.3757 32.9963965376
43.8459 20.2087 8.48922 30.9994921025
39.396 18.8476 11.5566 29.9956610123
46.4503 16.7994 12.1165 28.3285052179
48.7835 17.6911 9.54509 32.0595215504
46.2322 16.3505 9.53584 26.8824175496
39.7819 22.8121 10.1273 33.2013604585
46.7602 23.6522 11.0842 35.307469637
45.257 22.5286 8.91309 32.4656981694
43.6261 24.792 8.0862 31.3942617192
43.7692 26.0818 10.62 32.131211503
41.4815 27.7348 11.1303 31.0091305411
39.4462 25.1819 11.7932 34.8688518016
47.566 26.3671 11.7331 33.1526265252
45.5586 28.1444 10.6898 28.3706409026
48.4009 27.5882 9.18282 30.1508551245
40.5561 30.4919 11.1054 26.5189940354
42.2941 28.8933 8.25375 29.3248562282
42.8139 32.1103 10.5359 26.512697938
47.9182 30.3764 9.98436 30.3376751895
45.0365 29.41 8.1122 31.1563675933
45.46 32.198 9.40031 32.4232813313
41.1533 19.1037 14.9613 30.3219881952
39.4796 17.4525 16.5433 31.1003245583
41.8987 16.3752 14.5555 31.9643702233
46.0107 19.8536 15.6662 32.9546643185
48.9959 17.9505 13.238 30.1991314646
46.0451 19.7162 12.6486 32.9206743982
48.8159 19.5234 15.5884 30.1123780503
43.1871 20.8135 15.6607 27.1351846029
43.1147 21.9066 12.9989 31.3308575307
41.8941 23.2004 15.7835 26.987565069
40.2945 21.239 12.4272 27.4956398752
44.4909 24.2949 12.701 33.4493555305
48.15 21.546 12.5198 28.8113058604
49.1254 22.1879 14.8589 28.1944251684
40.3481 27.4331 13.8726 30.4291617619
41.8754 26.2382 15.947 33.9457402319
43.65 28.3123 15.2862 32.5606602996
44.9136 25.3891 15.1822 31.3941274096
47.6432 26.3693 14.9889 31.4434717407
41.4074 30.0379 14.2639 29.2708299908
43.4118 31.5394 13.034 30.2125892911
45.59 29.7624 13.0732 31.531748076
47.8212 29.0946 15.035 30.307556253
46.2988 31.0721 16.6111 32.9284570746
48.562 30.7961 12.742 29.3260049023
43.3814 17.8118 19.131 30.8137694258
40.8778 18.3527 21.1039 30.2551063582
47.9984 17.2966 18.7972 27.427676111
45.6248 17.5047 17.4169 34.3123205391
39.9148 22.9289 17.6817 27.7653214902
43.0957 20.7017 18.4448 31.815868513
40.7654 20.8293 19.4262 26.3864659482
43.3838 22.1941 21.1908 29.712256993
44.4928 23.6762 17.2942 31.7297084641
47.1195 22.6537 16.8633 32.3133318399
48.3377 21.1474 19.4096 30.5262331823
41.0514 26.5837 21.1424 27.7565219521
40.258 28.2159 17.58 28.7392739664
46.1535 28.2299 19.4742 33.8689676198
48.5311 24.5739 18.7666 28.5159451925
45.7528 25.0797 19.4466 31.5508273124
40.7544 30.8929 16.8716 32.6396134659
42.6721 31.4811 18.6116 30.1876874029
41.3917 29.0489 20.0811 28.0874011851
44.3797 29.5461 17.8358 30.8773403836
48.4173 31.8134 18.4671 38.8755220586
43.2938 18.236 23.7115 42.4977683913
46.0316 18.9358 24.4384 78.2086768089
47.519 16.5852 24.2199 60.900953502
45.0045 17.2863 21.3578 30.1348832835
48.7837 19.8918 24.0598 63.0748097099
47.208 19.3054 21.3265 28.153342457
40.0391 23.135 21.3182 28.1441323474
41.7725 20.6015 23.2555 34.192581704
42.9642 23.1004 24.2495 73.5333927153
40.0778 24.0442 24.2119 86.4269307747
45.5903 21.8438 24.6694 89.9044702255
46.8756 24.251 24.5265 80.3609049076
47.3149 23.788 21.6239 26.6728198645
45.8082 21.6021 21.8783 27.7957641153
43.705 25.2667 21.3309 30.6128623938
41.2947 26.7023 24.0071 61.7044698936
43.9819 28.2701 21.4426 27.7417419408
44.7152 28.4765 24.1207 61.9691791771
44.5044 25.7502 24.0168 52.670061068
48.8306 26.9563 24.4391 77.9245043912
48.2399 28.2272 21.6314 30.421941975
42.4159 30.3878 24.5047 100.1640691771
39.382 31.8703 23.9277 53.2130157096
39.6109 28.8743 24.2138 82.9254795061
43.1126 31.5028 21.8137 26.0513536562
40.1975 31.819 21.2963 27.0530610208
47.4932 32.2945 24.3072 85.155524154
47.2707 29.5436 24.192 64.1734109679
45.9613 30.7342 21.5993 30.1090153288
48.6647 31.6554 21.2321 26.7119372293
42.7559 18.7392 36.0584 68.2901926462
40.1674 17.0386 35.8612 75.1351260238
45.5972 17.9558 36.0007 56.7073677085
47.8334 19.4989 35.9122 64.4970230595
45.7101 17.7141 38.587 33.6229940431
47.6324 20.1675 38.467 28.5388755679
43.1044 21.8541 35.6963 91.4279887889
41.0996 20.8313 37.9685 27.3502148704
40.7822 23.5229 36.1015 56.9231226327
43.7419 22.6477 38.3782 29.3066028879
48.314 22.2296 35.4571 85.1676889335
45.6631 23.3986 35.6953 71.8952567925
49.0625 24.3376 37.9792 29.0902907921
46.9252 22.7415 38.6834 26.0034430615
42.194 25.0578 38.0619 28.5717496127
43.066 26.1593 35.6413 96.1134785151
45.78 26.2258 36.0383 62.3750182686
48.4131 27.2295 38.4111 26.4707506053
40.9497 31.7425 35.5857 80.4113500693
42.0894 28.6819 36.0384 48.7716261238
39.698 32.2956 38.2931 25.7448469802
44.2723 32.4761 38.288 26.1864246302
40.9984 28.988 38.7007 29.6991522642
47.5392 28.7405 36.2087 54.2245109749
48.2082 31.5063 36.0715 52.8325653166
44.4595 30.2428 35.6615 87.038629111
45.6129 29.7049 38.416 26.5855147949
43.4851 16.4226 41.2056 28.9591623768
39.8369 17.9827 42.1018 29.7173359638
39.8298 18.01 39.1627 28.0257345752
42.8897 18.09 39.1322 27.4686922426
48.9683 18.6678 40.5159 27.8181188249
43.0863 20.5807 40.5045 30.2480407587
42.9102 23.6827 41.319 27.6322824499
40.5975 21.7463 42.1166 29.0671467866
45.2797 20.6962 42.4734 29.9571617379
47.1221 22.5462 41.5055 27.6157047953
49.1442 20.7716 42.5668 27.5487977025
39.9704 25.0398 42.9066 27.5841628929
43.868 27.7971 39.5793 28.8200942908
40.1813 24.8746 39.9998 28.4169373345
42.6985 26.7756 42.2833 27.2300103101
40.6416 28.583 42.712 31.2501682412
45.6293 24.9199 41.744 26.4275640433
47.2292 28.1073 40.9591 27.3434757183
45.9105 25.8548 38.9209 27.2441576242
41.0642 31.4892 42.1869 31.2079503752
42.1609 31.2439 39.5412 28.0850161744
44.8396 29.7959 41.7299 31.6087327197
48.3659 31.1058 42.4974 24.9535248253
47.7827 30.7752 39.9834 26.4556015723
43.8605 17.5615 43.569 27.9261952108
40.3126 17.6695 45.5355 32.4444631042
41.688 19.6414 43.8514 29.7269928553
43.6012 20.3921 45.7651 29.5971266857
46.7113 18.5535 43.7065 27.3536084
46.0203 18.9213 46.4559 26.5960784563
48.9228 20.0137 45.3333 27.8448986989
44.0826 22.507 44.1016 25.7928195335
40.827 23.4889 46.8746 30.5349675103
46.3709 23.4946 45.134 28.9446553779
47.8091 22.0378 46.9457 30.9732639621
43.7445 26.5052 45.7014 28.7210714577
40.3434 27.9818 47.351 29.6762854213
42.2436 24.5952 44.6002 27.4834884601
47.3203 28.3511 45.5533 31.1621472193
45.0861 27.3639 43.5686 24.5468384222
48.8914 27.7143 43.333 28.4173438986
47.666 25.4209 43.4109 29.069032984
45.5199 24.9257 47.0684 30.3772269834
41.8569 29.6102 45.0694 29.158855925
40.0076 31.6955 45.5239 31.2512877996
44.6462 29.9494 45.3602 27.6130982832
45.8638 31.7588 43.6252 27.7865012833
48.7991 30.9265 45.3947 31.4322894701
42.9773 18.1051 51.5659 29.2568404064
45.5162 17.5985 49.2211 32.5301117122
49.0029 16.7853 50.5717 31.550520003
47.0313 18.404 51.4953 28.9077328668
48.0329 16.3682 48.1083 27.3732738393
41.771 20.4816 50.6395 32.4734689938
42.5676 21.2708 48.1137 31.3977849155
44.3416 23.2839 49.0359 34.0388137696
47.169 21.1472 50.9319 35.0672204595
46.0765 20.8642 48.484 28.7685218249
39.7697 24.6136 51.64 28.8058953289
40.8899 24.7478 49.0729 30.4912807006
42.3897 27.2998 50.4286 29.9088842363
43.681 24.7728 51.5161 30.2302894721
39.7824 27.4926 51.3481 31.4750970201
47.0127 28.2296 50.1681 32.2172956676
47.4602 26.7855 47.7497 35.1721585424
44.2301 31.4349 47.9348 29.9448378178
40.0023 32.2822 49.2895 32.0033936777
43.1129 28.686 48.0343 33.6304278629
43.9286 29.0923 51.9866 28.8753988682
44.9057 31.8875 51.9933 27.4645930151
46.1643 30.823 49.5696 31.3921687399
41.5006 18.5189 53.848 27.3021049482
44.1135 19.4476 55.2069 31.2771869797
39.6578 20.3507 53.474 27.4967316591
44.9554 17.8089 53.3261 31.7306944908
49.1585 18.302 53.556 37.0094360763
40.0993 23.6645 56.049 33.6958331415
41.3816 22.5472 52.6877 28.5707997492
43.6366 22.1402 54.4124 33.3269917975
39.4253 20.7869 56.1963 33.4637429602
45.6967 23.014 52.6866 33.6889747481
47.6812 24.0667 54.0344 28.3961013998
48.0711 21.9044 55.8714 32.9335692042
44.102 27.7917 54.7548 28.4504571019
41.2495 25.7789 53.9431 27.9158741833
40.2168 27.935 54.6334 26.7388942848
42.9319 25.7556 56.2637 27.7796942035
46.67 26.4985 55.0082 29.074075034
45.7608 26.8087 52.1015 33.9566317806
43.598 31.0322 54.9326 25.7150534485
41.4598 30.0372 53.4567 29.1928176349
46.9466 30.7481 54.5586 30.9712315064
41.481 34.2446 6.47581 36.0217621706
41.1479 33.6959 3.74205 29.8570572089
44.5211 33.6846 6.90984 32.4166199321
46.0147 33.6136 4.48466 28.744428199
48.3319 34.8853 5.35789 27.5569932948
46.5656 36.703 5.72524 27.5477620564
49.0076 34.4818 7.98625 32.2635560012
42.5057 37.7041 3.72351 31.3311973317
40.5583 39.3738 6.21273 30.7156062811
42.8404 37.2509 6.71939 33.2644199554
47.745 39.4242 5.89597 33.6501548942
39.5665 44.2659 7.85464 29.0700204809
39.5445 42.3567 4.25258 30.7837035581
44.7512 43.908 4.02324 29.6187634783
46.4505 44.2532 6.7259 33.2325490942
44.4028 42.0746 7.31853 36.7314686846
48.3306 42.1087 7.09994 31.8903240172
42.5991 45.6732 3.87731 29.5463799398
41.971 46.4945 6.59247 28.2681573706
45.483 46.9997 5.89551 29.8518609152
47.84 48.1935 7.2924 33.7184921527
39.791 35.2126 8.68985 30.5748909313
41.9778 34.9009 10.5699 28.7909184555
44.3585 36.0199 11.073 27.1621975555
46.9394 34.6174 10.5285 29.9914720071
48.8985 36.6762 10.4876 29.8217056869
44.9821 36.2025 8.01068 26.0065193895
43.9084 38.6116 9.80109 29.9445934264
40.0511 40.2003 10.2147 25.9279256444
41.0943 37.875 8.94874 28.4631108138
42.2187 39.2863 12.3108 28.0103697355
47.5202 37.8848 8.39899 31.5280016144
42.5248 42.0081 10.8435 30.6218238614
41.641 44.4752 12.0203 28.7603940338
41.5787 42.0501 8.05385 31.6789410296
46.8279 43.3631 11.1774 32.167498533
45.3209 41.2088 9.84205 33.9484683056
48.8435 41.6858 9.89139 27.5804283288
43.4222 44.9554 8.18724 29.7169509632
43.1258 46.453 10.5149 33.1979534667
39.6463 48.5333 12.2899 26.8851126991
48.1578 47.4025 9.81819 35.0371134205
46.3123 45.1583 9.365 31.0559382826
44.9979 46.6645 12.2734 31.6496687456
40.0925 35.8944 12.5178 30.9109597851
43.7845 34.2498 13.4827 35.1050082724
39.4564 32.7183 12.8148 33.3626392251
46.0987 33.4133 14.7636 31.8528460968
48.0146 33.3892 12.8099 31.3200037885
40.4041 36.8101 16.3064 31.9848559819
42.5002 37.0167 14.4899 31.2517270514
39.4257 38.5869 12.5728 29.1113884284
45.0943 37.2111 15.4558 31.1257408348
45.2495 38.3077 12.8654 37.8496778234
48.1745 38.1962 12.8175 33.1784757512
41.8751 41.0576 14.7855 35.4530384864
43.3592 43.5603 14.0552 33.8026123257
40.2071 43.6453 15.8326 33.0018971997
46.0223 44.3659 13.729 31.8652324078
48.9317 40.8742 12.6288 31.4808514984
48.9972 44.6032 14.4111 31.3572124822
48.8593 41.8129 15.285 32.4515671864
40.5384 46.1129 14.1502 28.8921327263
43.3179 46.3249 15.1442 30.6343332862
47.5474 47.2905 15.223 29.6091089981
39.5596 34.0185 19.9536 29.9870122089
41.52 35.9048 19.0113 32.3190948863
43.7524 34.275 18.5521 36.1658946248
44.2049 34.1431 21.1304 28.4134797703
46.0279 34.9913 17.0017 33.0632167667
48.6525 36.2193 17.7472 32.2336783566
47.9432 36.2408 20.6634 29.7528441998
40.7191 38.7546 21.1774 29.1146917634
40.3893 39.1183 18.3006 35.4826358437
42.4992 40.4523 17.6426 31.1827920843
44.5509 38.9894 20.4533 32.8832134683
45.0141 39.0487 17.372 36.2257373568
47.4143 40.5111 17.2971 35.7994089041
43.4855 42.7246 18.9056 29.6326267104
41.0898 43.6227 19.8303 30.0004078402
47.3385 43.0675 18.8149 29.3019831663
45.3248 42.48 20.7926 30.1752952567
41.3264 46.0252 21.1312 28.2189611485
43.8553 46.2998 19.4252 27.9275800472
44.0513 44.9481 17.2482 28.5782279201
42.1897 48.3973 18.713 30.2804067293
39.5277 48.3482 18.6047 30.4783865023
46.5173 47.7147 19.0835 28.2859375577
46.7558 45.1041 16.9002 27.3205822157
48.2822 45.6128 20.036 28.9774860283
40.5263 34.5109 23.5916 35.5437482828
43.0841 33.508 24.1319 68.0028832898
43.0016 36.7322 21.5143 28.6303495515
45.405 35.1111 24.4263 72.4620091116
48.2772 36.0078 24.0093 55.9378019748
46.8535 34.1324 21.9092 27.937550074
40.191 39.3722 24.1376 65.1970473541
42.1147 37.1292 24.1128 49.885769275
43.5486 40.1077 23.2066 29.9109012078
44.4993 37.7988 24.7417 107.8606360364
48.891 40.7188 24.0141 67.0788148626
47.0241 38.3587 24.1612 60.484000251
47.1306 38.7301 21.2885 29.3940259043
40.5262 41.6001 21.6286 31.4621820704
41.6776 41.907 24.1783 66.9957386165
40.5803 44.7386 24.853 115.8979916035
44.6108 43.9579 24.48 104.3399681393
45.9007 41.5113 23.4291 39.8124583963
39.698 47.8715 22.8884 32.1539818493
42.6317 45.9074 23.5342 30.80954673
43.2738 48.4652 24.5197 116.7139961908
46.0364 48.6489 23.5552 33.9995135608
46.5608 45.7907 24.002 55.3028413315
48.8025 48.8145 24.2544 83.335453919
45.7995 45.0791 21.3552 29.8293217553
42.2924 35.3541 36.097 57.6616678749
43.6975 32.8563 35.7088 65.8087946836
40.9254 35.0306 38.8118 28.5370440309
39.4255 33.9884 35.8001 63.3362214267
45.127 35.977 36.6553 32.2458567358
47.0365 33.9981 35.493 103.9825168743
46.9532 33.3691 38.3733 28.6875207266
39.737 37.6658 38.3891 24.7722442387
42.3181 38.3536 36.3243 50.5323007808
39.4658 37.0563 35.6203 96.1130231186
40.636 40.661 36.3902 43.2658592763
45.4196 38.6651 35.8849 74.7646553449
48.1348 38.3467 36.5348 41.0136025565
43.0036 42.6604 35.9519 65.443690837
42.6444 41.5323 38.5137 26.9438609963
48.1174 43.4938 35.5725 81.1211320402
45.6585 41.4171 35.3115 106.9785766944
45.2776 44.6933 36.3055 41.0008053798
46.7205 41.1441 38.1296 25.4917747723
49.1888 40.9049 35.7734 73.6917207678
42.0095 46.381 38.2325 29.065216242
42.0299 45.2105 36.0862 61.6090101358
47.3257 48.2049 38.5568 30.5456442852
47.3521 47.9693 35.6216 79.9679507309
48.7833 45.7776 38.3469 29.3655560842
44.4763 47.6315 35.4819 99.914568372
43.5181 34.4512 40.1876 30.1119387771
40.6051 35.3131 41.9723 31.254704522
48.6716 33.9568 42.5215 29.7894656991
44.8053 34.4127 42.7718 33.6860756957
48.5279 34.8626 40.0648 29.238794915
45.4742 36.2278 39.2033 29.8608070236
41.5965 37.7992 41.5055 30.3865307256
42.6354 38.9505 39.0528 28.0052621357
46.3916 39.6587 42.6492 27.5185696481
45.2744 38.878 40.0586 29.311207825
48.418 37.4561 41.5935 28.0571501625
48.1141 39.0786 39.2304 30.9402155285
42.9399 44.4203 40.209 31.4754653417
40.4885 42.6829 40.2472 31.7524403094
44.9643 42.2411 39.9554 26.8537162634
45.9872 42.3107 42.3919 32.7662358806
48.5238 42.9243 39.2215 30.5959814993
48.4031 43.3895 42.0292 33.2426568366
46.0475 44.8267 38.9807 28.1142806473
41.8728 46.313 42.6356 28.5680720185
40.8175 48.5998 41.0409 29.6973877047
44.7629 47.3787 39.2053 26.5058054206
44.6138 47.1685 42.0023 26.7214905808
47.2918 47.8393 42.9121 27.2862547795
44.1436 36.2981 46.5841 28.351575978
41.6191 35.5577 45.8185 29.6362541992
42.3418 33.5503 44.0053 29.8300373317
39.6098 34.1088 47.5328 30.6506195111
44.8252 33.5893 46.0671 30.1033106082
47.6621 33.1526 46.454 30.8889525819
47.0429 36.0492 43.5641 26.690821565
48.308 35.978 46.0659 30.3778442677
40.4655 37.7093 44.8598 30.4138644389
42.926 39.1906 43.8118 38.0714218413
39.7746 40.4873 46.7454 29.8171355489
45.6159 38.1576 44.8002 28.6166971263
45.801 40.2726 46.9498 30.8414486478
48.6213 40.416 46.3293 32.1743176217
48.9541 40.6207 43.5644 31.4586455931
41.3771 41.6983 44.7223 35.1431492943
42.5842 44.2096 45.0739 30.3743402859
44.995 44.7546 43.4871 33.2926306352
40.7243 45.7342 47.1949 25.3248920576
42.1759 47.5959 45.2685 26.0936671822
39.673 45.0353 43.8753 32.8306292473
44.4207 45.0192 47.07 26.3055578972
46.6068 46.6457 45.3426 29.2250174578
