21.7098 39.5265 21.7024 30.5888775191
22.3701 36.8171 21.3835 35.6408333131
22.7301 39.0526 24.4961 88.1934942832
13.8312 42.5371 23.9156 47.9275545719
13.597 44.2676 21.3429 29.7338500129
16.8101 42.9953 24.0213 62.2833046858
19.626 42.6115 21.5832 25.3998260815
20.4434 42.2362 24.3502 81.6783392166
23.1257 41.9003 23.8989 47.0780480142
14.5098 47.9748 22.6189 31.2703268945
14.1437 45.5674 24.2401 77.0194663416
16.955 45.5716 24.3828 74.9530476028
18.2286 45.0558 21.7465 27.4947440473
17.1681 48.4446 24.2385 87.2256416341
20.3139 45.2252 24.3457 93.2616429886
24.0104 47.8594 24.0 60.1266148226
23.5808 45.0329 23.9715 61.3455372506
21.0781 47.024 22.3301 27.4257419392
12.5538 39.4131 36.2076 56.4820525319
15.3713 39.8307 36.5522 42.8252965185
20.0824 38.9506 35.8289 86.0982067953
17.9027 38.7557 38.5785 29.5790789345
17.3447 37.5922 35.7586 81.6463536278
20.8023 38.8984 38.6289 30.4255461431
23.0265 39.0319 36.3437 35.2199155335
24.0941 40.4446 38.6167 27.5076118593
13.8213 44.6796 35.6336 99.6255042041
12.8318 43.0114 38.4926 27.386027287
15.7003 42.6191 35.8445 84.4122388577
18.4863 43.7227 35.759 93.6234712665
16.9171 43.5172 38.5796 31.5324695386
20.4795 41.6406 36.2511 40.4681028823
22.2643 44.7526 35.8757 68.6582524251
23.295 41.8379 35.4581 96.0107613894
21.2354 44.1408 38.3286 28.1112351408
14.1424 48.7877 35.7642 94.6084768898
14.579 46.7726 37.756 31.2842191912
18.9249 46.381 36.2251 59.5666683803
19.5847 46.3242 38.7767 26.0960283214
17.0864 48.8026 36.5187 36.4079080104
21.6519 47.9326 35.8105 75.0158449111
20.7079 48.6728 38.2371 27.6278111482
13.2263 39.1611 39.1662 29.7673308121
16.6258 39.4855 40.9125 29.9235754663
18.6958 39.8057 42.6117 32.7363082832
23.0193 38.0174 42.1653 29.8921474579
22.2655 40.4034 40.6262 28.6699534114
14.9389 41.2628 39.4075 26.4840331116
12.5175 44.3392 40.8435 29.4082787391
15.1541 42.2477 42.2346 28.930802193
20.0301 42.2653 41.7736 31.7210797488
19.3046 42.108 38.8867 29.6000614907
20.2041 44.807 43.1084 30.5043473341
23.2001 43.5718 40.0605 28.0744991524
22.9406 43.0061 42.9212 26.8416427934
15.6273 45.0588 41.6207 30.8637387092
13.4402 47.2135 40.3146 30.3572196343
18.8749 48.9748 42.7803 29.4746963557
16.8946 46.3762 39.172 26.5885682293
16.4931 48.3255 41.4244 29.1381908852
22.7293 48.5612 40.0934 29.1602699022
20.6335 46.8438 41.5928 35.1692003428
24.1746 46.1434 40.6736 31.305683768
14.8878 39.2104 45.5772 29.3091183414
12.7178 40.473 43.9527 29.087640276
13.8836 37.086 43.5578 29.3255932922
12.5759 36.8453 46.0963 30.0483826708
19.4447 39.2239 45.3949 27.767293274
17.4486 37.5413 45.871 30.8746814934
22.7876 40.5909 43.9041 28.6843277963
21.2553 37.4917 44.4836 28.9834791432
22.9685 36.7826 46.4825 32.074699505
12.9116 43.2992 43.7846 30.9060350561
19.6886 41.4874 47.0646 28.7370669943
17.7522 44.052 43.8578 29.8414933323
16.8489 41.266 44.2362 29.5045853759
16.8013 41.2958 47.3654 29.5303688503
19.6324 44.2997 47.202 30.2834823117
21.8006 44.1601 45.3882 28.0942542465
22.3509 41.2904 46.462 29.3680539391
24.2666 43.0509 47.5621 31.248042648
13.4892 46.2959 47.0886 29.8455211587
14.7403 45.2095 44.7777 29.818617469
14.5252 47.9685 43.8465 29.6494813347
12.3841 48.9465 46.5137 28.2358799162
17.251 45.2907 46.1396 27.7770762009
18.0681 48.0278 45.5992 32.5154640028
23.6208 45.9455 46.1093 31.8213311888
22.2112 48.4208 46.4482 33.3634971384
15.0639 39.5019 48.6137 28.3099261522
16.0342 40.2923 51.1578 29.8627705016
12.4531 40.7502 48.8371 36.1315442676
18.6351 36.9096 48.6649 32.4597720927
19.1973 39.8079 49.337 30.7260182032
18.6617 40.8439 51.739 26.9986811638
23.6957 38.8311 48.2588 27.9726180583
21.9607 38.9915 50.2514 28.1082153343
16.1197 43.6414 48.3903 30.5555878027
13.4584 43.2768 49.7294 29.9412087193
17.4469 44.6325 50.5113 30.8556355261
20.1329 43.298 51.7192 30.5631717716
23.2877 44.0861 49.9859 30.5194784528
22.645 41.5355 51.3315 29.0156231879
14.0371 46.3197 49.8103 30.1240810779
16.1037 48.3241 48.9825 31.301869354
19.5652 47.8882 49.9376 29.2877770447
17.2463 47.2081 51.3261 24.9646528947
20.5562 45.3074 49.5136 29.6787620116
22.8283 47.2844 50.919 29.9805052104
15.6318 37.7527 52.5397 29.3874344924
12.9881 37.76 52.9658 31.9157281604
17.8193 39.0543 54.6168 30.1691120839
20.1185 38.8797 53.1432 29.4965775742
23.4645 38.3945 52.6166 29.0651954344
22.0993 36.7862 54.9076 30.3529182745
14.2204 42.3896 52.3337 31.1307280656
14.3273 44.5207 55.7837 28.8155694713
14.1661 41.8055 56.2756 29.7181259345
16.6528 41.4286 55.36 30.0695263954
17.4096 44.8686 55.2738 27.4493309188
16.8875 42.9507 53.0832 26.9883261776
22.828 41.6417 54.3364 30.7600303495
22.5507 44.5195 54.3614 33.0297741228
24.4029 44.7387 52.3132 26.750347314
12.4331 48.7461 53.898 30.1920816746
16.0198 46.7474 53.8166 29.6496463519
13.0594 46.002 53.3761 31.7646343745
19.7038 45.1139 53.9148 33.1483813923
19.1838 48.1349 53.6392 28.1339162701
21.6923 47.1589 56.0924 32.988572041
26.1783 2.72139 4.86278 28.5015811119
26.0373 3.48087 7.62335 27.6045439233
24.7998 0.27032 6.88855 28.6349796545
32.5483 0.607844 5.45322 31.3101666143
30.6717 2.46165 6.02755 28.5615319003
28.8097 2.6722 4.18443 31.0353415652
29.571 0.0377988 7.44367 29.2095666833
35.1543 1.06942 6.95276 32.3062922078
26.0412 7.20487 7.86071 25.3301388942
27.9795 5.41588 6.72345 27.9217526399
25.8453 6.70552 4.0668 30.4683147098
31.2665 6.58291 5.31447 31.9772005918
28.784 5.66306 4.1315 32.1052257707
35.5027 4.46487 6.04089 30.1979103267
32.9717 4.35428 4.90805 32.2263597471
35.5748 7.08952 4.95968 30.4899085088
36.7718 7.12489 7.934 34.2220520688
28.5461 10.5349 5.12877 29.780188019
26.0879 9.18756 5.03895 30.4642001638
28.0108 9.20811 7.94044 28.6050586363
26.6104 11.9226 7.55404 27.57893329
31.7749 10.4394 5.76971 27.1545338837
30.6514 8.45441 7.16633 28.6050149891
34.4558 9.67571 5.94388 31.0954701236
36.5827 10.9329 4.11704 32.3124748172
27.2854 0.364667 11.1684 31.3553008443
27.1262 0.641451 8.31352 29.6427648779
27.4597 3.55663 10.2714 29.0272125578
29.9142 2.05605 11.2233 29.0828795659
31.2068 3.06278 8.87613 30.846546711
35.253 0.548008 11.2305 29.1440646029
33.998 2.26324 9.50666 33.9294464216
28.4406 6.36613 11.4791 26.5475628106
25.3958 6.18462 10.2383 27.9072821659
29.7648 5.47788 8.83127 29.5688555326
32.7257 5.2316 10.5166 29.755617608
31.9633 7.92143 9.67045 30.4204542422
36.8524 4.81041 11.4962 28.7944492352
35.4519 4.51686 8.98351 29.3914792535
25.9991 11.851 10.2431 28.7411002219
27.9272 9.65958 10.7367 33.6319782683
30.6356 9.05828 11.8511 30.6258841126
31.6629 11.8008 10.8972 37.3416235109
33.6122 11.6769 9.08614 30.2649258206
36.0365 9.50621 11.3803 37.2190913888
34.4004 8.80292 8.82172 32.5223709821
25.7492 2.43248 12.668 30.8395749921
26.7214 0.0717247 14.4573 27.5272205187
26.0923 3.06063 15.6403 27.5195602617
31.862 0.0648166 14.4561 28.7088453366
30.6984 3.17642 13.6512 29.3928286441
29.2937 1.17101 15.6818 31.2080636702
33.7534 3.47859 14.3681 32.3977690376
35.2214 1.34202 13.9543 30.0956021225
27.9937 4.38373 13.7967 25.9180626561
25.9977 6.14183 16.019 28.7637774921
27.004 7.45406 13.4405 26.7349258135
31.1099 5.92029 12.6672 26.4443801182
31.2853 7.51232 14.9414 28.5016762727
29.1492 5.79159 15.6031 26.0724759943
33.5322 7.30671 16.6303 30.4560505201
34.5336 5.74765 12.7774 28.8699983156
25.4786 10.1055 12.7915 26.3514215837
27.398 9.18178 15.742 31.1160711668
26.5357 11.6273 14.9819 28.7992205292
30.4106 10.0183 14.8225 32.0941306361
34.8738 8.3501 13.8025 31.9430612431
33.058 10.8268 14.526 28.8200787888
25.4447 2.65239 18.6152 28.679764354
32.6661 0.809212 18.2625 31.9161673261
31.7994 3.95704 18.8097 27.4367989885
29.544 3.50198 17.4292 30.8458438119
35.2321 1.84976 19.0831 30.1610448354
27.6165 4.24779 19.3056 27.0255770423
26.718 6.26748 21.115 32.1917332958
28.9874 6.60644 18.4527 27.9966687893
32.3883 6.24661 20.5794 31.5543523516
35.9812 4.46921 19.2965 28.5331619817
33.6839 4.39707 17.1813 31.8401841669
25.0538 8.3614 19.477 31.1731272703
27.687 9.03637 18.5871 31.6397559701
31.6314 8.20582 18.8566 30.3296365042
28.8888 11.1473 20.1941 32.620653217
32.6623 11.8598 17.1979 27.5498167817
35.9673 8.87327 17.0859 31.3478720537
34.0031 10.0322 18.7938 28.9425990152
33.2331 11.531 21.226 30.2298577517
35.4569 8.97483 21.1376 30.3340974631
25.7498 2.6769 23.9929 49.3848610319
25.7032 1.46041 21.4009 26.9561658432
28.579 3.29013 24.1127 62.8571451196
28.7205 2.72956 21.3786 28.7823883915
31.3586 3.16546 21.5555 30.1023201788
31.6023 0.095946 24.0752 73.760380343
31.6754 3.48352 24.4067 76.7500290786
35.699 1.38719 21.8281 28.8387850225
32.9468 0.876095 21.682 28.9890459261
34.5288 2.67842 24.2096 76.8860173702
25.942 6.03456 23.9444 52.6055722272
29.0747 6.23455 24.4668 82.7372993168
31.9966 6.58316 24.4877 84.6969709045
29.3029 7.27294 21.7533 31.1260889821
35.1429 6.27002 21.2543 31.3987142493
34.656 5.51934 23.9933 43.4846081576
25.6164 8.69164 24.0805 67.7469906924
28.3604 9.44716 24.1539 68.0021753203
31.095 9.82502 21.2996 29.0490918466
31.1019 9.34172 24.1742 66.75165868
33.1239 11.2659 24.1 66.0584164619
35.5566 9.38791 23.9586 49.2291136028
26.2217 2.56277 35.3047 103.2437982451
26.9298 1.79505 38.8131 28.6046038683
28.6131 1.1576 36.0424 43.0065446056
29.9351 2.05671 38.74 27.2994197336
30.8241 2.7372 35.3779 102.1419528745
32.7661 2.74512 38.6384 27.4665813709
33.6069 2.586 35.9752 63.8046588195
36.8037 4.04403 38.367 29.5057632379
27.1524 5.52696 35.8327 59.2857185768
26.6236 4.56267 38.4477 30.3573027042
25.9566 8.06759 35.7963 78.6303762668
29.9237 5.27994 35.5833 78.7450464371
31.292 7.89576 36.0086 55.5502646787
30.8178 5.06348 38.1082 28.2794732701
35.7128 4.28454 35.7765 69.9827127439
34.3302 6.8557 35.8134 81.2533727498
33.6246 7.41963 38.5074 28.0946106731
28.4659 9.36649 36.4162 37.6043841356
26.5186 11.4674 36.0613 50.5880163968
25.2273 8.41043 38.5092 28.543599093
31.0571 8.49378 38.7818 27.1633570431
30.2509 11.4282 35.5578 88.470566883
31.01 11.3432 38.271 25.2758028185
33.0823 10.3684 35.7188 72.0425612941
35.7446 9.52453 36.0006 68.8980204007
33.7269 12.16 38.572 30.4546467709
26.4971 1.78878 41.7821 31.4049048344
28.7048 3.55549 42.355 28.3719536269
30.5732 1.95361 41.7022 27.0479195548
33.7763 1.73589 41.6049 27.4667547898
36.2635 3.09162 41.5285 27.9865074783
28.2361 7.25709 41.5311 28.1542033397
31.8103 4.91164 41.3738 26.453768366
31.2237 7.75778 41.6776 27.6907258002
28.8701 5.23904 40.0531 26.828007343
34.2224 5.09065 39.7952 26.6011479732
34.6347 6.74601 42.3391 27.6752716692
27.8849 9.43588 39.1939 28.5692154234
25.3039 11.7264 40.8502 28.092310354
25.5565 8.9987 41.7776 30.2119442789
27.3733 12.1859 43.036 27.7703523387
28.8558 10.3639 41.9968 26.9850943164
31.0841 11.46 41.0442 27.7875022739
34.9563 9.90257 38.8354 29.7907646044
33.5227 9.54205 41.7601 28.6182955597
35.7585 11.5865 43.0437 29.3611616632
28.2459 2.62127 47.2154 27.4331429808
28.4089 0.457615 45.5612 30.5834504533
31.7176 1.93528 46.3732 28.1160396383
31.1351 0.603108 43.8893 28.7733818782
34.0115 0.506231 44.0882 29.1300454019
35.9631 2.86661 44.5913 29.0723871783
34.1927 1.02267 46.9757 28.1672140591
26.771 6.37142 43.775 30.6828437141
28.6796 4.23798 45.0463 30.6676046424
31.4793 4.4656 45.5475 28.408256425
32.5996 6.12659 47.3495 30.117364368
29.2978 7.22189 45.5866 28.3963879126
33.3357 4.11475 43.354 26.1937542493
35.3225 5.34342 45.8145 29.8171596725
33.3576 7.67996 45.0177 30.0702522547
26.7616 11.1459 45.692 28.7833601534
26.785 8.43795 46.0843 28.3762124123
30.4624 9.18183 44.2563 26.9813234192
29.6313 11.6124 45.8238 31.6065728661
35.8802 10.8086 45.6575 28.0232920202
36.3514 8.45513 44.2376 28.3491806652
33.1906 10.9619 47.3183 28.0354634222
33.0078 10.4929 44.6889 25.2248440271
25.6681 0.859244 50.2172 29.1628995862
25.4348 2.53649 47.9898 33.5363362039
27.8888 1.47206 51.8215 33.5911860383
30.3364 2.05985 49.0246 30.1792715388
29.2474 3.97713 51.1959 31.7591010339
36.0312 3.65487 51.8231 27.5965737813
34.2586 2.54361 50.0667 31.9160448601
35.7799 2.96998 47.6381 33.433822465
28.4386 5.27794 48.694 28.6815786982
25.9859 6.56772 48.0277 30.5799193098
27.4474 6.19473 51.5547 33.2815114333
32.0476 4.342 49.5214 29.9426363898
30.2335 7.57045 48.4267 28.8441497909
34.1387 6.05984 51.85 30.9352387603
25.7212 10.2292 49.7393 31.8624901429
27.7712 8.52211 50.1138 29.0848445864
30.1641 11.9375 50.4902 32.3795523017
30.7872 10.359 48.2808 29.9325340353
31.4307 9.53205 51.9989 27.9419361865
35.0989 10.3377 49.4281 31.2135175487
32.933 8.39451 49.9731 31.0802731303
29.6031 1.70065 54.5004 35.8354881859
33.0447 3.18778 55.0971 31.3647517993
35.6303 3.46037 54.521 29.7646826945
36.07 0.660272 52.7223 28.4644986743
33.0666 0.413969 55.4202 31.3316516238
24.9246 7.88837 54.4989 33.7820761595
24.6466 6.24885 52.1982 33.7160297918
32.6689 8.0424 56.1418 30.0786661587
31.9341 4.69487 52.6896 33.1610888846
31.5493 7.28926 53.609 29.1816717508
28.7219 6.93714 54.2397 34.2299977785
34.7407 6.2536 54.855 28.5973209544
28.3187 10.2105 52.1891 30.641940454
28.6494 9.58877 55.0704 28.6641084884
31.2598 10.4037 55.405 28.8469884416
33.3299 11.3827 52.9816 33.4332645264
35.2886 8.87093 52.2039 31.1977522706
26.5842 14.4321 6.13755 29.8395127726
29.7411 13.171 4.65332 27.8845060816
29.6043 14.4934 7.04498 29.5415836829
32.4177 13.1003 6.86139 27.4768743424
32.941 15.8605 6.51716 26.6960699106
34.432 13.0389 4.76176 29.8453118294
35.1764 15.9921 4.87515 27.3077264644
27.7742 18.0559 4.37487 28.9906689099
27.4661 18.1561 7.08154 28.0346131813
25.1779 19.2995 5.76709 32.1820170644
30.3847 17.1966 7.23163 30.418771634
30.5537 18.2933 4.84384 31.3120720814
32.6491 20.1832 4.82102 26.6790724204
34.479 18.5435 7.96476 28.3298093482
35.1107 18.8489 5.29787 26.9276057979
25.05 24.2723 5.38827 34.3397422398
25.5689 21.8859 4.19134 30.5727603435
28.6795 21.8798 4.19446 29.5615706249
28.6938 24.4466 7.91839 31.4278301317
28.833 21.9706 6.97445 29.9866840665
31.6064 21.6658 7.11576 31.2875306193
35.5152 21.9294 5.87035 29.6908007067
32.965 24.0344 6.7299 29.4408082328
27.3899 14.345 10.3777 31.8631455406
26.0867 15.9425 8.47368 30.8504825095
29.4276 12.7893 9.18717 36.1430908308
35.9398 12.9947 8.72016 29.8597300145
34.6048 15.4665 8.72189 30.7560902981
24.6668 16.4853 11.6123 29.1367455111
27.8484 20.2128 8.7341 30.6798242526
27.9366 19.3635 11.4503 31.5288519698
31.8721 18.2208 9.46842 32.5252185345
30.1467 18.1204 11.8987 32.5044062304
34.1773 16.9911 10.9594 33.2547564436
36.3171 18.8527 11.2454 27.312246991
28.4663 21.9825 12.0972 29.7180487464
25.7998 22.0197 9.46351 30.9019466443
26.0545 23.0568 11.8474 30.6217574012
24.7917 24.3157 8.28918 32.5080917489
32.2152 21.1247 9.95035 31.5384786297
30.6714 23.6025 11.0366 29.845328943
34.9967 21.199 9.34698 29.6129826087
35.259 24.2352 8.41694 31.314052305
26.0785 14.019 13.1284 32.0782507808
32.7764 12.9923 13.2002 31.7642109081
30.6703 14.5871 14.4583 30.6165020221
28.8282 15.819 12.8908 33.4052760386
32.3836 15.551 16.6375 29.7362756311
29.1582 12.5846 15.8459 31.8828344188
35.4673 12.5521 15.7515 32.5771982869
35.5187 13.7938 13.0818 31.5586393165
25.4168 17.5061 15.3296 26.7408771725
25.2957 19.0056 12.8221 30.5249566333
27.8724 16.6472 15.3172 27.717441245
28.962 19.1561 15.5823 29.1710069873
31.4254 19.021 14.222 29.4951863668
32.2256 20.1426 16.8441 31.7597439176
33.5441 16.7043 13.7057 31.1377216491
35.3996 18.3925 14.9778 28.3721462018
27.8723 24.3222 16.0999 29.9718233928
25.6146 21.5992 15.9832 30.517179338
28.1067 21.7076 14.684 30.1653945683
32.5115 22.9392 16.4637 32.4000493149
32.5062 21.3692 12.97 31.2471568814
31.9751 24.1208 13.5515 29.2442584841
35.1797 20.6841 13.1179 30.9372819604
36.5442 23.1559 13.6165 29.7972276321
27.059 15.573 19.7123 29.9227492427
28.7122 15.1088 17.3255 29.5017745696
29.9166 14.8628 20.9488 28.5734633964
30.3042 12.6459 18.5856 29.5325253848
33.9775 14.0418 18.3834 26.734387247
32.8801 14.156 20.7903 29.3286020376
36.8477 13.9081 18.7572 32.1342393258
27.1277 18.6361 19.5417 28.1555071719
25.2946 19.2666 17.263 29.7614334613
30.8164 16.7609 18.5654 29.8996783711
29.5796 19.6329 18.2784 25.4071661557
30.6929 19.8619 21.0778 27.3656795574
33.4029 18.4823 19.4011 27.4578892289
36.3095 19.9717 18.6454 28.9626313176
34.7715 17.2344 17.5351 27.6104422447
27.5006 21.9211 20.3057 29.3160214562
25.941 24.3399 20.115 25.0934232882
28.8857 22.3481 17.9407 28.8849595411
31.2766 23.2316 19.0731 25.7505149917
33.4978 21.5204 19.3633 28.5970194578
36.5531 22.6445 17.5225 30.2003326559
34.8825 23.4818 21.0934 28.1313657613
36.8043 21.2376 21.2118 29.1608614533
27.0818 13.1129 21.3137 31.3263010296
27.5791 12.3858 24.0442 74.4906269963
24.7752 13.1409 24.3217 92.9681311266
29.5849 14.4234 23.7189 39.8314526268
32.2427 13.9766 24.3367 86.5349128945
36.0006 14.8741 24.4076 82.5841790529
36.9044 13.935 22.0494 30.5078248883
26.1999 17.5708 23.3354 38.7671191877
25.2758 19.9064 21.5478 28.3419637691
28.9362 16.9417 24.5291 109.2974290276
29.0721 17.6667 21.521 28.2674451834
31.3225 18.1842 24.1369 61.5434139001
34.5895 16.4682 21.7293 31.4618909906
33.6574 16.5886 24.431 91.3183530981
33.327 19.3992 22.4193 35.2938527656
26.9526 20.5052 24.2286 85.4164639143
25.8364 23.181 24.3394 84.243848861
30.5045 23.3907 24.5996 107.8656252815
29.7164 22.4302 21.8175 27.1292059403
29.6353 20.5867 24.2155 62.0106901366
35.8513 20.6862 23.8315 63.8892737718
35.1817 23.4262 24.1645 69.7914921996
25.9545 15.3823 35.8857 63.2649545291
28.3597 13.8706 35.5593 79.5590097041
26.7735 12.3741 38.4297 26.660145842
31.4172 14.9444 35.7737 72.5971704284
29.2528 13.668 38.4952 29.5297374624
36.5018 13.9877 35.8262 99.030644128
33.7411 13.301 35.8442 69.1017187224
34.9519 16.1206 37.815 30.5200946285
26.2652 18.3191 35.7733 80.8637164157
26.8015 18.6431 38.531 27.7836075942
29.0859 17.0921 35.8026 56.669560456
32.5287 17.4092 36.3433 38.819863953
30.9879 19.2196 35.412 114.9211986065
28.9569 16.5186 38.6721 27.0794430886
34.2178 19.8405 35.9024 63.555547407
36.8468 18.6165 35.7235 97.9154993143
35.7524 18.7941 38.7561 27.3034156198
27.9804 20.633 36.2361 54.6169396347
26.615 23.7198 38.5672 27.4034875337
26.1303 22.8294 35.9348 62.560220581
30.8429 21.0853 37.7903 33.4619761436
29.7425 23.9318 38.4354 32.6993242193
34.5833 22.6092 35.8964 61.0081336204
25.3418 14.7761 38.9573 30.0447873582
30.729 14.6546 40.9749 29.0834511396
29.2438 14.3673 43.1843 30.3403667365
36.1486 15.7685 41.2695 27.8215588595
33.8436 14.5147 40.2304 28.7181723816
33.2391 12.8303 42.6419 29.5330341753
25.5609 16.4566 41.2342 30.2207322121
28.3008 17.4153 41.405 31.4674178925
31.7198 17.1041 39.1503 28.2719399611
30.3033 19.4756 40.1031 28.932884252
35.6784 18.6356 41.5209 26.8786810117
33.1663 17.1778 41.7488 28.6182565945
26.5214 21.2838 42.1385 30.0003582866
27.8386 21.0572 39.4053 29.6215532127
24.8046 22.6049 40.4018 28.7392548353
27.3707 23.7022 43.1468 28.2014546118
32.1219 20.5041 41.9402 27.3924211424
33.4231 22.7897 41.4339 29.2890600294
33.5511 20.5714 38.9485 28.6161666793
35.6937 23.3533 42.7874 30.4493065071
34.8139 23.1185 38.9147 28.4575059342
26.1489 14.9392 43.4984 28.8245441964
30.1195 14.2336 45.9036 29.75026814
32.6919 13.8071 46.7268 29.5958069387
35.7583 14.6644 46.4359 29.8495536168
33.7645 15.5033 44.2308 28.5157389278
24.6694 17.654 45.1618 30.2575493117
27.2468 16.4257 45.6076 27.8221892968
28.5106 19.0892 47.4312 26.5488761378
28.235 20.145 44.3254 27.7729089925
31.6988 17.5112 45.1933 29.1282472864
31.3611 18.9214 47.4672 28.9421436444
29.2758 17.7213 44.1837 27.428900127
33.719 19.191 44.0297 27.1780328613
36.1779 17.1269 44.511 27.965327158
36.1266 19.9427 46.1786 29.9642170909
28.4277 23.9193 45.9451 26.9549175822
26.1678 20.8218 46.2421 27.2599642603
25.9344 23.3426 47.1157 27.8940637966
32.7728 21.4503 45.8384 26.3999710393
30.4777 21.6759 43.7565 29.7565344654
30.1467 22.0055 46.6931 26.1547203056
33.9738 23.8219 45.0907 27.0494371633
36.6003 22.6574 46.7464 32.32977552
36.8845 21.021 43.4865 28.9674779003
24.9203 15.3495 50.2033 29.1638846788
28.2721 14.1233 50.6051 30.3720550216
26.2799 14.9032 47.8789 33.4504851093
26.1891 12.5665 51.612 30.8495549248
25.3516 12.3142 47.7942 30.5248345737
30.374 16.2246 47.938 29.1000074787
32.1882 13.5841 51.4001 31.4064502672
33.8617 14.5103 49.1119 30.3403072681
36.3775 16.2871 48.9581 31.1636111603
35.335 12.4636 51.1042 30.6505200108
27.8698 19.71 51.8537 27.5556766917
27.9316 16.7343 49.4965 28.0206863924
25.9411 18.9858 49.495 28.9816292334
32.3044 16.8199 49.9598 31.4572148589
33.917 20.226 48.1362 29.2992319076
34.9412 18.2648 50.3601 32.7710078668
27.2374 23.2244 49.8252 29.7508067582
28.7371 21.1569 49.4974 28.2476382288
31.0434 21.4806 51.5021 31.8220934426
31.0736 24.1012 48.4715 28.6229853206
35.8315 21.0757 51.4757 28.6334638575
33.3527 22.003 49.9746 29.4091869485
34.1005 24.227 48.0115 27.9625655547
28.6742 14.5334 55.169 31.0421991408
26.5433 15.6333 56.26 26.7078961779
27.1415 12.3071 54.5554 32.8449861874
24.6902 14.3091 54.2532 28.7240823831
32.0594 12.9683 55.9844 28.3566569754
32.5594 15.0659 53.9715 28.305601168
28.9645 15.7123 52.7353 29.3308904136
35.2574 14.9924 54.7577 30.0858552357
26.8501 17.464 52.9264 30.292342856
28.0418 19.9985 55.0935 28.791049518
31.3312 17.2351 52.4715 30.4507920974
30.7562 19.8299 53.5101 27.1390117043
32.7521 16.9091 56.2588 29.7313311795
33.4367 19.1771 54.2727 29.692894823
35.5437 17.2582 52.9553 30.9376804702
26.5603 24.1695 53.4142 30.3234069869
25.8688 21.5427 52.0502 27.111539226
25.1384 20.4821 54.5017 30.0411185872
31.8646 21.5931 55.4763 30.0904722414
30.8194 23.7036 53.0824 30.2515956644
28.7192 23.8812 55.0788 30.5413400599
34.2709 23.3801 56.1701 28.9213014214
35.5801 21.0397 54.5236 31.3428911996
35.0544 23.8417 52.0979 31.3089639999
27.5196 25.8526 5.38384 31.8682104716
26.8447 28.4208 5.87549 31.2877871718
32.3916 25.512 4.4366 32.9043815898
32.4 28.0002 6.24326 32.6920623325
29.851 25.8497 3.92473 29.8833126391
36.8928 27.261 4.31653 35.0426860264
27.3419 30.4905 7.76212 27.2966415072
24.8961 29.306 3.90152 32.5411459962
24.9342 32.1262 4.25387 30.73623608
28.9251 32.6789 3.99927 30.0513149339
29.0539 29.9625 4.80707 30.9363871251
31.4652 30.4279 6.17739 30.4939752213
34.8352 28.7551 5.53945 30.4495718303
33.0875 32.4329 5.18356 29.6838469191
25.9785 35.4961 6.76148 29.2410690572
28.6891 34.7206 5.73351 32.5282601998
25.613 32.8219 6.86211 31.2394994895
33.1186 34.5599 7.71161 31.5717055983
35.5504 33.971 5.64117 30.2370088087
32.877 35.4322 3.69596 31.6528904434
25.5159 26.5929 9.35964 28.9551410164
28.1069 27.074 8.60322 31.0599840799
25.8878 26.0759 11.9564 31.0714360262
29.4181 26.379 11.3158 30.1858901353
31.3065 25.1727 8.73228 32.6085144651
34.8355 26.5609 10.163 31.6559485167
32.9342 28.4135 9.24044 30.6549055184
27.3021 29.4727 10.4068 32.3512369375
25.2426 31.5702 11.2859 35.0746231401
30.9817 28.6256 11.5151 30.6798471402
29.8425 31.3433 8.44272 32.1062169586
31.644 32.6351 11.5669 27.1136156812
29.4623 30.8588 11.6551 30.6905050287
36.6578 31.9204 12.4171 27.8604306747
35.6574 29.5691 8.15466 29.5980745597
33.6556 31.0029 10.5246 31.1032808767
35.3567 32.6223 8.67555 29.9951038122
28.6376 33.637 8.3193 26.2841485138
27.1214 33.7914 10.723 35.0735112377
26.1042 36.1293 9.56428 32.1027887876
30.8025 34.6846 9.65593 30.9015608267
29.0899 35.4082 12.1979 32.2304905581
32.81 35.4658 12.1746 29.4059829621
35.1978 36.1068 9.14173 27.8448244376
36.8349 34.1359 10.8302 30.2073633589
35.3493 35.9175 12.4066 29.6456084206
27.898 26.4493 13.6865 30.2713667169
30.3156 25.5622 15.3453 29.9055475366
31.4287 28.1434 14.2682 31.2279194724
35.2145 27.4439 14.2102 28.2029872208
34.3446 25.1681 12.5933 32.7755241862
35.2068 24.5456 15.8471 32.60907848
33.2483 28.1133 16.591 31.1629702916
25.6015 31.31 15.4036 35.8769492004
27.0387 28.7222 15.2348 33.1209055651
31.3885 32.6613 14.1612 30.7259577366
29.5961 30.2068 14.7469 32.9188803289
34.5029 29.9812 13.1063 30.6207656936
33.7382 32.0771 15.1257 29.2290473628
25.2183 35.7143 15.5954 32.6258275094
27.7195 36.4097 14.5533 32.6192215582
31.6193 35.2787 14.6986 30.8123987131
29.523 36.3653 16.6906 25.7713919894
35.3156 34.3237 14.8638 30.6571466025
28.3308 25.2104 21.1818 29.7423852446
26.5601 25.9979 17.8415 28.661380118
29.2968 26.962 19.3207 27.6239002598
31.524 25.9979 18.0361 31.1313477258
35.0822 26.4012 19.7724 30.6820870057
36.0839 27.1789 17.4379 29.4207823962
25.768 30.0648 19.4484 29.3589326735
27.8922 28.9232 18.0901 28.3353591364
30.0238 30.7288 17.6436 32.0079307599
31.1455 31.1444 20.422 31.7962537877
33.0258 30.5986 17.6031 32.7586232398
35.4086 31.4438 19.1041 29.2207242345
26.192 33.4741 16.9404 33.1064022996
24.7501 32.9407 19.303 29.7160472611
28.8528 33.6046 17.8574 35.7539907663
31.1113 36.3494 19.0963 28.4215960848
28.7338 33.8202 20.6025 27.2830309624
31.7549 34.0139 21.0495 29.829383095
33.3648 35.2302 17.0581 31.8787560617
35.7481 33.892 18.0477 28.3835961933
36.7152 35.4407 20.1697 27.5186817131
26.6827 28.12 21.6681 25.6009640779
24.8997 27.7515 24.5042 97.4517987933
24.7138 26.2877 21.608 27.4761707474
27.6687 27.3879 24.1878 58.1682419541
28.01 24.6708 24.2407 58.4047156904
32.5846 27.3919 21.2505 30.2805553473
32.7333 24.5766 23.9376 40.3088356457
32.4243 24.6063 21.3659 27.4073908827
36.2519 28.35 21.4245 29.1286235627
35.315 28.2284 24.2993 71.9507296652
32.8256 27.247 24.2536 68.6322730936
27.9601 31.1073 21.5427 29.0539039111
25.1624 30.7551 24.4482 87.9576134882
29.8364 28.7387 21.5962 27.3443718098
30.3433 28.6777 24.4386 99.2106453245
29.3244 31.4649 24.055 66.377200024
34.0265 30.1264 21.5643 32.4577715188
35.0704 30.9276 24.1256 60.5842985005
26.1194 34.2168 21.6912 32.0490823264
26.5148 36.3219 24.1141 66.0421958687
26.9327 32.9005 24.2016 67.4458158184
29.5548 36.0398 24.1795 82.6939853794
30.8239 33.7311 23.5229 32.5822558278
29.3115 36.5709 21.3044 28.5610705095
34.3164 35.0159 21.5231 32.0728729304
35.0465 35.3987 24.3778 66.0738022865
33.4105 33.1928 24.5532 108.503443056
27.1417 25.1297 35.5345 99.0731070705
25.6702 27.4205 35.7857 73.2297985602
29.5681 28.4296 36.2221 74.517612704
30.0175 25.452 36.0631 53.842528328
31.3997 27.7193 38.7761 32.0476794654
32.6737 24.5662 35.2901 129.8905066781
33.7899 25.6864 38.5712 26.5285242331
34.6042 26.6936 36.1756 38.4865548136
26.8492 31.9683 35.4868 111.5273587292
25.2323 32.3428 38.5549 26.7359444439
26.9021 29.6726 37.221 29.0448321294
29.609 32.3534 36.1654 54.6817891226
31.672 30.3091 37.0901 32.6071049144
33.7546 29.4227 35.544 131.924765285
35.6114 31.317 36.513 38.4335326538
25.27 36.1277 38.4566 27.8873979589
27.9154 35.5951 38.5943 30.5687742972
28.1953 32.9669 38.5932 28.3471458117
30.8777 34.9501 35.4178 128.7146710321
33.6285 35.2121 35.9895 64.7277775522
34.0732 34.637 38.682 29.4941815131
36.3757 33.935 35.8781 101.7808173517
25.8025 26.9157 38.8733 30.0760206492
28.0268 25.2899 40.7952 29.8358461243
26.2008 27.9041 42.963 32.9538695978
31.6732 24.9379 40.4236 26.8725168066
29.6745 27.4955 41.2843 27.4351087631
30.1118 24.6691 43.1742 25.7421530288
32.9733 27.0408 41.8504 27.4451143223
36.3744 27.8058 42.7918 25.9793536874
35.3555 28.2163 40.3589 29.3417592774
36.5704 25.7774 39.1541 28.7525526331
28.0957 31.3287 41.0385 33.420025005
27.1644 28.7809 40.4809 27.2100233613
32.7184 30.1762 40.0557 29.9776376979
30.6386 31.7656 42.1053 29.9717040389
35.6368 31.9345 43.0959 31.5960048062
34.8344 32.1265 39.1556 28.0658917986
33.9532 29.7114 43.1917 29.1656335132
26.8489 33.881 41.8069 28.5615205911
27.8605 36.7243 41.3138 29.1832855764
31.5315 32.7724 39.2049 34.5288414598
30.4267 35.9022 42.5277 30.297055969
32.8463 34.7157 41.6803 34.1001295911
36.8173 35.6548 42.1729 31.300123625
35.4912 36.6247 39.9256 29.7594353596
26.2378 28.2837 46.2536 29.7721880468
28.1966 26.5258 47.4365 27.5521793736
24.9898 25.4107 43.6798 30.3582735435
31.1482 26.3432 46.8621 26.5454121467
32.3322 25.8163 44.1418 26.4735619054
28.9521 27.0153 44.3718 29.1413413897
35.2611 26.802 45.2217 28.8718640099
24.9319 30.3405 43.7521 35.0015317658
26.9789 30.7491 47.3777 30.7111963842
30.7837 29.2921 43.5045 30.8647159007
31.3564 29.6629 46.1431 27.7232144754
31.0472 32.4054 46.2198 33.7873260347
34.214 29.145 45.9992 27.8419705945
36.452 30.4643 47.4903 27.7132939734
27.9728 33.2631 46.4412 31.1716524387
25.7411 33.4868 44.313 29.7393478206
25.7003 35.7456 45.3002 30.7412518944
27.5986 36.0389 47.303 31.1946833811
29.6204 33.5058 43.8206 33.338278774
34.611 34.6092 43.6469 29.1247222795
36.1178 32.9681 45.8557 27.0017558499
33.5127 33.4259 47.0084 30.6514567223
25.6143 26.4111 49.0774 26.0935595235
27.3836 25.7243 51.0302 27.3939534681
30.1099 25.1962 50.8312 30.0197526698
31.4156 27.9496 50.0151 27.415767473
33.5646 27.4321 48.1485 28.8259636006
35.2462 28.3945 51.0374 33.0092832446
35.5477 25.774 49.811 28.8313037091
25.223 28.962 50.1232 28.7907375125
24.7143 31.2786 48.8589 33.2225628349
27.7306 30.0547 50.561 27.7463566289
29.4886 29.0595 47.9657 26.1100904435
29.9265 31.8443 49.0487 25.2457790356
32.0073 30.7957 50.3236 29.115356444
34.2282 31.7534 49.0322 28.8451667596
27.9477 33.9107 49.8297 31.7183524092
25.063 36.4205 51.6557 32.1014321334
25.0853 32.8816 51.2167 31.0624295485
29.6735 35.6301 50.9089 25.9989598293
31.8731 34.2083 49.9789 30.6794777906
33.0068 36.1492 48.1463 30.7279916296
33.9571 36.3804 51.1588 33.8925972306
35.0057 33.7865 50.9858 30.9127494588
35.7516 36.7606 47.7529 29.6992787311
24.9362 26.3262 54.2115 30.37096197
28.8477 28.0397 52.0874 31.4171978088
29.5386 28.1937 55.4538 30.567836355
32.9885 27.7111 52.5103 33.2992003112
33.083 25.2967 53.7779 34.8527073331
26.7274 31.6381 53.3377 30.2904852992
26.9631 28.7204 53.9541 32.6760462583
31.9097 29.2409 54.639 32.1775981084
31.6436 31.4292 53.2195 33.7922038737
29.1767 32.5678 52.3929 28.8692422404
36.6362 31.1842 55.2561 30.1824119877
34.0664 30.7103 56.1664 31.5389173853
26.7584 33.3758 55.4877 29.0725227928
26.7798 35.7172 54.0144 32.3550198769
31.3017 33.3292 55.2724 30.8147106065
29.7428 35.2225 53.6576 29.2112222065
35.6605 35.1558 55.7785 33.9388583017
35.7621 33.4301 53.8579 35.6334630175
26.2784 39.5328 3.79852 29.4089503128
27.9738 37.8768 7.31719 31.141962136
26.0226 39.8109 6.56705 33.22620709
30.8896 39.5885 6.47348 30.1541752287
30.155 37.0992 5.03621 28.2880108325
29.6657 40.3139 3.99354 29.7469841354
35.6197 39.2448 6.50854 29.8022516724
32.829 37.0178 6.29169 31.9816018152
27.1576 42.7316 6.26495 33.6065885255
29.5148 43.2251 4.38947 27.863513633
31.8012 43.6224 6.23319 31.4933595691
33.2872 41.0819 5.77435 28.0306880816
36.1339 41.5681 7.66265 31.7400398033
36.082 42.9294 5.1589 30.2532218304
28.2059 47.4542 5.38122 30.7046151644
25.8795 49.0164 4.25308 26.3788634067
26.5973 45.6325 6.65434 33.8548840121
30.1737 46.2066 4.00143 26.1827990602
31.7387 46.9781 6.19151 28.6290806347
33.9914 45.0514 4.96606 30.8575319564
34.945 47.1187 6.67249 28.0407090939
28.0227 38.0003 10.3901 30.8741247195
28.8311 40.3114 8.64631 35.0324958318
31.0781 37.5354 11.2217 31.5836493796
33.2486 38.1718 9.01467 32.4398777594
25.4817 42.4756 11.8622 29.8045641924
27.9704 41.2227 11.4373 32.9161765104
27.1381 43.1949 8.86897 34.3904091598
32.1364 43.5178 8.92541 30.00588794
29.58 44.0887 9.96626 31.0449890056
33.6106 40.9886 8.92526 29.0569237312
34.2666 44.1001 10.9269 29.8213695973
34.0859 41.1665 11.6168 28.4940242469
24.9682 45.2989 11.413 28.9202241475
27.3723 46.4424 10.4073 27.5585717614
24.9197 47.0076 8.61648 37.9465608803
30.2712 47.004 9.28341 31.7367973192
30.4619 48.5848 11.806 27.7087643099
33.3323 46.1304 9.11959 28.9744381509
33.1318 47.6458 11.5172 30.8994464752
36.4999 46.0891 8.92231 28.7972110373
27.3756 40.0722 16.0285 31.6427585839
24.7281 38.2761 12.8704 29.3667019594
27.2283 38.968 13.3009 28.5682639872
31.9484 39.7457 12.9185 32.6706758255
30.1042 38.9998 15.2501 32.4819261033
36.0053 38.6666 12.539 27.5707715263
34.1815 39.1636 14.6713 32.5288712382
34.8678 37.4761 16.7617 28.2926691348
26.5996 44.5284 14.1928 25.0630742155
24.6624 42.5415 14.7972 31.3239829262
29.0857 43.7317 12.6391 28.1162446936
32.1268 42.23 16.2047 28.1486459864
29.0627 43.9781 15.6752 29.3323038248
31.8342 42.8192 13.4147 32.5159654221
36.485 43.2272 15.2149 33.3047259716
34.8496 41.4128 16.6245 31.9699428809
36.7106 41.9222 12.5598 30.4498115833
27.9674 46.7804 13.2995 26.1088114243
25.1596 45.9344 16.5591 28.0670256788
30.5756 46.3539 14.1987 25.2798217899
35.4968 45.6921 14.7126 33.3703309321
33.0347 45.5584 13.3123 27.9318265494
33.8732 48.4529 16.1024 30.0017840111
28.1892 37.9387 18.3471 30.3978067653
26.5902 37.7614 21.2399 34.132188409
25.4553 37.6471 18.0019 37.6677647026
31.0103 40.1791 17.5412 28.1727849113
33.1999 38.6326 18.5918 30.7110608322
35.2181 40.7345 19.5664 30.6786665446
27.5054 44.256 20.0828 25.0157930948
27.6096 42.42 17.8575 30.2667246304
29.5042 41.356 19.5381 29.5220258626
30.8786 43.1276 20.8318 27.7976833116
33.1978 43.0864 19.0721 31.5225678417
26.7334 47.5546 19.8652 27.1725718173
27.7776 45.862 17.7552 26.8970527659
26.1672 49.0174 17.556 29.8070047998
31.0053 47.9108 19.6191 29.8012419871
31.6997 45.0926 16.9982 30.2950151784
28.8085 48.8617 21.2321 30.6738689587
29.9017 47.4856 17.0176 28.6268570319
34.4193 45.6345 17.2497 30.4536846847
35.0416 45.537 20.1327 28.9221730961
32.8275 46.1548 21.0485 30.1040395017
36.1361 48.1355 18.4215 30.5628015013
25.4998 39.1205 24.2027 57.6103889146
28.2939 39.8455 21.7455 29.7770377782
31.4279 38.0461 24.0756 55.7626352266
29.929 40.4081 24.2032 73.7870011033
35.3474 39.1501 21.7545 30.7578479787
33.1934 37.5138 21.3965 31.932632862
34.2235 38.0779 24.6611 99.1864856
35.875 40.4061 24.33 60.5780699132
27.2345 41.2115 24.6751 106.0171917096
26.4587 41.8632 21.4506 30.6950855878
26.1958 43.727 24.0634 59.3559330064
31.5331 42.1977 23.236 35.81443868
31.1964 44.4841 24.2889 91.0868868802
36.907 44.5233 24.2905 71.757519531
34.5929 42.7705 24.2775 83.3494422121
36.2358 43.4612 21.642 34.9805630157
24.999 45.0194 21.3919 27.1560026019
28.5956 45.3431 24.08 66.1034754322
26.4763 49.0114 24.6092 112.340605136
29.1155 48.1019 24.0121 54.2716389018
29.5234 45.2639 21.3275 28.1818667703
36.3762 47.8341 21.2968 29.1814551023
35.5197 46.8564 24.2347 100.3823003453
32.864 46.7375 23.7752 42.3324132489
26.5078 38.2533 35.7801 73.4366667934
26.1166 38.8624 38.8189 27.9193738771
31.6699 39.3496 35.5664 103.9942527286
28.9357 36.9733 36.404 41.7936587511
30.0089 39.1013 37.5845 27.2202140906
33.9493 37.951 36.2538 38.1348279818
36.4038 38.65 35.6107 108.5570221811
35.779 40.6512 37.7447 28.3947216392
26.24 41.1112 35.6681 63.9499498898
28.3057 41.0092 38.0146 26.9329826434
25.4343 42.7808 38.1182 27.8102644011
25.0983 44.4515 35.8491 79.8952597365
31.6215 41.9274 35.9817 49.9679450436
28.9312 42.3947 35.4912 93.9632516392
29.4278 44.564 38.7559 29.9473868721
33.1239 44.1188 36.0804 58.5327706327
35.5813 42.8113 35.9166 91.5388874964
33.1607 44.0445 38.7153 30.3365850993
26.2191 47.0469 36.7717 32.1262292903
24.744 48.8002 35.6558 83.0080652133
28.8966 47.4431 36.0497 62.4749034606
29.921 45.0633 35.8953 62.2486389155
32.2464 47.1628 35.7242 104.9821928593
30.6946 48.2581 38.0024 28.7566331823
34.2978 48.7639 36.4931 48.405178207
27.3549 39.604 41.3693 29.2666737585
25.4288 36.978 42.9417 29.8902197067
30.4439 39.341 42.5276 30.1152334409
31.1308 37.9245 39.9696 35.7868241844
32.355 40.7022 40.9841 29.2292774322
35.7603 39.7248 41.6324 29.3511068182
33.8994 38.7482 39.1226 29.0411227018
28.4062 41.9201 41.4585 31.0605109286
26.9779 44.1674 40.1371 28.2547530269
25.6614 43.7521 42.7338 31.4207336331
31.1136 42.3119 38.9149 28.9393304535
33.7187 42.4646 42.9151 27.5238813148
36.8849 42.5557 42.8244 30.9763309077
35.0527 42.3851 40.1073 26.1058553244
26.5336 46.8476 39.5202 30.0611967192
28.0868 48.578 41.4587 30.5116126357
30.3922 46.7243 40.2872 30.8625199027
36.6145 48.9073 39.2842 29.1024425381
34.0007 45.3466 42.6184 29.3577833577
33.04 46.4116 40.2686 30.6689784184
33.629 48.8325 39.2236 27.6899215956
35.8062 47.515 43.1664 28.7250725706
27.5372 40.3867 45.5305 33.7097488303
25.6697 39.7351 43.7056 33.0744420784
29.089 38.1075 46.2272 32.991914585
32.0679 40.0561 44.9525 30.9477689505
31.3416 37.4588 44.7099 31.4379341495
35.0821 39.9099 44.4225 27.7295574949
34.3826 37.213 44.9665 31.0165629396
28.2995 42.907 44.019 31.6530824596
31.1722 42.7849 44.5332 30.6595527399
30.8965 42.3148 47.5471 31.5042602477
36.0986 41.1867 46.8269 31.0489345149
34.2089 43.4102 46.2526 29.4574724706
26.5498 45.3433 47.404 31.0576264569
27.7031 45.7206 44.8802 30.4486173721
25.0517 46.3035 43.713 32.5387249319
26.2313 48.9982 44.0971 30.2178790355
28.8789 47.3369 47.6071 33.9940502295
31.959 45.5688 44.63 29.6455122427
31.7247 46.8658 46.966 31.4620361447
29.8866 46.9397 43.3774 31.2684955602
36.0029 45.2839 45.0744 28.8728689265
25.6377 40.7836 47.7598 28.7071397607
25.8598 37.4898 49.0789 31.196861482
28.3309 38.261 50.4698 30.6274088688
25.2479 40.7638 51.9825 28.4149417633
32.2317 40.4564 49.088 32.0571019413
31.8367 40.3391 51.7027 30.0735958981
30.6084 38.0281 48.631 32.0535433987
34.8313 39.4225 48.4156 30.7985884894
36.5761 39.4106 50.6872 28.0548103106
27.2798 41.1721 49.7514 31.3889312442
28.5309 43.3766 48.6841 32.7246017788
28.9425 43.991 51.2573 27.4835515357
31.4753 44.8556 50.9297 31.3740755216
32.4998 44.4712 48.2078 26.0858947343
36.406 41.7788 51.3521 30.5953551479
34.8087 44.0332 49.8279 29.9839092394
27.5234 47.046 51.4249 29.3233058814
25.4902 47.1544 49.5389 31.3476640294
31.7679 47.5712 51.9374 31.9047950149
29.7637 48.6088 50.253 31.1042699385
35.3008 46.3705 51.4283 25.7685813602
34.1914 47.675 48.0155 30.2854450361
36.0531 45.9332 47.7792 31.615319627
34.0226 48.7029 50.7821 31.2765065133
27.805 39.9079 52.9491 29.0922663012
28.4059 38.0412 55.0807 28.9602587262
24.8105 37.2751 55.8809 34.2534744187
32.6297 40.4799 55.7367 30.0033407111
31.5335 37.6246 52.5753 30.6623853191
31.4847 37.74 55.3112 28.5139017513
36.7722 37.5283 54.954 36.8170540223
35.1872 38.5356 52.8031 31.8085015244
25.5896 41.4772 55.0977 30.1433456333
26.7144 43.5359 53.0207 27.7209005462
26.7128 43.8922 56.111 29.0703018832
29.65 41.8102 52.7039 28.026669665
31.0751 42.5929 54.9307 28.6144253481
34.073 40.9721 53.3479 24.8139536244
33.4377 43.8117 52.5351 27.8263268496
35.8407 41.6942 55.5529 29.7495940458
28.1043 46.0278 54.4336 30.4890121206
27.4111 48.8669 54.5748 29.3011316864
25.2012 47.5226 53.1666 25.136429633
24.7964 45.8897 55.8002 29.0054979368
30.831 48.1883 54.4209 28.5645822472
32.5576 45.2678 55.31 31.4989046006
35.533 48.0727 55.092 31.3861428031
35.4532 45.5013 53.8434 28.6693518272
39.6931 4.05708 6.19421 31.217179855
38.1917 0.729842 7.65111 27.3029255592
37.4232 2.64724 5.43863 28.038243789
41.8856 3.36266 4.68329 29.0384376979
42.9794 3.53986 7.28417 30.8602592168
42.5906 0.795508 4.3814 30.3793879068
44.7303 0.120818 5.91911 25.7081010785
47.7782 3.0127 4.47437 28.5428197952
46.9136 2.64857 7.27948 31.0855987612
46.4584 0.690474 3.85737 30.5556188123
39.5624 6.84155 6.77767 34.0305925581
42.4822 7.46489 3.99966 36.8077610339
44.4751 8.01445 6.21491 32.5163769949
45.2057 5.25225 6.78533 29.9443318998
46.1667 4.92867 4.01724 35.0265670744
46.6733 7.86134 3.85999 34.2938923733
38.2385 8.47944 4.56953 31.6982235673
39.8639 10.7885 6.69783 33.5299477687
40.7436 10.4537 4.14928 30.71208362
44.893 10.7002 6.43859 32.4558446948
43.1616 11.9801 4.72009 32.1866696856
47.8057 9.75812 5.96456 27.3877367042
48.6707 11.9675 4.52589 29.1554538555
38.4234 3.07027 8.96324 30.5506897111
37.7753 2.09215 11.7937 26.7823611984
40.7403 0.880528 11.2091 28.3665369971
44.3399 1.38917 8.30956 27.0482715788
41.4515 0.180339 8.66321 30.9462500732
41.8112 3.63511 11.9852 27.8475629891
44.5529 3.29572 12.387 29.6121607343
45.7029 1.52491 10.4957 29.4016671174
48.6152 2.08789 10.8417 35.2110123649
40.1139 7.15951 9.53324 31.8894657332
37.7155 7.4726 11.0996 29.747308197
41.2035 4.41235 9.16209 31.7754832607
42.8993 7.35834 10.7947 30.0452858076
46.722 6.00288 8.70453 32.608944136
45.297 6.03332 11.0914 35.4204040114
48.8107 4.16407 9.26401 33.8238286169
40.8331 11.0901 9.16486 33.4236938927
42.4581 9.08507 8.53956 31.9302358044
41.0973 11.8406 12.1729 29.9911726651
44.1981 11.4158 9.69121 31.1667391095
46.7675 11.5038 8.41345 28.1153973009
48.098 10.1451 11.052 27.9901435259
45.8048 11.3313 12.0346 28.4004094203
48.2622 8.49526 8.48771 33.2837488327
40.6864 1.56918 15.6059 31.5073755267
39.976 3.7008 14.0541 27.3424638052
38.1323 0.263101 14.614 30.6236910921
37.312 3.46933 14.3666 27.5812675573
42.869 0.999186 14.1288 30.9616566327
48.5658 2.86927 13.2253 31.3818681413
45.2316 0.439661 15.1609 28.5273187392
46.0244 2.91471 14.4931 30.8060936103
40.6735 5.80526 16.1228 31.3799885682
36.9827 6.32356 15.0526 27.8364622518
39.4121 7.45261 13.4674 28.7799453684
38.7297 8.14092 16.6427 26.389961609
41.9148 6.07786 13.1806 26.9742869717
44.0867 6.87992 14.805 28.8953388647
45.4966 5.02513 16.1415 31.3363931447
47.6724 6.39279 15.8621 28.8370216575
37.6608 10.9655 15.8537 31.7246599416
39.7441 9.99459 13.8929 32.2975914258
43.7246 9.37351 12.7489 29.7007455169
42.1966 10.3297 15.1884 29.0761767346
46.2301 8.21573 12.7465 29.1763889934
47.3426 8.91445 15.327 30.9138970228
39.8408 1.46679 21.007 29.609800501
38.8852 1.80695 18.3826 31.0881958137
44.6965 0.65682 17.9314 31.5574325939
41.8068 2.03901 18.3507 29.9716411008
42.6204 1.80862 21.0661 28.8729976579
46.0817 3.19643 18.6761 32.4138332256
49.0075 3.35686 18.804 29.4321830778
39.7671 5.50407 20.0941 28.5678975456
38.5585 7.81087 19.7257 31.0622824959
37.783 4.89052 17.3657 30.1218654098
44.3824 5.73119 19.3584 33.472923709
41.9169 4.84481 18.5561 31.3602274957
47.6878 8.02466 18.9761 28.187115645
45.8903 7.12729 21.2172 27.9728292982
40.8317 9.72633 18.3939 31.8597347498
39.1683 12.233 17.6621 31.0480862139
39.0092 12.1338 20.7807 29.2652348046
42.5568 9.16086 20.5952 30.6444713897
43.2342 8.46585 16.9883 31.178543818
48.5491 10.4294 18.2057 27.2470608159
45.6902 10.2759 17.3255 28.6700997167
45.395 9.75341 20.1068 26.3155960263
45.5169 12.1363 21.1202 26.4809643911
39.8063 0.743595 24.8248 124.6927200569
38.139 3.73079 21.4784 28.7428766893
37.7165 2.35562 24.4187 77.8984456202
41.7155 2.31262 23.6831 42.1945295863
46.5536 0.71138 21.893 27.4530893664
45.5105 3.07162 21.5501 28.0231678358
46.4488 2.78244 24.7291 104.9659252725
36.9666 6.90327 24.7224 123.6659616711
39.0705 5.02946 23.9576 44.3359392492
44.5401 4.7588 24.0692 58.324071463
41.2183 7.08901 22.1965 31.0980615063
41.7359 5.01335 24.228 89.1919389792
48.0078 4.91223 21.7694 28.4256134636
45.7328 7.8195 24.0617 63.2740993004
48.0135 5.45575 24.3882 68.5106884599
39.7978 11.6025 24.2889 77.4742495288
38.0896 9.79684 21.5676 26.7080161521
39.1769 8.78659 23.5919 42.5732635559
37.0243 11.7176 24.386 85.9261760933
43.2667 11.9018 24.3818 80.6725171632
41.7062 11.8471 21.7121 27.8679122378
43.1312 9.06475 24.0086 75.9871469814
45.8313 12.2014 23.8445 47.400866377
48.226 10.4999 21.5695 26.8497517502
47.6331 9.94845 24.2682 79.9324210178
38.3482 3.25984 35.4526 111.2784223849
39.9145 1.96777 37.6433 28.1445277072
39.1345 0.015814 35.5991 88.2439989478
42.7942 3.44959 35.8929 83.8192739407
42.2292 0.566101 35.9956 58.2680962204
47.1024 2.25856 36.238 43.7321827089
40.6872 5.14442 36.3708 36.6730209115
38.3023 6.29707 38.7144 25.9007085187
38.2296 7.91988 36.1682 68.2722635829
41.7691 7.52331 35.8247 94.3457624778
44.7327 6.96735 36.0698 64.5920787778
45.108 4.363 36.2783 52.0055431406
47.4383 7.82862 35.7405 71.0306054039
37.7123 11.802 36.8127 37.5727535972
40.3619 10.0147 36.0965 59.2347018418
46.2064 9.39751 38.4144 26.9344464216
48.926 9.18453 38.5781 26.0343496248
46.0374 10.6368 35.9429 70.671541083
40.0131 2.34627 41.8211 28.1860560316
37.9675 1.92547 39.9509 24.1710812927
42.9114 0.311104 38.9668 27.4595751276
44.4611 3.02296 41.7038 29.3784168832
42.13 3.23884 38.9031 28.9194283371
42.5351 1.15565 41.575 29.136477026
49.0123 2.32109 40.2959 28.7516446174
46.6188 1.52289 39.0618 29.3919771315
46.4609 1.69296 43.1581 30.2320275198
37.3366 5.953 41.4169 30.3585610079
40.1302 5.0751 42.2427 29.4232549149
40.5614 5.69002 39.3797 28.0262315704
42.6912 7.64505 38.8585 31.3712217895
42.9381 4.9324 42.9021 30.7866910054
45.3367 7.19563 39.8684 30.1096673446
48.2298 5.04817 40.2928 33.2937872076
45.413 4.17749 39.3502 29.8247033638
46.9824 7.55334 42.0807 33.4853177455
38.1233 8.84998 42.1591 29.2301393859
37.9089 9.11668 39.2523 29.0875680109
40.7928 9.51747 38.8542 30.5144256353
38.7172 11.7387 41.3982 30.1980522459
42.3764 9.07786 41.9627 29.9273694768
41.7836 11.8143 40.6764 29.6993841855
45.1986 11.5279 39.9708 30.1475724688
48.6347 9.97797 41.3729 29.2671495884
40.1929 3.17486 46.0755 28.6200694089
38.631 1.83788 44.2973 28.958134242
44.7489 1.78558 45.7297 30.3116344303
41.9971 0.964573 46.8802 31.4595362003
48.566 2.81369 44.2894 31.4571575557
48.2734 2.36818 47.1993 30.4335514362
37.6912 6.53895 46.2489 35.0497784191
40.2276 5.93572 45.4822 28.6569462427
43.1969 4.11391 45.6579 32.1721236963
44.2025 7.27495 43.2818 32.0825064668
45.3696 7.74142 46.1962 34.0278459658
47.9194 7.00228 45.9707 31.7615587296
48.5182 5.61028 43.4999 31.7741029196
40.4202 8.22217 43.5698 29.8888676769
40.8718 10.538 45.287 33.5823528169
39.3029 10.3003 47.5075 30.9842267451
44.0195 10.5432 43.8679 35.5947654241
43.016 12.167 46.5444 30.7313645482
45.2816 10.446 46.8932 30.7414991743
47.7135 11.2557 46.4187 29.6416345286
48.1779 11.85 43.5698 30.4572216161
38.5607 2.36414 48.4708 33.1017349632
38.6843 1.76903 51.4714 30.6023877702
42.8332 1.66235 49.4694 30.6862010979
42.3532 3.47451 51.5971 28.7502868919
45.7911 2.21937 48.2285 26.4508085143
46.0489 0.363013 50.2639 31.2620220778
37.8524 7.53917 50.9146 33.3835615045
40.2827 8.13277 49.6928 30.6779120051
38.4037 5.03358 51.5355 30.4366163007
40.4623 4.23578 49.4743 30.1272198456
41.5312 6.23482 47.9014 32.4049559602
42.188 7.79702 51.9289 31.1424289872
44.3551 5.65252 47.7414 28.748805333
44.4334 7.64109 50.0633 32.0831610838
48.8468 7.61251 50.4797 34.6658098083
48.6073 5.77191 48.4662 27.2582718602
46.2883 4.5744 49.2715 28.9624658841
46.2833 7.07939 51.7547 34.5209071094
40.0752 11.1167 50.2832 28.7572898494
37.18 8.67484 48.1369 33.2653625102
42.4793 12.2177 49.1353 31.2755598882
44.705 10.4642 49.8551 36.0617055461
48.8618 10.2808 49.3152 29.8534166271
37.3526 1.64626 55.7113 28.3147312098
39.962 3.26155 55.3176 28.4344263392
40.8435 1.69165 53.1309 28.6018228502
44.2505 0.63186 54.781 32.4601107195
44.8211 2.1506 52.29 32.452632372
48.9327 2.52669 52.7185 33.9417605066
37.4475 7.49976 54.6498 30.5647236645
39.4359 5.58329 54.3077 33.4811991165
42.0435 5.50061 53.3601 27.754428294
43.601 5.17141 55.4341 34.34333251
46.774 4.15954 52.3252 37.6020609085
40.6555 10.5281 52.9 29.2038572647
37.8527 10.0257 53.6116 30.1340409833
42.7811 9.14453 54.426 32.9693312403
47.6689 10.6421 53.7664 30.6198233208
45.6244 9.07209 53.9404 35.5573434319
37.7593 15.2605 5.88929 31.8919294906
40.0961 15.0571 4.71153 31.0766987079
37.4952 12.3353 6.49687 33.8206275684
42.3604 14.0001 6.28035 32.452927175
44.2644 16.1489 5.91129 31.7153749026
47.4143 15.5546 6.14517 34.2130802926
48.92 13.1785 7.42055 27.2726565951
37.7306 18.7015 7.21718 30.0756665455
39.8285 19.3099 5.52069 29.5370302588
37.442 20.247 3.95176 28.5726803895
41.5449 17.5144 4.42289 29.0379045362
42.8475 18.4148 6.9531 31.9394405769
46.1063 20.4022 4.09079 33.7969101266
48.8142 20.3176 5.77522 26.3034422597
39.0408 22.6984 4.1504 33.9690686206
40.6446 21.6271 6.62331 28.2376452767
37.3681 23.9 6.4436 29.4017133308
44.7496 20.5617 6.50248 28.3378283072
42.8455 22.4572 4.98109 30.2580708425
44.4198 23.3018 7.74314 27.8728314266
45.0752 24.322 3.77769 31.6453437063
47.5326 21.8679 7.78529 26.8462906968
48.8403 23.4584 5.51802 27.6807252792
39.8865 15.6703 9.81008 29.4696671734
39.2381 13.7496 11.8387 29.4399127857
37.5358 16.1773 8.47833 30.1175156421
36.9304 12.4606 11.2045 33.5959137801
43.8905 14.626 10.3701 27.8001858584
41.7189 13.7761 8.95896 29.040876087
46.6849 14.1921 10.0004 27.1761672444
48.3982 15.0446 11.9062 30.1238456572
40.2483 20.2525 10.756 28.1633591653
37.7997 20.3051 9.47495 26.4356438097
