33.3936 21.1127 54.8599 32.4947098159
35.3883 20.6735 52.7392 26.2456944188
36.3874 22.8696 55.2024 29.3431752425
27.6269 26.077 7.12773 29.6156822189
24.9544 26.6662 3.7719 29.9848230958
26.3748 24.7136 4.96265 31.420235103
30.9335 26.028 6.29417 29.8830460342
29.9271 26.152 3.79734 34.6857711529
33.262 24.6599 6.66673 31.8085797332
35.0014 28.4638 7.4681 30.5125910412
34.9775 26.1431 4.88698 31.2627863623
27.9389 28.8528 5.97864 29.4146625132
25.8529 30.8102 5.98278 27.6688171808
26.2659 32.5672 3.65412 30.35636198
31.089 28.9159 6.55514 27.1368584518
29.8547 31.3527 5.93448 30.6580354289
33.9159 31.5617 3.85587 27.1434039674
34.2682 31.7956 6.58263 28.7873636466
33.4314 28.9301 5.29943 29.4993293843
36.799 32.3525 6.39525 28.0344763416
28.7093 35.9416 5.76386 27.6266192587
26.754 33.1732 7.70922 29.8868863493
26.7554 35.2239 4.29216 27.6200262589
31.0403 34.1489 4.66513 31.4705009034
29.6385 33.706 7.72474 29.3061628381
34.9254 35.8348 5.45247 31.7002194066
33.0188 34.2523 6.61054 29.3426403436
25.5592 26.3749 8.88364 30.1253949732
27.0958 27.8347 10.7682 29.4937270534
32.5264 25.1399 11.2577 29.6903951761
29.8196 27.1898 10.7988 30.3826397429
33.5094 26.4223 9.07599 27.7527144929
35.7182 27.0214 10.5724 31.223945016
27.0895 29.9994 9.23411 31.5442716829
27.8087 31.1198 11.9079 30.1136836629
31.8658 28.6976 9.00486 26.424396975
29.8065 31.658 9.71313 30.0600036918
32.0747 29.5449 12.3058 29.0595181894
32.9801 31.0954 9.51918 30.4782150991
34.8549 29.5985 11.1576 29.9006283018
25.9287 33.0919 10.4242 29.1538698886
25.9624 36.0276 10.6234 31.2048977399
30.4838 33.1412 12.0043 27.1742994807
31.6946 35.4725 8.64917 28.4108104725
32.8135 33.9996 10.5736 27.3966336583
35.5549 34.3151 10.7252 33.8243854729
25.1788 28.0431 12.9505 31.6176014376
26.4693 25.8166 14.0961 30.6056641524
30.1792 27.7288 13.5164 29.0817333017
29.8941 25.2211 15.1191 30.6598244021
33.1875 25.7075 14.1467 29.6539169075
36.0696 25.5799 13.1613 29.8219391704
32.9176 28.4513 15.0648 26.5431676034
26.1973 30.668 16.5564 28.9671892672
27.9388 29.2989 14.1232 29.353420078
29.6344 31.0885 15.5592 30.9258943976
31.7054 31.7462 13.8795 29.8194862798
36.0223 32.1021 15.2304 29.8774188723
35.1988 29.5948 14.2302 30.3599550359
27.3657 33.0921 15.9829 29.9030290317
25.2107 34.953 13.8451 28.2564340209
27.8994 33.9309 13.205 32.2560663978
30.9675 36.0519 12.8376 29.2294343761
33.7779 35.7074 13.0402 28.398273738
33.4866 33.7298 15.0028 34.0103788
26.701 28.1815 20.384 26.1932947499
25.9839 25.9859 17.0457 32.4855357858
29.8038 25.5075 17.901 31.0037389466
29.8888 28.185 18.6245 28.3433227751
31.2544 26.3057 20.9567 29.0923010287
32.7748 24.9472 18.2262 34.1535776342
34.1311 27.2185 17.2566 33.1157120708
27.2348 28.6034 17.9061 30.8077672095
31.6641 29.8434 17.3769 28.5160442182
29.9939 29.833 20.9568 30.3386624742
31.387 32.6191 18.3704 28.2074348413
32.1197 31.4184 20.9472 25.89057036
35.68 31.5424 18.1132 30.8627009124
33.9022 29.5563 19.1843 29.595558943
25.1697 35.0365 16.9466 28.7095233633
27.4562 33.384 20.8574 31.911110645
24.8193 34.3917 19.8676 32.3231916196
28.9456 33.8207 18.1545 31.932682361
30.9819 34.2098 20.9675 28.332482146
29.6383 36.4351 18.0712 28.3200498748
33.2803 35.7972 21.0405 32.2383211315
33.139 34.4534 17.5982 29.1376205924
36.1524 34.7644 21.149 28.4819726889
36.019 34.328 18.078 28.286495472
28.0612 26.2584 21.4221 28.9935908007
25.9895 28.3291 24.6124 124.2417317148
27.8683 26.1769 24.0876 61.1598210875
30.6334 26.8587 23.7427 50.0406944597
36.6513 26.4551 21.761 40.6804673326
33.8738 27.6365 21.4635 32.3847030249
33.3368 25.9754 24.3348 81.225647423
27.2385 30.7168 21.2969 33.0584703172
27.3393 30.4138 24.003 64.759866916
30.0666 29.668 23.8551 68.298107152
32.4719 31.188 23.7062 37.3650024623
35.0682 32.1451 21.3439 30.0418694368
35.374 32.5176 24.1928 75.1087674816
34.2245 28.8931 24.3337 97.6435256209
36.8689 29.0004 23.0283 29.9679630794
25.7775 35.6784 24.1186 80.0827858935
27.5411 33.525 23.6529 54.2307163346
24.9459 36.7622 21.5243 27.2121277103
29.6637 35.2137 23.5476 36.4889484465
31.8182 33.7068 24.4107 106.8666760383
33.9886 35.0585 23.9739 47.8772479135
28.5264 25.188 38.4659 26.6872313594
26.2632 26.0023 35.9008 70.4147124703
30.8958 24.8229 35.1203 121.9567760346
29.1076 27.0729 36.0908 41.1711333041
30.7429 27.909 38.588 32.4909052976
34.8932 27.4038 35.9522 63.0425713753
33.3288 24.8709 36.5979 31.6221900473
34.9019 28.1202 38.6868 29.6421276543
26.3697 29.6411 38.6244 29.7821096723
27.9131 32.0682 35.7115 87.2398708768
27.3034 32.3212 38.4812 35.7703296939
26.999 29.2228 35.8977 64.7462365853
31.038 29.2933 35.6412 88.7434118009
30.7472 31.783 35.8188 56.9809141977
30.9503 32.2283 38.548 29.5040498465
34.0668 30.2156 35.9542 61.6978352458
36.189 32.5891 35.7514 61.1850474719
25.7534 36.0673 36.3818 41.3670961295
28.2545 34.9666 35.7518 78.4787524376
30.2888 34.9532 38.1622 26.6329942053
31.378 35.5541 35.7892 59.8725349039
33.6336 33.5809 38.8216 27.0005558012
33.3565 33.3508 35.6757 69.4465687
36.4052 35.3069 35.6204 81.047454312
36.4506 32.9537 38.5443 33.7612602486
33.9731 36.5616 38.5906 29.5975350614
33.8493 36.6065 35.7173 65.6769050598
27.1251 27.0659 39.8509 27.2467195819
26.3911 24.7592 41.361 28.3389921186
32.7593 25.8237 39.241 28.5882461546
29.2998 28.3016 40.8938 29.7572967869
30.2535 26.0781 42.514 33.3391719685
35.1143 26.4452 41.1995 29.455941253
28.6666 30.5087 42.0978 28.2850392401
25.8002 30.3137 41.7912 31.1832049697
31.404 32.3507 43.1771 27.1206068362
32.8414 30.0957 41.8996 30.6590594453
33.001 30.2687 38.9987 29.2814809109
35.6994 29.456 41.9709 29.5342488588
25.4225 35.8098 39.0839 26.0682727283
27.8358 35.6044 41.7704 27.4544460013
25.5972 34.6868 42.9561 29.2780432626
28.1615 36.3426 39.2535 27.62471398
31.389 35.0097 41.6095 29.612653575
28.886 33.0532 40.685 27.4373111987
33.9952 33.0861 41.4996 31.7275409325
26.8867 26.7323 45.7958 30.2216892797
25.1557 25.8025 43.4843 31.5877535823
28.8075 25.0295 44.8254 33.550442148
31.9135 28.0255 43.7634 32.5716134798
36.5817 27.2254 44.014 28.5958786081
33.3486 25.1276 46.6486 29.4580425351
33.9187 26.1316 44.0435 30.3192016563
36.4122 28.5417 47.5463 28.5406217318
26.6176 29.3514 44.8853 33.0901629383
25.208 31.013 46.8266 26.9204598687
29.4309 30.6352 45.0738 31.4805903553
32.1222 29.5501 46.0692 29.5073574369
33.1691 32.2338 45.3874 28.3524998048
35.3309 31.3811 47.403 27.2394500254
35.6861 31.605 44.0118 29.7944528831
26.9292 33.3527 46.4624 28.1553206186
28.2134 33.2021 43.9849 27.6884869815
24.8197 35.3059 45.8434 34.1161864422
32.7126 35.1033 45.1569 32.8145367209
29.844 35.3119 43.9709 27.1106880048
34.9744 35.0981 43.5091 34.4749468703
28.7006 26.3197 51.0403 29.225822065
27.9808 27.5743 48.7469 36.1425494623
31.8765 26.3615 49.8935 27.9061799709
33.6364 27.8041 47.6975 29.704993149
26.4675 31.766 50.0556 31.0543736618
25.2935 28.7468 48.5066 30.6505296469
30.3663 29.1788 48.1341 30.6348215909
28.7438 31.3796 48.1561 31.0797312559
29.9645 32.4775 50.6347 27.8617869122
31.2658 29.8093 50.8075 26.4824432985
34.0987 28.6656 50.6372 29.961475066
36.3285 31.8917 51.7653 27.6675521124
33.7951 31.5613 49.7698 28.8018786866
28.488 34.7454 48.2521 29.1360511191
26.292 34.8022 50.2667 28.6198190127
31.2079 34.673 49.8442 26.2534213532
33.0377 33.9709 48.0685 29.5892732544
33.5354 33.9812 51.6243 26.7225846831
35.3288 35.136 48.6099 27.8840715806
36.7101 34.8986 51.4364 29.5174798118
27.7854 28.0296 56.202 33.0119466626
26.3489 24.9476 52.187 32.7713540425
24.9127 27.1366 53.6149 30.5026394821
30.3193 28.0981 52.5137 27.8045386961
32.2281 27.3263 54.9361 31.3488917159
31.7875 25.3026 52.6298 31.607810202
35.4658 28.0766 52.9548 31.5919206204
34.6251 26.1007 54.8091 31.4836516532
28.0557 32.3073 52.5861 27.2338010323
28.3789 29.5772 53.6988 29.7284934649
25.6474 29.55 53.2673 29.9051811464
28.8369 31.3587 56.1334 27.7936694339
32.2456 31.6768 52.9899 26.9239072163
31.7782 30.1665 55.6424 30.1902414084
34.855 30.7075 53.6661 27.7703413281
36.7607 31.2661 55.6172 31.233544075
27.9894 35.6561 54.8307 28.6831029873
25.9854 34.3649 53.2779 29.2677983446
29.9084 33.4769 54.3188 29.7401006036
32.7425 35.9609 52.8925 27.9302935616
32.8769 33.7223 55.3694 29.7165352475
34.4491 36.4049 55.7202 30.0828605888
26.6445 39.515 6.45918 35.7729963052
25.5995 37.9257 4.35144 29.748228568
27.8679 37.5758 7.80259 30.2654984795
28.7335 40.2676 4.31651 31.3100031121
31.6617 38.0988 7.15636 28.9889667227
30.4539 38.0808 4.35963 32.5105463512
33.1155 40.2162 7.04053 29.6840155219
35.0686 38.1893 6.95292 34.9781601204
25.9462 44.6535 5.6237 29.2424618092
27.6842 43.5957 7.97876 31.2879042158
24.9455 41.7004 7.95723 32.0076668386
32.3009 44.8793 4.4431 30.7864883868
30.455 41.6335 6.26512 31.1232913428
30.1298 44.2195 7.27627 32.9936860266
35.9773 44.1636 7.81899 32.1524357034
36.0361 42.5231 5.52894 30.9277308296
33.1466 42.1922 5.01075 30.1318262032
27.7895 48.53 7.2333 29.3861328586
25.7929 47.3659 5.13277 30.547812743
29.7116 45.7759 4.87928 32.6039382743
30.3158 48.5208 5.33086 30.5964614863
33.7704 48.004 7.86033 31.7068747363
34.1412 45.7621 6.26721 29.4618790807
35.9729 47.6587 5.02106 32.288903245
25.1844 37.0571 8.15324 28.3592817633
28.3517 37.0597 11.8388 39.0904384293
32.58 37.362 10.7993 35.2425836851
29.9255 38.5865 9.22417 33.4808313581
33.9889 40.1248 12.0619 30.2125505182
36.8671 36.811 11.075 29.9649972119
25.6163 42.5346 10.5842 32.9632902632
28.5052 42.5331 11.2628 35.5253239827
30.1881 41.5009 9.19695 31.504133551
32.777 44.3689 8.88338 34.1652404749
35.6524 42.8364 12.1495 29.8577600352
35.9025 41.9491 9.62467 31.6749943969
33.0403 41.6325 9.84484 30.3507691156
26.549 46.2063 8.39872 27.163171224
25.2804 45.0366 11.4015 29.454320148
27.8141 46.9392 11.0247 32.8528635675
32.2067 45.2978 11.6211 31.1316574286
29.5653 44.9436 12.1445 31.3287385225
33.8726 47.5399 10.892 31.7977161157
36.4997 46.9597 11.663 33.616785344
25.4734 37.9951 14.9205 30.545161216
28.4866 38.733 14.4655 34.0705604609
30.6686 37.2138 15.3386 34.7066742538
33.1522 38.9777 15.4774 33.1437135084
35.0553 38.1048 13.5922 26.5803900721
26.591 42.5877 15.0294 32.8175682192
25.3389 44.8437 14.1793 32.868123833
29.1248 41.5094 14.0765 32.1702926025
32.025 41.1998 14.0696 33.3951959832
29.6504 43.6421 16.2554 28.544378782
34.7858 43.8787 15.9563 30.886132936
33.2744 43.7507 13.6514 29.945750784
28.511 47.7988 16.1373 29.660322468
26.3504 48.5088 12.7418 29.6545035312
25.862 47.5946 15.3459 27.6895565609
31.9282 47.4194 14.1895 27.3186117675
29.7792 45.6704 14.7198 30.2535515461
36.7632 46.5338 14.361 33.2400196563
34.1893 46.7601 15.6592 31.6617711166
25.7093 37.4413 18.6493 29.2825673677
27.9635 38.7251 17.4775 34.0103353701
32.508 36.8718 18.4893 27.4940686759
29.3441 40.8151 18.7066 31.5962231235
31.4736 38.4614 21.1162 29.0443499816
32.0162 40.8496 19.2601 25.7683922535
29.443 36.8748 20.7192 26.9967086378
36.0063 37.7938 18.1768 33.3503433158
33.8513 39.5114 17.9969 27.602612808
28.2468 43.5966 18.6141 27.1050689449
25.622 43.6411 17.9226 31.60891374
31.4133 44.4952 19.8817 29.23697155
32.2946 42.5049 16.8891 30.7521210922
35.4592 42.1339 18.3365 27.3222188543
34.3323 44.5019 19.622 25.7079859577
36.5422 41.7907 20.8575 26.4667920232
26.7772 47.9306 19.1296 27.1568037689
25.0408 45.2596 20.4226 29.1647396619
29.24 46.2628 18.6253 27.6052300026
31.5997 47.9598 18.9155 27.9340855754
34.2041 47.2629 18.3813 27.6925844655
27.1813 38.3167 21.3799 28.9477217323
26.9331 38.7621 24.1548 56.0369294006
32.3823 38.7726 23.7221 34.6400476712
29.8625 38.0239 24.6509 110.6688024822
28.9633 40.6254 21.2726 26.1417545119
34.9699 37.7723 24.442 112.4622637007
36.7676 39.8428 23.1734 33.7642342762
25.2296 40.9469 24.5377 78.3642489769
27.305 42.9939 24.5995 81.4980307468
26.5069 42.3602 21.7784 31.7761128475
29.4151 40.9557 24.2358 54.7213686209
29.7077 43.4369 21.7791 26.6454819803
30.5961 44.4353 24.2503 65.4355437482
32.5688 41.4214 24.3757 86.8346238358
33.5734 41.9894 21.4078 32.2888891485
35.4075 42.1566 23.9421 66.4688313614
27.7751 48.0912 24.1194 61.5095027177
27.3804 45.2718 21.7419 26.0066327574
26.6809 45.7221 24.3056 64.7181646197
28.6999 48.0274 21.3613 28.4248702018
31.2607 46.7415 21.8341 27.0554385806
30.5911 47.6541 24.6039 101.7730815315
34.2301 47.8003 21.3822 26.1858448325
33.3336 45.1955 24.2078 80.663591482
34.0709 48.1041 24.2033 72.0594733831
35.3598 45.4166 22.2319 28.9457286041
26.8779 40.2125 35.9846 69.4351075513
27.2388 39.5722 38.7314 30.0890121039
29.4045 38.0976 35.5533 88.8456637148
31.1342 40.2768 35.5223 85.9817590119
33.7606 39.487 38.2768 29.4825832271
33.759 39.6894 35.6203 85.6710806698
25.6857 42.989 36.2172 48.1196412877
27.7365 44.7571 35.4569 98.6091527795
30.1779 42.8822 35.9542 60.7212256837
28.7875 42.6847 38.609 30.2614402768
32.8899 42.7028 37.0474 36.9687592881
36.2745 41.0079 36.0622 70.7021547944
27.4499 45.6441 38.0719 26.43123234
26.8458 47.7269 35.5617 83.1263389435
25.0168 47.3358 38.3159 26.0462973979
28.0303 48.9746 37.7292 25.9992406078
30.0392 46.9124 35.8867 59.5619090005
32.4803 45.3709 36.0591 67.8527384897
36.3687 48.6482 36.0364 49.8268099597
35.3446 45.9013 35.7624 94.3481643427
29.2836 39.0176 40.4637 30.8555356107
31.5886 37.3642 40.2376 30.1075909953
36.4117 37.7535 39.6936 30.9965685185
33.1925 39.2251 41.7864 33.5940599163
35.36 37.5006 42.3989 33.0172102176
36.5006 40.7786 38.8496 30.0363089516
25.6005 43.7573 38.9266 29.1265505274
26.7848 41.6732 40.6383 27.8192993145
27.2521 42.4034 43.2081 27.7707867763
30.2302 41.6589 40.7138 29.9872879608
29.7518 43.4443 43.0633 28.0019402492
36.647 44.5192 39.0627 35.807284061
35.4927 42.6996 41.3944 32.8153615771
33.0128 41.8225 39.8893 31.3172873843
26.3105 47.0728 42.6132 30.5201462557
28.2349 47.5231 40.6028 29.7920500828
32.2691 48.8639 39.4773 29.7883027979
31.5517 45.8118 42.7454 26.4002558281
32.3945 46.1909 39.0499 30.7446518679
30.0548 45.2711 40.206 31.6645000737
30.5202 48.4921 42.2355 27.0661064598
34.8566 47.3987 42.7759 28.1795334815
35.8808 47.4814 39.8096 31.8852216542
33.8944 45.207 41.1049 27.4725088379
26.1157 37.9076 46.4031 29.8743802606
27.0701 39.9143 44.6914 27.7438486738
32.5726 38.1713 46.2815 32.6507064613
31.5005 39.4638 44.0788 34.0212992043
28.9057 36.7902 46.3249 31.7076038536
28.8636 38.3445 43.5511 31.8396474166
35.2186 39.0562 46.2019 31.5652799285
27.5178 41.2041 47.259 33.1765839692
26.7972 44.0316 46.2379 31.3283608306
25.244 44.3148 43.3354 31.5350635963
32.2535 42.6698 47.3577 31.1946099299
31.8411 42.3642 44.7061 32.5812710719
34.339 43.5193 43.9638 32.9192657467
36.4701 42.8934 45.9579 32.550194471
34.8654 41.4251 47.5403 32.7081010998
25.0058 48.5432 47.421 29.5133505019
28.3554 47.998 44.1777 31.0503853073
30.8471 48.0718 46.2499 28.1165108914
29.0902 45.2076 45.1003 29.2865320278
30.8352 45.2131 47.2538 29.7671987459
33.2398 45.9205 44.8618 29.4375512717
34.5002 47.6581 47.1016 32.2766926654
27.3265 39.25 51.0917 30.6237656242
24.8125 37.2974 50.2416 28.7340338956
30.8065 38.1065 48.4049 28.731146939
28.9318 36.9047 50.2852 31.6726790721
30.1933 40.7615 48.4142 33.4998672556
35.5855 38.2255 51.7811 26.7478666481
36.3413 40.8388 51.2625 30.3632869418
33.032 37.1228 50.034 32.4608046231
36.6819 37.4199 47.6493 30.1746666092
26.1234 41.1683 49.3608 28.6390180741
26.7836 43.2819 51.329 29.8639159748
29.5728 44.0455 51.0398 31.3162137327
31.2469 41.5342 50.8513 27.9627804674
36.0161 44.768 51.7411 29.7500280957
34.1708 41.5803 50.2984 29.9534930445
33.5977 44.5159 50.4236 32.0045260034
26.1201 48.6683 51.4766 30.0378696343
28.4109 47.7973 50.0932 29.2107394953
28.2734 45.1259 48.7695 32.13871788
25.0627 45.7928 47.9247 30.3020128466
30.8112 48.7019 48.9349 28.5422195664
33.0591 47.0148 49.1741 28.224603389
36.6778 47.4331 51.607 34.62981499
34.1117 48.3911 51.1541 31.9976553493
25.1774 38.7161 53.3303 30.0127507833
27.4426 38.4795 54.9731 28.2283597958
30.0398 37.3178 53.1395 30.1174203004
29.4142 39.8855 52.8054 28.6949385132
32.5261 38.1854 55.351 30.6460539843
32.8435 39.3684 52.574 28.9882872435
36.3875 37.7692 54.2977 30.359892023
24.9054 44.0451 54.8126 28.3657895704
27.5426 44.4006 56.4235 28.0911815838
26.2337 41.9528 53.6789 29.7582519753
28.6625 42.1698 55.2493 31.3173282861
31.2056 42.3258 53.7887 30.6039324909
32.1633 44.8956 52.8041 30.0157165814
33.1692 41.0359 55.2146 32.3405220659
35.9072 41.6771 54.1534 31.9781374018
35.9178 44.4153 54.3741 32.31434916
27.7385 48.8868 55.8977 28.4115820993
27.7694 46.4318 54.4667 30.726923637
25.731 46.0152 52.6556 26.5900122746
24.6219 48.972 55.6247 29.7249003878
29.7258 46.5927 52.4606 29.5848536424
32.295 48.28 53.5855 32.5415208419
33.4205 46.0041 55.102 32.1027066212
34.0829 49.001 56.0045 34.1245066106
39.1242 1.74933 6.81219 27.7795923473
38.8281 2.69593 3.9192 28.2975766553
43.3532 0.0923542 5.46878 24.8867520889
44.1893 2.68508 7.65894 28.5362426275
41.8545 2.71295 5.73684 28.7636126565
48.1487 3.05714 4.99276 32.5938349929
46.794 2.0237 7.47806 33.6512793399
37.5785 5.14761 4.56847 25.2575126296
39.0334 6.42322 7.0677 28.9909036956
37.5177 4.25542 7.34837 25.8925788123
39.3482 7.49912 4.0177 26.8182881484
41.4634 5.22098 4.83962 27.6707219885
43.9269 6.38328 5.61898 30.7881798664
46.6693 6.8399 7.91573 30.7281368678
46.2294 4.95273 4.13139 33.3731001986
48.2898 6.84299 3.64091 30.7150239157
37.5142 10.9888 7.39871 31.6293431147
40.6161 11.1862 6.38456 28.3602738562
37.3847 8.59288 5.43176 28.2024599519
41.2712 8.62005 6.06667 29.2161240365
44.7938 11.3773 7.25774 31.7723152299
43.2802 8.60442 3.77156 28.0055932073
47.4798 8.364 5.63835 30.0322031812
47.3415 12.1663 7.44752 28.3766441748
45.6673 10.0749 4.75932 29.4901312512
39.2581 3.05921 9.74314 30.9381011959
38.1404 0.168421 10.3011 31.1812593621
43.0906 1.12644 9.72437 28.251084886
38.5192 6.86885 10.3564 30.403821543
41.1965 4.61887 8.16866 27.8377355186
41.1507 4.76254 11.5117 30.2311855035
42.256 7.31533 8.33709 31.6150453517
41.0619 8.05321 11.0074 30.504899015
44.6823 5.26721 8.45945 27.9365735902
43.805 4.08606 10.9084 28.3143174494
45.4639 6.12766 12.0872 30.665140187
49.1745 5.91096 9.17226 35.8663664697
38.0687 10.8638 10.0266 31.6830762445
40.7781 10.6384 10.9773 30.6485596315
41.7939 12.1034 8.65932 30.3232539404
43.976 10.5746 9.81623 32.1319972033
45.7933 8.22456 9.9787 31.4548625524
48.1372 9.59177 10.5295 29.2724050648
37.2471 3.13209 16.5931 30.566261271
38.3355 3.51963 13.9709 31.7165899747
40.1848 1.76351 15.8329 29.3916571773
42.1157 1.11012 13.8471 29.2225093482
44.4468 2.0319 12.508 29.4486606373
44.5377 0.965896 16.5566 28.1759484703
46.8367 0.504046 12.8175 33.627007771
48.2744 1.97698 15.0756 27.6307114589
45.5046 3.17396 14.842 27.7274431217
37.247 5.981 13.2771 29.0226640843
40.7582 6.65316 15.4627 29.5718107699
41.7143 4.20628 14.5374 31.0875710419
42.733 6.7558 12.7664 27.404333294
47.9661 6.74193 16.0394 27.0068560285
47.4355 4.9636 13.8531 31.1575632226
45.8133 7.99623 14.5074 28.7161350352
39.6441 10.635 15.2728 30.4328345846
40.8129 12.0516 13.393 31.2203756694
38.2802 8.23135 14.5782 30.279970865
43.1724 8.5135 14.7124 28.8808322773
43.5521 11.18 14.0981 32.3320385587
46.5171 11.5211 14.3348 27.287959025
48.0062 9.61168 13.3832 32.2810357764
40.5703 2.85798 18.4831 29.0486818861
43.7524 3.68266 20.9908 28.8246907324
43.1906 2.41239 18.5771 27.7747118139
47.2711 0.796417 17.3329 29.602445742
46.5386 3.80117 21.1512 27.6995502557
47.4455 1.14379 20.176 32.0767404268
37.07 5.63409 18.1225 27.6148063179
40.1632 4.84525 21.1159 27.4826782929
39.8887 5.2999 17.6537 27.8605422758
41.4827 7.50178 18.5492 26.8825108327
42.5959 6.10399 20.9142 28.2313745531
43.7043 7.55143 17.3223 28.7640201557
44.464 4.58162 17.1282 31.4804313323
46.7323 4.88646 18.5932 30.3233034724
45.961 7.7278 18.6075 30.3612291293
37.1504 8.39283 17.3667 33.736685919
39.5979 9.46169 18.5804 27.8949831747
37.1906 12.2299 18.4616 29.5853694356
43.3611 11.5087 19.4196 32.157328674
41.1212 11.7575 17.8902 31.2269307176
45.5107 12.2439 17.2612 29.6335318556
47.0968 9.68128 16.9507 29.368423748
40.7234 1.41817 23.846 53.0537565762
39.5551 2.09604 21.3352 26.1744895698
37.03 2.44336 21.6253 28.2095684275
43.7533 2.39119 23.3541 34.9132713744
48.731 0.673809 24.4579 83.5977361304
46.5938 2.5574 24.4842 106.3097198032
38.9628 4.31573 23.9945 54.8561882584
38.7604 7.21218 21.4026 27.5494546023
38.3066 6.84706 23.9879 67.7087025962
41.8564 4.28567 24.2883 96.4466254405
42.7162 6.95751 23.5758 31.542483512
45.218 7.04969 24.2544 86.4627143654
46.7421 4.98615 23.6495 34.5419248027
37.8635 11.4753 21.3405 29.2116967842
39.9799 9.70247 21.4636 27.853242287
40.5585 8.70437 24.4716 102.1949073371
37.1629 11.7333 24.1981 74.8975472729
40.3643 11.6262 24.1539 68.0485756406
43.158 9.42391 21.2874 27.8466566817
43.1866 10.3562 23.8193 47.6523360159
47.1578 10.7337 21.6384 32.6639406152
45.7599 8.18606 21.3129 34.4165262351
45.8415 9.67993 24.3391 97.023782549
48.9133 10.7412 24.2047 84.4826300007
37.7115 2.13806 38.7424 29.2022748057
37.6139 2.43547 35.7401 71.6411334187
40.42 2.85931 35.9593 53.7702765827
40.7221 3.41576 38.67 25.7165099446
44.2923 2.27169 36.0129 59.6913448454
42.4537 1.34102 38.5494 25.361771234
41.812 0.257603 36.0267 52.2376069724
46.8426 1.98801 36.3662 38.7941250959
37.9348 7.17675 36.0371 50.9315622086
39.2649 5.95959 38.3557 27.3093728162
41.0472 5.43176 35.4234 96.385068979
43.8024 4.90178 35.4962 101.6521110215
41.386 7.57786 37.4875 28.7449118551
43.7466 6.35603 37.854 30.2975278647
45.9599 8.05528 38.0175 31.9779560294
48.1979 4.55301 38.2356 29.687942655
48.3628 4.79693 35.6213 90.0932254737
39.2047 11.8858 38.7776 30.7861442121
39.5997 11.7569 36.0005 54.626929909
37.2229 9.91201 35.4377 111.8997652563
41.914 9.69285 35.553 112.5271776143
44.4315 10.7757 36.2461 35.6187436971
48.6346 11.0621 35.7593 74.0696074005
46.46 9.09698 35.5469 101.8947624722
39.6943 1.9639 41.4345 33.2274959488
44.5009 2.42903 40.2603 34.5175693494
48.8235 1.38392 41.7882 33.60312038
46.8947 1.86663 39.0717 29.2777934643
38.8773 6.54475 43.2037 27.5235747152
39.5551 7.65217 40.6283 28.5959597677
40.5747 4.3457 42.5374 30.4535662429
42.8514 4.77992 39.6367 28.7897821274
43.1688 5.2352 42.292 31.5881126261
47.4213 6.16434 40.1329 32.0734497202
47.4694 5.10524 42.6708 30.9652449967
38.5714 9.77499 42.8672 28.9065801081
37.7902 9.72195 39.7898 34.5893900176
43.1862 8.30631 42.445 30.0366142894
41.9013 9.17318 40.1804 29.9610749132
44.3011 10.7544 38.8697 27.550529133
41.595 12.0042 40.3295 29.6964479284
48.014 8.39959 41.8565 31.8944879694
45.4172 9.6134 41.5668 27.7679038127
45.1436 11.9759 43.0568 29.0158101917
47.0028 11.6146 39.7744 29.577661193
38.2277 1.13123 43.8275 31.7535759737
40.4567 0.68961 45.7154 33.806091593
43.4497 2.38395 46.3268 31.6495705132
41.2434 3.81555 45.1645 27.4409692662
44.5342 1.74854 43.3781 39.5947836786
47.8853 3.07381 46.7393 36.3480689557
48.3935 0.247424 45.5552 30.2309450355
47.2561 2.34496 43.8677 29.0186546402
38.4509 5.01177 45.4859 28.0971991474
41.3012 6.14571 46.8165 28.1541109271
44.6499 4.43669 44.7261 29.9297699608
43.9884 7.31864 46.3082 27.8118711777
45.9076 7.37928 43.9761 31.2758970991
40.0074 8.22509 45.4199 29.2021883897
38.4772 11.0189 46.188 29.8887269754
42.1008 9.89286 44.4714 30.7796551381
43.5287 9.88884 47.2376 26.9522462273
48.6621 11.7191 45.0918 33.2085640262
47.0789 9.13687 46.0662 37.9527965945
45.391 11.4514 45.7036 27.8575490318
39.3235 3.1581 47.8174 27.1533111136
37.3161 1.96236 49.0517 31.4070468822
40.2136 3.57836 51.6373 30.3165188634
41.5619 0.206277 48.3823 29.7315062236
43.2125 2.10592 49.3497 30.3718150133
41.3807 4.06888 49.2307 26.9288053649
44.6427 0.438384 51.3382 34.1404622456
48.8186 0.910313 48.7404 29.4354600177
45.5267 3.5853 48.5339 31.281374472
46.6745 2.52298 50.7327 29.6615641623
37.8711 5.95365 48.1053 27.1724620302
37.8529 4.85561 50.72 27.1705711488
45.0555 6.41455 48.6262 31.7066308033
42.564 6.71785 49.6837 28.1092709989
46.6238 8.09304 50.1165 29.9235086079
38.7685 8.54785 48.0935 29.6131272784
37.5916 11.4581 50.5486 27.7920008992
39.4263 9.38328 51.3016 31.7559986938
41.6109 9.23697 49.4327 32.6305889382
44.9661 10.4292 49.9437 30.4029870281
48.5897 11.6982 49.6432 27.9515983854
48.4587 9.22233 48.6392 29.8388644968
39.7927 1.00309 52.3987 30.8537462822
41.0732 1.61926 55.1251 28.4483841011
44.729 0.734688 55.6723 29.7801660495
47.9887 2.71924 53.7897 32.5740020611
45.2291 3.48684 54.9364 29.0110735582
47.5684 0.786315 56.3226 29.7150640886
38.085 7.08349 52.5441 27.4773694517
38.797 4.90839 54.4094 28.7133485942
40.401 8.03624 54.2865 27.4253399182
42.6701 4.1613 55.2189 31.6870423597
41.2873 5.62714 53.4009 26.4118662415
43.6853 6.53194 52.1006 31.3434017655
46.0461 4.67446 52.3296 30.7559066027
46.8847 8.05127 54.4114 30.2844101552
47.8504 6.67155 52.3804 29.0496360864
37.6675 10.2717 55.705 30.3242066611
41.2788 10.6689 53.9637 30.9614370053
42.4936 11.2751 56.3229 27.4488757743
43.9706 11.0045 52.9284 31.7587499108
43.9475 8.45122 54.0352 28.9701166471
47.7824 10.5555 53.8845 32.0387666483
39.8844 12.9318 4.47284 30.5888671194
37.7467 13.8697 7.06439 27.9885941395
40.8208 15.226 5.64781 28.1248075422
43.284 13.1533 5.70723 28.7477047255
45.2291 15.3981 5.61026 29.2348873314
47.7753 14.5678 6.26173 27.6652275004
38.3794 16.4228 5.20175 29.0515461779
40.1724 19.8431 6.55503 31.5364388294
37.1441 18.9224 4.33125 30.2974107725
37.3059 20.1019 7.83681 30.0262516607
44.6499 18.2828 6.71374 28.8639489072
42.3252 19.325 5.03497 28.7471067577
42.6208 16.8607 3.89404 33.0568567729
47.4747 17.8372 4.54479 26.9095808314
47.3206 18.5101 7.83216 30.7953664162
39.7177 23.7609 4.87826 34.5038019124
44.0729 21.4877 4.1699 29.3036308879
42.9845 22.4142 6.68257 27.0401481087
46.6726 20.5349 4.77428 29.1725768389
48.4753 22.2965 5.62294 32.8243220873
45.1874 24.1254 3.78379 28.154047817
40.0183 15.3558 10.9244 28.9185769605
37.6124 13.5108 10.7275 30.3015883508
41.26 14.742 8.31574 26.0044390768
44.7078 14.9989 11.1412 31.9351099457
43.5936 15.6963 8.30039 30.8614045609
47.9522 12.3465 9.99279 28.9485295293
47.4276 15.1087 10.4754 32.0882024739
45.5357 12.3219 11.6455 31.5352656904
38.6507 20.1937 10.1334 26.6285218596
37.7629 16.7559 11.4755 26.4013072261
37.7596 16.9012 8.35749 29.1475881567
39.6306 18.4842 12.3875 30.2833863708
40.4758 17.9505 9.03997 27.8313059752
44.1261 19.8495 8.88896 29.9176598353
42.9986 17.6491 10.129 26.9285775559
46.6088 19.9525 10.619 26.8377895133
48.7543 16.4081 8.25969 27.9138547212
39.8092 22.6708 10.0617 27.4988068721
42.5879 24.2503 10.665 31.0910911801
41.6295 21.0523 8.50916 28.3173596471
44.5378 23.3147 8.61116 28.6468192391
48.9247 23.1497 10.5941 29.0837660486
48.1745 21.3301 8.31385 30.4322815777
46.0917 22.5027 10.5415 26.7229013797
41.0141 14.7657 13.4837 30.9411305614
38.94 15.5247 15.3359 35.6902212807
37.7216 12.5637 15.5068 35.1240163424
43.7881 15.4976 14.0193 28.2492771719
43.5127 13.4006 16.1335 29.8444119417
47.4977 16.2607 12.9396 28.007815861
47.147 14.4308 14.8987 26.9920016352
38.5721 18.9386 14.8374 29.7505987561
42.6004 17.9045 12.9294 31.7319970389
45.4807 18.0823 12.4493 27.7144286405
45.4621 16.8548 15.611 30.2574235491
48.3035 17.3758 16.7293 28.0690266691
39.2682 21.4979 14.9128 28.9712499069
39.9393 22.9669 12.8233 28.2435085368
42.6994 23.1689 13.4527 31.7654061844
43.1264 20.4943 14.2993 34.5756522967
45.2939 24.1336 16.7086 28.9952970747
45.6049 23.5984 12.88 25.3293694623
47.1938 21.339 16.3033 28.7312388478
47.8611 23.7022 14.4517 25.6903801652
45.6609 20.7839 13.9569 31.1328957875
39.5204 13.7809 19.0268 31.539161577
44.9982 16.3204 18.9078 29.3759790927
42.2659 15.3658 18.3832 33.8444944753
46.9862 14.6788 17.71 27.4178641215
47.5199 14.865 21.1887 29.7981159628
45.6788 12.7982 20.9401 28.5102164732
39.0905 17.7597 17.4487 31.5950945797
40.1676 19.4596 20.7512 27.7605155209
41.7533 18.1806 18.6692 29.5177148064
43.3175 19.8572 17.4841 29.5767791703
45.9043 19.2123 17.8774 27.3274417076
39.7687 24.2414 20.4061 30.5120980587
38.9565 20.5619 18.2764 25.5177309292
37.7678 21.8054 20.8862 32.353090414
37.1531 22.2959 17.0398 31.8254149279
41.1786 21.8877 17.3068 32.3063152614
44.1772 21.2215 21.176 25.3404031565
42.0841 24.4066 18.6577 28.9163126331
44.3432 22.5074 18.6502 25.939517323
47.1412 23.6153 19.5603 26.5074449233
48.4205 24.1984 17.1418 27.5777933923
46.7847 20.5922 20.1898 29.1815018389
39.9964 13.3955 21.6741 24.5391548614
40.2369 14.7695 24.3352 71.0632015022
38.4549 15.8459 21.667 32.4724546329
42.4352 14.337 21.3283 31.4366071201
43.0892 15.6491 24.1934 66.3283986698
44.2746 12.8899 23.3909 50.5766751315
48.173 15.3861 24.044 70.8291296591
39.897 19.1632 24.2969 64.1647787877
38.3599 16.7808 24.6173 82.5302615245
37.7369 18.5882 21.8786 26.5241994647
44.9007 16.8501 21.6089 25.7746405498
43.1162 18.8324 21.4278 28.4182604477
42.6218 18.7707 24.2741 70.7791609959
45.6079 16.8125 24.5641 99.821308603
46.5663 19.4588 24.1178 67.4703830557
47.3864 18.0821 21.72 26.1220268137
40.244 24.3207 23.695 38.9047190848
38.6589 21.8227 24.0064 48.9996957139
42.0138 21.8321 24.3169 85.0310022695
41.4313 22.0091 21.2647 27.4756196495
45.1995 22.078 23.7611 53.4959414196
48.2704 23.415 23.9052 51.1025094263
49.0256 23.2824 21.2603 26.5500513655
49.0153 20.5469 24.0715 62.9680349402
39.8446 15.4903 35.5252 73.5070712894
40.8914 15.0136 38.031 26.4830384068
37.6027 14.1501 38.673 28.2002424848
37.6596 13.8253 35.6773 73.8285872839
42.6778 15.3008 35.2119 110.9390341961
43.1086 13.4771 38.6091 29.6786060573
44.8912 13.3874 35.8578 60.14391189
47.5873 13.809 35.6142 76.0535346868
46.948 14.1858 38.3545 29.3210386053
39.3669 18.4111 36.0264 46.383436731
44.2396 17.6769 35.8075 65.6661586794
42.8926 17.1008 38.0786 26.9509244842
42.2339 19.6087 35.6279 83.4641010145
41.4557 20.3136 38.4011 27.8272476025
48.5884 17.7384 38.7802 31.0722471669
47.0877 18.5207 36.2155 43.4816869785
48.5321 16.3704 35.4913 97.0556388635
37.7187 22.8094 37.9862 28.2130278584
39.2607 21.5988 35.8 72.5439160286
41.6066 23.0402 36.0212 51.0586393389
44.2881 21.9456 36.0149 64.2843254356
47.9029 21.1338 35.7036 88.6432053213
46.852 21.7489 38.1359 31.7642380045
47.4849 24.4827 35.6722 80.5065416745
48.0982 24.3574 38.4441 32.5110063265
37.1502 13.4264 43.1408 29.5738453181
38.4033 14.9074 41.3043 28.9401010816
42.3043 12.5383 42.9239 29.1896208653
44.5046 15.1239 42.7467 31.2309292881
44.8419 15.549 39.635 30.3634127032
48.0993 12.3064 42.3396 29.0155722045
40.3317 16.5581 40.256 27.7554582162
40.3602 19.6873 41.9499 28.3929273794
39.1759 18.6545 39.1804 29.5360184619
42.5186 17.2159 42.5274 31.897117609
43.1194 19.1027 40.0527 28.1198566521
48.0172 16.8739 42.8096 33.7576363652
46.4175 17.7846 40.5175 31.6130611559
36.9791 21.1644 40.3329 27.5665328449
38.156 21.4254 42.8286 27.5175275576
40.3613 23.3066 42.684 29.3285511324
42.0727 22.9452 39.1843 29.0486787136
43.4405 22.147 41.6177 29.7892497221
47.4675 21.0229 42.3315 32.044874111
45.5108 20.6349 40.472 30.2292296923
48.9836 22.2492 40.5737 27.9610593927
39.4098 15.1264 46.3751 29.7065093618
39.4849 12.2871 43.8061 28.4527677744
43.6989 14.246 46.4235 28.0002020481
41.4986 14.9666 44.5561 31.1112790902
46.4579 14.2875 45.9854 32.0192572874
39.342 17.3069 43.6376 31.0376085009
39.7074 19.6826 45.3324 28.6721507675
39.6828 17.7364 47.4345 31.8475643373
44.0821 18.9141 45.7583 36.4477987037
45.6802 16.8376 44.5255 35.1395808745
39.5121 23.9598 45.4854 28.7796241443
38.7843 21.5985 47.0766 32.0508541525
44.6814 21.6545 46.3341 31.3302179054
42.8686 23.2685 44.7731 30.7939087483
42.3085 20.4732 43.9855 29.9555186641
47.0927 22.5933 46.215 31.8564026787
47.0077 23.5245 43.5525 30.8408655573
48.9517 20.947 47.5489 34.947439627
38.518 14.7773 50.3993 30.5848273096
39.1724 12.8887 48.347 29.1752652365
43.7177 15.9358 48.521 30.0437404973
42.5897 14.1158 50.3135 33.7359090138
41.8507 12.4478 48.0669 32.2103131678
48.7252 13.8356 47.7164 29.0454717348
45.7825 15.0893 51.4741 30.3650499074
45.3775 12.9094 49.1099 28.6663232405
47.0729 12.3114 51.7314 27.9091801909
37.7684 17.4051 49.2758 30.4012259285
39.0691 18.5805 51.424 28.8172944491
41.6153 19.7378 50.1465 31.2031702549
42.3706 18.3333 47.9642 30.9937096972
49.0813 17.9801 50.8159 28.8888279105
46.2312 16.7442 49.1313 32.7369145065
45.8622 19.4184 50.1772 32.2047723766
37.6101 21.4941 50.8304 32.4285908924
39.8556 21.8497 49.6322 30.5702857202
44.0733 21.2605 49.0208 31.3202215922
41.3892 24.0543 50.8292 33.5917896624
44.3303 23.6438 50.1796 30.5147928685
48.529 20.6934 50.3557 27.8299307906
46.9799 22.8058 51.1756 29.0365610138
39.1643 12.5785 52.635 29.8321376996
38.1427 15.7806 55.349 30.1573507777
37.8801 13.0409 54.8679 24.4991698649
40.4454 15.0772 52.4725 31.924022103
44.2799 12.9037 54.8151 30.0475136362
43.4185 14.9487 53.028 30.0244564957
48.2046 14.6102 56.1204 27.9907874791
48.5054 14.5243 53.3131 32.8307434962
46.555 12.2552 56.0622 30.5269523415
39.7662 19.2145 56.1146 29.9804681729
39.9976 17.4544 53.7549 28.5117571391
42.9185 20.3157 52.6849 33.5449384211
43.1473 17.5788 54.1178 30.7970739111
47.7647 17.2705 52.7452 26.3821894763
45.5779 19.0884 53.0451 29.0498902459
48.5864 19.1211 54.9164 31.5281046464
45.829 16.4185 55.4234 31.2696700931
38.1605 20.8611 53.8708 31.3676667505
40.3411 22.269 55.3515 32.3147665077
43.0294 22.3234 54.2425 27.2321081061
44.7169 23.9941 53.2251 27.0084837153
46.6633 21.1791 54.7406 29.1397929175
47.9983 23.3952 53.753 29.7593423375
40.7083 27.7331 6.00377 29.0575084383
37.5798 27.5059 5.1209 33.1034697622
37.7781 27.7704 8.00119 30.3373232444
43.5527 25.9491 5.74781 27.6249085391
41.3646 24.5443 6.88764 28.3054524729
45.7921 25.4724 7.30432 30.1469035042
47.6313 27.3935 4.1118 28.1578243894
47.3028 24.5913 5.12943 31.0731991647
38.2521 30.4698 5.15746 28.65623601
40.9516 31.0675 4.02458 27.2898989139
43.8304 28.6122 6.66547 30.0919648546
41.5956 30.5272 6.5321 28.5580907744
45.7465 32.5978 4.8958 29.6914064845
46.152 29.7282 5.49171 29.0243149214
48.5284 32.5779 7.5063 27.6104278098
48.5197 32.0478 4.72012 28.2321336177
40.4147 34.0168 3.75605 33.5317652026
39.01 36.3139 7.15525 31.7185708022
37.4668 34.694 5.3219 29.2223855793
44.1466 33.4569 7.13861 32.4470897231
41.5429 36.2984 5.00553 30.0333557854
43.4906 36.3268 7.2196 30.0581010896
47.047 35.2213 7.05237 31.2520886932
39.9457 26.0624 8.92905 29.5366464182
40.5289 27.2895 11.2055 28.5039940731
37.8274 24.6121 10.2568 30.8733812049
43.1733 26.7337 11.5321 27.7585167842
44.4657 27.8174 9.24796 29.8740925063
47.367 27.0936 9.23212 28.9682527682
46.7839 26.3852 11.7508 30.2406103077
39.0285 30.2052 8.04367 26.1290273915
37.3288 30.9511 11.2717 28.9214613652
40.2357 29.984 10.5044 31.225058422
37.5958 32.6536 9.14648 30.5694762228
41.5822 32.3935 8.42904 31.3423940762
42.4172 31.758 11.3122 27.4138891014
44.6336 30.3351 10.2172 28.3071946519
47.9089 29.7017 8.23839 34.2281831913
45.9502 32.3579 9.00221 25.3078699719
46.8246 31.2889 12.1541 30.1294779317
39.8568 34.5735 9.25452 28.9604844717
39.1729 35.4134 11.8741 27.8224296145
44.0106 34.2542 10.9087 27.8539389586
42.0819 36.2554 9.84451 29.9390466738
45.9382 36.2021 9.52218 29.0928924544
47.1914 33.8833 10.7399 29.7718835653
39.2769 25.5441 13.1585 28.8421329382
37.1838 27.7062 14.4287 28.61136864
41.4341 26.4267 14.6231 29.1595034019
44.1525 25.9184 14.4111 29.6995716107
46.3982 28.3492 15.4204 28.5707584362
49.0247 26.1572 13.4471 27.3650723062
49.1924 28.0942 15.1707 29.3263066201
38.9275 29.5756 13.4699 28.8741425685
39.1948 31.9986 14.9433 28.1643502403
41.2158 29.1478 15.1239 30.4690043263
43.3654 32.6244 15.8683 28.0943998256
43.3593 30.5288 13.9075 31.893693231
46.7729 30.7985 16.3299 31.1340540914
46.0667 32.5398 14.494 27.3076432207
45.4795 28.7166 12.671 27.1918921596
37.4091 33.3727 12.5781 28.3725066344
37.8438 34.7056 15.7625 27.7637236699
39.9834 36.2279 15.923 27.11290138
42.7113 35.2267 14.893 29.9336003881
41.0204 33.6724 13.1881 31.1343387373
44.8028 35.5146 13.1705 28.4799071872
47.9452 34.243 15.6872 27.7189134953
46.3747 36.465 15.5401 28.192936204
38.4399 24.8063 17.6879 36.9074893538
37.0822 27.3716 17.2812 34.1678588704
40.5187 26.5299 17.3103 31.3542428915
41.6949 28.3751 19.659 29.823329557
43.3735 24.8167 21.2165 26.9109684622
45.3883 26.7025 17.5115 28.8966111363
48.1607 26.7981 17.8782 28.92301263
48.8929 27.9773 20.297 30.7280038698
45.888 25.5158 21.1547 27.8626530341
37.7686 30.5547 20.9963 30.4358832444
37.8566 29.7811 18.6519 30.3919791781
40.8612 30.8645 20.5376 28.9125253828
40.2233 30.1744 17.5226 27.6879795628
44.2318 28.7182 18.9231 30.9765611146
43.5903 32.0241 21.1386 29.1732755447
44.7409 31.2833 18.1022 27.6388531288
46.4489 32.4621 19.95 28.4862725228
40.56 33.0153 17.5006 30.4402431684
38.8747 35.0549 18.7245 26.5238906177
43.4378 33.9948 18.652 29.8243529349
41.3613 34.6346 20.9762 27.2507190803
47.6672 34.5675 18.4489 28.4225829268
45.3787 36.3687 18.3588 26.867528578
37.9228 25.7526 24.5138 86.5496097819
38.9267 28.4684 24.4857 101.5989349723
41.3727 26.6521 21.7476 30.8570322929
42.005 27.2469 24.3805 88.1296207953
44.9672 28.29 24.0041 56.4772844392
43.6989 24.6809 24.1558 69.0475786384
45.6895 28.3814 21.4138 29.2481542248
46.2155 25.3877 23.8616 42.3297805629
47.9464 27.5513 24.5041 91.5046085953
41.3884 30.1553 23.5726 41.0141316075
44.214 31.4208 23.9625 75.0176579175
47.643 30.433 21.4266 29.4324549337
47.093 30.3376 24.0216 52.6115571677
49.0936 32.3333 24.423 80.5863559177
37.9478 33.9985 24.4803 103.6486521089
37.82 36.4839 23.8407 42.978995998
40.5358 32.739 23.9363 63.4677997762
38.9642 33.457 21.4873 27.6480275864
41.8343 35.1357 23.943 57.827114344
44.9388 34.7159 21.5688 25.5688589814
44.8482 34.5789 24.1326 78.4056164335
48.153 35.1009 24.2199 77.4551409532
47.6904 35.3157 21.2669 25.6677563
38.6668 25.4631 35.7205 68.5395534411
37.375 27.9094 35.7731 65.4629157382
39.5909 24.7384 38.3422 28.6170587232
42.3347 27.1496 38.2757 25.9751076812
41.5951 26.0146 35.6552 80.7868124013
44.5834 24.9491 35.679 78.9105817966
43.9486 25.0881 38.5514 29.0537370954
45.8754 27.4397 36.2872 38.0726938118
48.7475 27.1573 35.632 84.8545926933
37.8632 28.6401 38.6555 30.3860259629
40.3021 30.7291 37.6711 29.677157508
38.2109 30.6124 35.6109 90.3446506944
41.6857 28.9632 36.0357 60.2240627804
44.9699 32.461 38.6005 30.2402196094
44.5225 29.976 35.7218 84.4411016515
43.8685 29.4788 38.7033 29.2357836613
41.3076 32.6754 35.8251 90.8240770698
47.7207 30.2845 35.6418 75.6652963974
37.631 35.4701 38.5644 33.4871582789
38.7958 36.6403 35.8423 90.6933089179
44.2717 32.8337 36.0452 49.2080908645
41.1614 35.1923 36.3492 41.6708708973
43.8711 36.2183 35.8065 78.0460360077
47.1967 33.2353 35.4336 96.0624800151
47.8133 32.872 38.3613 27.2253052704
46.7719 35.877 35.9596 54.0658292406
37.5504 24.6949 40.837 30.3310814245
39.008 26.1753 42.7416 32.0186066113
39.9285 27.4875 39.9186 26.6184507018
41.8347 25.4812 41.1559 29.2117352999
44.2743 24.9499 42.7063 29.3557230708
46.7139 27.79 38.9643 27.5354730814
46.1588 25.5564 40.4845 34.0987608124
48.1277 28.0555 42.7979 31.5276808468
37.292 30.7943 40.3368 30.8864611049
39.7416 31.1224 41.4884 31.3867174776
41.1725 28.7259 41.9462 31.0653248913
43.7957 29.8959 41.4479 28.6116453807
41.2817 32.6541 39.6543 29.7790022313
46.7378 29.7548 40.9507 29.0150196628
49.0142 31.0314 39.8772 29.6384726996
40.3716 35.1579 39.0691 28.8546640876
40.872 35.6795 42.025 32.0952672016
39.979 33.1988 43.2114 33.6223536272
43.4962 32.7049 41.3496 29.4184797745
44.6801 35.142 40.17 27.0856548783
43.377 36.7078 42.4026 26.5414090254
48.9878 33.5467 42.965 29.357310647
47.0662 35.7015 38.9588 25.9150587896
46.3385 34.4348 42.6748 29.0675551875
49.2195 35.8709 40.6488 27.9088780694
37.4185 25.7797 46.4308 30.1409635238
41.8295 28.175 45.0939 31.4106522436
41.8073 25.6992 46.1689 28.9274998987
46.2567 26.6086 46.7705 29.3304556993
49.0958 27.9419 47.5958 29.8610920875
46.1723 26.6589 44.1224 28.1249403864
48.4122 24.9789 47.5899 30.928739252
40.1679 29.9898 46.0969 33.3792358686
37.4078 29.9184 45.3218 31.7303155219
44.6208 29.9123 46.938 29.986970856
44.3047 28.7682 44.1889 29.8295182679
47.4007 29.6334 46.3054 28.8820046978
47.9947 32.3827 47.3541 31.0892960602
45.3795 31.9016 43.5176 28.0181528946
48.1229 30.7742 43.9342 26.1053788958
40.8373 34.913 47.4137 31.9328074856
39.0623 36.5308 45.8903 30.1750968953
37.0226 33.4516 47.4102 29.9147891685
37.5266 33.9548 44.7873 32.908378964
43.8342 32.7197 45.6105 31.1915620168
41.026 32.7056 45.6537 32.2663892889
44.5971 35.6006 44.8103 33.0780281174
48.8081 34.8838 46.1006 30.2344273923
40.0174 25.1199 48.396 30.4501082028
37.2845 25.9483 49.6199 33.4785883408
37.9159 27.3455 51.9247 25.6984476767
43.8771 27.6935 48.7846 28.073692697
41.0521 27.9191 49.2925 30.6222539064
41.058 27.4055 51.8947 31.2427673856
45.1107 27.8529 51.1968 30.7942236125
43.9813 25.3197 47.8449 30.4180877616
48.5203 24.9882 50.4129 28.3878037856
47.6992 27.005 51.7043 28.4675592141
39.5617 32.1686 50.9239 26.6870544358
39.8109 30.2737 49.0488 31.3022284076
37.2013 29.7063 50.1361 28.1074350509
43.4429 31.3615 49.4109 34.1107053767
45.2467 30.4773 51.6246 28.8353391874
47.3429 32.0347 50.1402 28.3615785884
38.8351 34.2664 49.5801 27.2770835926
40.2543 36.3571 51.3436 29.1997374603
42.1849 33.3972 51.19 27.5797165855
42.6913 35.6405 49.466 29.8721109599
45.346 33.0318 48.2046 28.8506752995
47.1409 34.1207 51.8851 28.1065569397
45.7436 35.4709 49.7536 29.6801496713
48.5463 36.502 48.9405 27.6285409595
38.1254 25.0518 53.6568 30.8047281627
39.4491 26.1623 56.1237 29.7450810563
40.9377 28.3635 55.9465 27.0094242597
40.9868 24.7458 53.5488 28.7645993283
43.5755 26.7494 53.2167 28.6012716784
43.4247 27.0061 55.8379 28.4137092895
46.5584 25.7395 54.664 26.4280376607
48.7608 27.8795 54.2579 28.2798148769
39.5357 29.2563 53.6075 34.4631554675
38.8193 31.8182 53.4169 28.2640813891
43.7147 32.119 53.2615 30.9669289502
43.4197 31.2522 55.7346 33.2922152168
45.2036 29.1666 55.7486 29.2083716106
47.3199 30.0654 53.5625 28.7633727735
37.6162 33.9825 55.7175 28.8077026121
38.2772 35.689 53.8706 26.3410780864
44.7629 34.5667 53.4668 27.1156891178
42.8092 36.6458 55.273 28.9353626155
41.0936 34.5036 53.821 28.772750318
46.2132 34.6889 55.7902 34.0770772136
47.7826 32.7647 54.5061 31.2090331098
39.5467 38.9225 6.0915 28.0150227858
37.0182 40.0313 5.62868 34.1683335397
44.2454 40.0886 6.19876 28.4615431199
42.1244 39.2798 4.98507 25.5677951239
47.7416 39.974 6.48194 30.4203628712
45.8967 37.7614 5.87436 29.2867703219
37.9157 43.3889 3.80954 30.432436727
41.9209 41.038 7.78698 29.3222715159
41.3632 42.5601 5.45144 29.1969538515
43.8198 43.24 4.34961 29.3183350988
46.3413 44.3291 7.68451 27.6608078806
46.2505 42.3581 5.87165 31.4045103223
47.1281 44.6227 4.1726 33.0017949084
38.9956 47.5193 5.04175 26.2643342637
39.7787 44.973 5.58276 27.5495611893
38.7448 45.2811 7.99022 30.2556928601
38.9545 47.9163 7.72012 27.5289808806
41.3814 48.2184 3.71855 28.1075271433
42.4039 46.0779 6.5279 26.9790063832
41.7409 48.6296 7.76125 29.9749216717
44.2232 45.8642 4.47734 25.9629240224
47.4379 46.4234 6.29299 27.2635473126
45.9737 48.7343 5.78554 28.5197712921
39.9714 39.1729 9.2408 27.4151609439
37.2812 39.9007 11.718 26.4252720744
37.3327 38.2361 8.88329 30.2967395951
43.2015 40.6596 10.4652 29.7308036909
41.3432 38.6139 11.3391 25.9779982604
44.5903 38.7672 8.83689 27.7375366858
47.3092 39.9806 9.4892 28.4299244259
48.7721 36.9563 10.9921 32.5531852722
45.9433 40.0956 12.0835 29.3938723681
39.4898 41.7427 10.3047 31.4085727268
37.7183 44.7025 11.0568 32.5445655727
44.7958 42.6926 12.3989 27.841795209
41.1189 43.8667 8.63688 31.6937025494
42.8428 44.2735 11.1492 29.8385666558
47.6471 42.6286 9.20782 30.4633406034
44.1876 45.5338 8.66237 32.3538825047
41.0173 48.7604 11.5599 39.7667756757
44.7703 47.9435 10.0403 29.3649397318
47.4058 48.6479 9.13877 32.2913690864
49.0275 47.903 11.8336 27.8897909028
48.7553 46.1198 9.37721 28.1542583412
39.3911 38.3751 13.3652 28.0205910328
38.9276 39.7361 16.4223 27.3421194499
37.1139 37.5457 15.2012 30.4862062828
43.9613 38.1745 12.7927 29.1690109522
41.3392 40.3311 14.7483 29.1357449023
43.9558 39.3406 15.1007 28.4334970157
48.4038 37.5135 13.7418 30.798339979
48.5633 40.3928 16.4243 27.0497467069
48.4816 40.4737 13.5287 31.4090213802
38.7351 44.0693 13.6752 29.360102935
37.923 41.4403 13.9677 32.3643090343
37.9557 44.3202 16.4929 30.2051431716
41.1612 42.407 12.4786 27.1516003868
43.2591 42.8185 14.8711 26.9779575113
49.0663 44.0399 16.295 27.3905105552
46.657 44.5161 12.5619 28.4332960461
45.647 41.4059 16.5761 27.1854850584
46.3646 43.8931 15.351 27.3764981237
38.4954 48.5198 15.8381 34.5947035205
45.0809 46.0085 16.7798 32.4728475924
42.671 46.7696 12.5708 29.1151756199
41.5516 45.0155 14.686 32.4313942118
43.4059 47.8529 15.1223 26.4624055215
48.8052 46.0767 14.0508 27.177651065
45.6253 46.96 12.5908 28.5730245
47.5703 47.3202 16.4486 32.1437174216
40.0377 37.7591 18.1164 26.6513160786
40.4672 40.615 21.0391 31.6339597277
37.4347 39.2288 20.1068 28.8979005295
38.2269 36.9843 21.0083 26.2333962246
41.1735 37.4912 20.7319 27.2706396179
44.0428 37.3736 20.7609 24.7860399614
43.999 39.5966 19.1065 26.0458385429
42.8387 37.7196 17.1807 29.2161598329
46.8521 39.4995 19.1943 25.5419664417
48.114 37.9201 17.4641 27.4081291048
38.1917 41.8904 17.6108 27.3611076905
39.5913 42.9498 19.6512 26.9845045231
42.5787 41.6087 17.465 31.4614695356
41.8941 44.5769 18.6859 30.5660675688
44.7035 43.6416 18.5488 29.8194191997
47.8278 42.572 18.6023 34.5378530864
36.9246 45.4618 18.9436 28.6801754387
39.1613 47.4903 18.3255 29.9244645913
40.661 48.8148 20.2735 27.7839390561
41.5707 46.8017 16.9732 27.5505196578
43.2164 48.4991 19.0224 31.2147621442
45.1825 48.4659 21.0139 33.9363099173
40.3599 37.3678 24.0244 65.2183686627
39.4381 40.4815 23.7848 57.5771432241
42.4407 39.8163 24.483 97.6725710982
43.2807 40.8275 21.6281 27.5121345677
43.9501 37.579 24.1871 75.6307905995
47.92 37.9068 21.3568 26.1050935002
45.385 39.0867 22.4058 25.9980100125
48.3984 38.3191 24.0806 71.74445798
38.4307 43.2696 24.1956 88.341221666
38.1715 44.4398 21.6048 26.0171507865
40.6119 44.809 24.5349 87.9159541472
44.0883 43.545 21.2583 28.8893410953
42.5048 42.9028 24.1989 53.127903534
45.0843 43.8161 24.4958 87.1781467721
41.4989 44.7886 21.5027 29.7606040006
47.1802 41.1764 24.3624 104.1197198813
46.5517 43.6799 22.3218 28.9806560076
47.6967 41.3828 21.3547 29.727214336
37.9044 47.3234 21.8235 27.8247538733
39.8211 47.7916 24.5961 108.505308951
37.0747 48.6121 24.1458 63.4087134079
41.3662 47.4117 22.4712 26.6156203416
43.7592 48.6522 23.3087 40.330744701
45.6266 46.728 24.4007 96.012318271
47.075 46.2454 21.4632 33.0571760771
48.4161 46.7973 24.1257 62.8954136272
38.6395 39.4367 36.3011 58.8131585546
43.6559 39.0692 35.6564 104.6037040882
41.1837 40.4715 36.2852 53.880064234
43.7448 37.3322 38.4265 27.2322581874
45.648 40.59 36.7592 27.8720898099
48.2619 40.1404 36.3193 45.653482722
49.0286 37.3787 35.7868 89.4081369161
37.0277 43.7564 36.0754 65.9603603877
43.8959 44.3846 35.4452 75.5906410407
41.4063 43.2759 35.9703 67.5795319597
43.7724 44.0435 38.2162 31.0758700236
46.1826 42.8581 35.2674 118.0634840199
48.1639 43.9503 36.4648 34.1352799733
38.6637 48.3486 38.5851 27.6003014293
39.2708 45.6094 38.5381 32.763216453
39.4153 45.3174 35.8775 73.3736754797
39.2379 48.0221 35.9502 64.737897236
43.8474 47.3171 35.3019 115.0080875361
44.911 48.6441 38.4816 33.264814074
46.5149 48.16 36.0769 57.3463033742
48.946 46.5818 36.0855 61.9911284943
38.9619 39.0476 39.1817 27.4254242254
40.8493 40.782 38.9322 28.5132694505
44.696 39.5837 42.2354 27.2513025784
41.5623 37.6576 39.8639 28.9469746669
43.7658 40.1683 39.5453 27.9663995955
46.6047 38.5951 38.9968 26.1068514515
46.5875 37.8872 41.8224 26.1396682602
49.0658 39.7917 39.1114 25.0224140685
38.0355 41.0068 41.5138 31.5898092418
39.8517 43.0085 41.7459 29.602864088
41.9271 41.5113 42.8312 30.2283047488
41.1881 43.6202 39.2809 28.2612898943
48.2733 43.2754 39.3351 29.6777749067
45.4718 42.1409 39.0898 27.3800437239
46.8019 43.7181 42.7345 31.3424622197
47.0267 41.2323 41.471 24.1313391671
40.9586 48.5559 40.3038 35.8402678335
41.2171 47.0158 42.6376 32.8312419205
