0.748033 29.5162 4.91867 27.9463069042
2.65449 31.2548 4.29727 27.9512753897
2.62013 27.4811 5.34979 28.846988977
6.53442 27.1506 7.69176 27.6060174399
5.10209 19.9261 12.1588 28.7139433733
4.44997 29.3725 9.40753 36.1874539929
9.59615 20.1518 5.02852 30.4292022708
4.56757 31.9268 10.6549 30.8536463567
5.21145 28.603 5.88216 28.4649712868
4.78619 24.5956 4.65184 28.1307977001
0.318526 23.9207 11.2904 30.133991301
0.771999 19.8209 11.7858 30.371159721
3.10705 20.589 10.2488 31.2138092289
4.45921 18.4889 8.84751 29.4707241837
8.47928 26.2148 10.8617 31.5816579914
4.36721 24.9519 11.0551 29.390404162
0.462171 26.8174 8.73682 31.6991260853
2.61636 22.2604 6.53451 27.1861245262
8.44907 24.1044 9.18569 29.5696887018
2.80845 23.1417 9.54687 28.9598632981
9.44707 20.283 9.10591 34.8620552041
6.13599 22.4735 11.5701 29.7872343473
1.94923 25.1952 6.85966 29.1149086131
2.47947 27.3579 10.4889 35.4489323949
5.03244 24.8794 7.5176 29.9106719765
8.50315 30.6785 10.9265 36.8055558851
5.86778 27.1506 10.4262 26.058687749
9.37532 29.3788 4.57433 27.8628444016
4.06713 30.9828 6.83099 32.0742869934
6.98063 17.1528 8.87724 28.9724758455
8.63587 31.8722 5.90789 33.8717907458
0.215834 17.4908 10.6954 31.9583783733
0.434526 25.7355 3.734 33.863409046
5.87597 32.4703 5.13997 31.2249764408
2.33082 16.4233 6.11376 34.5064746221
5.39307 19.6525 15.6731 30.383131437
3.39157 16.4549 14.3907 32.4779143665
4.95017 17.4044 17.0147 30.3442300447
8.42499 18.038 14.4602 34.4903734337
0.323984 30.8678 19.0171 26.542113303
4.99346 22.0503 17.2068 30.8211623321
1.78966 28.818 18.8728 27.4348018647
2.33322 31.5228 16.4759 27.7822856923
5.76146 21.3546 20.1365 29.9763278373
1.77862 19.899 17.1529 30.6660825261
7.71356 20.8637 13.5841 30.6481595474
7.01782 17.0114 19.3224 29.1464072592
7.68315 27.271 17.1031 31.0367748999
5.29493 27.2716 15.0933 29.9191574753
7.9683 24.982 13.4918 29.5490992548
8.71663 18.9014 17.4403 31.1422723546
3.73492 25.8061 17.2684 30.4047854754
9.69974 31.5142 20.118 27.9735833336
9.24211 28.1447 14.011 30.6344777854
9.83628 31.1337 13.3484 29.5346089889
0.772415 24.6446 18.0716 27.07780254
3.2601 29.5007 14.5192 32.1731123012
2.88713 19.2787 13.8476 30.6365287931
9.77915 25.4905 15.7528 30.2563635664
9.45333 29.6698 16.2337 28.6262743807
6.46494 30.5548 16.5721 33.3182042447
1.20833 23.1158 13.9 35.5830229023
2.61627 17.4818 18.7096 30.7610415518
8.27393 21.3663 16.4387 29.539057318
3.89601 32.6861 19.4999 31.8600999024
3.35617 23.688 15.5435 28.8135561176
0.409876 20.2282 14.8882 33.3964719395
4.29937 30.2942 18.306 28.3311660637
2.32586 22.2069 18.8092 30.2017824032
5.34436 31.2861 13.1736 28.2190334465
5.20517 18.7979 21.0415 29.8854682668
7.82181 27.925 20.5197 27.6595096931
7.33269 23.2982 18.7796 30.5032229299
9.46984 25.575 18.9703 27.3635968071
1.6644 27.5094 16.097 27.7896661647
5.81413 25.6827 19.2629 29.5934755393
5.10672 24.6839 13.852 32.505747124
6.72831 28.4436 12.9655 29.3666954053
0.834702 28.5932 12.8011 30.1649032089
1.06201 26.21 20.3408 27.2871335597
1.89772 19.96 20.8603 26.3366825086
5.57633 29.5223 20.8097 29.4848733968
9.35901 22.7872 12.8529 28.7666626953
0.172582 25.3512 15.2972 29.4632411189
3.18656 18.0246 24.5402 94.8360833521
3.65694 22.445 21.4048 28.2582881813
8.64098 31.5623 24.3425 82.7404107152
5.98999 18.3101 23.7634 33.2202783008
1.7835 20.2246 23.5497 30.2486990684
3.78864 21.8319 24.495 72.6116185758
6.36858 20.9058 24.5188 84.3568910551
4.42018 25.4103 21.6473 29.5002261693
0.969282 25.7414 24.633 102.9861844478
3.45876 24.4258 24.5531 80.9243095106
6.13531 25.6073 23.8874 48.0949786079
0.940281 24.1241 22.3742 30.8933793863
8.23082 22.1793 21.6121 30.0008379218
5.61862 28.3892 24.2307 87.2486459965
8.2785 25.1571 21.5389 29.3505177571
2.49717 28.23 24.1346 59.9343950709
7.89059 28.9567 23.3113 31.8820758003
8.35914 18.225 21.573 30.9102395081
0.836071 30.3253 24.1985 78.9493172748
5.53265 31.4813 23.946 63.9945565674
7.362 31.6718 21.4927 27.6114000783
8.83573 22.2387 24.4163 76.3147116336
3.12004 28.1801 21.5012 31.5077274107
8.82922 17.5231 24.524 104.686191653
9.18966 25.0971 24.4562 101.7906141311
2.47224 17.3245 21.5001 26.2967398963
0.209034 19.6206 35.9228 67.4283262746
2.4747 31.0649 38.7229 33.8675114425
0.485386 19.1816 38.8488 32.7061022894
8.59968 19.6268 35.7817 85.6592328422
9.23178 32.2664 35.6462 98.8833837647
7.62694 30.2852 36.3414 42.241552356
3.03445 26.6412 35.5206 103.0103109039
3.43115 22.0704 35.8991 52.8399176415
1.63325 24.2126 35.5724 82.2407249046
6.07945 23.2794 35.9947 73.9779117414
4.63569 17.0375 35.878 66.4425498121
2.9886 19.4799 35.4837 98.0391204012
5.74136 26.1392 36.2208 46.1799830614
5.78581 19.9061 36.7647 33.2814359272
8.1354 27.4963 35.8251 95.0813490265
4.09362 26.441 38.5802 28.5273118488
2.29164 31.2733 35.897 70.1637648475
1.28349 28.7603 36.0646 44.6372803134
5.0639 31.2984 36.0962 72.8633464269
9.16409 23.8464 35.8903 64.4991133945
3.88421 21.8583 38.7008 29.8156192142
8.05639 20.2562 38.7053 32.3276840775
4.30676 17.5877 38.6296 31.5505836679
1.759 28.1618 38.7006 29.4525746848
9.01106 24.4468 38.7498 25.9414673906
7.57184 31.651 44.4249 31.1602086266
1.84204 21.8695 46.4258 39.1751612865
5.97261 18.3457 43.0294 36.1537534363
6.6202 22.6689 38.9752 29.3901163369
8.90143 20.4227 46.2835 30.7128405433
0.584328 30.5786 45.509 32.7665875939
1.94257 22.225 42.5263 30.0460643975
6.07201 23.1922 41.8433 30.7560668716
4.95436 25.2116 44.3006 34.6343063797
0.0509467 21.5664 40.4739 29.6125701617
2.37885 24.8897 41.789 29.8608749315
5.31483 28.5636 44.4943 28.7306818586
2.43461 24.066 39.0067 27.7486361631
6.75476 22.0669 46.6879 38.2364561198
4.41102 17.0354 45.0586 32.0875121802
4.33572 16.367 41.5725 27.8025635779
1.79477 28.9144 41.4469 28.7161653049
0.565429 31.1883 42.7875 36.0071595062
1.16389 27.0082 43.2375 30.5954868056
7.74456 25.3226 41.9562 24.8808868633
3.08723 31.8575 43.2063 28.2934336402
8.94439 30.295 41.8971 29.5407097353
7.61693 27.8256 43.1186 30.1700333158
2.27819 17.3297 47.0321 28.7919990586
9.15939 25.8654 46.6827 29.4750668953
6.04927 25.4808 47.482 29.8171256847
8.89562 18.7176 43.3639 31.0559771184
0.12028 23.8493 45.209 31.5534705067
0.865994 20.1485 44.4972 27.6420572588
7.63734 24.3037 44.8121 25.9784915662
4.63823 20.7364 42.2803 36.9196272127
8.58704 21.6993 43.5319 31.180703064
6.99282 27.8437 46.9382 28.5484556672
2.69502 19.4492 40.4838 28.3572976697
8.31134 29.9396 39.2555 26.8882517111
5.24586 30.1785 39.2095 32.9121904088
0.944019 26.5336 45.9663 29.5236569913
2.24901 17.9886 43.1416 28.7011273126
4.25946 29.145 41.8925 27.944471471
4.6569 31.3986 45.4111 26.9977343424
3.62171 26.7448 46.493 31.6200676418
9.32906 32.6369 46.5831 32.1358838928
2.69044 30.7307 47.2186 29.8350607118
4.66003 26.5421 41.3867 26.744974835
9.18656 28.9964 45.034 30.1277326393
9.49734 18.8146 40.6401 30.7197656169
7.24411 26.7527 39.1154 30.0041835557
3.16199 23.3157 50.6161 32.4458640356
6.73107 20.3007 50.9635 31.8195833996
2.60171 32.0756 50.0188 35.7195864106
5.25054 18.3112 52.301 31.9024809689
5.34352 25.3151 50.4031 33.1479063911
0.968566 19.5846 52.9402 33.571162798
2.61165 24.1603 56.0527 29.3388711326
1.33108 23.2629 49.0282 30.6031144224
5.44066 19.632 48.1527 36.0492022286
8.60656 18.1837 51.0271 30.981210573
8.79944 21.5924 53.9688 31.3982647239
0.717768 28.0884 50.7127 33.5054903513
9.16717 22.3121 56.4921 27.3659539222
5.42477 27.8694 51.8353 30.7514870842
1.63492 32.6833 54.5722 27.6890862084
5.60755 29.0744 49.3112 28.707130607
8.8721 31.4838 55.6011 27.8425823062
2.24393 24.6384 53.2429 30.1856244243
5.55325 31.8411 48.5107 31.4996542705
8.62428 29.5981 49.408 38.5447325351
8.67458 28.6235 52.208 30.8782482973
0.0847973 17.2671 51.4196 30.3539732052
3.17349 20.5293 51.371 30.8671092553
7.48398 23.2711 49.4593 35.9469411189
0.149724 25.9054 48.7896 33.5490893741
5.3007 18.2903 55.4998 29.8321903313
3.15547 28.4002 48.9145 30.7026212325
0.250041 28.2575 55.3383 29.4816604281
4.49525 20.7326 55.9086 27.7584162042
6.61954 22.8506 52.5685 30.8872388124
4.17384 22.2027 53.5542 30.9592367012
2.93699 27.5645 55.5366 29.2786186069
2.59913 27.1983 52.4195 32.0207953378
9.46804 18.1106 56.5693 29.1075464758
6.90262 25.8665 53.4172 35.8220769993
7.87877 18.3002 54.432 29.3706269358
2.44216 19.87 48.3968 31.5894044741
3.99697 30.1312 55.1902 34.3981695118
6.94801 30.2229 53.6421 31.3613074554
9.67996 26.4811 53.8166 30.1849122668
1.91799 18.9031 55.408 29.3012164197
6.58831 26.1041 56.4833 31.2114872758
8.63679 18.167 47.8871 30.2666292597
6.13194 16.9786 47.8118 32.4261699426
2.22271 36.3182 8.9984 30.9374466515
7.95379 36.329 4.56246 30.1698737474
0.558819 36.4149 5.02099 30.6673970691
5.38439 35.2559 5.26604 31.6688240306
1.4771 33.3089 5.91117 31.4761418779
0.19808 39.0364 11.422 27.6453215172
8.46971 38.9713 6.87205 28.7064704442
0.217209 39.8595 8.32907 27.5508128409
3.04388 36.6221 4.06757 30.3534636092
3.81669 38.8688 5.25126 30.3804065439
8.86774 39.0349 4.01059 32.923400383
9.17375 41.3767 10.9304 29.6147751492
6.67621 44.2104 8.03289 32.8438300451
4.42725 45.4812 6.34245 32.6075314572
6.57117 41.7121 6.76057 29.9700895577
7.55558 41.2585 4.18228 27.1176264152
9.52537 43.5894 8.87463 33.0205212073
6.64503 44.9221 11.6064 31.6217145179
3.52053 47.5204 9.42652 36.0771729362
6.80169 35.4667 11.9019 28.9175932919
8.5109 46.3633 6.66246 34.378843936
6.72777 48.2473 5.51839 30.0454750056
4.16352 48.2208 6.87926 31.2664116212
6.60414 33.6349 9.84992 29.8229677068
2.46434 45.1786 4.28314 26.9162379148
8.33962 47.4717 11.884 30.4803958996
3.25789 43.1856 12.2596 29.1765025745
0.721741 47.9762 10.0946 36.0464617122
1.60923 33.5521 10.6929 26.6885016907
3.16628 42.3023 8.98342 29.5333175063
4.54471 40.0468 9.60379 28.7859165324
2.79845 38.3024 10.5976 28.6747504413
5.57465 38.9194 7.35817 28.9482845197
9.26487 48.0096 8.77446 37.0518175895
5.2558 35.4441 8.06654 28.6317491003
4.48188 44.74 10.1411 31.0859793353
1.50273 39.9855 5.94728 29.9803625044
7.13491 37.349 9.80184 28.2247139599
9.66661 43.3164 3.62938 31.4270414804
3.82755 42.5416 6.22597 27.2499087061
8.64497 35.7543 7.52044 28.0747561704
3.26065 33.5942 8.15764 28.4959918533
0.650653 42.1232 9.76145 30.1575246921
0.663355 43.1932 5.73465 32.4078115846
6.79365 40.1386 11.3721 29.9341562558
8.98236 32.8501 8.69913 35.3929363647
9.54857 36.7818 11.9846 29.5042268634
0.204386 47.1683 4.83105 31.4994794252
3.45286 34.1199 17.3382 29.8960329723
1.25942 35.6318 17.1734 34.0004848311
5.41407 37.6694 14.8676 30.4330265986
8.0922 47.5421 19.0337 31.3473977404
3.51096 44.704 19.3961 28.0947940394
6.93858 33.1324 17.6532 27.5752707518
9.22351 39.2166 15.6978 27.8340105708
8.32297 37.0168 17.6509 30.8839599036
8.59502 41.5839 16.5316 28.3317715775
7.1026 33.3605 13.9383 28.2042622445
6.16239 41.4515 18.0953 30.1890199955
4.95009 41.128 13.4513 31.2577320104
4.29126 36.8559 12.4373 29.9208082183
3.23398 39.8056 15.212 29.306863949
9.16461 34.9694 20.586 27.4661538979
0.220906 46.4871 20.3758 29.6412244695
7.57327 44.236 19.168 29.8275734421
4.09995 44.6119 16.5133 28.5975146207
1.07509 46.2574 17.4242 26.7132120232
1.40787 32.8306 20.7274 35.8146775499
5.58996 47.1709 17.443 28.8262873049
0.593656 39.2971 14.4991 28.7729059938
0.606543 36.6353 14.4552 30.4449719093
4.85227 45.1697 13.8344 26.7850271207
6.48956 34.2385 20.1567 32.9838088861
1.59923 38.9598 20.4143 34.3275305817
7.28809 45.2669 16.0584 25.63856373
1.80126 47.0892 14.7064 30.6403277771
5.72966 34.8098 15.6826 29.0896321451
6.86525 42.8676 14.4704 26.5969292245
4.21474 48.2401 13.7446 30.0243134696
2.98638 48.0336 18.7952 31.7676094523
1.89937 41.8702 19.5251 27.3236661801
6.34838 37.3105 19.8532 29.9057730894
7.84693 38.6345 13.5044 29.3220361165
2.28119 38.0679 17.7315 35.9022369418
0.556189 43.6142 16.6519 33.3853480011
3.34631 42.0422 17.1667 28.8915732956
4.99529 38.768 17.7236 30.2774878238
1.12269 45.0268 12.8894 32.7488791313
9.34049 39.361 19.1534 27.9388233447
2.26926 35.1868 12.4602 27.4043726669
9.46276 42.2059 19.6869 26.9726361078
8.65678 43.2557 12.7006 29.6551822411
7.03477 47.754 14.3021 27.0002025727
9.63702 32.8389 17.7399 25.3048038677
3.54874 33.3522 14.3196 32.2132826647
0.554162 41.8506 12.4434 29.8972178341
9.92522 45.3481 15.8448 31.0770297351
6.96069 40.8739 20.8801 29.0290042031
0.942817 46.9877 24.5282 100.0481679611
8.02253 48.2738 24.4054 78.0998260001
3.68887 34.9728 24.2395 85.2098469385
6.54922 34.418 24.5703 99.536214744
7.22802 37.1603 24.1529 58.4162658024
4.58766 45.4162 23.9653 55.4633171052
2.40197 37.4479 23.2015 35.9329291825
9.2051 48.5682 21.7051 28.6585849802
4.0359 47.3126 21.3556 30.7884267407
4.8305 39.1679 24.3368 89.7636548485
7.72955 40.7119 23.8787 54.1346762346
1.20141 44.3055 23.9675 43.1701476715
1.41991 40.3291 24.6113 102.1438798511
2.04021 32.8139 23.8902 46.4248014594
7.0046 43.6606 24.1664 76.5190223508
3.43321 42.4421 24.1092 64.5552718028
3.96463 41.5742 21.4659 27.5550713598
5.41569 48.0301 24.4158 85.767221194
9.44182 34.3212 23.3868 30.2191504344
8.82071 45.3156 24.237 70.839998333
5.42835 44.0171 21.3133 29.0770347044
1.52078 48.1321 22.2151 30.0719029676
9.08616 45.5863 21.3754 32.9669396619
8.38024 37.4723 21.6971 26.1269797524
1.04805 44.0641 21.3082 29.5645228281
4.5447 38.7788 21.3522 29.7941232252
1.71386 46.5278 35.9187 73.6059337443
2.69965 37.7107 36.0266 71.67506062
1.51017 43.4873 38.4607 26.4227130656
0.434752 43.1355 35.9258 70.9861339241
6.55051 33.9673 38.766 27.421643773
5.65249 33.8788 36.1736 70.7944516269
6.28322 47.5716 36.4509 43.015557227
4.67321 40.0041 35.5649 113.8878841889
1.29741 33.8461 35.5611 107.5279236921
8.97946 37.5158 38.7239 28.0965666299
5.94624 40.8225 37.6564 27.6988863895
3.45159 35.0127 36.649 33.7470243567
3.19256 45.8766 38.1976 26.6726295293
8.69492 38.2833 35.9504 79.5346238926
3.5504 42.5976 35.9302 69.6738530973
5.20423 43.3947 38.5924 26.5857370958
5.65262 44.7187 35.8855 88.3880443319
8.22851 43.6258 36.0493 57.4930485822
8.60499 34.9009 36.0258 64.1555147658
8.00992 40.8419 35.9495 72.222567281
3.07076 38.5073 38.6671 29.8134704242
9.05491 47.7687 35.907 68.5866450974
8.7797 46.5065 38.8456 26.6148497129
7.52531 38.5713 47.181 27.1431555599
8.86399 37.7982 44.9173 26.526911272
4.2408 36.0214 41.8955 24.4323403877
4.84025 33.0414 40.8269 29.3589453792
2.63904 34.3466 39.2316 29.3455323089
8.36671 46.049 45.6383 30.0065348292
7.51197 43.0977 43.6869 31.8478394965
2.63151 34.6593 43.5829 26.9159385962
8.06792 36.1497 42.5545 28.5921773107
1.04218 41.6202 42.1667 29.5847269283
8.47645 39.7614 40.5641 27.0466056249
5.18905 46.1708 41.7235 27.0606292074
2.05977 46.1083 40.6279 26.7365621431
3.78684 43.3706 41.1419 28.2112831123
7.09741 35.0778 46.5185 30.0037459
7.39755 45.9388 43.1248 29.0110607154
9.24811 33.176 41.9445 30.2195935868
3.65161 45.1074 44.2727 33.2123418394
2.535 48.6346 41.0381 30.0940630869
9.34234 48.5537 45.877 31.1716295983
9.3456 46.8236 41.5063 27.3008339975
3.7883 39.3149 41.9732 26.4362825544
2.07761 36.7755 40.3752 26.5987007882
1.69574 36.7708 45.038 26.7177316916
4.11609 37.0458 46.0853 27.9846734144
5.67395 39.1289 39.9361 28.8360437662
5.58543 37.5265 43.8801 28.0200284388
5.80038 46.73 39.1433 26.2251377429
1.33787 38.7749 43.1444 28.0250472614
7.61089 41.0948 45.9784 27.8479042028
5.02197 41.7105 43.0162 28.8476723788
7.32551 39.7086 43.2268 27.1385749847
4.02937 42.488 45.4728 34.3374598069
4.42108 34.3518 46.0777 26.7686313179
0.321395 40.0346 45.6011 29.6262734017
5.86252 43.0159 47.541 31.4989958422
1.35551 42.3934 46.2299 33.3802796954
4.10322 46.8772 46.3287 29.7349050282
6.30907 45.6434 47.5785 30.7244636311
1.84409 40.9788 39.5905 28.5354913105
6.63588 36.2695 39.8149 30.7755175555
1.25293 44.4285 42.8754 27.8965972413
6.46154 33.9634 43.0598 27.6830434564
9.20287 42.6806 41.1909 29.475705607
9.22529 33.1191 38.9372 28.0796727554
7.94922 43.6328 39.0385 28.7141021017
4.64409 38.0402 48.7002 28.749426286
1.52023 38.348 47.8547 28.1820927935
7.3458 39.3939 52.3949 28.298155698
1.71082 41.0165 48.6549 32.2421172394
3.25162 36.136 50.6425 29.7094058024
2.01845 47.5017 47.7143 28.1731367354
8.53169 34.8857 55.3454 27.2731668715
1.41154 40.9502 52.623 27.426789865
6.84795 39.8881 49.7046 26.5627847696
6.19018 35.6483 49.2675 26.6439516052
3.81343 42.715 52.4179 30.2761039516
6.40759 43.8907 55.4957 32.2450506573
5.2048 40.4361 56.2094 30.2135969684
2.47269 46.8318 50.3559 37.219687657
4.07523 33.5997 53.9727 28.6249869421
4.24748 41.4068 50.017 30.5296379692
6.76819 43.7401 51.0819 29.9699267409
1.51956 42.5963 54.8301 33.579344131
5.28912 48.4284 50.812 28.9950083317
3.26047 36.1235 54.5143 29.3409237454
7.53611 46.282 49.767 29.0783207456
7.1626 33.1616 52.5686 28.7566870466
6.96507 36.744 53.7953 34.7384719251
9.23597 42.9101 53.7831 28.4468645803
0.619921 36.5721 53.376 27.8111607269
0.08609 35.1986 50.2703 25.9454071217
5.00075 46.8089 56.5644 30.9129171202
7.06856 48.7606 53.3069 29.3875301285
4.88364 33.7459 51.2494 28.5078349749
3.27239 39.188 51.5037 27.4432446781
0.527559 37.935 50.9644 25.3289375908
9.59359 38.0445 48.9801 30.4361185893
6.2811 41.8304 53.3447 26.9722622213
4.6776 38.6596 54.0718 32.0868044026
0.289734 34.3791 56.1225 31.1303900877
6.15679 46.2098 53.9059 29.2505812503
8.13697 42.2981 49.1361 29.2807339826
3.97262 42.839 56.4124 27.7582399032
3.63783 45.5645 52.7433 32.9495220242
8.77539 45.5322 52.5322 31.4128877213
2.35003 34.4829 48.2497 28.4628068439
1.48944 45.5447 54.6674 31.8795203506
8.05163 36.6022 51.0601 29.1182503581
8.42198 49.0434 49.2642 30.7892707564
0.463913 32.9632 52.1432 26.7357801261
6.29383 33.1068 55.4219 27.1249696207
7.96429 33.2145 49.2831 30.2856561366
12.1523 0.860886 5.61011 32.9957230609
14.0106 4.9715 7.83516 29.7369906815
16.5205 4.05418 7.4388 32.5332496485
16.7186 2.50884 5.00076 34.3079805106
13.3622 6.4051 5.72347 34.3691011375
18.6057 0.418726 9.69629 31.5065240726
17.7063 8.28529 7.09891 32.8154338836
15.2481 8.59818 5.67363 34.3584485281
18.5991 5.72956 7.10276 31.0715977844
13.8455 10.7019 6.82186 32.3108101464
13.2891 12.2419 4.60092 29.8431888622
11.3189 13.8938 6.06643 33.5417208974
15.1258 2.10845 11.1824 27.1485927364
12.5279 4.75142 3.68081 29.5253955951
15.1237 12.0892 11.5299 28.7678769186
15.9647 14.8189 7.79113 25.3056022111
9.82533 14.3464 12.1993 31.6377659169
10.2043 6.39795 10.1589 33.5522201648
19.249 15.2693 3.71766 31.3660843898
11.3805 10.1779 10.7244 27.8721705634
17.7138 13.1361 4.64458 28.4912558939
12.536 2.5914 7.95043 32.0142913438
15.1662 13.4816 3.62115 26.9463963836
17.2622 2.80981 9.81939 30.2677359278
13.3776 6.16002 10.2252 29.3434121851
11.9837 2.51006 11.5444 31.736256997
13.424 0.504286 9.45363 30.9259170363
11.3239 10.1078 7.93265 31.7917037749
11.4312 7.43605 7.71706 31.515844602
13.1931 14.4572 8.33921 30.3488983937
18.5721 7.67187 11.5231 29.8979945004
17.3181 11.4199 9.8257 31.4738573065
10.2486 3.35008 4.51623 31.5137035926
18.4328 15.8737 7.84663 31.5037536906
14.0261 8.62387 10.6751 28.4103076069
16.5246 8.76462 9.75941 32.8166454902
16.3338 12.0915 7.21777 32.3468440674
12.3126 13.3287 10.7094 36.0436867735
18.735 0.772676 6.35553 32.8548296251
19.6287 11.3542 4.88469 28.6086738868
15.4713 14.8234 10.7219 30.1479842033
19.166 5.54924 9.8352 31.1062782901
14.0571 2.23553 3.86607 31.6140683372
15.2338 16.0071 5.07893 28.248953815
10.1972 3.6063 9.2535 29.8853169464
14.1496 4.58442 12.3397 30.5970880848
12.9405 4.14495 15.0708 28.7560177457
13.773 11.1524 17.2577 27.3363453616
18.829 3.14718 12.4235 30.8825313064
10.654 11.0532 15.6508 29.4022036536
12.7063 11.2455 13.0641 28.2256971896
11.419 0.470053 19.7156 31.5832302625
12.6842 9.15072 15.7148 27.1416387661
15.7388 15.139 17.2541 28.9001254458
12.7226 7.41196 17.7035 27.9219046372
12.138 15.7988 16.1918 30.1135816666
18.348 5.7078 13.403 31.7299962911
14.5192 8.42277 13.5735 26.7463323132
15.6661 5.95538 14.0807 30.0662639226
10.7688 13.7624 14.7187 28.413735713
14.6643 15.3891 13.5812 31.2167561689
15.398 11.6473 19.8438 29.0105750047
11.5844 11.7929 18.9126 32.4919667259
16.4917 9.86687 17.3316 31.515275734
14.9751 14.6499 19.8153 28.1147575429
15.2719 6.12274 16.8708 29.9364708789
16.3873 12.3815 13.9351 28.2897723495
13.8182 6.67878 20.9412 28.3300024795
14.2597 13.1813 15.4225 27.8221938393
16.0653 0.52451 20.417 27.7697234083
18.6385 13.776 14.2077 27.0934616182
19.2786 8.82796 14.8404 27.3690368582
15.4593 3.28092 17.3155 30.5044191111
17.3286 7.24172 18.341 30.3221977567
16.7377 9.64358 14.2416 30.0873193381
17.6279 0.872832 14.2361 33.1342569198
18.0068 2.51996 16.6642 34.0949979372
18.5116 14.3279 17.2795 30.5568545243
10.3235 6.2523 14.6403 28.2383410761
19.0022 11.1614 17.6658 26.9673060099
13.5051 1.43922 15.4357 32.2514461961
11.6969 5.0518 17.3743 30.1907456835
14.5529 3.96585 19.8932 28.502522629
18.3578 0.752315 18.8219 28.3215744825
11.9413 3.22725 19.5607 33.9643722103
11.4761 8.93954 19.6606 28.6400685953
10.8284 0.668373 14.2206 32.0829026162
16.7016 6.19046 20.9868 28.0420966574
19.4908 15.1656 20.0332 29.9972607421
18.1149 8.90937 20.9929 31.5910066876
10.4064 15.0619 20.4842 28.4441442911
10.1889 3.84466 13.3865 32.2793895114
15.1429 0.476446 13.2942 30.1886131526
18.623 3.96015 20.7688 33.3028990871
12.6514 13.7537 20.9137 29.4420505425
11.5428 7.9245 12.698 27.4701613064
14.8327 0.00242784 17.5555 30.5211072883
14.0261 9.71564 21.047 32.5151512603
13.5556 14.2512 23.4588 35.4806577548
14.0306 0.582757 24.0048 58.3016271168
17.1486 2.20983 24.3374 85.9103830539
11.1698 0.614016 23.9127 68.1413094266
10.9328 3.48378 24.0706 75.440608843
17.5675 12.028 21.5006 26.9839363011
14.0711 3.31535 24.1363 78.6927675755
10.3218 4.4452 21.5201 31.2318346887
16.2096 2.92268 21.8045 25.8998199621
17.5913 9.48347 23.7628 50.0221754941
14.0115 6.39047 23.7292 47.8424866175
12.0469 8.06713 24.1907 80.7613355765
13.4696 10.5114 23.7827 46.7250869219
16.099 14.9583 24.5129 97.7843464752
16.7584 6.43821 24.0716 87.7247467577
10.9075 7.02757 21.8331 28.4720347426
11.3391 12.099 24.3999 103.8049120775
18.8809 13.2202 24.1527 61.250250312
16.862 14.8554 21.5652 26.9003660645
18.6324 4.46702 23.8719 40.6688430636
15.8464 11.7003 24.0682 71.6848497667
19.5074 15.9162 23.9991 53.6728511272
11.0803 4.09734 36.0373 56.2736525512
13.9425 15.1968 38.8471 25.6728471145
13.5464 3.26759 36.2696 48.8830897183
18.6453 6.70122 36.1197 40.042699617
15.7089 13.3998 35.3227 107.5427828114
9.80841 9.03461 35.9206 55.7698769007
18.1347 14.6324 36.5618 31.2498436284
10.6882 15.1924 35.8541 73.9635228736
13.5934 15.2449 35.9317 47.524541191
16.0937 4.6205 35.7906 82.5177028236
15.8696 7.61239 35.5981 107.2039239584
18.021 7.18114 38.7984 32.5604994495
19.6693 4.03482 35.6067 91.4686961988
12.6463 9.25481 36.5078 45.574327129
12.9923 12.0879 35.6225 74.0869599471
14.8022 7.72878 38.0068 30.2442343228
19.0605 10.4408 38.7573 27.8952324623
15.7966 10.4266 35.9662 51.4469733442
17.2669 0.189229 35.7038 89.4759636338
17.7439 3.77475 37.9805 29.6138529599
18.8889 10.5435 36.201 45.0469604004
14.7193 0.642379 35.6333 83.9258731196
10.0779 10.0216 38.5859 26.4456304308
17.7498 0.768115 38.6425 27.1702791541
10.2267 12.073 35.6752 73.9320101349
16.7005 16.1452 38.513 27.590380225
15.8005 12.841 38.1853 25.8035064284
12.6377 12.7605 38.3484 30.0448689782
11.756 7.28058 38.7859 31.9025867137
17.9664 12.3218 42.3278 27.6197939193
19.4751 6.96394 41.9086 30.3898747046
19.1028 15.7229 40.9479 30.6157967224
15.6774 2.05472 40.6423 26.7733320372
11.8641 -0.0355504 47.0805 31.3573590885
16.3074 10.0277 39.0062 27.6028008926
14.3211 11.8717 40.9695 32.346048389
11.3778 3.83329 41.9901 30.8176100285
17.7027 2.91009 43.4136 30.4264084801
19.3472 3.6123 45.3957 28.1805960784
17.6 15.2544 43.333 29.4628245204
11.4805 10.863 41.3892 30.787256234
11.4029 8.06973 41.5118 32.800172539
15.1395 14.1003 42.3622 29.6475930081
10.6685 16.2174 47.0094 28.0469599657
13.4617 4.72702 43.3841 31.0198287434
10.6555 14.5333 42.6843 29.8416653882
19.452 14.709 45.4267 27.8239190769
12.269 0.358858 39.6641 29.9593857709
13.1942 1.32947 42.1819 25.5145550082
15.6897 1.59189 45.2972 35.7320986821
18.4046 11.9985 45.1874 31.0425270962
16.4748 9.95832 41.9808 33.7929816808
12.47 1.64906 44.9615 28.0822859817
18.0938 5.76573 47.139 34.8453626046
13.0259 14.5871 47.1127 28.848622255
13.149 15.7619 41.4162 30.1379852787
11.8064 9.97468 46.3648 33.5975130124
16.8694 7.11942 42.765 28.8057510351
14.2985 8.62302 45.3438 31.3643935994
16.0734 4.63321 42.1969 27.2711051974
9.84683 13.699 45.4159 30.2752669498
13.9296 7.48208 42.9727 33.6342054088
15.5943 5.31012 39.5034 30.6380802613
12.8231 4.78542 46.3111 28.107462704
11.6164 11.7962 44.1979 31.9423618601
19.04 2.15801 47.7899 29.1361711886
13.9669 13.3046 44.8824 31.2068604627
17.3194 8.20863 45.5468 34.6040375991
15.7162 11.302 45.8543 33.2911006025
18.4115 13.3255 39.513 27.5494488434
18.4743 0.659492 41.7014 28.3846069437
10.0926 5.19139 45.7633 31.2914239522
9.91091 7.94386 46.7057 30.0668561737
13.8138 6.86737 47.6773 34.5126094406
14.1473 2.81978 47.706 25.7677505221
11.0339 4.57799 39.0775 30.8571111275
13.4827 3.13178 39.038 28.3713287039
10.1368 5.45947 53.3821 28.962624249
17.5117 4.10192 55.9059 32.5230357397
15.9237 4.39841 51.2426 33.8483853732
18.8673 13.0161 51.1343 30.3828438179
12.0274 9.50421 54.1904 28.8951368474
15.6567 4.84448 48.3713 31.3636075077
12.0244 3.67623 52.3513 27.7401153873
12.1866 3.31869 49.6523 29.2158447563
15.5249 12.7481 53.9736 29.8570321521
9.93273 1.93586 52.4496 30.6884032016
14.3483 8.71321 52.2697 32.6061560109
12.7218 9.30469 50.272 33.1371255379
18.2537 12.348 53.9635 30.0205658719
11.8772 12.2134 51.5726 32.4227995254
16.6023 11.9005 48.7434 35.4028825288
18.6213 8.41498 50.381 32.7562359434
17.0233 10.4464 51.4025 35.7301551864
11.3241 6.93993 55.2778 30.8365543896
16.2872 8.49006 56.2431 37.1714475851
12.5402 11.9197 48.5031 29.1847297567
10.1131 4.45837 48.494 29.7638470904
11.7342 14.0206 54.2826 29.8774100369
14.7667 13.7119 49.3467 31.8129065742
13.7669 2.43804 54.2093 30.4485721452
18.122 5.90354 51.4047 33.3837912188
18.8453 13.7305 48.0857 28.1242864419
16.5381 2.25927 53.4 36.8733973553
11.5528 11.3923 55.766 30.7366816925
11.3924 7.11025 48.9099 27.37209652
13.9438 15.6139 54.7879 28.2251920167
14.32 14.4363 51.8892 30.9955750621
14.8969 10.2284 54.4075 30.0622648708
13.9917 5.92281 52.7225 32.3960932495
15.3233 5.68773 55.2365 35.6802676671
18.5444 10.153 55.7472 31.5563958139
16.4185 1.3785 48.4792 36.5398752361
11.2016 0.866439 49.6555 29.6051807358
9.86049 7.32077 51.3454 28.144629228
10.0727 9.85814 51.9459 34.0939501709
19.5262 2.78029 53.7321 32.8362596012
10.3323 14.8036 51.6171 32.3520427349
9.93985 13.0492 48.2069 29.4539545921
19.498 30.6919 10.7027 29.6158113364
18.3181 21.6301 5.81991 30.5413480979
16.6049 18.1939 6.8686 30.1949560762
14.1572 19.2821 5.96643 26.0447623851
12.1874 22.5273 4.16523 29.7150289653
17.5063 19.4298 3.80128 30.0503357368
12.3172 23.1322 7.12713 31.2166916176
14.8704 21.7008 7.00382 27.4557347709
10.3572 22.468 10.3081 32.1256459398
12.4007 26.6244 7.87749 33.8132876393
18.1658 22.6867 11.5176 27.8396026515
18.0986 16.3496 10.7108 28.1310084604
15.7239 31.6994 4.15912 29.7608526445
16.4591 23.7458 5.85069 31.3365932435
18.7002 32.1945 7.16176 30.0899751121
12.973 28.3142 5.82651 31.5223032258
17.9154 27.8443 5.95031 30.4672228415
11.9061 31.1219 5.66714 37.0260230372
17.5984 25.6732 7.66786 30.5122610729
15.5153 29.1431 5.68987 34.8918170552
18.7718 21.8195 8.48889 29.7693893811
12.2019 17.1085 8.01738 31.1044644844
12.9774 21.9182 11.2397 33.6977348557
12.297 28.9009 9.70232 36.0123839115
14.6986 17.6364 9.02068 30.5600751419
13.4083 31.6258 9.38356 33.9124041192
9.89736 25.3018 7.14211 30.2299575593
11.4837 20.3682 6.99627 30.8033010112
19.3316 17.6823 5.3167 30.5528997083
14.4452 19.5317 11.1717 34.8934538827
15.1663 23.6554 10.6979 29.8084034284
16.0341 21.2243 9.34026 29.4882321964
12.51 16.7785 4.93809 28.4947679489
14.3665 24.69 8.28584 31.0434399465
16.9816 29.2768 10.1732 32.0833065091
16.4974 26.4658 10.0667 35.3338781062
15.9934 30.8604 8.05527 30.9027972067
19.3796 20.0512 12.258 33.5469591271
13.3267 20.3875 3.53254 30.4967324366
19.1993 29.4841 7.69383 29.3782805067
9.85259 17.4811 9.45313 34.7953127114
16.9675 18.4004 12.1466 29.0450390557
10.1832 17.3546 12.1079 35.3945095341
19.5132 27.9756 3.72377 32.8947511931
19.1217 22.9498 20.3341 28.6858785554
12.4953 17.3612 13.9348 34.0170151178
11.7706 23.9388 18.3884 28.8792807259
12.1367 31.2124 16.5592 28.1190779115
16.3162 19.7392 14.8367 30.7076789215
16.1738 17.8429 17.1054 27.5398037753
13.4049 17.4745 20.2027 29.1267683553
16.7994 22.7332 13.7691 31.0879647121
14.3548 24.3315 16.8208 30.1163051728
19.3193 29.6363 15.4445 29.7424640752
14.1152 26.8318 14.1398 33.5944267448
17.3486 25.4595 12.6573 29.5951509577
10.1943 22.9036 15.8616 25.4692116747
19.6397 16.8525 16.4795 32.1504074935
14.391 24.2209 13.9152 31.1577274081
12.5369 26.635 16.5094 31.5911030306
12.1576 22.1103 13.9323 33.4860481738
16.3199 26.5196 17.1983 29.4973008796
12.5726 31.3024 13.883 25.846141249
16.1136 28.6683 18.8399 29.4860921837
17.1783 31.2411 17.915 33.2827240387
16.6614 30.9189 14.6622 30.5511377777
13.7664 19.579 15.0682 29.0295998028
13.4019 17.8516 17.4944 25.8976871433
12.609 25.0796 21.0044 29.1753304411
13.2249 28.8772 17.9378 32.7329942522
17.1109 16.5601 14.3741 29.6668090981
12.3888 21.1081 17.0951 28.0260861528
16.5735 19.6512 18.9688 29.7458855023
15.4596 29.408 12.5938 31.463352935
19.1924 20.8726 18.3353 29.3055062045
11.0708 19.3514 18.5814 27.8569189059
11.7404 27.6143 20.8622 29.4264315462
18.713 22.0223 16.009 31.2154665484
13.6514 32.4255 18.4259 29.1650471044
14.7988 22.0731 18.6281 29.8823320878
16.5981 24.0928 19.4479 31.212740527
17.0555 27.5723 14.7804 32.1028679618
18.7839 32.0763 12.9543 28.591759764
10.1806 29.0838 19.2257 27.9458889948
18.919 25.5796 18.0131 31.605768397
18.3743 28.892 20.7114 35.744162302
13.1165 21.8948 20.8922 27.426898735
10.5359 20.9207 21.0929 29.6945353807
12.5548 28.844 12.6139 35.5218404719
12.0322 16.695 23.9744 65.8781890539
10.394 19.9592 23.9168 49.3909778778
18.8429 25.8026 24.199 75.6157903312
15.5428 22.3661 23.1869 32.6246940803
12.9691 21.5238 23.8297 59.7091109618
14.4337 31.2852 24.3607 90.183330521
14.2335 18.817 24.2254 83.3665074082
17.4073 20.6186 24.2307 84.5484977156
10.8833 28.1716 23.7836 51.176823012
15.3196 25.3464 21.6483 32.5555341061
11.8848 24.0724 23.746 44.5766770717
16.1578 24.9012 24.5113 108.4998378545
11.2848 30.7795 24.3195 85.6003315469
18.5775 20.5443 21.636 26.5566514229
11.637 32.3609 22.0514 30.771995457
13.3043 26.3142 24.27 81.4773973652
18.2131 28.5391 23.759 57.0386465127
15.5171 28.5977 24.18 74.1940206679
11.1761 17.5532 21.4362 25.0164472013
17.1375 17.6736 24.2112 62.5777690399
14.5293 28.5737 21.1271 30.6338357121
14.2326 31.5707 21.3171 31.776590704
17.4549 17.7104 21.3833 30.2990274906
14.872 19.2527 21.6627 27.63671813
18.6895 23.8177 35.8904 71.9690415619
11.0305 26.4406 35.9326 77.4107668162
11.012 18.0332 36.0377 50.9656836597
15.9621 30.0016 38.801 27.4451916988
16.8278 18.2269 36.028 52.7697928578
16.4035 31.2746 35.3527 118.8752054938
18.8618 26.7533 35.5743 85.8934139654
13.3384 21.0735 36.1026 60.2612217377
13.8979 18.1044 35.5844 96.9048135691
15.6286 28.8322 36.2191 37.7071050712
11.7372 24.7561 38.1721 30.298017961
17.2382 20.7949 36.638 41.1786382995
19.1921 31.7535 35.9049 77.5929538114
11.9146 31.6687 36.009 60.7840867973
12.7876 28.6728 35.6276 101.6632341108
15.4513 23.2001 36.3507 63.480725535
18.987 28.3004 38.3487 28.8830035818
16.1819 26.0535 36.0007 72.6877125289
13.0677 28.4029 38.4908 30.0184668789
11.339 31.0297 38.7744 29.0403451473
10.5668 21.5717 35.4491 106.3777968138
10.355 21.6251 38.6786 27.9375936259
13.2175 20.5409 38.8605 30.5469409621
19.1891 17.017 35.1276 125.688066357
13.9381 23.4163 38.6852 31.832661823
18.7292 31.4268 38.8398 32.5602267681
18.5161 24.8786 38.248 26.4778979598
10.0283 27.8571 38.7711 28.6515344511
11.7481 17.6534 38.8294 29.1646509275
14.5925 32.5821 38.9017 29.4575759035
14.3592 23.4236 43.3881 28.5970388187
12.2012 20.0136 45.0151 29.0926639302
13.1474 21.0933 42.588 28.6861590686
11.3904 30.7998 46.7831 28.2564596775
13.8434 18.3285 42.692 28.052600417
17.0613 20.2201 41.6511 29.5399997064
10.2809 24.5793 41.7579 28.0366393899
16.9648 22.8402 43.1877 29.1996400321
18.726 28.5213 45.6534 26.7318061611
11.5311 29.0498 42.2698 28.7431143995
12.6093 31.9795 41.2629 30.1572427107
15.6619 29.1853 45.4325 33.8645844237
11.2178 17.327 44.4794 33.0716067945
14.2458 29.3007 41.2405 25.0665548504
19.2128 18.8738 43.6278 27.3176079386
17.0532 26.5397 44.4123 30.3224539355
17.6299 21.5102 46.0604 29.6398539291
17.5006 22.0844 39.0887 30.2666836559
13.2331 31.8702 44.4545 29.5479456088
15.1947 16.4255 46.4174 33.4414284576
15.5307 30.9546 43.037 31.4705021833
12.6285 28.9731 44.8867 28.3451955263
14.8711 18.3601 39.9159 31.0783106803
16.9975 28.1071 41.6772 31.879509626
10.8056 21.6259 41.6518 29.1301321308
16.4689 27.0003 39.1363 27.6092673899
14.107 22.7471 46.5058 28.6730784896
18.8968 29.9106 43.1875 31.5255559869
10.8274 24.194 44.5712 30.6991121332
15.0809 20.0862 45.5028 28.1928753383
16.1474 24.2795 40.5459 30.1569043349
15.1829 25.3677 46.4727 29.4773177232
14.4553 26.2447 42.1031 27.8486398681
11.854 26.5184 40.9847 27.7711423263
18.9318 24.3531 44.9992 25.7424729315
16.2198 17.8806 43.7656 29.3787354868
12.9939 25.9888 44.697 31.4631013424
18.0669 17.9152 39.9675 27.209943638
11.2813 21.98 46.9282 27.842034566
12.3241 21.0217 49.5339 30.4413856967
13.6286 17.5204 51.3002 30.8056075853
17.9158 22.4941 50.2518 29.1510542833
11.8742 23.3337 50.9308 30.9177600104
16.047 19.1965 50.1355 28.0640968453
16.7936 20.4376 52.3573 27.7133579414
15.8601 28.2348 50.0849 32.2030571647
17.9895 32.0666 50.154 32.344421078
11.8545 26.3175 49.8267 34.9048123517
14.9408 21.7392 49.0296 26.8693983268
16.3314 30.9442 47.8495 28.957009951
14.4836 26.0073 49.1711 33.525549119
10.9136 28.3889 47.7929 34.4281862879
11.0878 17.5885 52.7199 27.883027782
14.1005 28.1985 54.3664 36.0727917589
15.3698 18.3593 53.7153 30.6974231594
19.3462 29.7511 51.7771 27.0995729688
9.93455 24.0424 48.6053 32.6476608471
17.5132 16.3563 48.2169 28.7704260554
12.1234 27.6789 52.5278 36.0678626626
16.9254 16.9069 56.0156 34.0216960929
19.4269 26.0803 48.5024 30.3109753154
12.8934 24.1599 55.3643 30.2017887638
12.9873 30.7804 53.372 32.6117456324
14.3173 30.433 50.7133 33.3764439615
16.4957 27.8444 52.9554 34.0524996793
16.1498 32.0687 52.5097 29.0934027065
11.2243 20.5105 52.6286 31.8309042634
12.8854 26.7866 56.5195 33.3158894123
19.4449 18.2663 48.2052 29.4143223362
10.784 23.7325 53.6855 31.5534412405
14.76 23.7481 51.0541 34.7829850721
13.6334 20.469 54.0296 27.3150846993
12.1159 17.8238 55.5552 27.4877411187
17.6889 22.3718 55.3239 30.9423878484
19.5497 19.7717 52.738 30.8801699037
15.1468 22.7117 53.6928 31.0524917631
18.1555 28.8414 48.7005 27.4881705052
17.6065 30.192 53.591 30.6786916932
16.096 24.3667 56.441 34.0742279864
17.8105 26.3148 55.0422 35.3673382662
13.6318 31.8497 48.3164 32.3494437154
10.1007 30.9426 53.1173 30.0399413665
10.3459 27.2411 56.4059 30.3473405068
19.3062 21.0829 48.3596 26.6413221237
18.1842 30.679 56.4281 32.6778229746
11.9905 18.2354 49.0502 31.6107410692
17.2602 16.5243 50.8803 36.1234596216
19.5279 24.3302 54.114 32.3284774654
14.5474 18.4905 47.8979 28.2902538714
17.4662 23.8783 47.7764 28.1444319077
10.8751 33.1357 3.80523 28.1723734692
11.9916 35.4228 10.0234 29.298075394
16.3153 34.774 9.15516 32.7951017665
17.3955 37.0992 11.3673 30.3178965439
12.7148 46.862 6.4961 35.7026307857
17.2934 36.7998 6.93182 28.8878551163
15.9627 35.7562 4.33579 27.8519970609
11.6809 39.0361 4.18661 31.1594419949
18.4255 38.6615 4.7971 30.7651477486
16.1323 33.0378 11.6049 31.0766456443
13.0902 36.4974 4.26804 29.2053525999
14.3258 37.0139 9.8391 27.5516876793
14.5855 42.8258 5.52613 29.8990674204
11.8736 44.5882 9.40082 30.3532442217
13.8807 35.4531 7.08628 32.1187626621
12.933 44.0968 12.0968 36.7581764069
16.0601 33.5671 6.32455 28.6932635552
14.181 43.4698 8.30867 32.0161868451
16.381 45.8899 10.8971 30.8885886832
10.6335 35.2825 5.2946 28.9928515291
17.2294 43.0316 6.6625 32.5783148532
15.9706 38.7948 3.60961 26.5794002969
11.6972 41.6201 5.0473 29.8829760442
17.6066 44.5605 4.04696 28.9131306425
10.4526 45.8152 4.58748 35.0096577493
14.2983 39.6394 5.5725 32.753487055
19.0236 45.3839 7.14541 29.4630097182
11.9188 47.2466 9.14961 28.150154059
10.1789 37.3299 9.23278 28.7520352476
13.0287 32.9178 11.7212 30.0356961461
13.7005 38.9629 11.6505 28.2258024289
17.2653 47.4527 7.02869 30.2532154584
11.1091 40.0659 8.97042 31.1608384199
13.7226 40.9952 9.47306 32.8631952667
11.565 33.6284 7.56265 28.0781681625
15.4047 38.8329 8.34733 29.8077260927
18.7096 41.558 10.4002 31.7984682097
18.0413 39.0254 9.26145 33.502760393
16.7239 43.4897 9.47763 31.1641413713
19.4105 41.2728 5.15951 29.4849425282
15.3678 48.3459 5.19918 31.545257683
16.2928 48.2036 9.48206 31.1730378932
19.5201 48.5483 3.91797 33.9910209672
10.8999 39.4555 12.218 31.287014301
9.90703 41.3148 6.77242 27.4743566601
10.8735 43.1442 17.1739 30.8848122043
14.8552 33.0524 14.7891 25.4925618683
17.8583 35.5303 16.0477 30.968649445
19.0732 34.9846 12.5577 30.1424511244
16.0889 33.9121 17.4033 27.3078287406
19.6717 35.1345 18.2354 28.3936029181
10.5154 45.1236 13.2834 30.6942290679
13.2667 35.0689 16.2905 29.3889243711
13.4536 36.9917 14.0489 30.322024557
11.7903 39.1135 14.9118 29.8826717494
18.4336 38.288 16.2119 29.5832165442
14.3927 40.5939 15.37 29.2287697167
13.9277 43.1876 16.2925 30.9487450764
16.2421 46.6314 16.673 30.3953760435
19.0832 46.1859 21.2549 28.4398122327
15.1366 43.3625 13.7728 29.1419148791
12.5977 47.7606 18.1441 33.3791895825
18.3299 43.2226 14.2129 29.8461403922
15.7774 40.4072 12.9443 32.4649104648
16.357 45.8571 14.297 27.4751079504
15.6097 44.4832 17.9209 27.858401206
16.0278 35.0628 13.607 29.3677242042
19.515 48.0983 13.5853 28.2796399939
18.847 47.049 17.8673 29.8808535358
17.9793 38.8107 13.3826 27.9027754565
18.2256 39.1327 20.0616 29.2238714125
12.7655 44.85 19.0495 30.8194267212
12.0782 34.4845 19.6788 27.7973077089
10.4693 35.54 17.4852 29.2456719274
11.7771 39.0599 17.7115 27.2992275279
19.6994 44.0784 18.5394 31.0180037708
13.7103 37.4088 18.3348 26.4639159588
17.4932 42.4876 17.1722 33.3690071384
15.4861 44.1288 20.9552 28.2552088974
16.0579 36.0107 19.5814 29.5346745562
15.5838 38.7498 17.0795 28.2235491286
13.2555 41.3119 18.7406 28.8836562796
16.2687 40.5327 18.7312 26.1465041273
18.8703 45.6503 12.5824 31.0586501992
19.4859 41.0283 13.0449 31.6175195891
11.6374 35.1698 13.0717 30.0405758033
9.89235 48.169 16.7836 30.4453721549
9.71643 33.5507 14.7265 31.5630802934
19.3606 36.5913 20.8185 28.5563224893
11.3555 47.7573 12.3851 30.792186622
14.1767 46.8293 12.7794 32.9017887901
18.7948 33.8515 21.3903 30.6287203285
15.7247 33.8048 24.2068 74.3432820525
10.9756 38.619 22.033 28.2219905842
11.016 36.0402 24.5004 106.0671400433
15.6747 38.3272 21.5676 30.6081361552
12.0066 41.0892 21.6916 26.6464155769
15.9943 33.8493 21.3301 32.0283594696
13.7802 35.9526 23.8812 44.6468863815
15.5629 37.8762 24.3763 80.6107311241
16.7138 47.2604 21.7186 28.8731345364
18.515 33.8005 24.1317 80.3785116303
12.2117 40.8356 24.4579 77.3321448498
14.8481 40.6518 24.0956 50.7754473099
11.181 43.5212 24.3716 74.7066549462
18.239 38.6603 24.5338 90.1075845375
15.7212 43.28 24.2474 68.9644035915
13.5323 45.0356 24.3892 87.19942126
13.1954 45.9608 21.7377 29.879980778
18.3626 43.818 24.2537 72.664111571
15.41 47.3465 24.1024 69.6916155891
13.0383 36.7387 21.2595 29.4435570235
11.2088 43.5795 21.5711 26.5045349196
14.8939 41.3236 21.3626 27.0735870102
18.3635 48.6524 24.0488 63.0459648845
19.0811 41.2655 21.6603 32.8667910919
9.94044 39.017 24.5504 87.2276974683
18.0739 43.6896 21.5587 25.9108499452
13.5165 48.7247 21.4863 28.0543824959
11.6487 39.0567 36.0741 60.2349454035
11.821 45.9945 38.0527 26.4198419746
12.1379 39.5049 38.7672 31.1346838689
17.6898 36.1368 36.1342 52.9912324699
14.4664 40.9957 38.4025 30.772209989
13.1596 47.3741 35.7213 76.4440309081
14.1047 35.593 35.6215 86.9003588949
11.4285 36.1653 35.8193 71.601263284
14.9191 48.6307 38.4016 28.2527293202
14.4893 32.9757 36.0226 44.7909728324
15.5838 38.179 35.7059 70.5697224267
18.2651 43.2128 36.0273 71.744167724
11.0395 35.4464 38.4569 30.3137210943
14.1091 40.7996 35.4859 99.3364583047
13.2973 43.5521 35.7025 73.5776334459
19.157 38.2692 35.7071 81.1465918601
15.0469 45.3959 35.8488 62.1510634583
17.8677 45.992 35.8846 78.5059486134
12.2367 43.2541 38.2755 27.5189978971
17.4016 40.4915 36.3037 45.2565122867
10.5275 45.1805 35.7277 79.5909472434
14.8126 45.7026 38.7048 27.0526414881
15.8538 36.4274 38.5437 33.4011844607
9.92226 41.5683 38.1207 29.1357090818
19.0103 47.3941 38.5051 28.1335451824
12.9655 36.434 42.7619 29.9942746492
17.3828 40.4049 39.5073 29.5385976138
13.8413 42.5297 47.3558 29.9858399796
10.9164 37.469 41.0779 29.7739571177
15.8667 36.9333 42.7871 30.1026761511
10.0635 35.0171 45.3338 28.742912694
17.795 37.8783 40.9306 28.4101997981
16.8357 34.8449 45.0836 30.4695908743
11.3974 44.6344 41.6394 30.2004207508
16.2751 40.3626 42.7011 30.1569303656
16.9232 43.0217 47.202 28.3732273028
16.5093 46.1073 45.4539 27.2125626304
13.7825 40.5819 41.4 35.9841192366
14.1219 43.4631 40.7034 29.9054481698
12.4648 35.9542 46.4287 27.3488003495
14.4841 48.1421 44.2734 26.9618688676
17.411 46.132 42.9402 26.5027209157
19.137 43.0532 41.7267 30.6603012172
15.6435 48.2246 41.7383 27.192052189
15.8626 38.9372 45.0705 30.2760098835
11.6678 34.0902 43.2974 28.4893434551
19.0852 48.5848 46.7652 28.8786845494
16.5689 33.9962 42.2199 31.6645125911
13.0905 46.9164 40.9533 26.6387741988
19.0993 32.866 42.6409 32.5456318012
10.9096 40.2236 42.1029 29.6424105069
17.2837 33.7393 39.2748 28.9895209986
19.2153 38.9514 43.497 27.8122353679
17.4789 45.6208 39.8288 29.2178220713
17.8079 37.5303 46.1319 28.0291219166
18.5579 40.6597 46.2678 32.9247235992
10.995 39.4712 44.5558 29.4559199257
18.1023 33.0309 46.8393 30.0491749241
10.36 44.1397 45.9306 30.6041909792
13.1791 38.059 45.2056 26.3849317556
16.2171 43.3305 42.6667 31.0749856606
15.1976 43.9587 45.2685 28.266091697
12.4394 44.925 44.3587 33.3920675276
13.6611 35.4428 39.591 32.9959999214
18.9916 45.1178 46.9444 27.8308681157
13.6564 46.7123 46.8912 28.299999421
11.5454 47.8834 43.4189 27.3484676502
14.3971 34.1731 46.1616 34.4105494241
10.2707 41.5194 46.3266 28.0934129
13.3284 39.4291 47.7104 28.7223081753
18.1607 42.9248 39.0595 28.1007178407
14.115 44.3099 56.1786 28.3818975118
14.8074 44.4954 51.4064 28.9379390516
12.4557 33.7621 50.0991 33.398514507
18.0988 38.6414 49.8152 29.4894602077
17.454 38.57 52.7448 27.2461919945
10.8449 37.0747 52.126 30.6939133218
12.0439 44.1102 52.1618 29.7559452559
9.96209 32.9958 51.3674 29.9120636437
12.1312 47.8964 51.5466 30.4870350195
13.2814 38.2041 50.6877 26.904500959
15.7381 40.3956 48.901 33.3682782118
12.41 40.2493 54.6646 30.4575585088
14.3663 34.6545 52.0969 31.0252502051
13.4067 42.1271 50.2879 26.8539797453
12.0505 36.3232 48.9988 30.5523763338
15.7157 37.1099 54.4186 29.3348427997
9.88386 48.5808 53.7949 32.0459192334
12.3093 44.5686 47.96 29.6200072918
13.5268 40.1248 52.3538 27.4884761379
18.3364 46.5746 49.0312 28.4504435511
17.2965 47.1447 56.6198 27.385452339
16.9754 43.901 49.6727 31.5132559733
19.3221 34.6259 48.8061 26.5894711501
10.2837 41.7166 51.3053 28.5899164338
15.5184 41.4528 56.0083 27.5549314286
17.4146 46.8469 54.0875 30.8117748895
16.1532 44.2274 54.1563 29.2787276646
16.9127 34.7665 53.6689 29.8343103944
10.193 39.5716 53.141 30.5507609089
18.2858 42.0492 55.4015 26.1454725015
12.111 43.1228 54.817 29.9073135662
18.4672 42.7366 51.9502 31.144596622
13.3134 35.3759 54.8182 29.6168489965
10.5943 34.7307 53.6579 30.3359977261
16.2307 41.0284 53.1929 29.2458801818
17.2587 36.3334 48.6009 33.2667040229
15.762 36.8289 51.0037 29.0392463649
11.0097 40.3771 48.6733 26.3139119428
15.7965 47.7118 48.5279 29.3951417966
17.4699 33.856 56.1793 29.4668788912
14.6393 47.0821 50.8559 29.6063902148
13.1887 48.7206 54.2392 30.8372314568
19.3022 47.0244 51.7719 36.974027743
13.7452 32.6296 55.5409 33.5704252627
19.4312 35.4443 51.7143 30.6235360642
13.567 47.0 56.5493 30.009161459
15.6744 48.543 52.8953 33.7331340636
10.7298 45.7498 50.2079 32.9061180839
19.3268 39.5585 54.9461 29.2859103442
10.7375 48.1966 56.6065 31.3383934199
23.1096 1.79997 4.76672 32.2647754671
22.3013 11.8882 3.95805 29.0015718158
27.4522 9.88365 10.5674 33.3740307632
27.0555 0.651642 9.16988 29.8406578293
29.0035 15.1187 9.3638 31.3983536047
25.6201 14.0006 10.1528 32.1545134015
20.876 0.449217 11.6435 25.1074912076
21.9996 8.44483 6.16943 32.5838031501
20.5941 9.78583 12.2763 28.4343373792
22.3756 15.0189 12.2375 30.8054542657
25.7531 6.35497 6.73893 33.0073736263
25.6037 4.50012 11.8385 27.5427024617
20.4536 14.0504 6.93039 33.2597843711
21.067 12.0341 8.65142 30.6044895033
21.4331 1.40763 7.30099 32.9823133645
26.6922 10.3502 5.41977 29.2241276416
27.8928 14.9451 11.83 27.9164562648
25.0166 11.9299 6.99422 32.3638366872
22.9974 13.7449 5.91951 29.7944858848
27.8209 7.80109 5.67479 29.8399231502
27.5567 13.4872 7.64526 27.168719773
20.9957 5.6152 5.88545 32.4813252239
21.3917 3.62888 10.8106 29.4642771057
27.8592 12.978 4.32477 30.8603497843
28.6522 11.1643 8.08598 29.016532007
24.8044 4.07653 4.92223 30.2427382018
27.4206 2.25854 5.53948 29.0896553681
25.4024 3.1392 9.29653 29.6368412896
23.1863 9.0523 11.3988 30.4918065258
22.9833 1.6595 9.8898 28.6760438197
28.4504 15.3213 5.84115 31.5960152314
26.1497 7.21958 10.4865 34.9913421982
24.0112 8.34831 8.11763 29.7606216736
23.0205 4.04674 7.42516 28.6044152728
27.6759 4.50684 7.77304 29.9258370243
23.342 5.74154 9.67727 29.3987011881
21.121 7.81943 9.52883 30.2124381997
20.0887 9.89264 7.37101 27.4611819915
23.8361 11.0995 9.38248 28.9428361172
23.9652 12.6469 11.9762 30.3624277457
29.0521 1.0368 7.15596 27.385288023
28.2844 0.79276 11.7113 29.6010248518
25.5144 0.145419 6.03402 32.1238037537
22.5057 9.17767 3.41141 35.5457617569
28.2081 3.56151 12.2598 28.8476198047
19.8374 12.0708 10.8979 29.8259724343
19.7428 14.6315 11.9639 30.2411180261
24.7629 2.75853 14.0289 32.3910057482
21.8982 0.800418 15.0691 29.6622559342
23.4999 15.9572 20.0974 30.7068111409
26.1275 14.0076 17.467 32.7671126199
19.7809 7.05404 17.2188 26.866255366
21.0797 6.10712 15.0167 28.1862417218
26.862 2.95393 16.2251 30.0107419196
20.3151 11.3708 15.3827 28.5743853056
26.1454 5.40046 17.0763 30.7748694499
27.8894 11.1356 12.9252 30.9943970076
23.1933 7.87883 14.585 29.9600372939
22.9332 10.4465 14.0588 29.6015312255
22.2526 1.71166 18.2751 26.6821551804
27.6735 6.77266 15.2406 31.0054671011
25.8893 9.80336 17.6599 33.7122053961
21.6129 15.0486 14.9538 31.6178502226
21.9489 3.85125 13.681 32.0145759517
25.4905 6.74369 13.5173 33.5807783315
24.5346 11.9294 16.1179 29.2759893102
28.8771 13.455 17.8983 35.1898915448
27.7577 5.83923 19.3882 33.6288701762
28.0267 10.9176 18.9804 28.1180845297
20.2487 12.6255 20.0413 29.4292730612
23.723 0.374032 12.9952 29.8420583615
29.1883 1.89841 14.5148 26.7634217513
29.2227 1.44763 17.7146 28.8020463395
24.0947 4.24598 18.9725 31.8297744342
23.9685 8.72944 19.8819 29.6878024293
25.4048 1.25261 17.8468 30.7001088551
27.3615 1.72546 19.9299 28.0318792522
20.6882 9.33735 18.4562 29.3040786812
21.4878 5.29058 18.3775 28.0528360943
23.2467 7.50226 17.46 30.4083057307
20.832 3.24307 16.5824 29.2020287247
20.5332 0.452259 19.8604 27.3102318344
22.3024 13.1789 17.0013 32.3247536975
27.786 9.40404 15.2332 34.4319701899
24.039 13.555 19.2479 28.474997326
23.9569 11.5412 20.9785 30.2794293268
26.0909 12.9371 13.9219 33.1432560573
26.083 7.46388 20.9857 27.2962005697
21.0439 8.57381 21.0372 25.9510344601
23.14 0.617725 24.5984 89.9237510211
26.1865 0.0126234 24.6578 96.3768407548
28.4577 1.49328 24.3046 59.7473988823
25.982 2.32005 22.5591 26.5958758513
23.282 3.54495 24.2736 51.7705967824
21.1738 5.50471 24.4871 95.6329763824
27.9651 11.1082 24.0867 54.4329015875
