15.242 30.3843 4.88736 28.1586242568
13.2013 31.8963 6.03396 26.1474102935
15.5939 30.4271 7.87842 31.1776076107
18.1822 29.678 6.02934 32.7819819539
19.7076 32.5787 3.97885 30.7452812014
22.1577 28.7043 6.59589 29.4987681127
21.4326 30.3991 4.38042 29.8147287103
23.6739 32.1508 4.37052 26.8557301145
16.1777 33.1882 7.73256 29.2568710664
13.0504 33.9305 4.1685 27.4894151968
15.537 35.3748 4.13398 33.1034005192
17.1511 32.7985 5.02096 30.0995569826
19.4238 34.9791 5.51087 29.7161847233
16.9292 35.7927 6.30957 28.7919024747
22.0887 35.3443 4.41083 27.8761797555
23.2607 33.5672 6.77586 28.9650467605
20.5594 34.1107 7.84407 30.7042534777
13.8937 26.2799 8.62722 27.1977882392
13.9767 26.1186 11.7435 28.6429898182
15.0837 28.3233 10.2703 30.5958906076
16.1499 24.5103 11.9228 26.0437208352
19.3262 25.2845 10.4317 26.1687565925
17.1946 26.1561 8.9639 29.2104677456
21.5041 25.1491 8.55139 31.5563718564
23.0077 27.0025 10.2251 29.9972374744
12.9437 30.6614 11.3028 32.0145047272
12.8465 29.5802 8.23803 28.9187349441
19.8783 29.9468 8.50544 31.886324782
18.0726 28.7903 10.3192 32.5610322363
24.1346 30.5849 12.2093 29.7893936358
20.8021 31.4897 11.0367 29.8785989787
22.9002 29.6364 9.46021 28.7040190994
24.4929 32.263 9.06687 28.4730118935
13.2279 34.0124 8.11173 32.9613686006
14.8887 35.9258 9.50409 30.7175019448
16.2408 35.282 11.8685 29.7883769341
18.6169 32.6846 9.14522 32.1972546724
18.734 33.8556 11.8461 30.4275359451
20.0433 36.3894 11.7824 26.9225714696
21.6267 35.7261 9.68581 26.6514442868
23.337 33.5061 11.3384 33.2181630409
13.2144 27.4539 14.3311 31.2721637635
15.4905 25.1947 14.8511 28.5565702585
19.1981 25.1992 15.1097 27.5907240534
18.2113 26.2219 12.9314 25.3100848101
21.0854 27.0913 12.6222 27.9586147881
23.4035 28.4111 13.9773 29.0526301055
22.1159 25.097 15.1403 30.0427138205
16.344 32.4681 14.5941 32.5021300168
17.6014 28.9092 13.2524 33.7237423284
19.3104 32.5381 14.2344 27.5962232625
16.5959 29.5988 15.7358 28.7932735949
20.1456 29.7502 13.0493 26.7614255068
21.0502 30.4187 15.7351 29.8974499971
23.9393 29.4609 16.6775 30.06968989
15.1849 34.975 15.916 29.6938521417
12.3323 35.3776 15.9205 29.1030172503
14.2374 32.7909 12.4681 38.4048165086
15.5974 36.7197 14.0279 31.2249343003
22.0322 33.3481 16.1725 32.0132276837
20.7095 35.3491 14.4555 29.6724198322
23.1484 36.4714 13.6721 30.0599738093
15.2319 24.9247 20.8882 29.8910332148
13.2404 28.1965 18.3042 29.5333267123
12.9234 26.0533 19.7128 29.2113896021
15.5269 27.3893 16.8241 28.4196616759
17.2766 26.2028 18.8202 25.8991766678
19.5557 27.2318 17.2801 34.1891444513
18.8599 24.9743 20.9159 29.1211065151
17.7248 28.3296 20.7007 30.04578887
21.9135 27.2609 19.8517 30.7246432072
21.3357 24.6995 21.1863 33.6237366573
24.313 27.9253 21.0246 30.2691551884
22.8408 27.0187 17.3579 29.0248946048
15.5004 29.7041 19.3692 31.250002537
15.1961 31.8199 17.3478 29.7886027744
12.3398 32.2628 16.8797 29.7479416554
18.9532 30.4782 19.8903 28.7922768587
18.909 30.0303 17.0809 25.9939543574
23.389 30.8747 19.3324 35.7203687746
13.2157 35.3737 19.9174 30.2164029155
16.092 33.5473 19.5596 32.0213417221
12.6077 33.0761 21.155 26.979200441
19.1644 33.0176 17.0184 33.26341002
17.0236 35.4849 17.7074 29.4074658443
20.5064 36.0483 19.2674 31.7810982266
22.9384 33.9309 18.8349 33.776695889
15.0611 25.1128 23.561 37.6643614579
14.8816 27.9584 24.2254 106.5406087874
12.4674 24.5663 24.3009 78.5224623245
18.3869 24.9543 23.8083 53.3309570334
19.8113 27.4317 24.5664 113.7041915244
24.2007 26.9923 23.7036 36.1491893385
21.8714 25.5054 23.9589 52.6151212415
14.911 31.6769 21.569 31.0309523804
12.6397 28.6677 22.8235 30.5364375815
17.3978 28.8223 23.4048 33.3878313819
17.4081 31.3733 23.8166 47.9588057904
18.151 32.4806 21.4551 29.4356305431
19.8654 32.0116 24.2819 82.78449497
23.9502 29.3621 24.8547 127.1762039144
21.3222 29.8331 21.2211 34.3407095081
21.3571 29.6661 24.0601 40.5591788597
16.3236 35.7444 24.6346 106.9532458122
14.9747 33.1051 24.4544 96.241326221
19.5859 34.9627 21.7352 32.5642693057
23.5211 35.4058 21.3614 32.2315025962
20.6879 34.5818 24.2975 84.9509489059
23.5706 34.1043 23.8045 52.8865196267
14.1807 24.9751 35.9226 87.8280744237
13.1157 25.7896 38.4499 27.9513061538
16.9315 25.3999 36.2127 45.4779414114
17.9789 27.6461 35.9798 91.0847432259
23.6791 27.7254 36.6372 40.8343252037
20.6726 26.8437 36.2331 47.418450199
24.0024 25.6894 38.3234 27.9400981389
15.4198 30.29 37.9194 32.156939679
14.0979 31.9449 35.7809 80.8034095807
13.1781 28.663 38.0015 35.4814358895
16.9982 31.986 35.7246 102.1695439946
18.904 30.9904 37.5069 28.5811116961
22.2504 31.9523 38.8202 30.5042909651
20.7809 30.0641 35.7615 91.6970631773
23.3634 30.8721 35.9208 63.9334228908
12.8302 35.2544 38.7188 31.7235509746
13.0779 34.4926 35.9367 60.5021677167
14.9992 36.6318 35.5327 82.7506768729
18.8788 34.5086 36.0724 57.5423843562
22.4831 35.6996 35.5752 103.5055174837
24.1151 36.2191 38.1339 30.0527685857
21.4569 33.2645 36.1728 49.4249926735
13.1761 25.8118 42.3593 38.526776217
17.7419 28.5138 38.8832 29.0625663619
17.9371 25.6869 42.2389 28.7441543305
16.6865 25.6095 38.9314 30.8407725465
20.3593 27.014 38.9759 30.0346835497
19.2887 24.5159 40.0166 24.8423952267
22.574 25.2957 41.9832 26.4236217569
22.1032 27.9185 40.9535 26.1685514407
14.928 32.1543 39.9985 32.7216385639
12.4695 32.0368 41.2742 29.0589597525
17.9215 28.8475 41.6547 33.4079069216
16.9819 31.4981 41.7989 29.2326497868
19.4882 32.2119 42.4154 34.4187580669
19.6099 32.525 39.7416 30.6370737228
20.5273 29.3365 42.3716 27.2170252206
23.5887 29.5764 39.0001 29.9281774788
24.4569 32.5332 42.2007 32.7143718718
24.0486 28.8091 42.9808 28.2928295397
15.6523 34.8425 39.8648 30.0295388369
16.0846 35.3274 42.6054 28.2902540124
18.1744 34.7436 38.8967 29.804006679
18.9303 35.0276 43.0176 31.3720916759
19.6404 36.4834 40.4955 31.2025701937
24.1064 33.7766 39.8167 32.1340895389
14.0836 26.2296 44.8541 32.9128696844
18.3088 25.2968 47.2898 29.0062426707
20.4923 28.2755 44.9518 32.9706910835
16.902 25.8723 44.8481 29.7811846071
20.4442 25.5364 43.8485 29.2211967662
24.2411 24.992 46.5282 27.1446348268
23.6619 27.6604 47.1992 31.5020923982
13.7087 28.9397 44.7282 34.1360314959
12.4481 32.0273 44.4957 27.3675183605
15.626 30.4447 46.4187 34.8607605283
15.2213 31.763 43.8942 28.6675656577
17.5396 28.8505 44.787 36.7869445151
22.3757 31.2279 43.8685 31.8609638972
15.9525 34.1565 45.3497 31.6703736783
14.0899 35.4667 46.61 28.7246396485
13.1351 34.599 43.2684 29.9996625257
18.5241 34.1856 46.9244 37.7680873927
20.9014 35.0535 45.5627 29.4947016908
22.9517 36.5844 44.0968 31.33883951
22.5789 32.7813 45.9165 29.9998346824
13.4339 26.0497 49.6387 31.3365814967
16.2329 25.6306 51.9504 27.9121749904
15.169 27.9982 51.3769 30.6370766048
20.4993 24.6365 48.7495 27.0618751176
18.9122 27.8523 48.3365 30.4294201589
20.3379 27.0578 50.5157 35.0423996519
22.9134 25.6738 50.6695 29.1746296665
13.9516 30.9554 48.7284 30.8768766377
12.665 29.0861 50.4633 32.3507074728
16.6543 29.2759 49.1846 35.5144190279
17.4298 31.6511 50.6322 35.963068146
24.5702 30.1435 51.2091 31.7049595629
21.2533 28.9404 47.7426 33.5031617342
21.6463 31.7206 48.4158 37.3216610395
22.5302 32.4137 50.9578 33.2049242575
14.6237 32.8738 50.7064 33.0453046683
13.9922 35.2309 49.3127 30.2233640003
19.9972 36.0807 50.1126 36.1218543759
19.3083 33.3667 49.3517 34.5895638896
13.9814 24.9093 53.6773 30.0540592527
14.3204 27.219 55.739 32.0395183626
18.8199 26.1321 52.6641 29.9347873864
19.1605 27.3581 55.0375 30.8801333019
21.7729 28.5533 55.43 28.3947544397
23.5249 28.204 53.1714 30.2209878105
23.5821 25.1718 53.3296 31.1901584811
13.7728 31.7113 55.1028 28.9957067041
15.225 29.2855 54.0271 31.8077344283
18.6438 31.2396 52.976 32.6992838635
17.6882 29.7219 54.953 33.6726596458
23.1207 32.4977 54.617 32.0451959164
21.4873 30.8127 52.922 33.5303635247
12.8542 35.6572 53.2203 30.4821587671
14.964 33.7901 53.6523 31.6863197422
18.9418 33.8445 54.2256 34.4613044167
16.7712 35.4528 54.5298 29.83032034
21.1613 35.4481 54.3665 33.1409592593
23.1459 35.0198 52.2205 31.0088941977
15.7777 38.0735 7.45825 29.2272403223
13.7721 39.2163 5.68034 32.8660732873
18.3416 39.0462 6.55448 29.9699960735
19.4591 39.3371 4.42047 26.6465383133
23.0548 37.9314 7.19213 25.7946059434
23.4116 40.5887 7.29263 29.6368439261
21.6685 38.0089 4.5445 27.1523010707
13.5964 42.15 6.0759 31.5678323895
14.9692 43.4029 4.10947 31.8044828969
15.9599 41.3425 7.66688 31.4803124593
17.762 44.0366 4.53999 32.9561225405
18.1018 44.7152 7.22567 30.9619696541
18.6031 41.9984 7.68577 28.1538237395
19.6779 42.0549 4.27044 28.0921864286
21.3849 42.6804 6.54576 31.7094631033
22.9667 43.67 4.07936 26.7264095447
15.368 47.9194 5.76605 29.2566940504
12.8923 46.0095 6.52669 32.6830815196
18.0065 47.1123 5.0295 30.6267298419
20.1601 48.5122 6.03108 31.4138227845
24.206 46.869 5.48113 28.0214456115
22.274 45.2726 6.79259 31.8496968279
22.2511 48.4707 4.26527 35.3608559951
12.5061 40.6781 12.1729 25.014457536
13.7186 38.205 10.0784 32.2417887526
17.5389 39.9784 11.4108 29.8252536468
20.1888 37.7976 8.36272 27.4229203184
17.8476 37.3127 10.2849 31.5646275301
21.2709 39.7744 9.59698 28.8734837841
24.2386 40.8435 9.97289 27.5441911387
23.9943 37.4035 9.88289 30.8718580487
13.7018 44.1736 8.37078 28.9631824258
15.941 43.2679 11.3746 29.1787499143
14.9007 40.9952 10.218 28.1103013137
19.4509 41.9097 10.4647 32.3101771134
23.5517 43.7457 10.5484 29.7968161291
21.3729 43.8408 12.3449 25.9516687699
24.5337 44.76 8.40813 30.2985775169
13.6344 45.6498 10.9522 29.9487569498
16.3494 45.4848 9.53878 30.1265417955
15.5957 48.3192 8.66652 30.9771639786
18.3391 45.8449 11.9241 32.3424516139
19.9658 46.6466 8.30888 31.4549727191
20.9839 46.1641 10.9552 30.8093313596
24.2459 48.9778 11.0523 31.4729959183
13.1913 38.2132 13.1986 31.2217926484
15.8491 39.6836 13.6929 29.6898560383
17.6091 38.455 15.7253 31.1530764542
19.3033 40.3851 14.2675 28.6789067249
19.8677 36.8759 16.5617 29.4861317282
21.2185 38.8338 12.4818 31.1770829807
24.4283 38.5047 15.5491 29.0825798794
22.001 38.7736 16.6617 31.9582595457
24.0312 40.1675 12.8137 29.9136230786
16.1211 42.0566 15.4778 31.3439956348
13.7943 42.8525 13.3166 30.1927959927
12.9281 43.7243 15.7446 32.742275662
18.4822 43.0443 13.0173 26.5049243547
18.8256 43.1115 16.0212 27.5781459668
21.4075 41.3029 15.8296 28.4011259463
23.2646 42.557 14.0167 27.3952635374
14.3442 47.4945 13.3048 33.1318167132
12.8207 48.0148 15.5852 29.8454646772
16.9836 47.0934 14.3045 34.6374761551
20.2551 45.6167 14.4704 29.3182566443
20.9788 48.1979 16.3315 32.9013256227
21.2587 48.1141 12.7992 30.8332304238
24.2535 48.5041 13.832 29.4062621684
23.5105 45.87 13.97 27.458873653
23.8606 45.0152 16.4438 31.1610573631
13.0241 39.8672 17.5813 35.2708170019
14.4861 39.8997 20.266 27.4707647116
14.6105 37.0751 21.1442 29.154404088
16.6011 37.8246 19.3248 29.2795003294
19.4881 38.5229 20.2909 31.1887498407
16.9081 40.3363 17.883 30.0643172737
24.0631 39.2454 20.4096 27.7360021125
15.9678 41.9548 20.9714 26.3762875934
14.7257 42.6611 18.0569 29.2154748638
14.6136 44.2761 21.1124 30.7293332945
18.5068 41.1734 20.3326 28.8228763634
20.0953 42.8248 18.4242 30.7389251846
22.2883 42.6252 20.7364 29.1117033057
22.9456 41.1341 18.5116 28.588451926
14.1553 47.0553 18.2508 33.785580593
16.0874 45.1308 18.661 28.5267085982
19.8737 45.7428 18.8302 28.3374172145
17.795 45.6858 21.0515 29.1303255174
17.765 48.3703 19.1628 29.9674633884
17.9938 46.0065 16.8169 28.3181187315
22.493 46.4759 18.292 26.6247234178
23.3836 45.0634 20.5704 33.5933239545
24.2905 48.6758 18.5262 35.1398843048
13.8211 40.0144 24.207 93.127505784
14.0882 37.2372 23.8282 50.3394769997
17.2564 38.921 24.3067 76.0901033851
20.0719 37.5265 24.0542 53.8146166296
17.8394 37.3524 22.1578 27.2646977204
23.445 38.5791 24.2313 70.6099975549
22.0877 37.9389 21.8714 28.0965703261
21.3634 40.2064 24.5908 100.7192704231
16.0481 41.7235 23.8868 45.1992799986
15.3798 44.462 24.5179 118.2345728519
12.6315 44.1825 24.3563 92.7954239584
19.4626 43.4778 21.9851 29.6947734292
18.9452 41.561 23.8646 49.9136263693
22.7476 42.4549 23.7325 34.3979508841
20.7757 44.5935 24.4204 102.0911875929
16.103 46.6069 23.2127 36.188981477
12.3216 48.5923 24.1282 74.2994080462
19.4536 48.4342 21.2748 27.7768410149
18.4612 48.5888 23.6803 49.2960035731
23.5249 48.4717 24.2386 57.3502776679
22.1103 47.6634 21.6284 32.3236188391
20.7891 47.6426 24.4977 103.6125997297
12.9886 38.4844 35.7552 83.8348385692
14.8771 40.2049 36.4276 35.7378235932
16.237 37.4992 38.2992 30.3662932539
17.4393 40.2862 35.669 80.5468130535
18.2783 40.7292 38.2568 28.7045472792
17.717 37.4062 35.3657 100.429436632
21.591 40.2978 36.1852 66.3942960989
20.6741 37.6015 36.6839 35.608128103
14.0316 43.021 36.4116 53.1373099513
20.218 43.3496 38.373 31.6014831169
16.7694 44.1541 35.8726 70.4334277973
17.2832 44.244 38.5516 31.4762097468
19.6538 42.546 35.6571 89.0910643283
24.2723 41.0042 36.1649 72.9845523016
16.1373 46.865 35.5717 102.5405560926
14.4087 48.2914 38.8321 27.9076289907
12.9706 45.1814 38.851 29.838161153
14.1633 48.6345 36.1703 48.565378143
18.8368 47.286 36.1397 38.4540385257
19.0677 47.661 38.766 31.8887310721
23.4364 45.9392 35.74 98.15535686
20.7131 45.4901 35.8173 75.189615534
24.2681 48.5242 36.2159 59.877969405
14.9333 39.8869 39.1328 28.52056326
12.9274 39.1863 40.827 31.2659815017
13.9483 37.6816 42.8916 32.3814793401
16.7881 38.5619 42.8346 28.5714309319
19.9457 40.2789 42.0446 29.852578099
18.0989 38.6383 40.3528 26.275387985
21.9062 37.5981 39.2642 30.0286977579
21.0763 40.2422 39.3273 27.6901207385
24.1785 37.9347 41.4011 30.5909584612
24.5641 40.6562 41.3368 30.879406972
15.9226 44.6968 42.8109 29.4801613331
16.0008 42.2036 40.1038 30.2318105996
13.8569 44.0947 41.1594 26.3158355339
17.5036 41.982 42.6309 31.6022969896
22.8652 42.5253 39.89 28.4077505074
22.0098 42.4242 42.8181 26.9057203342
12.547 47.8803 40.7213 28.8204544263
19.7403 45.787 42.1902 30.6720426342
16.5231 46.8991 39.4385 29.2923281003
17.2415 47.2662 42.1073 32.9154971288
21.2459 45.6709 39.9415 32.2078166806
23.9034 46.4644 40.5468 27.0523152043
24.5387 48.6949 39.1838 31.4880854804
22.1735 46.7373 43.0335 27.1016133278
13.8061 38.0726 45.6892 28.4470173011
12.5708 40.8362 44.2042 29.0339310886
18.2014 37.6289 44.9961 29.2844147132
16.4935 39.645 46.4036 30.7875936842
21.1633 39.1537 45.783 27.8488757875
23.1406 40.7933 44.6076 27.6216966921
20.5265 38.0366 43.4524 26.3266577619
24.3312 37.3215 46.6299 28.0296639859
15.3253 40.948 44.3151 27.7993789554
14.9336 43.5507 45.2202 29.6226650191
12.3437 43.7056 45.5664 27.8843469647
20.3537 41.3079 47.1485 33.067108678
17.3605 44.3614 46.7261 33.1638278294
20.0932 43.9887 46.5565 32.3734417138
19.6764 43.5779 43.7388 30.3695070218
23.7727 44.3986 43.8039 30.9378645177
14.3901 46.9802 44.3682 29.9778010906
12.9214 46.0929 46.6694 30.8401681758
17.0612 48.7057 44.4582 28.5368778641
17.3503 47.3024 47.1703 32.4204334512
20.0887 48.7215 44.6078 31.3462226768
21.2638 46.2688 45.9663 28.2083272487
23.875 45.9278 46.3388 30.6859804855
12.4274 39.3669 47.7186 29.3192511943
15.0709 39.5892 48.721 30.737694317
13.3212 39.4156 52.0253 29.9511251134
15.9305 36.9313 49.8734 31.6177341014
19.3611 39.1113 50.6675 30.5685526253
17.9197 36.9153 48.0648 31.0272894951
22.9795 37.0224 50.2353 27.4715247269
21.5996 37.0236 47.6934 29.827767719
21.903 40.6294 49.7548 31.2611818008
24.4439 39.9454 48.9005 28.8816367079
16.0154 43.4611 49.1833 32.0774972861
15.4644 41.0485 51.2423 29.7930391077
18.1434 41.1736 48.7824 31.112926541
18.2148 44.3048 50.5702 31.2598640178
20.9565 43.1184 51.1429 31.316064711
13.9441 45.3943 49.4772 30.7800618092
15.5415 47.87 49.9501 28.7799860424
18.3173 47.0484 49.833 26.510763442
19.7039 48.6665 51.929 33.2499304767
21.0029 47.2709 48.9698 28.3979949218
22.4886 45.3481 50.2231 32.3657370028
13.1394 38.2207 54.5913 32.112862303
15.5314 37.2981 52.5459 29.3906861573
15.0287 39.4803 56.243 34.6472944749
17.7167 38.3236 55.3784 32.9958926253
17.4339 39.6455 52.6491 29.1332111443
23.4281 39.2939 55.7009 29.0912136393
22.4123 38.8594 52.1683 28.0527954577
20.8549 38.2293 54.4477 29.0988624312
13.1789 44.9 55.5535 31.9407176561
15.4502 42.0566 54.7615 30.7245704478
14.1975 43.7663 53.1295 28.4109696055
20.0813 41.1663 53.0431 27.8003840864
18.276 42.754 54.6766 31.0804763761
21.9549 41.7707 55.3434 27.5392353448
22.3819 43.9711 53.5828 28.4577428836
14.44 47.5762 56.0102 30.4919104465
13.2859 46.67 53.05 29.6427470632
16.1371 48.0124 52.7369 28.1534412374
17.2972 44.9569 53.1298 32.4908796558
17.3454 48.3197 55.5898 30.9008869956
19.0967 47.0278 54.0121 32.995378503
21.9558 46.2529 55.2876 33.2258688959
22.4222 47.0771 52.302 32.7778044512
28.6842 3.92606 7.3581 30.3715451105
24.6463 2.62934 6.21255 31.4879598782
28.9779 0.408452 7.1957 30.602782732
31.0761 1.89371 6.11043 30.0966822477
30.3087 3.01812 3.73056 34.8383547944
33.1133 0.207379 5.61954 36.0803524354
35.0652 1.13598 7.29748 34.9823310849
33.9831 4.06995 7.43823 36.4840733484
25.9281 4.90869 4.73426 34.1378167057
28.6498 5.10324 4.83866 35.8000977961
24.9977 6.28051 6.99282 30.3338413711
30.0728 7.40477 3.72478 31.1220482198
31.8886 8.03014 6.07753 33.1143763091
36.5274 5.33838 3.57631 29.1044295157
34.6047 6.4857 5.94631 29.9032238389
24.8313 8.7186 6.35998 34.4084313348
28.5218 10.2708 7.68279 32.4668053307
29.2857 9.94237 4.96526 32.2646282807
31.1109 11.7151 4.17361 32.5009519807
35.3977 10.2933 5.37028 29.3971827054
33.6212 9.61139 7.58326 30.4521626926
26.5651 1.45874 11.5657 30.9669962299
26.8825 2.20951 8.54541 31.789876764
31.635 3.32938 8.6523 32.6734896703
32.0964 1.8433 11.0018 25.4402809945
33.6055 0.0406451 9.59332 33.3133676541
26.0961 5.13996 9.12707 32.2223795683
28.598 5.99303 9.34388 32.6872430999
25.348 6.49845 11.6812 35.2670023677
30.4116 5.07109 11.3027 31.5285855279
30.106 8.05675 8.28667 32.5244392677
31.1132 7.89386 10.86 31.1917144272
34.7817 5.24135 9.63089 32.4432383961
33.5884 4.17877 12.3093 28.6188232169
34.8538 7.79744 9.17583 27.8600187036
26.5923 9.65733 11.0287 36.0867644131
25.7815 10.7944 8.15954 31.2869985027
28.4943 11.63 10.991 28.5302515851
32.2246 11.1916 9.38861 28.9064438642
30.8329 10.318 11.921 28.4691626986
35.0426 9.39037 11.4645 27.731632017
27.4724 3.05665 14.5612 29.2036367368
25.0535 3.74205 12.6675 29.6669753366
26.6741 0.48109 14.9382 27.0755237911
31.8117 0.799728 16.0289 30.1939150588
29.6818 2.67799 13.07 29.8399238612
36.6909 0.727075 13.1164 25.6179254499
33.5616 3.05266 15.7827 26.4336645028
34.097 1.69823 13.3803 26.7171118037
28.6841 7.18634 16.5162 33.7183455284
26.0034 6.72406 15.9394 36.3656501424
32.5514 7.48722 15.7333 29.3609008793
30.1789 6.5322 13.898 36.5468366907
31.1808 4.24119 14.89 26.3449840268
35.7316 4.88227 14.0972 27.8337133508
33.8508 7.26965 12.6411 30.7915659166
35.4367 7.44908 15.4565 30.1826852355
26.9529 10.9355 15.2429 30.5060223682
25.6425 8.81836 13.8113 31.437747777
30.0701 10.878 14.7018 31.604146744
36.6899 9.80934 14.936 29.7003550986
33.0629 10.1802 15.3475 29.1383500723
33.4083 11.5189 12.5451 28.5187651592
35.5188 12.2111 14.7357 30.0129477069
27.7281 3.28105 17.3164 31.415304736
25.095 2.23328 17.569 28.6405802944
28.9413 1.57375 20.2859 29.7665962484
28.9655 4.06235 20.9155 31.0258671849
31.2562 0.175464 21.1 29.8329613195
29.0877 0.708672 17.6744 33.2757905395
32.9364 2.51569 20.784 31.4573677096
35.4467 2.744 19.7605 28.3778385961
35.0907 1.31287 17.3919 29.6328751036
30.1306 4.92202 17.3043 30.7075078867
31.5878 4.77729 19.8056 28.3833939797
35.3886 4.76944 17.4304 28.8347959886
33.3419 6.49599 18.4746 28.3355891168
24.6746 10.8342 16.8852 28.4308077582
26.9144 11.2536 18.6791 29.7034025659
26.3762 9.59426 21.0797 29.1260896598
31.2175 8.85232 18.7755 30.9601879248
29.0424 9.70962 17.4223 29.4932473936
30.0243 12.1441 20.1558 29.9390796622
34.7897 9.1347 19.7005 30.4188427167
32.918 11.1819 17.9775 29.8385849182
35.8576 12.117 19.4147 27.7205414309
27.0333 2.67807 24.2959 71.6204105733
27.2361 0.683028 22.236 29.8700564895
28.8936 0.164973 24.3885 92.0577295041
31.7508 0.357139 24.1005 77.0246119053
33.0787 2.65491 23.5678 35.6172092914
35.8156 3.02766 24.2265 91.0306325636
25.7139 5.51226 24.1982 60.6798030159
26.1356 4.92044 21.5252 32.3679176749
28.0148 7.52912 21.6314 32.5838179782
27.9544 6.93281 24.3448 75.32975019
29.5838 4.59036 23.9276 49.2710824627
31.5774 6.50524 22.0127 27.7827432693
32.2337 5.1001 24.6264 111.7891790502
36.2248 4.7263 21.7502 29.5716528091
34.2775 7.3022 24.2406 74.2231061101
34.2015 6.79621 21.5954 29.8872497458
26.9103 9.93165 23.9985 57.4359187691
30.4992 9.08393 21.7233 28.50935559
29.9168 9.341 24.4403 93.7206150563
32.0886 11.5337 22.1996 30.0983128984
34.7771 10.9863 21.9971 27.6474105798
35.787 9.4196 24.4904 94.3626702605
27.0908 0.409902 38.532 30.0054849453
27.0435 0.409902 35.742 94.2606831622
28.8669 2.77934 35.9289 66.9357082206
31.7316 2.39777 35.8713 74.1208206886
31.4075 2.5522 38.634 28.4783585594
35.8198 1.44456 35.9899 79.5798711803
35.9857 1.13477 38.7527 26.0169062032
27.9656 5.30315 35.7238 67.3308218706
27.2651 5.33978 38.452 29.5800194915
25.2437 5.69695 35.4367 99.4963097798
24.6199 4.59596 38.0041 35.2962751329
29.5767 7.77308 35.6208 91.6957261673
32.3665 7.53976 36.2613 39.7900924291
28.9032 7.70843 38.2239 28.510410351
32.5474 5.0159 38.6965 31.9586403208
33.1024 4.67515 35.4856 106.0689318802
35.7832 4.30167 36.3909 40.5066058059
28.2798 10.3328 35.8237 59.746436217
28.1769 10.3084 38.7983 26.7779492268
25.468 10.9514 35.7669 83.1183705281
31.4276 10.071 37.5304 28.5671609695
34.8872 8.33079 35.5636 96.5538343047
35.0809 10.9413 35.9492 58.6177103649
34.705 9.44202 38.7209 32.2075571483
28.6131 2.75297 39.4003 32.0408628997
26.5546 3.32551 42.874 37.2219418476
29.2568 3.22494 42.0244 27.740004912
31.3793 1.48755 41.6033 27.8151312461
34.8944 3.91264 39.2221 29.0128039359
35.0754 1.96648 41.7653 28.8188026883
33.2252 0.508255 39.0117 25.555322627
25.8708 6.76929 40.4736 30.9198291149
30.9734 7.19725 39.8947 29.136418924
30.5578 5.65901 41.8985 30.750200335
33.098 4.30597 42.0477 28.5956021934
34.7155 6.37068 43.1985 34.0978373961
25.3613 11.0464 38.8836 32.4006584572
27.278 8.45627 42.4847 36.3119647906
28.4566 10.7008 41.4704 28.1581571697
31.98 9.64753 40.3804 28.2672021967
36.5083 11.08 40.0753 29.3858986865
34.1941 9.10005 41.9282 31.9931541357
27.6806 2.54534 45.2759 30.2736641393
25.2692 2.64503 46.7671 28.8841740173
25.3323 0.596889 43.3643 29.8411899523
30.0588 3.86538 45.8644 29.6388520773
31.4983 0.0817469 45.5473 31.9054072471
32.2364 2.98383 44.5794 29.8038859892
28.9396 0.339432 44.0502 28.517385946
35.1978 1.60183 44.7439 29.5144522002
27.0041 6.51191 47.5122 33.5387826858
24.6449 5.2618 46.8782 32.4119312132
29.4521 6.43092 46.0479 33.4239638249
31.728 7.5514 47.328 31.8394044343
29.8194 7.63476 43.6065 34.5266786402
34.3212 4.29488 46.324 31.9463689489
34.1275 7.40362 45.6301 30.7055565856
27.193 11.9752 46.7102 32.4386028414
26.1601 9.3532 47.2509 30.096776598
25.3666 8.73921 44.6362 34.1578939825
31.1069 10.6066 47.5783 31.0029700416
30.7065 10.695 43.6071 28.5449008099
30.0236 12.1057 45.6116 29.162009698
33.9491 11.0385 47.2983 31.8499898429
33.2006 9.87484 44.3113 30.198206152
36.1279 9.10405 47.1969 30.7370157489
27.6579 2.63083 50.3526 30.3154695497
25.7885 1.30986 48.9179 27.3769262057
31.5363 0.288835 50.685 30.3659932107
30.0177 2.59363 48.4286 34.0488394171
35.4919 2.42639 48.3552 31.5256507295
33.6022 2.35445 50.7513 33.0853828253
36.5451 1.01838 51.5332 31.1817587957
28.055 6.79825 50.076 31.9275398226
29.5922 4.48702 51.9068 30.7531336319
31.7448 4.20065 49.9798 30.4337146686
30.9597 7.43915 50.2282 29.4797372672
33.9283 6.29066 51.5787 28.7195458092
36.4198 7.28393 51.9091 29.1404173136
36.5921 7.07496 49.092 29.5334288402
34.064 6.16855 48.8473 29.6098891981
28.2992 9.33641 49.2426 29.203065581
26.392 10.5149 51.3386 31.806118008
30.6533 10.6387 50.4651 26.000420214
36.699 10.361 52.072 29.6440730528
33.47 12.209 49.7472 33.3556675329
28.6143 1.07883 55.4687 31.8376753111
26.3021 3.6305 52.736 31.0219778349
25.9507 1.54704 54.4127 34.3948227529
29.7904 1.70903 52.8263 35.5203969713
34.7511 1.1854 56.3402 35.0243141412
35.3354 3.88116 52.2661 30.6218528731
34.459 3.72655 55.0651 35.4571174424
25.2909 5.29113 54.8125 29.8439123076
26.0563 7.77265 52.1458 32.375429975
27.1044 7.51351 54.6664 29.323543237
29.9439 7.20237 53.7772 29.9012791489
31.4692 4.81398 54.8172 32.351539946
33.1279 6.2082 56.425 28.8675489124
36.7204 7.689 54.7718 25.9696446651
27.2657 10.749 55.7858 37.3023829947
28.7033 10.5117 53.3024 32.1974127188
25.1263 8.73123 56.3014 32.0559635279
32.0992 11.123 52.7857 27.566550943
32.277 8.35352 52.7077 29.455038158
34.1271 8.24624 54.9989 30.4776906683
33.6891 10.833 56.2605 34.7463907969
25.1039 13.4936 7.94777 34.5210282586
27.2099 13.5222 4.30998 35.6587878155
27.2295 15.6218 7.9127 30.5870063448
28.9978 15.1715 5.76743 26.7840037999
31.1045 13.7345 6.26117 33.7951663958
33.1531 15.8628 6.69606 33.742388904
36.0606 12.6988 7.0647 31.7685838475
36.6664 16.2795 5.36658 29.6739703286
26.5222 19.6634 4.47271 28.5895789015
25.4366 16.6487 5.17625 30.6104661649
29.1083 18.372 5.93531 29.6384924767
31.4297 17.7255 7.73471 31.2496601399
35.4511 19.3902 6.27307 31.0309026708
33.3105 18.0587 5.03559 29.6491321622
27.337 22.022 5.8219 29.8377674502
25.4851 23.2571 7.29718 32.2324359528
27.6658 24.2331 3.86362 27.699339583
29.665 21.3719 7.27566 28.0339687188
31.3314 20.6042 4.90676 27.5985570639
30.4181 24.1581 7.5364 33.4605927102
36.0544 21.3619 4.65367 29.3389678763
33.4505 22.2736 4.08177 28.3599535692
33.1899 24.0175 6.2235 32.3151184834
28.5545 14.5599 10.1636 29.3230851434
32.4098 14.9772 11.3932 30.8680428014
30.0117 12.6953 8.5035 29.5659927787
35.1681 14.9261 8.17281 28.4877995643
33.8432 13.2978 9.94174 27.5511817077
36.1801 15.2103 12.3248 29.6938827847
36.8793 16.2698 9.90811 30.9492214476
36.397 12.4282 11.4325 27.5378525211
24.8369 20.3612 11.9227 29.1925671551
25.7655 18.0344 10.9288 31.0391691387
26.7898 18.3848 8.15968 30.2052562959
28.6423 20.0626 9.58001 28.8666509685
30.444 16.4811 10.3668 29.625403183
32.1527 20.1579 8.74435 32.9909368046
29.9093 18.7076 11.6746 27.148585866
32.752 19.4057 11.6638 30.788362886
36.906 18.9418 10.1561 30.3363641299
26.1654 23.9312 10.0812 31.5464205742
26.9986 21.4374 10.8699 28.7630053005
32.0971 23.5035 12.3381 31.737233541
35.1835 23.3157 11.3661 28.2501486993
35.2415 20.6449 12.0565 29.325789979
34.8825 24.0792 8.67346 26.5809407088
34.6735 20.971 8.71106 31.3768192577
28.3852 14.8899 12.9757 26.5129685561
24.9184 14.8885 14.3697 33.2453312018
26.7117 12.8967 12.9986 30.0606187513
26.4615 15.0741 16.6227 33.1960441171
30.572 13.8272 13.4224 28.6167695949
31.7472 15.8261 15.2319 31.1164985884
31.1439 13.1591 16.4481 28.4827571017
25.2786 20.2817 14.6631 31.5286736377
25.8354 17.4169 13.5862 27.3087439212
28.4054 17.5286 13.5803 28.9824167358
25.6405 17.8579 16.458 28.573906145
31.4474 19.7149 16.4351 30.195551119
29.6526 17.6368 16.196 35.1031485969
35.3448 17.1197 15.6124 29.5591162146
34.9317 19.8729 14.9521 31.0833922343
33.6152 16.7914 13.2073 32.6174095923
27.3652 22.1058 15.5047 31.6460027595
28.6842 21.6828 13.0393 31.0118598044
31.5468 20.9291 13.5666 29.6660897057
29.549 24.2931 12.6025 29.7415626006
33.1651 22.127 15.9399 30.2098839049
28.0881 13.8358 21.103 29.1925483287
32.6214 13.7028 20.3627 28.6988951397
28.7178 13.4635 17.7292 34.9052608457
33.4385 14.6486 17.577 32.4971100734
35.9805 13.7299 16.9872 30.8015354498
27.7443 18.6197 18.0158 28.8102510307
26.6802 17.8769 20.4319 28.6991686078
30.6603 19.7272 20.8383 31.8429022914
33.5192 17.8571 17.6407 30.8429739875
35.4827 20.0723 19.0474 35.084136217
32.8227 18.0436 20.2926 34.1339541316
26.6394 21.8652 20.7321 31.4054411888
27.7021 21.1674 18.2146 28.954671222
29.9275 24.0999 20.2282 31.4845882583
30.456 23.9715 17.4176 31.9889993111
30.351 21.181 18.4733 27.9166918375
34.1332 24.0358 20.522 34.1238049619
34.985 22.6516 18.0102 31.1987891895
26.1719 14.5733 24.1476 57.1803352255
28.0187 12.5921 23.8653 49.4378017212
25.3294 13.6737 21.281 26.4137590352
31.6401 16.0703 21.5703 30.3197280261
30.8218 12.4855 24.5653 103.4208128548
31.5197 15.4287 24.3223 71.5834746913
35.2208 13.6321 21.7026 27.0217462857
34.0231 14.8349 24.1447 46.7004149709
36.0139 12.706 24.5941 105.6210540971
25.5643 19.3419 24.1432 54.0586314859
27.751 16.9069 24.342 88.0563322188
27.655 19.7285 22.2982 25.7017526562
28.8508 16.3911 21.5799 31.1568573327
30.6543 18.3057 24.0432 56.1483813888
35.2699 19.3725 21.9105 29.4726737938
35.56 17.0581 24.6379 103.4118672352
33.7931 19.0919 24.2314 65.1739108289
26.9683 22.0147 24.5146 89.6268978995
31.9748 22.3512 21.2497 30.9892874965
29.5219 21.0151 24.3212 81.6320122559
31.6655 22.8009 23.9301 56.3491867212
35.9401 22.1987 21.8383 34.8862051309
34.41 21.8505 24.3903 99.0936765641
25.1607 16.1966 38.3134 25.6748359131
27.6371 15.0782 36.2637 39.6611968936
25.0323 14.0075 35.557 92.7270575829
32.5878 12.3413 36.0256 60.3796352979
30.6181 15.4183 35.3595 88.2219439769
30.0761 12.6005 38.5261 25.1768096854
32.0064 14.8443 37.8514 31.5863221176
29.7358 12.7542 35.4277 89.7236715257
33.7946 15.4094 35.6946 75.2800446298
36.1995 15.4247 38.5874 32.0899176341
36.7516 14.9818 35.8928 63.9769024514
27.2216 17.9399 36.3099 45.8536712324
30.019 17.8913 35.9025 56.0588525731
31.252 18.5211 38.3709 28.8774202313
28.8791 20.331 38.5101 25.3731453959
33.2409 18.1361 35.8607 65.5859824991
35.3782 20.0411 36.0087 73.9662059005
34.9256 19.6716 38.6658 29.5113120176
26.0239 20.4971 38.5192 28.017480879
28.3569 23.439 38.4795 27.2056548804
26.2442 21.8832 35.6763 74.2719229742
32.073 21.0325 35.9152 61.8999765902
29.1073 21.0022 35.8105 67.3371187972
29.8942 23.8848 35.8154 74.2786704065
35.8462 22.9394 35.6932 96.8405355009
33.1143 23.741 35.6466 86.3237857766
33.4645 24.1644 38.6075 29.3065796191
27.7959 13.0475 42.8143 29.9731834293
26.1726 13.3865 40.6411 31.1296226347
27.9059 14.2358 39.0057 28.0941901678
31.2086 12.5563 41.0983 32.0024631203
36.1908 13.6816 40.7837 31.503035122
33.2409 16.2378 41.6727 30.5338219385
33.6079 13.4054 42.2132 33.4841699671
27.399 17.8218 39.4075 26.6692186193
25.2048 18.2793 41.4553 32.2545484999
29.0684 19.3009 41.6095 32.1906782119
30.801 16.9715 42.5163 28.6950343958
29.7812 16.3741 39.8705 30.459760338
35.2316 19.4883 42.9408 31.3527623844
34.1276 16.8995 39.1749 29.2667258683
36.9071 20.1468 40.7668 28.698060215
26.0903 22.5626 40.2446 26.9638613953
26.1991 22.5297 43.0591 29.6882454107
30.9356 21.4433 40.7718 31.5148311568
32.7221 21.4979 38.8761 28.1651932248
29.5838 24.1188 40.7321 30.974526351
34.9372 22.3332 41.5216 33.1210985417
36.443 23.6823 38.9311 30.9276486965
32.8234 21.2681 43.0994 29.6863094902
27.7617 16.2973 45.7337 30.5458500382
25.1806 15.5154 45.2638 29.6103496391
25.7943 12.9368 44.6576 28.692515904
31.0465 14.6686 46.4061 32.8490883404
29.5547 15.0627 43.8418 32.1764367939
33.7925 15.6556 46.4455 28.3106263426
36.4566 14.3523 46.1421 32.6290944061
34.2986 12.8791 44.9504 33.2702609446
25.2554 18.5131 46.0765 32.0065112215
26.4846 19.9053 43.3291 29.3388925006
28.6142 18.7772 44.945 29.2841539431
31.4248 19.2501 44.4651 29.3715517837
35.0664 16.5459 43.7466 29.8415910307
36.2502 19.5927 45.8756 26.2866801608
33.6732 18.2829 46.338 29.2137466199
26.0498 21.7361 46.5047 28.3912009703
28.5511 23.09 44.9565 30.3359881839
27.051 24.303 47.1545 30.8094181685
30.6221 21.7173 45.842 28.698645798
32.6225 23.2738 45.0292 30.8696764488
34.8772 22.0722 46.5173 31.0085749206
36.2838 23.7662 43.9118 29.8072726698
24.6606 12.6987 52.001 31.9512766414
27.2149 13.8711 48.7304 32.4461664244
26.2562 15.2836 51.5733 27.5930363355
28.4558 12.7006 51.0143 27.1087532722
29.2747 15.7752 48.2121 29.6430997075
31.6424 15.5177 52.0439 28.1099182072
30.9143 13.8611 49.9451 30.9938046241
35.1904 16.154 48.6064 29.1584149322
36.2021 13.7586 49.7498 30.5593398483
27.133 19.8466 50.5609 27.2014805878
24.63 18.9382 49.2851 31.277996324
32.7948 19.317 48.9479 28.7233124956
30.1747 18.857 47.8384 30.4112409296
29.9388 17.3433 50.7803 28.2554751619
31.3437 19.4938 51.7812 27.2803362483
36.6607 19.4091 50.0605 29.313696877
33.5373 17.4437 50.8813 29.5804637533
25.1857 21.8713 51.1173 29.3255460642
27.9856 23.524 50.5615 29.8702889315
28.1501 20.5866 48.2556 28.5220724521
32.1524 21.9553 50.8304 26.978371474
30.1122 22.7599 48.7544 29.7899160726
29.0575 21.368 52.0498 26.8799642561
34.6978 21.5155 49.3844 29.6569686372
35.3866 23.9363 51.6859 29.1483632754
26.7891 15.9801 55.8968 28.1501083144
30.7924 12.7162 54.5252 28.0689408164
32.2866 15.2724 54.767 30.5572884446
29.7064 15.8082 55.9682 28.6155063173
29.0345 14.6958 53.3269 30.8557042468
35.023 14.2945 54.3352 30.5505810317
36.6445 12.3539 55.9601 30.2057614743
34.6206 12.3173 52.4889 29.0844326262
36.8619 15.2337 52.2091 28.9030385661
27.8712 19.023 54.6958 30.2397126389
27.5071 17.6242 52.2126 31.4138671873
30.3829 18.7394 55.9672 28.3989518313
32.4879 18.4401 54.1827 29.4084590763
35.0001 16.9302 55.959 28.1857691205
35.095 19.1071 54.2429 23.587219695
35.958 17.9232 52.1762 27.4057236619
27.7672 21.8463 54.3743 28.4695237082
25.0771 22.497 53.7855 28.4314783906
31.2668 24.2195 55.1329 28.8834566777
30.5719 24.044 52.4386 26.3832603909
29.8193 22.4397 56.3657 29.7542329183
34.1992 21.4022 53.1648 31.3820473653
34.1853 23.6363 54.8849 24.9909945765
36.344 24.3054 56.362 28.2644021579
24.8071 28.0079 6.7673 29.9101978767
26.3207 25.7699 6.34185 31.5848043538
28.9729 26.6339 6.84539 31.6788212638
28.7309 27.0336 4.21864 29.0612047493
36.3939 26.1845 7.88595 30.9153044626
33.7276 26.3522 5.04294 29.3142009866
36.7131 26.55 5.08054 28.3985060535
26.2641 31.8503 5.03552 27.4996241194
25.3922 29.0728 4.14788 32.4842156083
26.2835 30.2138 7.65305 26.9252740391
28.5105 29.7772 4.52347 29.5279194899
28.8353 29.1257 7.91902 32.0512753971
29.3222 31.7491 6.8089 29.497778827
34.3057 30.1175 4.06606 28.1249754702
33.0451 28.711 6.03093 38.5142028606
33.5552 32.5134 4.98085 29.7945407605
25.0802 35.5642 7.42944 25.5766947967
27.2402 33.9192 7.34932 26.296128608
24.9592 35.3826 4.5838 29.8535896573
30.595 32.7871 4.47395 31.7271893222
31.5289 35.8838 6.26603 29.0750435681
28.7626 36.0077 6.5832 27.617082131
32.5977 36.293 3.72104 29.0707569376
36.0796 33.1876 7.03721 34.0721600029
32.9373 33.7775 7.45306 29.7900017256
36.689 35.3517 4.21981 27.232410683
25.5905 26.8666 10.8302 29.4288022792
28.671 25.2199 10.2723 31.2246226455
29.0468 27.9792 11.0396 30.2557507732
32.1668 24.6894 9.61773 33.3574861572
33.0177 27.6174 10.2584 35.0494717013
26.4627 29.6294 10.3652 29.7977897162
27.7333 32.2077 12.3106 28.8249267432
31.2507 29.9049 10.7445 31.9781345853
31.0134 32.3523 9.07193 30.7746530082
34.7461 28.6055 8.26823 29.4586878202
35.7181 30.6152 9.44012 27.8176860915
33.6086 32.0833 10.5141 29.0121753139
36.7737 29.0161 11.6076 29.8279973452
25.4679 35.5404 12.0124 28.6081106202
26.9604 34.0287 10.0984 27.947268986
32.5936 36.2189 12.2237 32.583974471
29.5924 34.3773 10.2106 28.319646016
35.2674 34.14 9.61028 28.1106994559
33.5155 36.4468 9.59806 30.4341967364
25.7714 26.7585 13.4507 31.7021874658
28.3876 25.0647 15.9863 27.1631591068
25.7335 24.5801 15.2141 34.5686065175
31.5561 27.5009 15.9063 31.1735940675
29.5848 26.5986 14.1142 29.0027478947
32.7592 25.1545 16.1215 28.0186162767
34.3282 24.9417 13.5951 29.9405134888
34.4613 27.6212 12.541 31.3841715779
35.6383 28.1947 16.4869 28.6390930036
27.8202 28.6497 14.0239 27.2835165823
26.8929 29.9113 16.5007 28.5475387809
25.5462 31.321 14.4568 28.6611835228
29.7307 30.5768 12.9652 29.1718738637
31.3725 32.0903 14.4611 29.8169758597
34.1127 32.0242 13.1403 29.6348821096
33.6248 29.1596 14.7834 30.7099258098
27.5078 36.262 14.3915 28.1153453737
24.8383 34.1776 15.0941 28.9969981525
27.9176 33.6369 14.6948 26.4329398056
30.3468 34.4428 12.8772 29.9196656131
34.4036 34.6516 14.0942 31.5318424068
33.5703 34.1456 16.7603 26.8632400063
36.8742 32.7085 15.3131 27.9789231334
27.7572 27.4223 17.204 27.6385231862
26.5267 26.793 19.6984 30.5471493667
24.7078 24.9723 17.7206 33.6759707617
30.3407 27.8377 18.4166 31.1043448559
31.2028 26.4516 21.1982 29.3186795281
34.1142 27.2115 20.9437 29.4154927686
34.4831 26.0484 18.1848 30.0999323481
27.532 29.8974 19.6649 27.5827357487
27.0246 32.5105 18.044 30.2042788504
31.0179 30.7043 18.3876 28.4105902551
32.8591 29.8487 20.2395 28.6611413781
33.0852 31.5135 16.9745 27.0418828986
34.811 32.0637 21.0119 26.743899679
35.7739 29.5962 19.842 29.4395618651
35.8505 30.8178 17.1658 29.12755224
27.6472 34.9023 20.1221 31.2486390926
25.3068 34.7675 17.695 26.3880587685
30.1052 35.3522 18.5602 26.0271626339
31.0169 33.0292 20.5542 27.1034139251
29.6437 33.103 16.9743 29.7054062402
32.0767 36.6313 17.1061 32.7433658155
36.3401 35.0271 16.9833 27.8282722918
33.6418 34.102 19.7334 30.7310483442
28.562 26.185 24.4134 95.4512865238
25.9621 24.5518 23.9885 51.8195269823
27.3809 24.576 21.4554 33.4579724312
28.7802 28.0435 21.8098 28.5253772998
31.0772 25.7393 24.0386 59.1126151855
32.9151 27.8916 24.4189 102.2946436741
35.412 27.5241 23.5108 38.2989319773
28.1554 32.2678 21.4883 27.0623588419
25.4624 31.8621 24.0287 54.0610047938
27.1089 28.7522 24.23 59.2955387868
25.5146 30.6434 21.4303 31.0817185184
30.4473 30.3138 21.767 25.8143561782
31.5428 30.5295 24.5371 94.1506900899
28.8771 31.1685 24.4327 80.7346442281
34.0006 31.4245 23.5653 35.5339065974
36.4146 29.9175 24.0813 89.4001289005
25.4141 36.0661 24.2795 77.5974258503
27.5698 34.0743 24.0556 61.9424546133
30.2841 35.9591 23.9835 60.7178761057
30.99 33.4712 23.2925 30.2822367232
33.6646 35.7442 22.0603 27.4925638069
33.7579 34.1088 24.1242 108.3941627832
27.55 27.4429 38.4229 29.7769826246
27.3749 25.084 35.8344 72.6994084543
26.4562 27.9424 35.8925 83.245054915
30.095 26.3709 37.433 29.0027241108
32.6451 27.0938 36.0294 74.3358440279
34.5626 27.1734 38.1849 30.2878038206
27.6832 30.5829 35.8122 70.7182451243
26.2182 32.3195 38.4333 29.6336920954
25.6593 32.587 35.5689 81.6893206245
29.4958 30.5676 38.825 26.8405827402
30.572 29.4339 36.4403 49.53940098
32.5333 30.3937 38.3202 27.7885008241
35.1088 28.7714 35.829 77.1787462985
33.3294 30.8361 35.5836 87.6107299765
35.9057 32.2001 35.6155 89.4339893329
25.5107 35.6423 35.5339 71.1218094034
28.2737 35.5204 35.5801 73.1406389489
32.121 33.7074 36.0822 67.6560723008
29.3082 33.1776 35.6755 74.3592996876
28.7888 33.3649 38.3899 29.502675114
34.2816 34.3142 37.7734 27.933059668
35.5353 35.9157 35.698 86.3027162727
25.3981 26.3534 42.2387 30.7775975832
28.6483 28.4062 42.8892 32.2235920342
26.3994 25.3981 39.833 27.2032364712
31.4458 25.515 39.5826 28.3320963654
32.2641 27.6972 40.4901 29.621265196
36.5933 27.8255 40.9508 32.2775617218
33.4477 27.571 43.0124 33.3734624139
26.3175 29.9059 39.2954 26.6591780323
26.1552 29.9808 42.0277 28.2824710725
31.1589 31.5984 42.4761 29.7273890215
30.2814 29.606 41.0311 27.8844366247
35.0598 29.7708 39.4386 26.0640900651
36.1228 30.7887 42.1752 26.9576495923
26.0603 35.7398 41.2571 31.6519322532
28.6606 35.42 40.615 29.9099106432
31.6769 35.9578 40.7317 30.0116314534
31.6319 33.1414 39.0543 29.3883284014
28.9851 33.8863 43.0518 34.1914006256
32.9285 33.8035 42.1157 30.4528793174
35.2506 32.8691 40.6071 29.0285526123
28.5021 28.3002 46.4476 30.9979290368
27.1104 26.1969 44.9063 28.1308488085
31.0616 27.2253 47.0041 31.6730758936
29.4391 25.3305 43.4534 31.256382785
31.8164 25.9235 44.8352 31.2581299236
34.9184 25.1568 46.4349 34.608557673
36.0722 26.5392 43.4127 28.9824434587
27.1349 32.0357 43.9859 25.5798114176
25.46 31.8371 46.0326 26.6254302526
25.4375 28.9977 45.628 30.9307787566
31.1582 31.7028 46.8969 27.2563208305
29.5059 30.5143 44.591 29.6891301269
33.8795 30.5668 46.1661 30.5450167002
36.4391 28.8578 45.3437 29.3558064243
33.8599 30.1679 43.4258 29.9997938825
25.4384 34.7841 43.8903 27.3421321891
27.3737 35.2235 45.7261 26.8558074351
28.3662 33.1067 47.0202 26.6191686334
24.9578 34.4861 47.1797 29.7232409689
32.7978 36.1105 47.4249 28.8039827139
30.8218 34.3294 45.6099 29.1229123266
33.5266 35.2685 44.4679 28.7221652162
34.4406 33.2409 46.9476 30.1880175445
36.4805 33.6441 44.7755 30.8390086331
27.6964 26.8429 49.8709 31.1171836467
24.9004 27.5379 49.7839 33.7004359076
30.5435 25.4195 49.1154 32.1795975715
32.5546 25.4014 51.0187 31.1342707872
29.6684 28.4889 52.0292 30.5850311149
35.7116 27.4151 47.8643 30.2412416736
33.9996 27.7791 50.789 28.9059996919
26.8064 31.906 52.0283 27.3409679763
28.5772 29.539 49.3296 29.6900517381
26.28 31.2767 48.9231 31.4199909629
31.0074 30.7732 49.6045 27.2647045413
33.0522 28.8426 48.238 29.3143070476
33.4326 31.8239 51.4264 31.9741836428
35.8123 31.2609 49.5781 30.3442055925
26.4613 34.1605 49.6471 29.3194245842
26.0688 36.4409 52.0051 32.2598420721
29.5579 33.089 51.4479 30.4755131188
31.5644 33.7695 48.7768 29.28511412
29.0639 35.0775 48.9346 27.7838608471
35.7732 36.5793 51.1076 30.1082690137
35.8566 35.9544 48.2698 31.1551647575
26.582 25.7209 54.4241 29.2463768243
28.5575 25.8062 52.4733 29.8777132128
26.0432 28.469 54.3368 31.5445822427
24.6605 24.5886 56.2853 29.418929182
31.3556 26.7424 56.4037 30.3654551507
33.5667 26.4235 53.9597 32.1000883452
36.2443 26.849 52.7171 30.3082762141
28.1355 29.9563 53.3601 28.1678505315
32.4787 29.1009 55.2471 31.2339463412
29.9178 30.4885 55.2127 28.3817973187
32.4125 29.3813 52.2055 29.3575354277
36.6285 31.476 52.3244 29.2510548927
35.7552 31.847 55.1216 31.7905730916
25.4676 33.5485 53.6932 30.2290208261
26.793 33.9748 55.9977 31.7997258712
30.5919 33.0436 54.0396 30.285956932
29.3676 34.9611 55.89 26.9901555758
28.7619 35.7143 52.7897 31.8384052006
33.4355 33.5171 53.6769 29.8786577275
34.3723 34.5792 56.1469 28.6134742934
33.1044 35.876 52.1333 31.5466265145
27.8353 40.3946 5.44275 32.811088141
28.1928 37.4954 4.32517 30.0587484453
26.8616 38.2239 7.87908 30.8855165014
25.3794 38.07 5.04121 28.5510366383
30.0447 40.6957 3.6055 32.9567964817
33.2471 38.6495 5.48189 34.4111177695
35.6544 37.2858 6.23782 31.506633673
24.9582 41.9642 5.4057 29.1529432127
26.5289 44.1152 6.42568 29.2224976149
32.738 42.7951 6.96625 32.8052044483
32.6624 41.3313 4.52862 30.634994347
28.7773 44.3956 7.79016 30.2792259522
36.9102 41.1532 5.77337 29.0493154793
35.6932 42.8618 7.70001 30.3061540314
36.3671 44.3418 4.1655 36.3246641956
27.7192 48.6174 4.94641 34.1615495181
27.3736 45.8619 4.72005 30.5577098594
25.4898 48.9691 6.79725 29.8836630984
32.0029 46.6523 4.5902 35.8084452876
31.3987 45.213 6.95134 33.4492662852
27.8435 37.8167 11.7386 34.1363055929
26.8468 40.5417 10.1421 33.1559776669
29.295 37.063 9.25578 32.0611516025
31.9779 38.2224 8.18245 30.3612320959
35.4667 38.3259 8.84733 30.0883082548
25.4125 44.4264 12.3255 32.6093932081
28.564 41.3994 8.01341 32.1064913955
31.5295 40.9357 8.64893 30.5074490609
32.4441 43.752 11.1335 29.0096959078
29.8391 43.0736 10.4782 29.3058055338
32.8968 41.0266 10.9372 28.52771619
35.2757 40.872 9.81203 30.389095346
34.373 44.6911 9.50157 33.1072638253
36.6874 44.4583 11.2829 28.5753063388
25.5393 47.2517 9.06298 32.8709841638
28.2883 46.6873 9.31493 30.7707525316
28.1692 45.1525 11.9292 33.5556022048
32.0061 46.3422 9.13031 33.9421609352
30.1425 48.9467 9.83658 31.7482671519
35.1401 48.0168 11.4905 28.3346832369
26.5394 40.4555 15.5397 30.6413732543
29.0252 39.3316 16.4835 29.650626654
29.6425 39.2836 13.4792 30.2926344528
32.4182 38.9727 12.7823 32.6754170497
30.3746 36.9888 14.7184 28.5457765183
33.8073 40.4293 14.5896 30.4377966683
36.4546 39.6345 15.3761 26.005956633
36.285 37.0417 14.3907 37.212970227
26.4666 41.585 13.1166 29.0077089513
29.3752 42.2685 13.1349 30.4610304602
30.0954 43.8203 15.0657 28.3902430976
32.4906 42.6816 16.169 29.6503006903
35.4738 42.7946 13.6776 28.3707651121
36.7479 43.639 16.1068 31.246796292
33.225 44.3596 13.7923 28.4009465953
28.4887 46.5014 14.4266 29.2801680904
26.9182 45.3634 16.4794 35.0326334459
28.5806 48.7397 12.656 29.1912758723
31.2812 46.4007 15.1961 30.5560865394
31.5542 48.8346 13.3738 29.5048674214
33.9838 46.9392 13.6224 30.2826756591
35.9813 48.1252 15.2457 33.2744102807
27.2069 39.4011 19.2335 28.8598716345
25.0273 37.4251 18.103 28.9959016558
27.9166 36.832 17.2147 27.8473432561
31.2653 36.7771 21.042 31.4384741501
35.8684 40.2031 17.9938 24.8868925423
33.0085 39.4722 17.2542 30.6499429525
33.5422 38.4368 19.8168 29.9999705554
36.53 37.4389 18.4991 29.3474398092
25.963 44.1747 21.0978 33.8617793958
26.787 42.2402 18.998 28.6800576062
24.8345 42.4326 17.0053 28.6461077594
30.4485 41.1332 21.0511 30.9855342676
30.4596 41.2328 18.0937 30.9625531505
28.9443 43.4195 17.9445 27.9282150016
34.6557 43.1675 17.9717 34.8373657815
36.736 41.2658 20.366 29.2878304761
26.8597 48.078 17.3553 31.8593900842
32.1512 46.2465 18.2043 34.4534755375
32.5531 48.9327 18.4038 32.9658869803
29.6285 45.5039 19.5826 30.4034333148
34.31 45.1552 20.0259 34.2166380954
27.9498 37.4708 24.0961 69.6277284489
28.6409 38.414 21.3805 30.7055401694
25.9849 39.5359 23.696 33.9768951268
26.0503 36.8306 21.3292 26.5026578976
32.774 37.5052 24.4968 124.394421494
32.7265 40.4026 24.2539 67.3525161667
33.1852 40.7658 21.585 30.6887587193
36.1585 37.3839 21.3217 33.5970427843
36.8766 39.9738 22.8039 34.8697167978
25.2726 41.3714 21.7174 28.4793745977
27.0941 41.8849 24.6989 112.7033657428
25.0102 43.8298 24.5927 89.3034243386
30.8505 43.9139 21.4213 29.9772545913
29.9195 40.8879 23.892 53.1296211314
29.9815 43.8982 24.1861 65.3447554813
32.7271 44.3361 24.6034 103.6814092737
33.839 43.4576 22.2769 26.6759861259
36.2643 44.2846 24.1498 71.412701657
35.3432 41.6933 24.3944 101.1969382575
27.6604 46.4512 21.3186 35.4035686665
25.3851 46.7848 24.4862 85.3376515871
28.0796 46.4384 24.0517 57.673468041
32.1794 46.6316 21.5496 30.5090176708
33.2736 47.0306 24.0509 64.4512642424
36.8157 45.9565 21.3578 32.6411631087
36.0383 47.1693 23.842 65.638536131
26.3333 38.5232 35.8052 76.1514154552
26.0395 38.2353 38.6021 30.0079062319
29.1796 38.0366 35.6883 82.4671622801
31.1631 40.4662 36.0155 63.4146830784
30.7892 37.8446 37.9425 30.3430203333
33.5337 37.0037 38.7464 30.3537982181
34.1101 40.2628 38.038 24.3610742123
36.2989 39.1675 35.9871 74.9339995158
33.5462 38.1825 35.914 76.6405190701
28.2065 41.209 36.278 56.1038175333
25.8068 41.0692 38.7303 26.9497998308
25.2678 43.7817 36.1452 57.9257929198
27.98 44.4203 35.885 76.1915628165
27.4425 44.7364 38.8005 28.21343179
30.5309 43.4656 36.3052 49.4974336599
29.9601 43.2609 38.7723 25.3912053245
33.6151 41.9512 35.965 83.293732546
34.0504 44.3879 36.8817 34.2207193439
36.7446 41.992 36.1701 69.2797756373
28.7462 47.0519 38.6916 29.3125651363
28.7998 47.1064 35.7504 92.8001399416
31.83 46.245 36.1371 72.2616798095
31.5773 47.0957 38.8146 29.7693018939
33.3319 48.6602 36.1697 66.7318204939
35.4279 46.6261 36.7318 35.8221253226
28.6831 37.9519 39.9437 31.2476316413
31.6046 40.5202 39.1384 28.1819091586
30.0765 39.8372 41.6296 28.8873171406
32.1776 38.1183 42.7153 28.6078123621
33.5862 40.1966 41.4763 28.5784904778
35.7292 38.6649 40.0931 27.3196185284
28.2998 41.4645 39.8046 30.2350701991
24.6585 44.264 38.8659 29.5331777968
27.5763 44.1157 41.9644 33.6409333289
31.8885 44.3634 40.3582 29.1647699724
32.7745 42.8493 42.6392 27.971855357
36.0988 42.4045 39.0088 29.4524694084
34.5308 44.755 39.6541 31.0732032141
27.411 48.5651 41.3177 29.6415314645
26.1035 46.1861 42.5128 27.4790286564
30.3837 47.7961 41.6665 27.2174326914
30.0994 44.9911 42.8364 28.4492500932
35.8076 47.1773 39.7571 28.1637827261
34.1925 48.4126 41.7093 27.0354502941
28.0592 39.8056 44.3051 33.3787014679
28.6657 37.7231 46.0757 32.5944831325
25.1861 38.9105 44.2349 29.7520109554
31.3775 37.5682 45.3609 28.7831320568
31.8508 40.3756 45.6554 30.0114820973
34.626 40.2398 45.6145 30.8761405642
34.7928 37.8261 44.0621 28.372657974
27.8173 41.8454 46.4967 29.96328963
27.7175 44.8085 46.8503 28.3511796956
25.1405 41.6957 46.8862 30.3868414913
25.6058 41.9767 43.8936 28.9903233615
30.378 41.8681 43.9149 27.3679467503
30.5489 44.2217 45.5258 33.2128753633
35.6082 41.9692 43.614 32.3676510343
33.3807 44.7563 46.6654 31.0426875395
27.6723 46.8343 44.7572 30.7939420406
