10.1734 30.7017 19.1623 24.7138647584
2.27716 35.8068 17.437 30.6329235931
2.00537 36.2836 20.4081 30.7742087929
3.53138 33.2871 17.0414 36.5459899254
3.59083 33.7051 20.2066 28.6348548158
7.99788 34.1708 19.8621 27.3692498416
9.63622 34.9153 17.5061 28.9991894106
9.95024 36.0942 20.8832 28.3684723886
3.90802 26.7311 24.0379 82.3351840294
1.11123 25.1942 23.3448 43.2715250966
0.977842 27.8862 24.3085 104.2763717648
4.57696 27.9489 21.6315 29.5864240656
6.56907 26.2041 23.8225 43.5639434577
8.93678 25.5972 21.6137 27.7046778651
10.3185 28.2339 21.7096 25.4052651435
9.75213 25.2273 24.18 66.4703258619
10.0868 28.3471 24.5674 89.139321021
1.07078 32.6395 21.2696 28.7913578473
4.03879 32.6006 24.0398 81.2443029821
1.53616 31.1856 23.7496 57.5761225408
7.36912 28.8017 21.4337 29.3050855963
7.53288 29.3644 24.452 95.4827413371
4.66533 30.923 21.7051 29.0564998755
12.1729 30.6398 21.3374 27.1666656007
8.68903 31.9756 24.3549 58.3928675382
9.7243 32.3752 21.7649 26.7398242892
11.8663 30.7432 24.1481 62.6007405893
3.00277 35.2768 23.0389 31.8926510033
0.617651 34.4026 24.436 100.7658261779
5.93396 34.3333 21.6967 26.4509310286
6.78576 33.7177 24.3006 80.1540000425
10.0824 36.5981 23.7324 43.7335042963
10.4266 34.1413 24.498 87.4617027695
12.1215 34.0383 21.3066 28.0357299976
4.00302 26.8352 35.6623 83.8791067483
1.05937 26.1872 35.5827 79.2853956352
3.68873 24.7998 38.7264 31.1929084177
6.93945 26.5745 36.1975 47.5521828312
10.208 27.7969 35.8548 69.8769400138
8.60046 27.3902 38.5737 28.975400531
10.7965 24.9266 35.6592 61.1130305133
3.76466 29.4666 35.9058 43.1297517072
1.21176 29.2077 38.1349 27.4870961894
1.15445 30.251 35.5839 80.8550337705
7.58642 29.2011 35.8795 69.0865852107
4.27829 29.7463 38.6613 27.5881438658
7.25698 30.9109 38.1543 31.5439244048
5.33818 31.5409 35.476 95.5054348972
11.1559 32.4243 35.5166 86.6031089602
12.2936 29.5694 35.9498 57.3044835654
1.84845 32.8382 36.4954 35.1252010661
2.4131 35.642 36.0137 68.6270945399
0.382382 35.8474 37.973 30.3148246506
7.30619 35.4928 36.4093 42.1794969542
4.62358 34.1032 36.0531 59.3532972813
8.21087 32.8067 35.8627 64.9890726584
10.4349 33.9269 38.0053 26.8916717026
9.81311 36.5366 35.6419 91.9998401145
1.47921 26.9454 41.609 31.0370096276
1.36165 26.3767 38.8192 28.0208245989
7.3979 25.2641 40.644 34.3540793827
5.45582 26.8602 39.1128 29.9171094711
11.5557 26.9331 39.2768 28.0708255178
8.93243 27.3318 42.2863 33.257792892
11.7919 26.5989 42.2244 33.1704323408
1.84173 30.3079 42.3417 29.8721964608
3.10097 32.1749 38.9253 27.1105964387
0.504867 31.4878 39.6985 27.7574613055
5.43225 29.0628 41.1921 29.785119743
7.96382 29.2667 40.5247 23.6313383384
5.009 31.395 43.0619 29.9569318322
11.3641 29.5259 40.7432 28.1320683105
8.98004 30.9768 42.2474 30.3919914891
4.02003 35.0562 39.1055 29.2328497962
1.82457 35.6942 40.8484 29.9013157617
2.97321 33.3306 42.1282 26.7656611445
0.0799936 35.1688 43.1933 29.7513368741
6.2997 33.4228 39.6206 28.5383927235
6.94666 32.8271 42.0596 26.9357966554
11.6755 34.2962 42.8309 29.7621280815
10.5109 32.7027 40.6087 28.5207428774
8.22188 35.1632 39.1419 24.6294438124
9.12022 35.7127 41.8464 29.7017432717
3.82724 25.5517 44.8179 32.1330984352
3.65182 28.0812 43.2321 32.7171693105
5.63168 27.4783 46.1033 29.1585273076
8.10814 27.1448 45.2234 31.8876960708
9.26876 24.6203 45.6814 31.0356707903
10.1076 28.5107 46.3071 28.1772627143
12.1467 25.6825 45.0197 28.9606955045
1.0492 32.6582 44.4658 29.328147489
0.807023 30.1128 45.8055 29.8740202481
2.95695 30.3775 47.413 30.391968745
4.95981 30.1222 45.5311 30.7795694709
6.44148 31.5843 47.447 36.4999242605
10.934 30.4774 44.4369 32.6706578665
3.99357 35.0119 43.9624 31.8032398087
2.89645 33.8268 46.3781 29.40647147
6.89863 35.0445 43.8222 31.3616314013
7.90732 33.9916 45.9389 32.2195901078
4.18836 36.3852 47.1039 29.0663533413
7.95902 36.5291 47.1147 27.296733193
10.79 33.0098 45.5894 30.8969768735
10.609 35.4345 47.45 32.4509059904
2.75417 24.6568 51.269 28.2623303962
3.64063 27.9563 49.1141 30.0497609638
2.10445 25.6216 48.8636 27.9247460696
0.0847143 27.4422 48.3374 33.0543300153
6.0676 27.0449 48.8588 31.2520372337
10.1526 26.7327 49.0041 31.3938517082
1.75537 30.8649 51.302 32.5041977543
3.39882 28.7185 51.7307 29.4217219385
8.08818 28.6103 50.0774 27.5136641065
8.99502 30.3329 47.9539 30.416537906
9.625 30.893 51.9216 29.6220891282
10.6696 31.7002 49.3807 28.1177046409
0.500382 33.8419 48.2749 33.2183584401
0.361119 35.991 50.1195 28.1546354102
2.19286 34.0017 51.5816 30.6273681448
3.62176 32.6923 49.1614 32.521218515
6.19622 35.7671 50.7307 30.7750342819
5.82882 34.4279 48.3515 28.2069016008
8.15808 33.6186 51.5263 30.2430007817
10.6257 34.5282 50.2543 30.3630428225
1.8916 26.6392 52.7971 27.8520315009
3.98276 27.8517 54.9015 31.214431522
1.62323 25.6685 55.3339 32.5616751032
5.59041 24.7439 51.997 32.612046844
6.55307 26.8317 53.8651 27.5674624946
12.2485 26.3252 53.682 30.3674769212
9.70984 28.0762 52.4932 27.2128293194
8.62021 28.3343 55.2691 30.3221979616
8.81439 25.3725 52.8607 27.0117821347
1.22554 31.3986 54.0895 32.2028905373
3.83981 31.0024 54.9384 28.5342661789
6.11845 32.0312 52.7205 35.5560571932
6.40845 29.2872 52.0984 30.1330554451
6.9038 30.9558 55.0952 28.953699791
11.4764 32.4325 53.6663 29.7932737865
0.991706 34.4525 55.9672 28.2329617282
3.37893 33.5679 56.1068 29.2057627518
4.14069 35.9068 52.2982 31.497034997
7.82319 35.1229 55.5947 31.2111159309
4.90948 35.403 55.2146 34.0723002764
9.50153 34.813 53.5299 26.437304614
11.1248 35.5705 56.2229 29.0379313833
2.16487 40.6404 6.63301 31.3861860708
2.73935 37.9385 5.90548 31.9376989984
0.194267 36.9714 4.54383 32.3313481384
6.91616 39.529 4.27845 32.3749525476
5.42219 37.2333 5.19494 33.3216523785
9.05847 37.4748 4.23161 29.2509156963
11.477 39.9048 4.15026 34.3499846907
3.5222 42.1141 4.48562 32.5205079374
0.999735 44.3865 6.80432 31.2706657669
0.579382 42.8329 4.68427 29.2950751291
5.04044 41.0688 7.95238 32.0563424317
7.34558 43.9677 6.78746 30.4192686956
7.55229 41.1506 6.64504 32.6885717861
5.07442 44.682 5.47756 27.9841992945
11.867 42.1123 7.55379 31.6624346413
11.0474 42.5609 4.97239 32.0561035795
3.48085 45.7384 7.38661 30.1801611994
2.08896 48.1614 6.44259 33.5581698808
6.32326 47.1306 4.71157 28.9618650837
7.26275 48.6123 7.09817 30.2082740698
4.21435 48.6 4.6173 30.8935197226
8.93323 45.1333 4.57364 28.8451969331
10.3327 46.9497 6.29946 30.2896028187
2.42871 38.5377 11.4782 33.5110703417
4.39641 38.6216 9.5685 32.1562707564
7.0552 39.0219 10.2872 26.2599213854
8.70369 39.1003 8.21665 30.1204101601
10.6433 40.8189 9.44271 26.9691007476
8.70984 38.0441 11.8624 25.1014848047
11.3701 38.2193 10.467 29.9342864595
0.0829138 41.0544 10.2657 31.2378108098
2.05243 43.0032 9.11925 30.0927186068
4.77692 42.7252 10.12 28.4278063044
6.93205 44.4515 9.5098 26.3938388462
6.55583 41.1429 11.8405 29.5077530026
9.02559 42.6557 10.6514 29.3546554768
2.64165 47.8039 10.5862 32.6773514781
1.02999 45.2623 10.5396 30.7209932988
4.9977 46.5181 9.73128 26.7699347993
4.76375 45.0769 12.2594 29.0658872882
5.96613 48.9152 10.449 29.7741037829
11.0794 45.4479 10.5484 30.5381643593
8.74585 48.971 10.358 30.5200901741
8.70401 46.6005 8.69531 29.4384379509
3.28793 40.474 16.416 28.8353498193
0.0289234 40.6174 14.7533 28.2347689209
3.07838 38.0281 14.0219 29.4948537925
1.17563 38.5607 16.3406 27.6628821913
5.78724 38.1524 14.8674 30.5256761291
9.85822 39.6541 13.6957 28.5366456956
11.3926 38.1483 15.5521 30.9994338937
0.628356 42.5857 16.6827 26.2282442974
4.0205 42.2897 13.7883 27.553579727
1.74205 41.321 12.8823 28.6996714566
2.63451 44.402 15.4004 27.8849533995
5.78749 44.0364 15.9337 27.3644829657
6.62899 41.475 14.8298 26.4252942235
7.6676 43.8883 12.8049 27.4672451058
11.0329 42.0328 12.8437 27.81511235
9.77158 41.1679 16.3773 30.6062933216
11.2401 44.7399 14.108 29.9683839813
8.90511 43.6569 15.3321 26.314900541
1.96781 45.9885 13.3541 27.4458704492
2.40151 48.3832 14.9744 31.6023066039
5.00724 46.7353 14.6165 27.6796883608
8.10809 48.5615 15.164 31.0332742536
9.31232 46.5093 13.1649 31.0173332027
10.4173 47.4173 16.2167 29.8749259015
0.311701 40.3025 18.7348 28.8151065575
4.87586 37.6514 18.2956 33.427903734
6.15476 40.0556 17.2576 26.4424592216
12.1202 39.4224 21.223 32.9843102287
8.23972 38.3859 18.8328 28.5411698781
10.6958 37.3831 18.4952 28.3360931961
0.711578 43.6529 20.3037 27.1543145122
2.90351 42.0249 18.9495 27.9473750527
5.68624 42.7324 18.7211 25.5336238446
9.27112 44.4589 20.0377 28.8725567171
8.46615 41.6244 18.9937 30.422759819
0.586711 47.3105 18.5449 26.2217367709
2.21327 45.3741 18.1894 28.7375638775
6.93214 47.1038 21.0741 28.9140709741
4.75654 45.2117 19.2951 27.825934697
5.68748 48.5196 19.17 28.861134353
6.31224 46.775 17.1062 28.5608398389
8.84708 45.4821 17.5346 32.2184931712
10.0601 47.2125 21.136 28.4559537711
2.3886 40.4669 21.389 26.2775397967
0.00698236 39.6255 24.6315 102.5990541965
2.6584 40.373 24.028 52.3571231264
7.91974 39.7293 21.9598 29.2458769445
4.11749 38.2131 21.3276 29.3564943361
6.89174 39.8635 24.4907 83.2343642166
6.86488 37.0462 21.2748 26.1115085168
4.2762 37.8749 24.2583 88.7194819391
7.17563 37.0371 24.1212 62.8643201066
10.1199 40.7874 24.39 85.9218920644
12.111 38.8008 23.9607 45.225710297
1.12915 42.8522 23.0686 27.4648075622
3.05682 44.2694 24.1224 66.4272051368
5.60818 41.6037 21.4521 30.9806167259
5.21789 42.4271 24.3071 63.2393750255
7.01977 44.1826 21.675 27.7752184604
7.09264 44.5062 24.5732 97.2151751608
11.9283 44.1232 21.455 28.1682381113
10.2908 41.7004 21.5031 29.6824208251
9.75191 43.4404 24.1744 60.1683445161
1.11337 46.1143 21.528 27.7749612539
1.05717 46.3773 24.399 98.231601952
4.10325 45.9849 22.1584 28.1416614334
5.92028 47.1074 24.1005 60.6132763589
8.40222 48.3053 24.0081 62.1132299095
10.8309 47.3518 23.9995 56.5310753328
4.02826 37.9432 36.6906 32.589102675
2.49175 39.8798 37.7126 30.9125724076
0.667176 40.4165 35.7354 88.1688210068
5.87371 37.3283 38.6598 27.4152972041
5.84005 39.4186 35.3132 123.5918116033
7.36947 40.5532 38.0073 26.2157708173
9.3565 39.3598 35.696 67.8536673982
11.5658 40.1065 38.7786 30.6662568574
12.0481 40.4059 35.8668 55.1177033189
2.36139 42.8275 35.6579 96.5011433793
5.00585 42.0135 35.7773 60.8408418856
6.63192 44.1567 36.2163 49.4653686401
4.66275 40.9682 38.5953 24.9690413707
10.8829 44.3848 35.6767 68.6863950293
8.70362 42.3406 35.8454 66.2247117449
10.8054 44.1964 38.4825 27.5519020797
3.06967 45.6738 36.592 49.5421087185
2.17371 48.6702 36.0746 64.4223860044
1.5274 48.6559 38.7593 26.4323320046
7.43678 46.7379 38.5112 28.258475259
6.7497 47.0309 35.9539 65.2075328062
5.49387 48.594 38.7596 30.0358810123
11.537 46.8719 38.4722 29.0147669452
9.47482 47.2197 35.442 102.5304238909
1.1235 38.3173 39.646 28.9655139311
2.34302 38.7978 41.9723 31.3704565234
4.93459 38.959 40.5617 31.8970782459
6.76811 40.0515 42.007 29.4222758374
8.87973 38.2334 39.114 27.3875927849
11.3993 36.9249 39.0901 27.2659006093
9.09646 38.345 41.9779 30.6338381138
1.23209 41.2636 42.6879 32.3369395315
3.29238 42.9419 42.6557 31.2127211691
6.44402 44.4583 39.231 28.7427979213
4.22285 43.2126 39.9902 31.2287406991
6.17101 44.6268 42.5958 31.7699353509
8.1222 42.4153 42.6999 30.7994097385
8.61021 42.6928 39.047 27.1526976384
11.758 44.2814 41.8536 28.1035812547
10.591 41.9088 40.9088 27.456817158
2.38374 45.2878 39.1906 31.1575394832
3.69286 47.5293 40.4516 29.8779321661
1.38186 45.4896 42.7642 30.9406655056
10.3983 46.6642 41.9292 31.9311456299
9.51018 47.9318 39.7216 27.7431371241
2.00904 40.7875 45.2588 28.6184408182
0.0159716 37.8907 46.096 31.0220027075
2.69403 38.05 44.9129 30.3038690042
6.14613 40.3617 44.4832 31.1266684645
5.68391 37.5786 45.2655 32.2502598066
9.47967 38.8884 46.6676 30.7482906845
10.798 38.4087 44.3067 28.0734821263
11.7418 40.7419 43.4961 28.3099067761
4.62795 42.3205 45.6593 30.3276227795
7.06753 42.6678 47.5428 29.2456772203
8.73171 41.6162 45.5051 28.2303767836
10.6678 43.414 44.7745 28.6409858732
1.72236 46.809 45.3784 31.9972122648
4.51428 45.3213 44.6865 28.9495103841
6.07205 45.2998 46.9372 33.0050323292
7.17502 49.0122 43.7221 34.1487532591
4.61163 47.8804 43.2289 31.9157955056
9.80841 47.4616 47.3665 31.1027267477
8.74995 45.4437 46.0323 28.391149789
8.24632 46.5087 43.498 31.2505923012
3.13681 38.433 48.9735 30.5900432404
0.453278 38.3966 48.7694 31.0777921714
7.01636 38.1199 49.7003 32.1826765437
6.03594 39.478 51.9394 31.7042494241
12.2856 38.8749 48.1817 29.4565153037
9.92169 37.3454 49.8333 29.2205280759
3.67641 40.9863 48.309 33.7171646138
1.33134 42.5644 48.4513 28.5953492442
2.41282 43.7777 51.2185 31.3911495733
6.08702 41.8016 50.2237 29.0793234762
8.15223 44.036 51.6626 27.8207080874
5.31219 44.1078 51.3298 27.9467418235
9.0639 43.9893 48.9473 30.4310880356
10.7775 41.1357 48.8042 30.9863054677
8.8873 40.8785 50.9422 31.9996507775
1.85647 45.5931 48.2381 33.9853640638
2.58036 47.8217 49.878 28.7277534949
6.60548 48.2337 50.3832 30.8024421211
5.0298 46.1164 49.2836 32.7758656523
12.1156 45.2573 51.3285 30.0281619932
9.93091 46.8867 49.9434 28.1464328528
0.589479 37.2122 52.8356 28.2468838514
2.37993 37.6574 55.4348 33.3875174014
3.00139 38.5592 51.9885 27.9414675016
3.41051 40.3583 54.6654 34.5303354245
6.17945 40.4626 54.4441 30.1226691967
9.94562 37.5221 52.6515 29.5536182671
9.24938 39.4653 54.4953 29.90889277
0.291369 44.3959 55.096 27.3776404383
1.55991 41.2328 52.3388 30.2949386329
3.05216 44.6703 55.7816 30.5661714731
7.29332 43.1936 55.505 32.3642270119
5.50232 44.4296 53.9818 31.6207841908
11.4729 43.2927 54.6896 27.9569840353
9.36953 42.095 53.6123 28.7172652111
1.28444 45.6026 52.4912 30.0541501932
2.54167 48.1752 52.7018 28.7970617957
2.28969 47.4821 55.5036 31.3306917813
6.92459 47.1249 54.5365 29.4538875939
5.44519 48.4828 52.7047 32.4132725875
9.01595 46.3179 52.899 28.3682117374
9.50963 48.6653 55.1956 31.6012119797
10.9081 45.9816 55.0006 25.3919241162
12.3566 1.52772 5.9054 32.6554339077
13.0171 3.2564 3.75109 36.5344454459
20.0924 0.294789 4.85835 33.982731744
18.6404 3.97207 3.92122 30.9150255963
18.0935 2.06865 5.96019 34.158652922
16.4896 0.539011 4.2487 31.2632758878
23.6927 2.7153 6.58173 29.0649269933
22.8372 0.157514 5.66209 30.8442887049
13.1495 7.89029 4.17582 33.5284287288
13.8943 5.44811 5.42307 32.7939484859
12.4207 5.47032 7.88366 29.5860447861
17.1462 5.52433 7.91868 28.906043256
20.2118 5.79586 5.44081 30.1426382213
20.0696 5.65221 8.03569 27.164114753
16.4812 5.47368 5.28502 28.8724432275
22.9456 5.16201 5.35374 33.7046201143
23.4422 7.38279 6.89128 30.9565229893
13.087 9.66212 6.53811 32.1366598474
15.8379 10.548 7.04647 27.0003140056
16.7767 8.25896 4.72438 33.4908465573
19.804 8.29069 4.69083 30.1024601866
18.6408 10.2509 6.53427 31.5592531106
22.9069 11.8743 6.64283 34.6381761506
22.4104 9.38599 5.18216 33.0702649578
15.8384 1.25031 12.0262 31.0561677345
15.274 1.82254 9.46072 29.9972445858
12.6685 2.62981 8.40843 33.7676105094
20.2226 1.50345 8.89354 29.0374139775
17.6929 2.75899 8.77233 28.1117672635
19.918 0.878294 11.5816 36.1021144458
22.83 0.450618 11.0213 33.8536281775
21.8418 3.48677 8.67463 30.7505337816
23.4641 3.27654 11.0659 28.6910042058
14.7719 5.09382 9.61655 30.8286377508
12.825 8.07395 8.71031 27.1572401072
15.7491 7.88916 8.96085 30.8783749903
14.3071 5.44518 12.4491 28.4180931118
18.8356 4.38916 10.9866 26.9329258285
19.1371 6.92746 11.5383 28.4179433615
23.6283 6.16937 11.8893 34.7146584741
20.7465 7.7752 9.39541 30.1906386171
13.8533 11.6557 11.6637 28.7001173571
15.682 11.2634 9.76497 29.3244549961
16.5818 8.54467 11.4849 29.789774112
19.5111 10.4287 9.15135 29.8882225786
18.6763 10.4183 11.9057 27.8330303307
23.3149 10.6693 11.3127 34.5044032096
23.3735 8.29007 9.73473 32.0363686439
21.8408 12.1868 9.38589 29.1153560974
14.8029 1.30675 15.6346 28.6107953944
13.5535 1.17768 13.3753 30.2016147617
12.3265 3.75378 13.6672 33.8554626893
16.6425 3.9598 12.9116 32.6329209238
16.4565 3.36347 15.8739 27.6065191626
19.8228 2.70681 15.0463 33.0779900794
18.1139 0.490732 15.3142 29.7636060144
20.8866 3.60605 12.5603 33.673003242
24.2877 2.57935 16.4631 33.851677726
15.1074 5.72495 16.2478 30.2739289413
15.3604 7.59098 14.1215 28.7395674661
19.6267 5.26306 16.3391 30.3223921251
18.4588 7.61334 14.7532 30.3585949128
21.4542 7.27719 13.3401 31.8180685169
22.7212 8.05906 16.3118 29.6530578666
14.555 11.7108 14.4631 30.5693762146
12.9251 9.0586 14.8901 29.3917027906
17.3268 10.4199 14.3187 32.5274496296
18.7113 11.1752 16.5197 30.2186564279
21.3163 10.1817 13.0527 31.724117554
21.599 10.6014 15.822 26.5850195379
15.0621 2.43206 19.556 30.3088032976
12.6767 2.38623 17.6485 30.3001548895
18.0625 4.02794 18.6349 28.3063973372
18.9315 2.30571 21.1731 27.9032191504
20.2634 0.404899 18.7487 27.2432378431
17.4094 1.11812 18.5807 25.4851353727
21.1386 4.07049 19.833 27.1513668297
23.4239 0.199334 20.2544 29.4865982652
21.7161 2.3444 17.3103 30.2870173994
24.3754 0.0176743 17.6843 28.0147306275
12.7312 7.57529 17.534 29.4151117725
17.02 6.87124 17.9945 29.357544262
17.1704 6.34442 20.9753 27.4439488726
22.1725 5.58112 17.7405 31.712503532
16.2561 11.3634 17.9482 30.6337084123
15.048 8.92585 18.6338 31.7572509804
13.0665 8.44353 20.9437 29.3155627931
19.4273 8.53583 17.3284 28.66262619
20.3778 8.8367 20.068 30.4592068703
22.7343 10.5365 18.8861 28.8122366072
15.9449 3.9768 21.6786 27.4672845041
14.28 0.483895 21.4769 27.350884465
14.908 2.05725 23.9535 46.1937473335
12.5357 0.66911 24.5126 81.8725370451
17.1536 0.377883 23.9396 45.3714989172
19.0781 2.09969 24.2007 73.0383977238
23.2884 2.84387 21.4256 29.8056094677
23.2383 2.19839 24.0623 41.0554830189
21.2185 0.476011 24.413 66.1053886111
13.5325 5.63598 21.3881 31.409212882
14.4069 4.8548 24.5223 100.897436015
19.8776 6.2471 21.3138 27.7546971676
17.0064 6.25341 24.2323 75.0339340109
19.3576 4.88188 23.8578 39.3924308391
23.0263 6.2822 21.925 29.5618102366
22.1777 5.08133 24.7551 112.3128700358
20.8237 7.74172 24.2914 63.7090208589
12.6771 9.53716 23.6043 39.7929672471
16.1187 9.12524 21.3609 28.4912443832
14.8265 11.1189 24.4678 106.2798867645
18.7481 10.2776 21.4243 30.0431931852
16.6095 8.95913 24.0843 59.5537527727
19.4621 10.1503 24.2936 91.4766017197
22.947 10.0404 24.3936 73.8379838133
23.1368 8.94862 21.8832 28.401759097
14.7576 1.07757 37.4812 28.8970575127
13.3438 0.862206 35.4409 95.6768684048
17.4384 1.8554 36.1555 74.8778264951
19.6432 3.15387 37.4181 29.7972027989
21.8542 2.29396 35.6637 94.4387341879
21.6231 0.752313 38.605 27.8771415559
15.9841 4.28862 35.7522 98.1877889562
12.4527 6.79398 35.7661 74.4673644753
13.8867 4.43218 37.2343 32.0426057305
17.2303 6.35749 38.358 27.3476802709
18.7834 5.89511 36.0268 69.8308421322
21.3252 5.76825 37.7171 31.338143772
23.2422 4.80137 35.7446 79.6265755204
13.3798 8.29647 37.9834 29.6562205462
13.7674 9.86279 35.6816 84.9780369982
16.6528 8.82012 36.5416 45.1724157827
19.3963 8.58 35.645 93.2173995619
18.5361 11.6818 35.7624 74.6544449217
17.4636 11.8213 38.0668 27.8573816403
21.787 10.2661 35.7719 74.5091067868
20.7945 9.01079 38.2734 28.0614954281
24.6049 10.1403 36.019 58.2606046019
12.9964 1.95828 39.9111 33.7875381798
14.6728 0.0251022 40.6416 27.0223597387
17.1877 1.41281 41.2206 29.2215627916
20.3068 3.13712 40.7251 28.876985921
17.4793 3.79311 39.9962 30.8855988476
19.7915 0.18549 40.8957 31.2178095314
23.7884 2.0629 39.9621 31.574641146
24.0558 0.674961 42.3741 32.9943785516
13.5258 4.28757 41.4388 30.7391368085
14.6351 6.15525 39.7633 28.5362442426
15.1742 7.42526 42.1156 27.376585924
18.7826 7.82347 39.9987 29.5568212691
17.5422 5.79535 41.8998 27.4231064176
20.4007 6.74239 42.5293 30.2807703123
23.7032 6.60066 41.3648 27.4767850463
22.3989 4.80899 39.9881 27.6586782897
12.4037 8.35963 42.2434 27.2067408094
15.0127 10.712 39.0944 34.673564601
13.0327 10.8714 41.4388 31.930541083
16.8156 9.46536 41.3263 34.2664158751
19.995 11.3085 39.7773 32.9718114102
20.4719 11.3037 42.6323 34.6692183764
23.2691 8.98257 39.812 33.3252745859
22.2609 9.26104 42.824 30.2707600739
12.8357 1.33432 44.9126 32.9039961478
15.3291 0.880955 46.2643 31.1656888115
15.2873 3.6607 47.2828 29.6431348016
14.3921 3.33096 43.8387 31.7200706612
18.5749 0.620217 45.5474 26.773298569
17.0134 2.02059 43.8783 27.8845188224
21.2061 1.04001 45.0486 28.5274437795
20.6539 3.52817 46.6804 28.7700754754
21.2233 3.69198 43.5692 29.9988593311
24.193 1.25835 45.4033 30.2227557011
15.5591 7.74242 45.1351 32.5895923182
13.837 5.68313 46.1735 31.291362838
17.8702 6.66766 45.8882 28.0044394239
18.4214 4.47101 44.0529 27.3416117637
18.0002 4.28957 47.3192 26.269837967
22.3029 7.4609 45.9592 32.5420958255
23.4653 5.37451 44.2094 32.0571485238
12.7387 10.7817 46.918 34.0467651163
15.5804 9.96479 46.7421 33.1756721796
18.1252 10.2584 43.6438 32.4510836478
19.8181 8.33815 44.9838 34.4470880372
17.3229 11.9293 45.4734 37.1052122924
23.8273 9.6586 46.667 29.4137365722
16.102 0.832825 49.4146 27.870556065
15.1428 3.4563 50.085 27.3468174981
12.9114 1.97849 51.1573 27.3965493221
19.7682 2.8705 50.3076 30.8378076359
18.7446 1.22024 48.2673 25.9288656356
21.9499 0.801496 48.1004 30.090616303
22.3549 3.35054 49.3224 29.7234706248
12.4562 6.63926 48.5284 29.9620345947
15.0805 6.56683 49.852 30.1270236278
12.5793 4.79564 51.8119 30.9925851886
17.8465 5.28334 50.1581 27.1806205118
18.7326 7.6194 48.8907 31.4767331838
21.3237 6.0922 48.2407 30.5995814194
23.7282 6.07162 50.1558 31.5203386749
16.3674 9.1136 49.2692 36.645969955
19.3245 10.8882 51.6697 29.925989467
16.7377 10.5105 51.5533 32.9674952412
23.1801 9.06239 49.4882 29.5934799375
20.6387 8.66374 50.4578 31.2646481076
23.2666 12.1507 47.7975 31.1606920103
24.4449 9.55103 51.7728 29.910842357
14.8721 1.66732 55.108 31.1300511818
15.1542 0.350563 52.4794 27.6627696433
20.2065 2.02576 55.1989 34.3818207179
17.1043 2.52902 52.2073 30.0399734146
19.6329 1.07656 52.6521 27.8685748459
22.6061 3.17144 54.1986 34.2048437887
22.7237 0.994917 52.2324 31.144722865
23.9235 0.887523 55.7222 30.8181401688
13.4174 7.36881 52.358 33.6181967573
16.4764 4.30039 54.7336 36.7180138066
20.4742 7.08972 52.7748 37.0711699812
17.7198 6.15043 52.9687 31.7802337146
23.0278 5.80137 52.8053 34.662121325
15.9045 8.19608 52.9596 27.7206825845
14.4158 11.8905 55.9567 36.6972000211
15.1105 9.23809 55.2483 34.1000452096
20.3263 11.1207 54.0064 31.9674504627
19.0985 8.64553 54.671 34.4642861933
23.0446 10.842 53.814 32.0686898109
24.2704 9.4254 55.9303 30.8469108827
15.6217 12.8975 5.78765 34.488774954
13.159 13.8684 6.94988 29.7542783452
18.1079 14.3678 7.0155 29.3583263032
20.0208 12.5739 5.77646 30.5702465213
22.5208 14.3975 5.19068 31.2981311827
22.3195 15.4334 7.69376 29.6882586307
15.3387 20.0652 6.14122 29.8984850317
15.3234 17.3489 4.12429 31.4455082737
13.3239 17.8884 5.961 28.3572168827
18.1443 16.4618 4.94266 34.0733884732
19.887 18.4376 7.74258 31.5116334615
20.5409 17.9373 5.16838 31.1575093673
23.4311 18.5773 5.06712 31.7717593705
23.8156 17.7191 7.76905 31.631937523
14.3953 22.4514 7.84502 30.4745211872
13.8799 24.0283 5.50632 32.9525821296
16.0874 23.4477 3.76543 29.2639043718
17.0686 21.0406 4.28785 29.0137810062
20.0251 20.4414 4.1299 30.3622009259
19.2482 22.9543 6.0985 28.4178479427
23.6492 21.2943 5.31126 31.677433501
21.7545 22.4052 7.13821 33.6202497984
13.204 16.2451 8.43068 26.9232099943
13.0162 14.1199 10.7607 27.026306422
15.7018 14.4127 8.9214 28.8213385209
17.9436 12.971 10.4192 33.19893175
19.5364 15.8272 8.71228 27.3681000069
23.8754 14.6462 10.172 32.9949643378
20.5271 14.1514 10.7545 30.039153641
14.389 18.0737 9.96711 27.4269983131
17.1324 16.5309 9.94162 29.3204751582
17.2774 19.3061 8.24988 32.6479845632
16.5879 19.8405 11.3459 28.3023765582
22.2393 19.9167 8.8661 31.5265512706
21.3111 19.857 11.5372 34.5057105449
13.1619 22.29 11.6776 29.1552406438
13.1036 20.5076 9.53966 27.7017070816
16.2077 22.5188 12.3591 30.7385042986
17.332 22.2289 8.19596 32.5106002215
20.4868 22.4702 11.7932 31.4993650596
18.0802 23.0019 10.5099 28.7185745852
23.2969 24.2345 8.95513 31.9352735667
24.4453 21.7556 9.71264 30.7221620241
13.6623 14.5001 13.4576 29.7927585439
14.795 13.3576 16.7603 29.2481805108
20.2958 13.5987 15.6277 33.113243977
16.65 15.7873 14.5798 35.2059103708
18.4021 16.2227 12.5499 29.1995659184
20.9172 15.2355 13.4184 35.6297130191
23.3929 12.6431 16.793 28.6169655677
13.0872 17.5247 12.4856 27.9887140889
14.6668 19.9416 15.4893 30.1773224502
15.5848 18.2073 13.4047 27.0590730115
17.9057 19.955 14.8569 28.1861856791
18.8956 18.8234 12.5244 31.238336676
23.0198 16.7406 14.1063 33.1297426177
22.4883 17.045 16.8346 30.9955243352
23.1401 19.5016 13.6617 33.4851756604
14.9417 24.3678 14.6781 27.7911386653
13.1281 22.0656 14.6086 26.980049838
20.389 22.4483 14.6122 30.2939855851
17.5442 22.7073 14.9777 27.8602644012
22.181 20.8948 16.0864 31.5267301077
15.4384 15.7828 17.9674 30.591941974
14.4989 15.4866 20.6304 31.5299331865
18.9364 14.1576 19.2469 29.6165901299
18.2838 15.7291 16.9462 31.7389386349
18.6797 16.1176 21.1518 30.980452163
17.2404 12.3088 20.196 29.5288833229
21.909 13.3613 20.28 28.9183108815
21.7903 14.6654 17.7036 26.0263974593
14.1993 18.7979 19.6523 27.2824502638
13.8942 17.8895 16.9818 28.4514418467
18.324 18.7364 17.1306 30.2263152721
16.7174 19.7377 18.9819 26.6647924463
21.3936 16.5069 21.1124 28.8293338718
20.8589 19.5167 20.3925 28.5017318056
20.8916 19.1357 17.7713 31.1902051558
24.379 16.5297 20.3884 30.4913252134
14.5801 22.9785 18.8374 29.094908754
13.4286 21.2079 20.6789 28.4732097711
16.3357 21.8403 17.4329 26.3420485888
19.0046 23.4031 18.6061 34.5744820509
17.7442 21.8652 20.7463 26.6821849672
22.2091 22.1993 19.9856 32.914646297
13.2367 15.4877 24.7722 107.8991869277
15.2252 14.1822 24.1062 47.0462671784
15.0486 12.8187 21.9058 31.5747734746
19.8655 14.8829 23.9721 75.8395188331
17.264 15.8809 24.2617 79.0237120994
20.801 12.5008 22.9331 32.0121458219
23.2684 12.9379 24.4152 100.6191866218
24.1628 14.0211 21.7457 27.0440744378
16.2761 17.3391 21.7946 26.1244412562
15.797 18.9477 24.1974 79.4727725958
13.2478 17.8658 23.5359 33.0946202537
18.743 19.2631 24.394 86.5217595273
18.5675 19.4254 21.6478 25.3095623584
22.325 16.7766 23.81 60.3847183133
22.3443 19.3003 22.9687 31.3067516324
15.4855 21.2968 22.5233 28.571868235
14.9316 24.4813 24.3413 92.5264484308
13.2338 22.0902 24.0406 66.2149637564
17.8642 22.9369 24.0381 66.4200386079
20.0883 22.8187 21.7608 26.5943329327
24.2449 21.1665 22.3546 31.389101504
20.6975 21.0998 24.47 95.3828986145
21.6493 24.0679 24.3292 73.0362311613
12.6003 14.1449 36.1277 39.6903753923
14.5895 12.2806 36.0774 53.536790807
17.02 14.5267 38.661 36.8396047648
16.8835 14.3421 35.7387 77.5018083829
19.503 15.5724 38.8024 24.9537023042
19.6168 15.3245 35.7989 65.3788573381
21.0945 13.0545 35.7871 62.7163243686
24.0995 13.3682 36.0213 59.6061692155
21.0055 13.4189 38.6407 25.596633182
23.477 13.5182 38.7073 30.1565299533
24.5921 16.015 35.9101 55.663756859
14.3771 20.192 38.4236 31.7050705186
15.7327 16.6817 36.3546 37.8391432442
13.146 16.7069 35.3519 110.2973510915
18.306 18.7231 38.7127 30.1086294432
17.3924 18.6294 36.2348 49.0688351228
20.0988 19.6728 35.7612 76.960021982
22.0123 17.0402 35.4877 83.6168674569
21.1872 17.8445 38.0476 31.2217759587
23.3643 19.8833 35.3536 112.357653887
13.7085 21.2962 35.7777 64.1866144819
13.5365 24.0119 35.1183 121.538070873
16.9595 21.237 35.7166 83.0395247246
18.0546 24.1624 35.8575 79.2308242362
16.9256 21.2172 38.5861 28.6609163858
20.0861 22.3252 37.2222 32.0851372913
23.6988 21.8284 38.7769 32.702306229
22.7494 22.7292 36.2644 48.2090859428
14.5486 15.7996 39.9495 36.1636327632
13.946 15.3814 42.648 31.00751442
22.4434 14.7178 41.3634 29.6012235397
12.6807 17.793 43.0499 29.9792143498
12.3623 20.3461 40.8743 29.2721303141
14.796 19.4116 42.2701 27.7686224515
20.2537 16.3634 41.2754 28.6477125583
18.0725 17.1133 42.6633 30.4162590165
16.4367 17.9155 40.555 28.9740622937
23.6701 18.6663 39.5048 28.0620330404
21.9483 18.5849 41.6512 27.5281847277
24.4468 16.7738 41.9126 28.1255669347
14.3877 22.9995 42.1666 30.7445119233
14.0418 23.1991 39.3224 32.1225776838
20.1863 23.3527 39.8252 28.0355804737
17.5275 22.4703 41.2083 29.8164446711
20.5267 21.1476 42.0954 29.4150380696
24.49 22.9528 41.475 28.989387976
22.575 24.5042 40.3247 26.9553223499
15.0743 13.4282 45.7144 27.3452473809
13.4378 12.5131 43.6388 34.7542126312
15.8883 16.0812 44.3697 31.4900126808
18.6832 14.0168 46.4582 30.0411517856
20.023 15.7791 44.6446 29.641657826
21.5892 13.5657 43.5995 33.4725964061
24.521 12.8107 43.8181 32.5996131264
24.4413 14.0349 46.2461 29.6326489898
14.4193 18.2835 45.1966 28.0058278399
19.9508 17.7208 47.1135 27.0487496261
17.1196 17.1879 47.1031 31.4845568598
19.6702 20.2458 45.9937 31.0200879769
18.8162 19.6331 43.4549 29.3759667881
23.7734 16.9783 46.4597 27.6503526326
21.8678 17.8138 44.5629 27.6512769402
22.2297 20.3945 45.9043 26.1481934603
16.3159 21.3389 43.6146 26.2259069937
14.1245 21.1577 45.5435 31.608589274
16.6298 23.1417 45.9399 29.5433742136
23.1747 21.25 43.4057 29.6724332298
22.3506 23.618 45.6392 30.8067483491
20.586 23.6938 43.3355 29.4924034342
13.0099 16.1239 51.5368 33.7020360333
16.3222 14.7661 48.3121 32.169806189
15.7469 12.9958 51.9037 33.6806850723
13.5005 13.3981 47.7544 30.5582111992
13.2494 13.7378 50.5125 34.1932917544
20.075 13.3331 50.7312 33.4822136177
17.506 14.313 50.4448 30.4721935566
24.2211 14.8515 50.912 31.9941492127
21.8742 15.7564 48.5027 30.1767752797
20.7322 13.3418 48.0042 36.2437698873
21.6619 15.451 51.9552 31.8897446158
15.2307 18.0834 50.5952 34.7272050256
15.447 19.3814 48.0589 27.2355313746
12.8701 18.842 48.5436 28.6525495846
17.974 17.0673 51.0808 32.815327511
19.8136 18.9004 49.9478 29.8480206027
22.4342 17.8715 50.6461 27.9327772306
22.8631 19.4344 48.5203 28.6251074859
14.9979 22.6561 49.6374 34.9698144062
12.5059 21.5533 48.4567 32.7033248128
20.3943 23.796 49.3263 34.3734585156
19.2572 21.3723 50.0808 32.730089339
17.5726 21.3966 47.8922 30.4523498
24.3041 23.3021 51.3687 33.0258242633
13.3886 15.8779 55.3635 29.7721535358
15.3941 14.2063 54.306 34.6161409669
17.8477 15.3414 55.1176 33.343143313
20.0433 13.2444 55.7266 36.8322270534
24.2194 13.1763 53.3852 29.7494773217
22.3969 14.9518 54.7436 31.3639592465
14.1946 19.906 52.8487 30.3848957649
16.199 19.2502 54.8512 31.5537493673
18.3574 17.5669 53.8249 31.9719175965
19.9836 19.7475 54.0506 30.9058475481
23.6084 17.4798 55.1719 30.3347385982
22.6784 19.1556 53.1492 33.4359055371
12.7179 22.464 56.1304 30.7036990894
14.099 22.6236 52.1505 29.2953399488
16.3203 22.2749 53.9352 27.7658100462
18.7131 21.8711 52.8084 31.7659896347
20.2067 24.0793 53.3925 30.8941979247
24.1444 22.6978 54.2967 32.9726009369
21.8583 22.6026 56.0904 31.9131278901
13.9639 28.0513 5.30785 30.720668196
12.7613 26.2516 7.00475 30.1371936172
17.923 28.0264 7.3616 31.7507942128
19.9206 25.696 7.53501 34.0697372307
16.7035 27.4758 4.75817 31.6126641936
18.2382 25.092 4.7053 30.3585127437
22.1926 27.4495 6.68888 33.2336114845
22.2629 27.92 3.95329 31.4580310787
15.5107 30.0976 6.92952 28.2006337706
12.5088 31.3497 7.46321 26.0012806953
19.0076 30.4358 6.6827 30.1800431427
19.3074 31.0399 4.02755 27.5346681638
16.7076 30.3251 3.88001 26.6925871875
23.0169 32.2277 5.63887 31.1439672862
22.1215 30.2388 7.27501 28.1587335983
14.9641 36.4101 4.96365 32.1193377153
14.7649 35.5082 7.63798 34.2571491999
14.5018 33.0203 6.26537 27.6349635888
17.5357 32.8227 7.26846 26.5397662302
17.4124 35.183 5.52323 28.2645094632
19.7259 34.5582 7.9709 30.5869582198
18.9104 33.7746 3.97995 34.7261190998
22.4493 34.5283 7.521 37.9340442658
23.8847 36.1879 5.21925 33.0888101704
16.367 27.4372 10.1246 28.5961411125
14.3231 25.2 9.26793 35.7584482889
15.1052 26.5802 12.4258 27.3506292719
12.6043 25.008 11.4646 24.6430372536
18.6644 25.6105 10.096 30.9113600031
20.2898 26.9277 12.0016 27.6782126035
22.2106 24.6839 11.6784 32.584062098
24.5469 27.6444 10.1481 32.0415171367
14.4505 29.7156 9.87254 27.6898945078
12.5932 32.166 10.4679 32.5965954416
18.7291 29.3281 10.5247 28.1594223042
16.9357 31.5039 9.68679 29.2296805636
18.6436 32.1728 12.1808 28.3548455802
21.3097 30.3485 9.86947 31.8209162589
22.539 28.7563 11.8007 30.3973262223
15.1795 33.38 11.4767 30.0670561739
20.3119 33.8691 10.7041 28.5510178932
16.7596 35.1666 9.9073 30.1619781315
22.8205 32.9 11.1573 28.8611930207
23.8582 35.2316 12.462 27.9560354989
16.8176 27.0179 14.4656 27.7233844343
19.2799 25.6095 14.2013 27.9559305958
20.1315 27.7905 15.6217 26.6779311989
21.9606 24.8694 15.6633 28.5902239202
24.3993 25.0839 13.5624 32.7434045884
22.9616 27.6994 14.9716 30.4588123874
14.1309 29.0537 12.7193 29.8386563916
16.1428 30.408 14.1086 29.5993090355
12.3112 32.2188 14.9378 28.8369095957
18.9536 29.5123 13.5221 28.6252815023
16.737 29.182 16.6315 27.8259980729
22.4466 30.8517 16.6461 29.9253919093
23.7316 31.2898 13.2586 28.0246288234
20.8595 31.8967 14.3906 33.1230084396
15.1835 35.7898 15.1816 28.9021594379
14.9144 32.7483 14.6189 26.4371758001
13.7221 35.7931 12.937 32.1606142527
19.7143 35.8276 12.5333 28.2133692297
17.2104 34.8353 13.2918 26.0990502957
18.3818 34.0351 15.9943 31.1397888191
21.3046 34.2249 16.0512 26.7229048279
21.7393 36.0015 14.0037 27.4962304223
12.5869 26.5015 21.0112 27.208760291
15.3159 25.5339 20.0189 32.6125626289
15.358 26.145 17.1553 31.1985399197
17.8901 26.6047 20.5243 28.5481874358
18.5238 26.2482 17.3803 29.4098505102
22.6347 26.8626 19.5609 26.8879841993
21.8116 24.5174 18.3574 28.175827731
14.0172 28.636 20.2316 26.5939010734
14.4569 29.9155 17.8183 29.0730180871
16.2333 31.8672 21.2465 30.0634754865
16.1587 32.5733 17.2039 26.186698027
18.5556 29.1401 18.7336 26.6555694614
18.0918 32.124 19.2618 30.3428191842
16.4947 29.0275 21.1719 28.6922388973
20.4159 30.6369 21.0353 29.6751437649
21.1138 29.0763 18.3769 30.1403397432
15.0482 35.334 17.9228 30.5640270856
14.0434 32.7953 19.3502 27.9681905437
17.4061 35.8137 19.242 27.4535810103
19.7041 34.5412 18.9925 25.9749590881
22.9862 33.0688 17.9108 26.6805898294
22.6686 36.2721 18.5371 27.6839247487
22.1636 32.7148 20.9537 30.0840954543
24.3811 36.5982 20.5722 27.7161250712
12.6635 25.9783 23.9811 53.4266448136
19.6677 26.0949 24.572 87.9742546523
17.26 25.8408 23.4122 30.4657909768
20.2878 25.8079 21.8216 30.5744049602
20.8713 28.5637 24.5651 97.899761446
22.2254 28.4487 21.7938 28.158310923
24.2025 28.1098 24.3479 81.5882197067
24.1942 25.2519 23.6656 39.0661513688
13.8352 28.6854 24.0309 66.2882012492
17.1486 31.3939 24.1377 63.350916701
16.6208 28.6574 24.1852 76.1489941079
19.8603 30.9528 23.7932 40.0709017401
24.3323 30.5115 21.6653 29.4794041119
15.8981 34.0059 24.7046 100.0995710429
14.1485 36.5732 24.486 79.779288616
12.9548 33.5313 23.9805 43.4314242688
14.1487 36.2321 21.9094 27.5366151641
16.5771 34.7681 21.9535 27.7549650775
20.1108 33.7391 24.3033 97.3519983072
18.2417 36.1875 24.226 60.1234727602
20.0158 35.0699 21.5636 29.3073832117
24.3924 35.9023 23.4489 46.5356210103
23.0953 33.2429 23.6143 53.1887499916
13.9987 27.8342 38.5455 28.7244521092
14.8988 28.4815 35.7706 76.2196516157
15.5949 25.6118 35.9563 49.7595606147
19.4226 26.7414 36.1173 59.5741435796
18.4042 25.1185 38.4855 26.3374529179
20.8449 27.9406 38.2467 29.0843917855
22.2606 25.7047 35.7739 86.1382944601
23.7883 28.2846 35.6319 72.7989871092
23.0323 26.5086 38.5932 27.7264604478
12.6192 30.8042 38.4655 29.3879010491
15.4273 31.6802 38.4824 26.6440383941
15.5939 31.4577 35.8508 63.5386130523
19.5136 31.2358 35.7428 85.3623530675
17.6577 28.9623 36.0885 53.5765347708
22.6009 30.8778 35.4248 91.3664794964
20.9461 32.1367 38.5287 27.3230637016
22.6016 29.9386 38.0275 25.6225299
15.2857 36.1386 38.1561 26.6643424786
13.7476 33.6752 35.3429 93.7422672955
12.6296 36.1103 36.4849 28.4720915412
16.3716 35.1565 35.7567 75.9393009592
18.0402 33.3776 36.8461 30.0299397847
21.4562 34.0078 35.8886 77.2627949708
22.5189 36.0211 38.2471 28.3820374353
24.2793 32.9544 36.0798 43.7807958333
15.6489 25.3583 38.86 28.608546966
14.368 27.5401 42.3967 28.7474563208
16.3738 25.2099 42.0091 27.8771755204
17.6485 28.5615 38.903 27.5125069932
18.7785 26.7427 41.0193 29.9175318943
21.6163 26.2591 42.0381 29.0682675125
23.1899 28.5358 41.5911 30.4380843104
13.5172 32.2769 41.4329 25.4137896565
15.575 29.6775 40.4545 26.23473057
13.3433 30.1213 43.0797 27.7072300483
19.4907 28.9038 43.0375 28.3359634881
16.9946 30.907 42.6747 27.5349781721
18.9955 30.7963 40.2465 28.9247725617
21.6423 30.801 41.6428 30.0589243835
16.0057 33.4379 41.8836 27.5162029587
13.4131 34.0821 39.0522 27.5176289191
15.2558 35.988 41.1349 31.4229849801
17.6833 33.4553 39.5537 28.0700366461
18.263 36.4826 38.8971 29.0245350702
20.4951 36.341 42.3306 30.0380968878
20.6353 35.0093 39.8034 28.9235823722
22.9576 33.1973 40.8166 32.3773196796
12.4801 27.2212 47.391 32.2387418829
14.7434 25.3147 45.6536 30.3268084131
15.6627 27.9004 44.8902 30.7381502896
18.4072 27.3165 44.9495 31.1087053993
19.8131 26.7958 47.4057 34.3093411337
18.1153 24.5702 44.1759 29.4561606212
23.9462 25.2776 44.0868 32.954487303
15.5641 31.2547 45.1863 27.8167860486
14.4928 29.5615 47.3262 32.6446806428
19.6835 32.0305 44.0171 30.2665139197
19.8751 29.5764 47.1149 28.0584160054
18.0847 31.6551 46.4587 32.3963392725
21.7583 29.9742 45.1001 28.0071066861
24.0732 28.8106 44.6067 29.3802344525
16.14 35.2078 46.3109 32.3549222985
13.8894 33.4693 45.838 32.8842978201
12.3818 36.2766 45.1161 29.466230941
20.1891 34.878 44.5684 27.8988523081
17.3079 35.1452 44.0932 30.0351803756
22.3419 32.882 45.6571 28.1516103185
21.1032 36.6993 46.5553 29.6893972841
23.2311 34.5227 43.3183 30.285364892
12.3652 26.9201 51.0997 30.260774274
15.4651 25.2244 48.7153 34.3580924599
15.0706 26.6803 51.1637 28.3817235477
18.2936 25.6407 49.408 33.569040037
18.2503 28.0668 51.5542 29.7075555652
22.2935 25.6389 47.7246 32.1062263657
24.2498 28.2867 49.119 31.9609983169
23.0689 27.2634 51.322 35.5911622462
21.8022 24.7804 51.4867 31.7098725147
13.424 31.9251 48.4785 31.7821513184
15.7531 32.6758 49.9158 33.8932316087
15.1618 29.3666 51.5539 27.2246248391
12.5353 29.6139 50.471 30.9672000533
16.8591 29.961 49.3622 35.0566860383
20.7306 30.664 49.4949 29.4238468309
23.0638 30.9012 47.8057 29.8613916207
20.7027 29.2748 51.7725 31.7780959408
12.9146 34.0883 51.9784 33.6931807002
19.8438 33.1188 49.8833 32.5530444714
17.6179 34.012 48.6038 30.5765889497
22.1238 34.323 48.458 30.5649717255
24.1836 33.0036 51.9152 33.8395523072
14.781 25.0663 53.5934 33.5998417098
17.8678 25.5117 52.8697 31.2723496114
18.3186 27.6033 54.9325 29.4867771726
20.7217 25.3974 56.0779 34.9937432285
14.3027 32.0932 56.233 29.2711556087
13.686 30.4214 54.1099 31.482838025
12.4488 28.6206 55.8099 33.7101180399
16.7421 29.7709 53.9468 29.9712163401
21.6485 31.4672 52.9362 30.7546435459
20.5431 29.3747 55.2169 29.4372317785
23.0083 31.7238 55.4869 27.6973332102
12.7231 35.9341 53.9725 28.7251275976
14.8626 34.5389 55.0137 33.1121702128
15.8956 34.6347 52.3124 31.7833060624
19.9145 33.6559 52.9534 31.4115352004
17.5551 32.7753 53.9729 33.4560552404
23.4842 35.7996 52.2771 29.8202037953
23.2944 34.3027 55.7528 28.3898388119
20.8783 35.1534 54.8597 32.88307423
14.0447 38.7964 5.24814 28.43465867
13.6009 39.7313 7.81496 29.5465542909
12.343 37.3715 8.02021 31.1272541479
18.3247 37.683 6.2694 30.5492622193
16.6936 39.7114 6.56843 29.2837712836
19.5391 38.7422 4.03734 35.0601452525
22.8047 39.6826 7.18184 29.0564431064
22.3623 38.5058 4.41027 32.7185671146
13.783 44.0411 5.17752 33.6817605662
13.8275 44.1957 8.04808 28.9714866877
16.5761 44.5443 7.16324 32.3485136606
16.547 42.6258 4.79369 28.3674336755
19.4475 41.3644 5.3844 29.3076333039
21.7706 43.1064 6.00706 33.6711128606
14.2976 48.6531 5.64199 31.496120148
12.6932 46.3749 4.58746 28.3169281844
19.5492 44.9613 6.58609 32.8849127161
19.5957 46.4721 4.35465 35.160931449
15.434 39.9607 10.161 29.7224028955
19.3226 37.2827 9.00291 29.6911919296
18.5943 40.5906 11.3935 31.4279469248
20.2436 40.2548 8.41629 32.5800728888
17.059 37.7195 10.9667 32.2415755235
21.7186 39.8577 10.8776 28.837199179
22.4317 37.2758 8.85309 32.0405681189
24.0493 37.5513 11.3044 28.5362539083
15.948 42.6493 11.1846 27.7340363432
13.2352 42.9156 10.7271 29.4906795837
17.0169 41.7408 8.40678 32.7879076252
23.4226 42.5372 8.26926 27.6532276298
22.2522 42.4244 12.0399 27.5010870844
22.6789 44.111 10.1946 29.2666868954
14.6656 48.4076 8.39476 30.1900579367
16.1289 45.695 11.094 31.0445575525
13.2962 45.986 12.066 31.1128337146
12.5244 46.679 8.58287 33.5711158997
16.7777 46.9629 8.68823 37.7391161235
18.8501 46.4581 11.3183 32.9766464942
24.5921 48.0299 8.57723 29.8706263771
20.5797 45.5034 9.17711 35.2669927661
21.6876 48.1371 8.43838 33.7573602088
14.7438 40.1002 13.0919 28.1024198259
16.0322 38.658 14.9949 28.1466007079
12.7027 38.3638 12.8779 28.3248620979
19.397 36.8888 16.6749 30.7721699154
18.5457 37.966 14.0951 27.5262503928
20.2742 40.0475 13.6375 28.5775135335
23.2711 38.2648 14.888 28.8849727557
21.7588 39.8714 16.4657 28.5594492143
13.5305 42.3579 14.2693 27.4583513115
15.7288 43.8824 14.448 30.2061848479
12.5855 41.3975 16.696 34.3685221102
18.0523 42.4707 13.5321 27.9469603084
19.9641 44.2253 13.0085 36.0597939182
19.3822 41.858 16.1652 32.3866796253
22.1689 43.2496 16.3295 27.6844272589
23.9635 42.2724 13.9897 30.6530306198
12.477 47.9475 13.9863 29.1224992385
15.6294 46.7824 14.7155 32.4418785561
17.5276 48.1712 13.053 28.8193150496
24.4364 48.2156 13.1138 36.8905038174
21.0369 45.9571 15.3846 38.2378617582
23.3871 47.456 15.7774 35.4553596188
14.1713 39.098 16.9346 30.9571304313
13.4546 37.4118 19.1961 30.3536493794
16.9146 40.53 17.2936 33.834130627
18.3208 38.8882 19.1621 31.4963767571
21.2916 38.5396 18.687 28.9947582421
13.9438 43.4545 18.4906 34.3784614852
20.3142 43.3826 20.698 31.6147246995
20.1362 44.5493 18.1543 26.892439894
16.436 43.3143 17.1855 30.8252669919
23.953 44.652 20.3508 30.2114147611
24.1097 41.6324 17.7736 33.6617623994
24.2047 41.1627 20.5237 28.7016909458
13.3689 46.0897 17.879 38.4289468253
12.6916 47.1511 20.4259 31.4017594996
15.8986 47.8533 17.2766 29.8826618289
17.3184 45.9898 21.1702 26.9173857298
17.5369 45.7176 18.3506 28.8131706318
19.3804 47.5089 17.2599 27.5522453117
21.5581 46.4187 19.3874 28.080523929
23.9855 45.1146 17.4113 28.6111850504
14.6402 40.4127 21.6736 32.2118773394
14.4168 40.5967 24.6158 95.2654923727
16.724 38.1119 21.3729 29.096719463
19.098 40.5502 21.6124 28.7831640827
16.4077 38.4386 24.1214 45.1253495085
18.7565 40.1561 24.3928 74.9412748758
21.7365 39.6503 21.2927 26.9592868542
20.7141 38.056 24.3609 91.5493361607
22.4577 40.6494 24.0768 62.9316348765
21.7994 37.0155 22.1625 27.7763378188
14.9899 43.3246 24.4121 68.8776674687
14.5688 43.0496 21.3089 26.0293920739
12.4598 44.8091 24.1698 66.2218910852
17.6387 43.5952 24.324 58.8075714754
20.2915 42.8086 24.285 64.4278140031
17.3831 42.9287 21.5445 30.5905438112
22.8264 42.8507 22.238 24.6443925554
23.7546 44.1135 24.4635 83.4358465363
14.7582 47.5649 24.3992 81.1369193815
14.7888 45.9709 22.2246 26.5762282823
20.2098 45.9953 22.1417 28.1991296489
18.325 46.43 24.5145 82.4762198435
17.0806 48.7173 21.3059 27.5001348126
24.5965 47.1787 21.4564 29.8344039724
21.4981 46.6811 24.7994 95.1887866913
24.1185 47.0818 24.0865 41.9110255324
20.6151 48.9033 21.8315 28.268835995
13.768 38.3852 35.5437 82.7592918498
14.3084 39.0207 38.1691 30.0004093704
16.6566 39.2398 35.4836 93.5064303702
18.4649 37.2438 36.0355 49.8341277819
20.0398 40.2772 35.9952 60.7914966711
20.4036 39.9146 38.749 31.1195571012
23.2423 39.3948 36.1044 55.5461041298
21.0394 36.9591 35.9562 70.3178386801
15.7993 41.6941 36.5484 30.9613785491
13.135 42.9589 35.8255 57.0312945687
13.3166 42.7415 38.6645 28.6056014542
17.8794 42.8968 35.6497 72.4542555611
19.5682 43.7859 38.1837 28.4324732496
20.6761 43.2543 35.4684 113.4152192801
23.8498 43.4013 36.0033 50.1237512032
14.9681 45.0139 38.5036 25.5368481162
14.5113 45.3427 35.5273 81.8763337394
15.9084 47.7022 38.043 28.794216363
12.5493 47.1787 35.7875 49.0466691468
17.3502 45.9659 35.7329 87.9862894383
19.324 48.2888 36.3564 65.7328876509
20.6058 46.4457 38.2281 36.4868892814
23.4135 48.9851 35.6932 92.7955681603
23.5355 47.7398 38.3106 28.5013572348
16.1918 40.83 39.6246 31.0720532354
12.3607 36.8938 41.6409 30.4589568425
14.742 40.8323 42.0687 34.2765576518
18.2621 38.6787 40.463 31.1614975273
23.3606 40.5561 41.3974 27.5851219128
20.746 39.4893 42.0384 29.4804055952
23.2024 37.6935 42.8979 30.6485970764
23.2229 38.6667 38.9052 29.8134483657
17.2144 43.5173 39.4209 28.1417046228
17.8291 44.5434 41.8071 28.3498033901
20.1997 43.6167 42.1264 33.767209977
23.52 43.1051 38.8379 29.5922533851
21.2742 42.0979 40.0317 26.5293489972
13.584 46.1007 40.442 27.6146594443
12.9581 48.236 42.7126 34.9271207089
17.9188 46.809 39.6405 29.6484618015
16.8702 47.3143 42.5794 30.0468178023
21.6534 48.4179 42.7494 32.2084765131
24.1535 45.3981 40.1691 32.5628718525
14.3692 38.1645 45.974 28.577103507
14.9539 38.2466 43.3679 30.884909069
17.8662 37.8103 43.3363 28.6503315702
18.9994 38.2361 46.0775 31.9990352412
19.3735 40.7431 44.401 33.2486991004
23.0997 40.4649 47.0214 31.0310465305
23.1777 38.0372 45.6487 29.0194675241
15.6569 42.6003 46.0633 29.8782965897
13.1467 40.9302 46.1962 28.3244172478
12.6218 44.0033 46.8707 31.0824118229
13.7284 43.1321 43.9225 26.7798860415
17.108 42.3684 43.4366 35.310400025
20.5353 41.6259 46.8628 32.1682881488
21.0747 44.2894 46.7498 33.9176232593
23.2704 44.5565 44.7829 33.5708538354
23.5916 41.5603 44.4562 32.3821522132
16.3224 45.094 47.0117 31.5613180601
12.3744 48.5818 47.4317 29.7750181215
14.318 46.5944 46.1436 30.5823995239
14.5406 46.0563 43.6066 29.3525569595
18.8551 47.1202 44.6182 31.9096607816
18.8109 46.1121 47.2558 31.8337421621
21.2718 45.6264 43.4014 31.8911449721
16.0257 37.3157 51.8537 34.076167987
16.3257 40.5015 47.9461 28.9927321907
13.8501 38.7983 50.5531 33.7853098619
20.2763 40.1073 50.9278 32.8136903815
16.8327 37.8831 47.6017 27.9746933158
20.2426 37.2288 51.1503 31.4203995051
17.7732 36.8754 49.9545 32.8083039561
24.1358 40.7994 49.9948 32.8983798557
22.3337 36.9951 49.3711 31.5650482286
12.7054 43.2912 49.4637 28.2272234379
14.7229 41.3858 50.1909 29.8081853756
18.4845 41.6834 48.8901 32.4801428288
18.9728 43.4712 50.9961 31.5696248547
23.3387 44.895 51.8859 28.0912735128
14.982 45.586 49.5966 31.2148335616
13.8508 48.1756 49.7932 29.0614951353
16.8952 45.3614 51.7105 29.3818717662
18.2943 47.433 49.6402 28.712127699
23.7752 47.2576 49.6972 28.2843327874
21.3805 45.2311 49.6618 32.8682080478
20.8076 48.1891 50.0479 27.9037840341
24.1835 45.3795 47.7584 32.4550531205
12.4341 38.4746 52.7547 30.7781304374
12.9292 40.6338 54.5077 30.7141773162
15.4512 40.4585 56.0757 32.4721250346
16.6588 39.4436 53.8601 35.4448601844
19.4398 39.8355 53.7361 28.4556774496
24.3218 40.4513 56.2525 31.3355357314
23.943 39.0199 53.8625 29.8633529306
21.6607 37.5376 53.6614 27.3492454364
13.837 43.2088 52.955 32.5479136823
17.9292 44.0452 55.7204 31.2935674705
19.8472 41.9031 55.2439 29.3871183604
16.7462 41.5066 52.0086 33.1042827637
21.1097 43.667 53.0829 28.0639418215
22.3015 41.1013 52.0959 32.3692746762
22.7715 42.8263 56.3546 32.9087957005
15.7737 45.0409 54.0682 29.6628862517
12.5255 47.5191 53.0953 28.3744893717
14.3208 47.39 55.0954 28.4450028768
18.0371 47.9134 52.8417 27.6556593277
17.3728 47.3307 55.3271 28.801035908
20.5118 46.1538 54.2066 35.6191426165
23.025 47.2706 53.2708 29.4742724535
25.8307 2.37025 4.73095 26.7419718568
27.2805 0.428069 6.39467 33.6008150019
31.1736 2.39512 6.42891 29.1281733288
29.8623 0.149948 5.45974 31.011674305
33.3073 2.02484 4.99304 30.1416235353
35.352 1.51137 6.67512 33.9159758596
27.0133 4.6724 5.85299 29.7788910496
26.102 7.47893 6.73875 32.1158498014
30.0145 4.71771 5.54559 32.0207936873
31.0576 7.38045 6.3213 30.8126750365
33.5621 8.07892 5.51095 33.9662912947
35.3214 5.28558 5.1639 31.9970419329
33.0784 4.8464 7.04922 29.8105829232
27.325 9.78247 5.75958 29.559355415
28.2559 11.5829 7.50925 30.208267295
30.7291 11.7777 6.28725 27.4991026341
29.7026 9.08794 4.89618 26.9843820132
34.7511 9.92605 7.36823 26.9978628362
35.5138 11.959 4.30955 33.7027162876
26.944 0.435052 9.03962 30.4875607037
25.4287 2.85772 8.9656 33.6958904268
