24.1706 32.5041 52.8473 31.7171501512
13.1993 35.6264 53.1949 29.9848860029
15.0234 26.9513 50.5475 32.1235299839
22.8767 34.7928 52.635 29.0503376414
14.8976 29.1181 52.2013 33.1856344587
19.7838 33.2968 55.9075 27.792298416
17.9713 26.6948 51.4308 26.6099056621
23.4331 25.9808 48.6973 28.1543906668
19.128 29.3419 51.4818 29.9428691261
20.3631 36.6838 52.067 28.9565885501
17.256 29.6655 53.6926 32.6959824887
17.5934 34.2092 52.2835 30.7083639082
15.6214 28.1683 48.0489 29.1363928663
17.84 35.2788 55.8378 28.9053562812
19.8061 31.6516 53.6733 30.7527206437
21.5926 26.6454 54.5522 32.8624904551
24.0049 25.192 55.1858 28.7341084735
15.1043 33.5258 43.3198 35.0367751681
13.7019 42.8431 4.99309 27.9617358036
24.4377 43.173 7.66357 34.6077757681
13.3387 37.3599 15.4168 30.1675859347
16.2546 46.9775 11.5645 32.2414523885
20.5668 46.2088 13.6867 36.7314242899
15.6512 38.6302 6.36674 29.7723987644
13.4514 46.1665 14.5854 30.6522181348
23.2158 44.8755 13.5625 32.8608385341
16.0873 40.5588 10.728 28.4093111373
14.6843 40.364 8.277 27.9832345016
17.9823 45.9065 13.5448 30.3773446539
23.8836 45.9049 4.19458 29.5933678807
17.8945 43.1349 5.5205 29.7404670046
19.8849 41.7363 13.8721 27.9089397041
19.7113 41.6474 9.80339 29.5338596712
16.1591 37.2663 11.4228 28.3427694674
21.6904 38.0809 12.927 27.6698236235
21.7961 44.2399 6.77926 30.7141722636
14.4617 45.5251 6.06868 27.1505174587
20.909 45.9914 4.5693 29.5472245002
15.8867 42.656 14.8231 27.994327203
16.5037 40.4472 16.3488 28.9339658938
23.1234 47.8994 6.12827 32.5777188964
19.9383 38.1131 4.54485 27.3022145583
22.0094 39.287 5.97947 29.1578374831
22.467 37.9083 8.30248 33.2234018937
14.1465 48.0354 8.22435 27.4685047087
20.4045 44.2155 16.32 32.6226084411
22.5403 42.5432 14.6831 28.9382416846
22.0378 47.8537 8.86327 36.2050562219
21.8591 41.9086 11.4677 33.4752368692
19.4279 37.8951 8.27847 28.6964212423
15.7987 42.55 7.05301 27.6781057598
23.8201 41.0332 4.15761 30.6164289183
18.4063 38.9771 10.4098 27.7358960226
17.4232 42.8831 10.0976 31.1556608148
20.6724 45.5774 9.06725 34.5364033721
14.0419 37.7835 4.01932 28.7090620314
14.077 44.0995 16.4373 28.3443706787
15.1114 45.3312 8.79378 25.237064571
12.7426 43.2047 8.67036 26.7452536661
18.5261 39.9491 5.94919 29.2220925671
17.4993 45.7743 5.88706 29.0416684033
17.8468 46.2142 8.64238 29.9886454562
12.9337 43.1332 11.5717 27.9729127425
20.4593 41.6436 7.21738 32.8732813045
14.7993 38.3472 13.405 31.3525110819
17.7995 47.8922 4.14673 26.9979986485
19.3498 40.6643 16.8216 27.9448677352
22.9553 38.8959 15.3831 29.1086855008
23.075 39.4197 11.0073 34.6233587964
17.1209 46.3944 16.4098 30.492770811
19.2122 39.3019 13.0545 28.3583898598
14.5623 41.0993 12.9678 30.6211443667
13.4074 48.866 14.2371 25.8064943948
20.3892 48.9587 5.41858 32.1276007179
13.7328 45.714 11.3465 27.7635143423
17.7765 43.3078 12.8138 30.9655990323
22.8611 44.6621 10.7784 32.2276475244
14.4397 47.6831 4.38734 26.6378535618
17.1431 38.0829 14.7039 27.628791826
14.102 37.0087 9.44222 30.6703974029
17.0968 48.8587 8.81065 30.285121208
24.3304 48.5689 10.628 31.773968788
22.1332 49.036 15.9351 32.4961634832
19.9919 38.1237 16.0328 26.7579614134
23.789 37.3455 4.98708 28.1459139907
16.4608 40.1963 3.88804 29.8439996647
14.0436 38.2121 20.9265 28.5550208931
22.3319 38.694 21.9513 29.2396378718
23.9958 47.3719 17.5888 31.4421038689
15.2161 45.7974 18.3903 29.2328526554
18.6524 39.3756 19.9629 29.3324265719
20.9525 40.7172 19.9234 28.34349509
23.9194 38.8529 24.6045 115.7321841362
19.5913 48.5424 24.6351 97.9104160876
19.0564 37.164 21.1414 28.2341516378
23.5946 44.4606 21.588 29.3860330073
19.8355 43.0044 20.7535 32.4114574174
23.4865 41.5204 21.519 30.1192068349
19.1112 48.1346 17.3553 28.7481166312
17.1879 45.845 22.0392 30.1657073851
17.1017 43.8951 19.8823 29.5637336304
13.4972 42.8751 24.0517 57.9750432831
21.2265 45.5328 20.5066 31.6793618711
14.3914 38.2778 17.8799 33.1885001799
22.4404 40.8549 17.4093 30.7415827688
17.402 37.3636 17.7884 31.5924789812
15.7212 38.9138 24.8177 120.9148009457
13.3913 38.1341 23.9169 60.3098955237
23.9155 45.1276 24.0073 51.4510242975
20.794 38.9214 24.1668 67.0674351967
16.236 40.5746 21.0486 30.6433625953
14.7585 42.4967 20.0127 27.4307771544
17.5086 43.7724 24.5451 93.4582076352
18.918 40.986 24.1558 67.0917785516
20.3882 43.4327 23.6454 33.3112556428
22.8464 42.4238 24.2522 80.9228436474
17.4298 48.1691 19.662 32.1339929436
21.1227 46.3448 17.7205 31.8306471229
14.7743 45.2586 24.6547 93.1881677479
13.9679 45.2664 21.9751 29.6253933967
19.7817 47.3145 21.7221 27.9494300105
21.1495 46.1355 24.2511 68.6795956258
16.7318 47.4035 24.4641 67.6043374154
22.6529 48.4212 23.9839 60.2151675454
15.9166 41.3455 23.5733 30.9174352605
12.7913 47.2103 20.3217 26.930765826
13.9201 41.173 17.7264 29.9767399777
14.6424 48.8552 19.1158 31.3081403274
17.8219 43.4821 17.0594 29.3678048827
22.9889 46.3989 40.5916 31.0567041042
15.4663 38.3405 38.8535 27.5069143958
18.4502 38.9748 38.6969 24.5681153453
16.3426 44.4393 42.0153 30.0159459303
21.0611 39.4002 42.5346 30.004077957
17.9116 42.5633 36.4012 37.5278762868
22.124 44.0418 36.0706 53.8211433963
20.9565 41.8959 39.9816 29.5365904055
20.8346 39.1447 36.5074 39.8176229189
15.7558 38.4812 36.0858 55.674952683
15.4906 37.6149 43.0246 31.7749203722
13.3884 42.7868 38.6198 26.720768237
19.4909 44.8115 35.5248 116.9813339868
15.225 42.486 36.0331 74.1779470902
18.1371 41.8244 39.3681 26.1726797863
16.2268 48.3524 38.5262 28.2629356684
15.9075 47.6606 35.5888 104.3601665437
18.6768 47.4122 36.4598 32.4279247949
17.611 37.9888 41.2873 28.9854841698
13.2972 40.1967 36.2152 59.6417628042
19.3879 45.8559 38.6058 31.2603787029
14.4921 45.1314 35.9524 66.7733380974
21.3308 38.8345 39.2891 29.2010011205
21.9492 44.2551 38.856 28.7225093963
22.913 41.0613 36.108 77.8448076678
22.9042 37.2194 41.3338 29.2913193408
13.8854 39.7198 42.3189 30.0782959584
18.5821 48.2933 40.0581 25.0554323644
20.5624 47.4317 41.9332 33.0656630106
15.5252 41.0765 39.5614 30.4141148501
23.4207 44.2926 42.4317 32.3369290756
23.3728 47.8545 36.1804 52.2845837673
18.2404 40.1156 35.823 97.3650473832
13.5089 44.4304 41.3504 29.5631763733
12.3627 47.5863 39.0682 28.6743531742
14.1148 47.3219 41.302 27.8769497559
18.5291 40.6954 42.1909 31.3922131703
17.1086 44.55 39.6048 29.1046972213
21.1896 42.6268 42.6871 29.4150957568
15.0305 45.9107 38.5585 26.2022745762
24.5574 45.3285 35.6919 86.176523594
23.7673 40.371 38.9164 28.1959638924
23.7968 48.2977 38.8659 28.0121313068
16.5381 47.0182 43.4499 27.207253157
24.4038 43.4779 54.0126 28.3519904641
21.0253 41.3084 46.6852 29.5717187997
18.0112 40.6231 46.6845 32.4653264534
19.9105 43.6288 45.069 26.0500021012
23.138 42.3338 48.4967 27.8750883449
13.3822 38.8711 51.9606 29.9078865934
17.4216 42.4473 44.0742 33.8901019242
14.1632 45.7931 47.8671 31.9062308887
16.2724 44.6037 49.1531 30.5450068063
14.3797 46.2448 44.9623 32.5728157819
18.3785 43.4897 47.5142 33.2527286884
20.2485 42.9049 49.6883 27.4097524479
22.4855 44.7098 47.03 27.3546065487
20.6711 45.3988 50.2357 27.1564910263
17.1409 37.0491 49.371 29.0602397516
22.9415 40.9406 44.3236 29.2393849764
17.0748 48.6871 50.9196 30.3230073074
20.642 46.9842 46.209 28.5216211818
19.4487 46.067 43.9988 31.744586044
16.8499 47.4457 47.1177 29.391957404
15.9498 38.693 45.6311 34.6371711115
24.1848 48.6335 53.1529 30.2614019457
23.2687 45.966 49.4815 27.2082663715
20.2073 47.0137 54.5132 31.9115445748
13.2597 48.2671 48.7754 31.3284778418
17.1242 39.7954 49.4103 33.7190558055
14.5578 40.4817 49.7574 30.6990514033
14.9323 48.8987 52.6137 31.2318540682
24.2245 44.2739 45.1933 28.3902310978
20.4545 38.5436 46.7875 30.8124208547
14.9107 37.7374 53.9234 30.5553207419
12.3994 48.2086 44.3164 29.8569053475
14.4552 43.0364 50.4224 28.3486994452
16.0961 43.7007 52.5574 30.0055049657
18.0332 41.8426 51.3135 34.0798681633
22.6259 38.0632 50.6288 33.3422563194
23.1499 45.7107 52.3517 29.500730653
22.536 37.1852 47.7363 27.4533653715
15.2154 46.765 54.4115 29.4760141157
17.6653 45.964 51.2215 30.3695625999
13.5111 37.479 46.6041 34.1770740668
19.3342 47.2388 48.3845 26.9009391676
19.9904 37.2252 44.36 34.8063880305
17.2004 36.8984 52.2371 31.5064087642
22.8819 48.4695 45.8534 27.9121275409
17.8164 43.17 55.4022 28.915117175
17.6061 45.844 54.4689 26.706127864
18.2064 38.2674 54.9441 28.5635862821
12.5859 41.9166 46.2621 37.8164520976
20.0953 42.279 54.3786 33.5983592411
21.469 37.6557 54.6478 28.4720814449
13.3279 41.5015 53.1342 29.0473907164
21.8867 40.9739 51.2611 34.1623518909
14.8823 42.1185 55.2628 30.5403179644
20.5507 44.7005 52.8831 28.3004047465
23.9754 38.7548 55.2677 29.9440160067
19.6684 39.8955 53.198 31.2469074363
12.6633 39.8265 48.0403 29.7680124278
12.5925 45.8366 54.3636 32.4093879597
24.1635 48.4902 48.6456 26.4366154642
14.3033 42.1419 43.4658 34.8235482206
24.4895 41.751 51.77 30.3892410374
22.4668 43.5772 56.1227 30.3091703206
24.5739 37.7199 43.5717 27.9684056608
24.3804 38.1615 46.3307 28.5975082364
27.6248 0.0952953 8.21309 31.5829685253
24.7017 4.88675 11.7731 35.8028303029
35.6216 3.47539 9.35554 26.4813485388
30.8097 2.01022 14.6797 33.3370143668
30.5959 4.88013 15.0614 31.2662465622
25.1318 8.2175 6.04822 27.630618743
26.3792 5.1008 15.9789 32.6309224472
25.3635 12.369 3.94481 34.6205516466
35.273 5.3817 14.2442 34.7715207277
27.9498 5.49082 6.53994 26.5038414881
25.4014 5.4243 5.74647 28.8170021714
31.1507 4.07643 7.15771 27.2553314138
33.7288 6.84339 7.11397 32.0901839618
30.8825 6.6404 5.50876 28.5962981906
32.5805 5.63427 13.4453 31.3732710772
34.1279 1.45302 6.08084 30.7337825426
29.0675 11.245 5.72313 37.0486256708
28.4765 6.67952 15.1533 32.4475424395
26.8127 9.90797 4.40654 28.9026432987
30.504 2.03531 5.06286 30.0516814045
30.656 8.89246 7.02323 30.5740388182
33.9308 3.96831 7.10529 29.7153275975
35.0875 9.61647 12.8608 28.5681811073
25.5437 1.90885 9.68971 29.590655628
30.5217 9.52422 12.391 29.7401283951
27.0555 0.923242 5.40163 32.5829471723
33.434 1.28015 13.7715 34.0630319697
30.2994 1.18546 8.41362 31.8122253386
28.7867 7.31418 3.7796 33.5414211695
33.0602 4.30344 10.7771 32.4361576175
34.5587 6.27089 4.29275 28.5531654245
36.1249 8.10461 15.1451 29.0715945699
28.5079 3.44667 8.73552 29.4949735685
27.3808 3.69979 11.1407 32.5129019664
24.6804 6.13194 9.13645 32.3245023036
27.2752 7.38772 8.47709 29.0442785982
30.9601 5.51849 9.78024 30.7248405714
34.1517 8.98367 9.23858 30.6241876741
35.3715 1.11619 10.1619 27.7887534759
27.5235 9.89966 7.88413 27.2752543575
31.3282 8.42349 9.78317 29.9027730246
34.4932 11.6634 10.0947 29.5899825238
29.5337 10.9726 9.80763 34.5443830084
28.4827 6.31054 10.6526 30.0296310167
32.6946 8.26234 13.6034 27.7795672518
36.5284 5.13067 11.569 33.4831640041
28.1431 11.611 16.0816 30.1366357052
28.1366 8.22185 12.7226 34.8467760611
26.1077 0.854839 14.644 33.6603482475
26.5883 10.3568 13.5249 31.551910014
34.6947 2.83481 15.579 30.3676029972
28.4893 1.68783 13.1842 37.4098113168
27.8894 3.4811 4.62665 33.3656210381
32.7275 1.58162 10.9166 32.3431104308
33.725 10.0623 6.49157 26.7236353919
36.4711 10.0383 6.21124 26.7977479401
33.1075 8.13486 16.2153 28.3963487616
36.4246 0.759425 16.0613 28.9571038208
36.463 11.5772 14.024 28.3072884295
36.7424 8.0651 10.8044 34.9275536655
31.7504 11.2088 14.4653 32.3096023486
25.3925 11.2104 8.57035 33.438521618
36.8937 1.48554 6.67302 26.5110910987
24.9285 11.8309 15.9986 33.4994589693
26.0893 2.55525 16.8089 30.2908419621
33.0104 10.4355 3.94663 30.8713678898
30.1752 7.68455 24.1365 58.284420829
29.7896 9.18872 21.5862 30.3557246744
33.9499 9.80041 24.2331 66.183617968
25.712 12.0487 19.0684 26.9138828968
25.9586 7.13246 17.6932 29.2328107603
30.8361 12.0646 21.3792 26.3037714757
29.517 4.78473 19.7445 29.2745656461
26.5954 8.97443 24.0995 59.9889216127
32.2257 0.565445 19.763 27.3565732061
30.6927 3.36324 17.4833 27.0852857074
34.3065 1.01766 24.7345 93.3028151999
28.4274 8.75503 16.9349 31.2823245357
36.1051 6.62409 18.1728 28.4551528315
24.9798 1.27592 22.9384 28.4559026906
36.7464 6.54695 21.2359 29.25972054
29.6639 7.45825 19.2097 28.2132443527
27.7591 1.33162 19.0054 29.1428223147
35.6246 3.48776 20.7556 27.2055016936
31.7328 6.36085 17.6614 27.7375145262
34.9058 9.58982 18.3635 32.4899615713
27.106 3.93298 20.0652 26.4478815771
29.0431 0.942189 23.733 35.9883614318
27.0451 10.6681 21.5747 29.5094393457
25.5438 4.33404 24.6518 119.840107461
29.2096 10.2442 24.7841 107.6859653689
34.0775 9.7015 21.1979 31.443127756
33.6949 5.85023 19.3764 27.1662204345
31.3026 2.01074 24.6516 105.8324770718
33.1302 3.16076 18.4745 27.5474335728
25.1595 0.10321 19.4447 29.264915037
27.3047 3.25701 22.6947 28.0860632484
26.8353 7.22334 20.5422 29.3252055849
29.8921 4.32581 23.9093 56.7412262476
33.4207 1.97232 21.9215 28.1992375689
35.8762 3.55757 23.8912 47.877376758
27.564 6.24995 23.2826 31.9328345795
32.2943 7.27165 21.6544 29.0230249616
35.8962 6.2208 23.9279 46.0467428891
31.5704 4.51518 21.7365 32.0804471561
33.0877 7.3252 24.4896 98.7634035657
32.1367 11.7357 19.0148 32.2796809675
30.2642 0.676882 17.4349 29.152147521
36.6199 9.98564 23.2682 30.6771713753
31.6821 11.3302 23.9199 40.4147707556
36.516 3.47544 18.2144 31.3869174961
31.0139 10.1707 16.8658 30.7007947928
30.3275 1.96024 35.9187 77.7233374609
27.1121 1.94329 36.0373 65.9315746171
26.172 7.89886 42.3839 30.9761937231
29.9059 0.624302 38.4315 33.0968431306
34.0833 3.10595 36.9105 30.5121239175
25.416 3.83565 42.259 29.7281866487
35.8844 6.88041 39.9394 31.0875469122
29.3627 12.0256 39.6757 31.4559064505
25.9969 6.55743 36.0676 58.0128101351
35.8952 4.20452 40.3768 29.6914269095
33.2325 5.14437 35.5828 113.8910186949
28.7771 6.75037 35.952 83.8602333592
30.6752 4.64116 36.6172 36.1236170413
25.0419 11.6302 36.295 52.287184488
34.3377 7.77714 36.1919 34.3934742631
33.7597 8.01587 38.8038 31.9626425254
26.1615 10.4726 41.6099 32.4905627612
27.7668 11.2517 35.8082 83.9095955461
27.8788 10.1027 38.4367 29.2013881056
31.0886 8.46959 42.1423 33.8734230799
34.6817 10.7519 38.5343 30.6153743524
29.6292 9.49252 35.7622 69.466636009
32.5844 9.75756 35.2495 125.9414638346
32.167 0.0117735 39.9211 28.7381117293
36.3023 9.34142 41.5951 30.7878506483
27.4843 2.0948 38.7514 28.3039214532
28.4841 3.9433 40.7495 31.9819541554
24.9036 3.48414 38.4085 29.0722779864
30.9227 4.617 39.4525 29.8736801955
25.3389 11.022 39.1934 27.6430485438
33.3105 2.88544 39.5409 31.4741097538
33.049 0.767837 35.6918 95.6412342379
34.7876 3.41697 43.0551 30.3094128955
33.2372 10.3492 41.9128 32.5409209327
26.7556 6.21679 40.361 28.7762563157
32.3143 3.66817 42.3371 29.7535623884
36.3068 0.954071 43.1664 28.071255431
28.4252 7.42784 38.7253 29.2516516171
31.0449 7.30365 39.5223 33.700385662
36.9351 2.81443 36.0415 55.5170811472
34.6834 11.2001 35.8755 49.3835162183
36.7643 7.73191 35.9496 53.442144313
24.9094 4.06173 35.6315 95.399314609
33.4949 7.60486 44.5918 30.4605013002
26.8058 0.943302 52.027 32.8375113715
33.837 10.161 50.6137 34.5453143131
31.6996 11.2699 46.1752 28.9630700065
25.3356 10.7327 46.4476 32.2749664963
26.2607 8.96854 54.3839 29.9934710217
27.3514 11.6858 52.9104 30.0368790734
34.1806 10.5022 44.8295 31.3418187032
26.301 3.7797 44.8619 30.9289386462
32.5882 7.22285 47.1689 26.2982816676
29.1738 5.35211 45.0908 28.6743277478
35.4808 5.36966 46.804 26.1705073698
31.4634 6.09231 43.6184 32.6836104368
32.0716 2.33948 55.4693 27.2443757112
29.9729 0.691916 47.6701 28.6967643198
30.978 9.31773 47.7763 28.2194873784
35.2835 4.25568 54.0142 27.7919422038
28.2349 7.85125 44.5116 31.0368850046
35.3551 1.49808 52.5661 26.0196506649
35.2374 10.588 47.9227 32.2449623832
32.1102 0.188735 49.8737 33.7399002396
36.7362 2.81144 49.1445 28.9290544782
25.0423 3.11187 52.888 28.7939626557
25.974 2.16437 47.2601 30.3892177116
28.7007 3.23978 48.277 32.5199792148
33.1173 4.14312 47.7273 33.4600512101
34.6834 0.544581 46.1885 33.7087197183
34.727 1.89315 56.0168 27.5519506586
32.4059 5.16014 55.9004 31.0981008913
28.0735 7.60043 47.8944 26.6623934004
30.1993 5.66228 47.703 26.094763648
30.1416 3.72264 50.9073 30.194311399
32.1056 1.82387 46.1308 32.8194928001
33.3471 6.8212 50.4819 26.3832605356
33.4844 6.17399 53.3517 27.2832981986
25.2969 4.48712 49.0273 27.9638169067
28.0301 10.1839 46.9174 27.5759044925
24.7324 7.97328 50.0817 30.6234798052
27.3521 4.48884 53.9128 31.6666928393
30.541 7.10012 50.2594 24.6225314956
31.0348 9.82706 50.5868 28.1540786056
35.1995 7.61448 48.5152 28.1137837181
28.7535 3.00098 43.3522 30.6449881119
26.0365 6.29421 46.2722 28.0427604615
32.4763 2.51712 51.8477 26.7105640399
29.8359 9.94768 53.0918 30.5672605227
34.7617 8.80535 55.4249 30.3357063261
27.3485 4.86351 50.8063 29.5578280575
30.4067 9.93642 55.8317 34.9212649634
28.2751 7.41574 53.4764 26.1643283997
27.6021 0.734324 44.8289 30.3029022934
30.8644 5.791 52.8776 30.3091723981
27.6119 7.67025 50.6208 25.0608122283
29.534 2.55834 53.6961 30.0819407736
35.1952 8.64554 52.7497 31.199095571
29.7276 10.2948 44.0881 32.9117922766
27.1177 10.5571 50.2302 27.5407942253
34.3469 4.0589 50.5272 29.2786144833
35.7061 5.97436 44.0208 29.7675044438
31.2402 1.47536 43.5681 31.4673357554
36.8734 6.45199 51.9497 30.9376037867
36.2578 0.364516 50.2253 28.8385357684
36.4527 2.69904 46.427 33.0789421173
31.7284 13.0521 10.3408 33.1804097826
30.9516 13.4494 6.09894 32.5856972284
26.5019 18.5978 4.89388 28.4306005516
36.6551 15.4126 16.1231 29.7694315745
35.038 15.9553 9.38256 31.527953965
26.6658 20.1667 15.0533 31.3121729704
34.8355 22.7041 10.1789 29.5634357897
25.9888 23.5962 11.6924 29.5518605468
25.9009 14.0907 12.0868 29.8310192505
34.109 20.8979 15.3674 31.2945172042
36.363 13.5084 9.31044 29.4933556135
27.6626 22.8336 16.4528 31.3901951931
30.9211 22.2691 12.09 31.7177741118
30.9855 19.9949 5.30026 28.5181220061
29.2913 19.2767 14.3157 27.5175790903
28.694 16.15 14.7334 30.1579385616
28.4361 16.6328 4.59158 33.0113991713
28.2249 20.2154 6.28112 31.9065933223
36.4253 20.7942 5.23216 29.5967048221
24.9261 19.5197 9.51877 29.2961902017
34.7716 18.0858 6.43644 25.9540095316
31.9917 15.0575 4.08813 29.2255948611
29.6003 15.8428 6.83018 32.2644077468
28.7001 19.8993 11.4829 30.7571700324
29.5825 13.2272 14.292 30.3928519176
33.1712 12.6196 7.65624 29.4251567449
25.5404 23.4195 6.14738 30.1941574294
27.5944 15.7037 8.90409 36.3716085013
28.0633 12.4075 12.2015 27.9969756896
35.8115 14.4117 5.18602 29.1959806197
29.5535 14.5906 10.9314 32.3847953915
33.222 23.7808 5.80164 29.1165726692
36.7356 14.4713 13.3957 28.9905379978
31.5386 17.7835 7.12535 29.7509282675
33.4914 15.5089 7.10367 27.935201561
30.1264 17.0473 12.2614 30.0947355016
32.575 20.7678 8.15218 30.3268629619
32.9619 17.7298 12.9596 34.3479505877
30.0979 22.0153 14.7956 30.3080453898
26.2492 16.5276 12.9414 31.3044474434
28.3585 22.7702 10.2231 31.6266838579
26.7446 21.4977 8.17059 33.6616690846
26.9249 17.9189 10.5284 31.1915369687
34.5102 23.5086 14.141 31.2432318598
30.7866 18.8616 9.93133 35.0409765855
30.182 22.9375 5.88029 31.7888149242
33.0285 20.2751 11.2367 35.2686683722
33.675 12.4741 12.7389 32.9526619712
35.7194 17.9282 14.701 29.264181346
25.515 13.9789 9.39456 32.4276751104
32.0542 18.8817 15.4019 27.3820104064
34.2803 15.171 11.8497 32.6623082427
29.7796 24.3117 8.42639 32.0370267287
35.4888 20.1263 8.32537 33.404576804
33.6152 21.1962 4.75726 28.2591164862
27.8508 21.9086 4.01485 35.04052018
24.7187 18.1809 6.78401 33.7414768414
26.2333 24.1621 14.4529 29.0242426904
33.213 24.1259 11.9212 28.0871921923
32.5584 23.6474 8.45512 28.2990473623
36.7791 23.0218 12.9112 29.0780611431
27.3551 17.6431 16.6738 28.8511859285
33.4311 17.7645 4.14213 28.0287480668
28.1453 13.3204 18.5241 32.1040890996
35.6058 23.678 23.9581 52.2600410522
35.442 12.87 24.2011 63.6216685335
28.4502 13.3414 21.4066 27.6792229643
24.9201 13.6963 21.2796 29.2815531749
27.8872 12.7384 24.2662 65.4197398776
26.5206 15.7925 19.0334 32.3888437857
28.2397 20.0777 20.3182 27.6558619791
31.8945 22.1706 16.9631 32.6515171714
34.3477 12.6309 21.713 28.4729836914
29.9447 18.3795 18.7409 30.8604664711
35.5164 13.3222 17.7622 33.6510254592
30.6506 21.1703 21.2961 29.1916473319
35.1332 23.3445 19.1202 31.1866907085
32.0218 24.283 24.3977 74.124709969
32.1333 20.0946 18.7438 29.2725505162
34.8154 18.7385 19.0794 27.64503018
34.3058 16.8806 21.8635 27.5910480063
26.188 15.8261 24.1044 59.0647714849
29.3291 15.2895 24.0815 50.6741122449
30.4866 14.1355 16.9333 32.9286751557
25.0363 23.9677 21.2689 30.2869941651
33.449 22.5275 21.4329 27.146534273
25.7277 23.6607 24.2921 63.5636295842
32.2013 14.8294 21.3633 27.7541585741
32.1403 14.1427 24.1767 66.8495770024
26.6761 18.798 24.1622 47.9487410808
29.6617 16.5539 21.6315 27.8222430957
29.3714 18.0913 24.6648 86.8009868296
27.007 17.8748 21.4612 29.0789197265
34.4881 15.9779 24.6136 79.7441450194
31.4781 18.361 21.6817 27.5289402972
27.4881 21.7073 24.4536 78.9781708401
27.4714 22.3236 21.8227 29.3345708773
33.1221 14.6273 18.5626 31.4386003959
34.7672 19.844 21.6927 27.2077214877
32.359 18.1028 24.6017 72.9615866396
30.4709 21.0218 24.1281 53.4712150824
34.7288 19.3436 24.4693 74.4812832043
26.5866 20.4381 18.0381 29.2730247245
35.7977 20.7044 17.4536 28.0611704076
36.8511 13.6016 20.458 30.8623506639
33.4107 21.9416 24.2958 62.5794805533
29.2114 24.3316 24.2606 64.6076171037
36.7075 23.3154 21.4206 28.0944522236
24.7026 18.7821 19.8594 32.4719825013
25.1332 13.1884 24.0554 66.4877299342
34.1755 16.8896 17.1094 32.543841241
30.817 16.7839 16.767 28.6861147278
27.214 16.037 35.5581 96.1616199414
28.1619 14.2491 38.8582 27.5821784651
25.58 23.4343 41.9003 30.5350325542
25.5785 13.7538 39.8627 28.8041561529
28.5756 13.7178 36.3787 38.7547726483
31.3367 14.6949 36.0711 84.8155375885
32.0687 16.5221 39.2129 30.4730900676
34.1591 13.9909 36.3263 43.7337510693
28.2669 18.6487 35.3998 106.9099142588
26.2426 20.6526 40.2103 25.6864173274
30.9221 17.5354 35.9833 56.2359217748
32.7557 19.4672 35.6888 94.5522700589
34.0161 20.4628 38.3291 32.324230097
29.9714 23.1544 40.0353 27.6854655748
35.4067 18.6178 35.8566 68.0055546154
36.0401 23.7196 41.8257 31.283442007
28.3223 23.4144 36.0589 78.2974052648
25.2066 24.2973 36.3648 49.1633487081
30.9002 22.2077 36.1407 70.7679061785
36.1731 15.6142 35.5897 93.1332129421
32.6562 24.1143 36.8458 28.740881575
31.3043 21.1036 38.7688 31.9228109682
36.2965 17.0397 38.1617 27.657523632
24.6508 18.0841 41.3375 32.1784732893
29.9442 15.284 41.3578 32.0010261272
25.0988 15.264 42.2557 31.4828762586
30.2632 19.0354 40.3733 27.5568900261
33.7774 14.5575 39.0447 28.3941072059
26.6385 21.0235 36.1499 48.3233322093
32.3184 12.2327 39.8306 34.3055484384
25.0545 16.6945 38.7283 29.6426000314
31.7232 13.3037 42.5718 32.3052510761
28.5328 17.5013 43.19 29.6584896993
26.9655 18.8286 38.233 30.5565088871
27.6722 22.6821 38.7772 28.5411434586
32.0877 19.2317 42.4614 31.6101531308
34.0645 18.3087 39.9952 30.2264396096
29.2556 17.0596 38.5664 28.3765145367
28.0446 20.0196 42.0047 29.6838922416
36.1274 22.5514 39.1113 27.0540850298
35.2563 19.2657 42.4649 32.0688269403
30.85 22.0911 42.863 30.0051861424
34.3711 14.6315 43.0963 34.5240731748
36.6047 14.3693 39.4349 30.279662684
34.856 24.5007 35.5193 112.7905621218
28.4721 12.4049 42.291 31.6275430759
27.9672 22.4746 43.1484 28.9298155065
26.5192 16.6409 47.7034 29.7257070798
25.8184 22.1966 47.8099 27.8971471743
29.9646 15.2198 54.7883 30.3477343364
31.5256 14.065 46.9738 30.5435090746
28.6695 17.4058 49.884 30.8802433479
34.0863 13.1976 47.1702 26.6240327097
30.8935 18.0298 44.5817 30.8079682355
27.4387 14.5174 54.0469 29.6223759653
32.346 15.6165 44.7725 30.7434557063
33.1323 12.9489 55.0537 38.9679074303
30.7889 19.6386 46.9293 31.0550777391
26.6657 18.1434 45.3788 32.9509657652
29.226 12.3385 50.0724 29.3345665134
32.2232 21.229 45.0804 29.2791860431
24.6099 13.1246 50.1516 26.740133647
33.0419 23.215 54.9171 27.3325928086
34.7944 20.2568 45.4697 31.8519218932
36.5842 13.5294 50.7367 36.7849154703
31.8424 23.1778 49.4138 27.0451221556
36.4211 23.0324 51.3964 29.0604933128
32.4437 18.6352 49.1342 28.8366777725
31.1595 23.5273 46.7598 27.0407109934
27.1269 24.0465 51.782 27.8650304408
34.3095 23.9161 48.1727 27.5484282036
33.9422 17.6876 52.1857 37.0021165042
27.1723 14.2813 50.0965 29.6091538196
31.4001 18.8457 55.1205 31.9365166646
25.0955 20.0714 55.4493 30.3664578113
28.3774 18.385 53.0985 32.7789440575
28.3605 22.9553 46.027 29.0312146655
36.0846 12.8097 44.5093 29.8785408926
33.7722 17.4966 46.5152 33.4355050734
32.3682 14.762 51.4568 34.1703675803
27.4289 14.8588 43.4498 31.134654847
35.758 15.4625 47.0533 31.893122342
29.2176 20.2558 50.764 27.8060562048
28.089 20.1574 46.8315 30.9676080418
31.1431 17.2253 52.7742 29.6688377203
35.4357 19.1733 50.1441 29.1338795204
28.7658 21.1848 53.8886 27.8546678165
33.996 13.0276 49.96 32.32624926
28.6412 22.9632 49.3914 27.7724968588
35.6088 21.9476 55.0072 29.302330251
35.3966 21.1234 48.039 29.5494638007
36.1643 20.4714 52.4443 28.6932075725
26.8886 14.5514 46.2303 30.9901031816
27.0439 16.0535 52.0803 26.6354283525
29.5641 23.9926 53.2633 27.6736040135
35.6873 14.2049 55.2397 29.9125709736
31.1649 16.1424 49.1838 34.0000661997
30.5579 12.8792 52.9805 32.8559000304
28.8648 12.9857 47.3466 31.0319457298
35.3443 16.8636 54.8054 31.8558915866
32.0049 20.9326 50.7574 30.4999231512
35.7326 22.9626 44.5265 30.9886981659
26.47 20.2696 49.5076 26.920225621
31.4375 21.3465 53.463 30.178452061
26.159 21.1928 52.2313 31.4774174072
26.1659 15.0442 56.2588 32.1388156724
36.3106 16.7991 43.1833 31.9263268799
33.2911 32.1249 9.08725 26.7479890323
29.1009 26.8956 7.45883 31.0314256744
33.8247 25.8666 15.9735 29.5710523902
26.4107 31.8918 7.94654 28.2206703021
30.6411 33.7207 16.2065 28.0051789185
35.1173 36.4707 11.5391 29.923978206
27.9542 29.5562 4.50528 31.4882620336
29.1783 33.0944 9.53302 28.0403659382
27.3892 32.7082 5.48157 27.9300845242
36.2036 34.0227 6.33798 29.7900947466
30.038 31.7376 5.06161 27.3632757937
29.1019 35.8295 14.8789 27.5243358045
35.8332 29.7471 5.35399 31.4358236664
24.8296 27.7779 13.2934 31.4827141367
24.7727 36.485 15.818 26.8262229177
31.0759 35.0273 7.83981 26.9703430158
32.9964 34.9082 9.9987 31.7284594807
26.1529 27.1531 7.23314 29.74355076
34.1148 33.2572 14.0367 29.1592303506
27.1142 27.3823 14.9675 34.1681002962
28.4678 25.5317 13.1795 30.9730058241
26.1136 28.1628 10.6387 30.430074828
31.2222 27.7013 5.51633 31.3288823724
32.7112 28.2251 7.97594 32.8229766876
32.8381 27.3661 12.5576 32.446295822
33.6231 26.2888 9.66666 31.2652223433
34.0485 32.4967 5.85251 27.9485523934
25.3371 29.7262 5.83103 29.8156370299
30.3169 29.4873 9.04358 27.815359571
31.3094 31.6765 7.62715 26.7961790744
31.2136 33.7518 11.8888 29.1048494772
34.8428 30.0373 8.13395 29.4924956938
32.6088 31.3785 11.4911 28.8416711958
27.7604 35.2154 8.06599 27.118557468
32.1838 35.7367 14.1971 30.0383099548
27.749 30.3451 9.57901 28.7465898465
28.1716 26.8729 4.23173 28.4637927583
34.7551 28.2851 15.2349 36.6287617823
25.6137 32.7471 13.7207 31.5899835452
28.4448 35.2181 12.2157 28.8529047546
28.6802 29.7319 15.7417 32.9782854292
36.3677 26.659 9.63969 29.1204468753
31.0498 25.0639 14.1776 30.3623609505
25.6378 25.7819 4.72144 28.6429492207
27.681 32.2502 11.9604 32.3944819364
35.2403 36.2647 14.756 28.0806477367
26.0217 36.0674 10.9084 29.0024852689
35.459 28.3313 12.1272 27.8765695005
32.2441 31.7904 15.2973 28.736407603
31.9243 34.3081 5.31006 29.2396917588
30.7831 29.0191 11.9159 31.8151230269
29.7797 30.8525 13.76 31.6171150238
35.3663 31.0547 12.4781 29.4558020981
32.4869 25.779 3.82354 31.0946538694
35.9508 24.9075 5.54435 33.2372811872
27.0655 34.6258 16.3482 30.0890075203
36.4551 33.3332 15.6217 29.2852548369
26.7005 35.7379 4.90905 29.1586309208
25.0035 32.4578 16.6024 27.466419381
24.9958 34.1846 9.02994 32.9202528384
28.8836 26.6471 10.6485 34.8294042801
29.8748 35.3875 4.36797 27.0558641796
30.6673 25.9703 16.8549 32.2149362672
35.6114 26.0823 18.1215 28.4697179297
31.6093 24.8039 21.4549 29.2893033445
30.2364 29.3082 20.5885 31.336892751
32.3473 28.5 24.1102 57.0949748651
26.2537 33.8062 21.5675 26.402475211
28.7071 24.7472 21.4511 26.3778737188
27.1068 30.9828 17.731 35.3372366573
28.0259 27.7545 21.4961 30.5998428133
30.7762 32.3656 21.003 28.4949505823
34.586 33.9119 21.7843 28.0018259539
32.9894 29.6884 16.9191 28.9300450175
30.3886 33.2067 23.7939 46.8292430995
26.1743 26.1637 19.5221 33.21815831
36.4966 30.1648 20.3119 30.5329191072
32.2948 27.6516 21.3247 32.3372586617
27.5912 35.0151 19.4408 27.7849368946
29.5258 36.0839 20.974 28.3110441814
27.85 31.2731 21.42 28.0797889254
33.5852 31.1278 21.0854 27.243784226
32.9223 33.4212 24.5778 103.1534146713
36.6814 32.1307 18.2487 30.6768560583
30.5732 28.6563 17.6113 34.4164748622
27.7268 26.7897 24.1702 48.8090093902
25.2063 26.779 17.0427 31.0118463331
28.4982 24.5123 18.6359 36.1959236747
36.6524 33.0048 24.274 71.2089277111
34.2358 26.0586 24.3375 63.6772494802
26.9471 35.266 23.7765 60.6774642402
28.5905 31.128 24.0973 59.7630721869
29.6913 28.7459 24.787 114.9850322671
31.9548 34.8623 20.4975 28.7223408002
34.2712 28.2971 19.3335 33.2721523661
33.875 30.8055 23.6334 38.693107638
35.3632 35.7437 23.9175 40.9279626644
25.8403 31.7779 24.0896 56.2475927624
34.0069 32.0095 18.2412 29.1207884542
25.525 29.218 21.6697 28.7094272154
29.131 32.8932 18.4819 30.0664090691
32.6122 34.3499 17.9176 28.5987354623
30.078 35.9632 23.6897 56.3143204307
24.8736 26.9799 24.5422 81.1935185528
32.4565 24.6726 18.7496 30.0739926518
36.4293 27.7432 24.7532 115.168155579
36.6858 30.3219 23.7353 35.9548911954
36.0195 36.5566 18.885 28.9212536344
32.6581 36.4186 24.3885 91.1688310869
33.7689 36.7402 16.9991 28.742793221
27.1112 29.191 40.9175 27.9907761047
26.4582 28.2303 35.2432 123.0586740788
28.7857 25.2861 42.3323 28.3446079256
28.2903 26.4039 36.3983 43.2489525549
32.3873 28.8523 35.1865 122.2643679356
35.9268 27.0665 35.6112 76.7969371108
29.2338 28.033 42.6775 27.4186147244
27.589 33.9185 38.8001 32.7994546292
26.7724 34.6958 35.7418 76.6440432862
27.9762 30.6338 35.7058 69.2545066212
30.9301 30.9077 35.8418 59.0829516008
35.7951 27.355 38.6822 31.201542572
34.7874 29.7275 36.0823 45.843453374
29.0146 36.5567 35.6785 66.448945805
25.2521 35.908 38.6415 33.1608382656
36.8572 30.7213 42.7967 28.5110160181
32.307 34.6427 38.784 28.362771497
35.0652 33.5002 38.5101 27.483473324
34.9243 30.1658 38.8935 29.398054485
32.2359 32.6066 40.8239 29.3475856422
32.2591 33.4197 36.233 35.2080875093
25.7599 24.8408 39.1975 29.2211549718
30.3411 27.8925 40.2295 28.7508602543
30.5284 34.0003 42.9473 35.6023462825
33.8309 27.5404 42.4922 29.9984724429
32.7712 29.6299 40.436 29.261102634
27.6701 26.9909 38.9674 29.4216167633
27.5799 31.152 38.5079 28.5031550525
25.6601 31.4617 42.1085 28.8696363378
30.3989 30.7457 38.7732 32.4312297711
31.4707 35.6548 35.1082 125.5538529973
31.3854 26.5256 36.254 57.3864196958
29.7931 35.6115 38.2943 31.0434189022
34.9088 35.7603 35.9469 54.3704866423
27.4228 33.3095 41.7889 33.0696735964
36.368 28.2588 41.5799 31.0430793199
34.9632 32.559 35.8645 76.2222149344
29.427 31.0847 41.5452 28.5096260761
35.0036 33.0986 41.7708 31.7015032201
24.7162 36.5088 35.8592 70.7476701273
31.3188 25.3595 39.4062 30.5097392108
25.1018 28.2035 37.9602 26.9303045405
36.6949 36.2088 38.1678 26.927347768
25.5341 31.8945 35.6586 92.4701879271
34.3918 24.7405 39.1663 30.6590560109
33.3632 24.8437 42.0775 31.179049249
26.942 35.988 43.0401 33.4521836431
27.9429 29.7343 52.5694 30.7855030003
36.6715 26.8594 50.7993 28.2794659404
27.6137 28.5326 45.4534 33.2583157515
30.3069 29.9653 44.4495 27.1837252002
34.4534 24.555 52.826 27.2626365554
25.7708 32.7008 55.0855 29.4984068286
34.7744 27.2119 54.4739 29.389282003
27.1398 25.7482 46.4067 31.8630571385
36.1285 24.8344 55.3464 26.9815274415
34.8131 25.2259 45.749 28.4169952451
34.2629 26.1132 50.0913 27.3052243886
26.2954 32.4617 46.5851 29.9042289511
30.4676 32.5493 45.378 29.5175749654
34.8937 31.8948 44.7671 29.0272431938
33.539 35.2829 52.6982 28.7999102934
32.7577 26.7172 45.1653 28.541276064
28.7873 34.8905 53.0205 28.305391334
31.5759 24.9657 51.5178 28.8562061333
28.758 33.7646 46.8947 27.9027008461
28.2854 26.9327 53.9827 32.2555752263
24.8916 28.284 49.4725 32.3011744137
32.1392 32.7908 53.4927 30.5574882595
33.4446 35.1138 46.3022 29.5855478603
26.4443 25.5758 43.7887 27.0607683341
28.1558 36.1088 45.5865 29.7968176433
26.4561 30.1801 47.7208 32.2573887193
29.3608 25.7128 49.6438 41.2039838035
30.302 26.204 47.0059 31.2896099465
31.2423 29.1265 46.972 31.6555956284
34.0408 29.4681 56.0098 29.1109475763
25.8369 24.749 49.1134 27.8069958652
27.7483 31.2656 50.169 30.2980868902
27.9155 31.3075 54.7952 28.8390134367
33.7863 28.2476 48.0355 32.0100954122
30.3159 31.2025 48.7792 31.4970622959
25.6952 25.9037 53.2039 29.1876350717
31.2019 35.5933 51.373 27.6871652392
26.1142 36.0236 49.6948 29.685478444
32.6393 36.6408 48.8691 30.4264873681
35.5469 34.212 51.0207 26.5932915232
30.8735 34.0291 48.8767 30.4658743634
33.124 32.3034 46.8252 28.5272468353
34.7227 32.0906 49.4675 34.0519275967
36.1447 35.5123 46.2055 29.0621441548
36.2124 31.3385 54.2857 31.6550606598
33.7084 32.2856 55.6122 27.4057245711
29.9439 33.2735 54.918 26.6517549147
33.6898 29.7201 50.6521 29.7244124632
30.6021 28.8803 53.409 30.8388564794
32.8609 27.5745 52.3565 29.0276822978
32.2944 35.939 44.0887 29.0162752498
35.8208 29.1837 52.6417 29.623597413
26.5127 35.6359 54.5804 31.352088817
28.2957 34.2296 50.4211 30.8577569213
25.603 28.2545 52.0929 31.0432510432
31.1395 24.7201 43.8364 27.7578621668
31.2793 30.9907 51.5155 32.2789876114
35.6896 29.8584 46.6545 29.2470396061
35.8766 34.5285 56.1188 29.5142414254
25.2601 32.5963 50.1607 30.4185595429
24.9413 36.486 52.3564 28.7149915945
25.0629 34.3266 47.9324 28.6498384914
31.243 29.6938 56.0502 28.4627840478
32.9316 30.3021 43.4024 31.1188220625
30.0306 24.5888 55.8969 29.9112292211
35.3049 36.5717 49.4876 28.8897457853
35.5193 35.3521 43.5377 27.3656399001
25.7375 28.1832 43.5069 30.9285574852
35.8242 40.847 4.73144 27.1927295598
28.1974 43.236 6.89804 31.4864998729
25.666 45.3429 6.47409 30.6232838531
30.0016 43.3273 16.5482 29.4837222399
27.6236 46.3454 8.29584 28.3673461858
26.4363 39.4074 7.71927 32.7103139498
31.6747 44.2702 7.20104 27.3156068324
29.9704 38.6963 11.9097 28.2957985604
28.9583 48.0995 11.9482 34.531199394
31.127 48.2487 10.3214 27.8968910702
34.9534 37.2855 3.90613 29.4693294256
29.3769 43.9448 9.45471 27.2514654211
25.1706 36.7587 7.58936 27.7939383631
36.3367 36.6644 6.96306 31.3276274548
30.3745 41.437 11.5333 25.9564553371
28.2383 38.0108 5.60556 30.4250966408
36.8081 41.3486 9.76334 30.1798932446
26.4798 46.9898 11.0979 28.437558548
30.2665 47.9942 5.02195 31.1792877557
34.0276 44.7829 8.32139 29.0472028848
35.736 39.0817 13.3716 32.8784604801
33.0676 37.7236 6.03456 31.1612360118
34.6586 47.369 5.39979 29.5508988281
33.6146 47.3263 15.1357 33.4473666028
25.3002 41.4569 14.8708 31.7112442864
30.5154 46.9391 7.80178 30.8202798899
26.3351 47.3783 16.0399 31.9436520416
25.7749 45.7792 13.8354 31.0850799326
27.3973 40.1495 10.1935 30.9601694705
29.7042 41.4993 14.4077 31.2155244333
30.161 40.2577 8.78964 26.7047910656
32.638 39.3357 9.90808 29.4408309219
28.9622 37.0076 10.0375 27.5306881065
33.4794 40.3565 6.60735 30.7992498983
34.7709 43.0306 13.5892 31.031916839
34.3179 41.8173 9.0676 30.322556983
35.1212 48.2688 8.38403 27.8153017529
25.4307 38.7679 11.8557 30.5835300533
31.1836 44.9233 4.3263 29.040634594
27.5712 42.8514 11.3596 29.368735038
30.7092 46.0153 15.6695 32.954382766
33.3472 46.6597 10.1903 27.9613530569
31.359 44.8042 11.1549 30.9355852062
33.3954 42.9123 4.2683 27.8074922185
30.8116 41.7176 6.58542 26.9531184143
27.701 45.2449 4.41158 31.61009238
35.3125 44.6811 5.55065 30.0600336642
33.1471 42.491 11.5128 29.9674881592
28.7248 38.8189 14.505 30.2917873224
32.621 40.5293 14.43 35.5687838432
33.0809 38.17 12.7166 27.7883938251
33.7518 37.2428 8.43191 28.2337754952
29.2725 45.3781 13.0393 32.0170501676
27.13 43.3418 14.1184 29.7720867043
30.2377 37.7163 7.55193 26.8083978496
25.9507 41.4988 6.17126 28.5365664712
25.9041 38.7346 14.5017 27.4047117414
34.0256 44.4317 15.9584 34.0392558431
35.1372 45.7133 12.3481 30.7866676035
36.394 47.586 13.8596 27.2842556489
25.6024 44.3871 10.0834 31.4095479704
30.8219 41.356 3.88558 34.258051727
33.1531 40.8908 18.9257 33.273513029
35.701 43.2887 24.1723 66.9368728608
28.4593 39.6038 18.6012 28.2400255059
32.0626 43.5792 18.0604 29.6747401617
31.7095 47.8716 24.3034 61.3877125149
26.6484 37.7728 18.0174 27.9514952553
29.6159 38.7997 20.8243 27.4270864956
30.7546 44.7409 20.5304 25.2942569263
26.1968 37.7343 23.5652 42.3174609454
28.0494 45.4181 19.2074 27.2430791544
28.402 42.3631 20.9426 29.249770201
28.6426 44.624 22.9854 26.524356674
25.4351 42.3682 17.5076 32.1087315312
31.1503 41.6662 21.3282 29.8822808506
35.9748 41.6255 19.2002 33.2425497954
36.4678 43.6838 17.294 35.5903862405
33.549 49.0897 17.1771 28.6204295473
34.4346 46.8146 19.4636 29.5067331866
28.6611 39.5813 23.4445 48.9565464809
33.5601 44.8777 21.3905 27.190070721
25.1339 45.0865 19.0246 35.6895385439
31.8428 46.7754 18.3542 25.8689520878
35.4746 40.4509 24.3838 84.6199665173
24.9374 39.8737 18.5735 29.6408107871
26.1567 40.2578 21.2656 27.8556642906
25.6021 37.2319 20.8318 28.1376718724
28.5311 42.1651 24.3857 90.0272654334
34.9404 48.3869 21.8461 28.5464509604
33.061 39.3061 23.6812 40.7412948895
26.574 45.8325 24.3666 85.5952729346
33.1358 43.6063 23.6938 34.4195864689
36.2649 43.684 21.3601 27.3107815612
32.6798 38.7465 20.8554 31.7789057112
31.3582 41.4655 24.1312 73.9566805735
24.9164 47.367 21.7253 28.4472316559
28.0567 42.4082 18.1132 28.0353927398
31.2046 47.2726 21.7529 26.2146150815
30.9083 45.2191 24.5512 99.0784130192
34.3648 46.4478 23.9922 51.2287762098
25.7137 41.3978 24.1101 64.0726663141
27.5724 46.826 21.5241 26.0752064632
26.8342 48.6009 24.3596 98.0305248884
28.7544 47.0705 17.3562 28.8839659723
29.2197 49.0003 21.1906 29.2794260899
34.5208 36.8738 21.3702 26.009000463
30.0423 37.8402 17.0892 32.5995359762
32.4593 39.0122 16.9945 31.769548284
25.2431 39.3575 35.9291 78.2746834678
33.4284 37.5022 42.2418 32.0026102542
28.1627 39.1153 36.0081 67.8759701031
30.3727 40.4233 36.4177 34.0432712814
31.4457 39.4595 38.5039 25.0289985479
35.9994 40.6123 36.3169 33.2989087482
24.736 42.1055 41.0348 29.4002959712
27.3228 44.1539 35.5887 92.3323330051
33.1588 37.3566 39.3631 28.8168761314
34.5619 46.5732 41.8115 28.398276308
30.0313 43.4023 35.8411 66.4892557626
36.747 44.3292 35.9827 51.838999906
27.3495 43.2576 41.7864 32.683552586
32.8937 40.5854 35.4569 102.418303925
30.0391 37.738 40.0069 32.0955728699
27.9185 46.7151 36.0039 58.5779237487
26.1752 48.3353 43.2084 32.8080587053
32.4171 45.1522 35.453 101.3187570832
27.7819 46.0798 41.7121 36.5094935258
34.348 47.2502 36.5579 33.9550965559
35.8228 38.1388 39.8989 30.5412953785
34.1466 43.2401 35.9191 47.9612751229
30.5878 47.7392 36.0627 56.3302418036
32.1107 48.1856 42.3556 33.4227020387
27.6891 38.4557 42.0484 30.1349603446
35.8844 44.9156 38.5031 26.7196426915
35.9306 40.8871 39.0378 32.7229467762
33.0121 37.8213 36.0288 38.8119420165
29.0172 41.6728 39.686 32.1753691336
34.5542 47.9068 39.1283 29.9023166789
25.9626 42.2292 37.0932 33.409745141
27.913 39.1542 38.7795 28.314693174
33.1631 44.9739 38.763 25.7378583355
28.996 44.2362 38.4951 29.2173013996
32.5582 44.0996 41.4644 30.8290880378
32.4969 39.8465 43.1157 33.1471656916
33.4359 41.9577 38.541 29.8052155998
31.6796 41.4369 40.9804 33.3296312191
26.9381 46.0713 38.9715 27.2619814998
30.8024 46.4711 38.9024 30.6889264138
24.7883 44.2995 38.4663 27.4013471426
25.453 38.2557 39.7855 27.9444946616
26.4392 48.7538 39.4931 30.239741342
25.5566 40.2881 42.9629 28.8845148173
36.4968 38.0855 35.3917 99.2161785501
25.8822 48.719 35.9516 71.7476638292
30.632 45.6795 42.7439 32.5625211053
25.4589 46.7306 54.6627 28.6983943637
25.3623 40.4699 47.768 26.4832815717
36.0622 43.0931 47.1241 29.2108366081
26.4965 41.4187 55.8419 30.9645583498
25.6918 42.0968 45.2104 26.5062952903
34.7969 45.321 45.7439 30.8506010536
33.2675 40.3088 47.4371 31.4316259316
24.9977 46.9273 45.1966 30.3686737054
28.0434 43.3517 44.4733 30.8982195084
28.0853 45.3782 46.6782 29.7925023295
35.4259 39.9633 55.0771 27.0834887838
34.8948 40.8762 50.785 28.5122317207
26.9139 37.5651 47.4103 31.3062731077
35.6168 37.7381 52.2416 29.2453684697
29.6809 47.3683 49.3869 28.6729753345
32.1569 44.604 52.9049 31.0883611309
29.9102 39.2359 43.8592 31.6327381725
35.9579 47.3825 44.3278 31.8885568442
31.9048 45.4153 45.399 33.9380289568
26.7875 48.1389 47.2429 27.2223061357
33.6703 46.4969 51.4517 29.9750555695
28.3613 40.3761 48.0739 27.1282363435
26.2351 45.6239 51.4994 27.5826138518
30.8766 38.8563 48.0725 28.7228004517
33.4738 42.9067 48.7037 25.7783019535
34.4064 41.1994 44.8416 32.4308414015
35.8659 39.4886 48.4884 27.4912361039
28.6467 39.5905 55.9563 32.4027905454
27.4682 43.238 47.9571 26.8709005702
30.4276 36.9542 54.9386 32.6736638772
28.8485 42.8149 50.322 29.4173383312
29.2632 41.1132 45.5112 29.4067075599
31.4734 42.5343 46.6061 30.7416218894
29.9833 43.4878 54.8943 32.8859235323
27.9198 48.2308 55.8903 32.9391114898
36.2119 43.2581 51.0894 29.4804025873
25.2861 39.1161 49.9935 26.9795156724
34.8985 43.7666 43.254 31.2412401512
28.8528 44.7393 52.2733 27.9184996069
30.598 44.6154 48.2145 30.5481426414
34.9811 45.4414 49.0706 27.8587677379
34.6157 48.2337 48.6268 32.1596955035
30.6661 38.4326 50.8705 31.9154972197
32.4854 40.2982 52.3549 34.1318858832
29.9699 47.5666 45.8388 32.873786765
33.9764 42.4803 54.2429 29.8377195691
28.0719 39.9356 51.2024 33.2113098996
36.1893 46.4582 52.9769 28.4830210279
26.8501 47.9054 50.2688 29.425249467
26.9951 44.1093 54.4919 27.5115232034
33.154 37.6784 54.0175 30.8403091994
25.6938 39.4059 53.3828 28.1744767838
31.6802 42.5943 50.8454 30.8492819193
34.5458 48.5129 54.242 25.9728501164
30.4489 46.8577 51.7531 27.1844151632
30.6299 37.2444 45.7923 29.5882996894
32.2155 49.1081 53.3811 27.0737971427
25.1636 43.8341 49.8314 28.0324407797
28.3177 38.1846 53.2008 29.0576390311
32.6147 47.3026 56.1938 32.5366159192
36.5671 43.8404 54.1183 29.5909653727
28.8444 48.9891 53.3559 30.5283659869
37.7282 2.59093 4.17586 28.4780081312
41.5624 11.0682 4.08767 30.2868165203
38.0619 3.53823 8.14533 31.3346902146
46.2694 12.1152 4.76314 31.6936583449
47.3617 3.43578 9.25861 28.8768434011
44.3516 2.92773 7.09777 32.1841710388
45.9012 10.5595 13.4499 29.2507929871
45.124 1.21183 4.19693 30.7328952725
49.0157 6.81863 11.9342 27.7511407177
40.423 8.32558 8.41265 28.7153222956
37.6765 5.87891 6.31322 29.9674244966
41.1134 5.54596 8.41559 29.3125592624
39.5219 3.27796 16.4818 28.9276030928
40.5872 5.3099 5.82307 30.672419138
47.084 2.58474 6.562 30.7824549004
46.6724 5.3905 4.89054 30.0481271669
47.431 8.08788 8.13643 32.1241854307
43.6806 0.899002 9.08701 30.4664360464
46.5474 10.2921 16.0601 31.3205316692
37.4454 8.3053 7.85268 31.324208198
40.5149 0.863889 11.3677 29.5802336932
39.6595 10.5206 15.3135 28.6058059672
38.9644 8.18642 14.9968 29.8582156465
42.0943 11.0413 16.8751 29.7120609533
38.5812 1.94208 14.4271 27.8558312039
46.5022 0.846178 12.5231 28.2328085325
38.6707 7.73263 4.19259 27.5093374693
42.0802 3.13827 12.9643 29.8851700222
40.0196 3.30148 9.90481 33.201503859
39.8984 9.67492 6.00514 29.7470667664
44.2225 1.95123 11.4977 25.4493033808
40.2929 7.03681 12.6562 31.2108167095
43.9445 5.37807 8.26956 32.2357081297
42.0725 9.99904 11.1076 32.0619321933
42.4164 10.2325 8.21632 32.5167954896
45.3108 4.40925 10.9453 29.7424259078
46.4215 6.49727 12.5859 29.0540891169
38.7852 11.5003 12.6555 28.9275015749
39.4771 9.1664 10.9415 30.4963667993
45.3381 7.07161 6.7864 29.6447005198
44.5872 8.88706 11.8641 29.8484249727
48.0157 10.7017 11.5612 32.9435672352
48.4782 5.83072 9.41388 29.8067259243
41.6397 7.43533 4.42469 27.4683454991
45.8671 1.5993 14.9685 27.6069595927
43.7006 9.00419 5.83536 30.4630750422
37.2549 0.367669 11.9709 31.3884303636
43.8282 9.14127 16.284 31.9064952761
43.8496 3.40264 15.0229 28.5129470473
48.3435 1.43854 15.8932 28.7554827907
46.1173 10.1261 9.4838 34.575721288
40.4842 2.95446 4.19603 31.8654894258
38.7773 4.28742 12.4272 32.5051724253
42.4743 5.61916 11.2833 31.4846609867
42.8385 7.76744 13.9499 32.5750240374
47.7537 7.40439 15.1799 27.8416347477
44.757 5.91442 14.7564 28.1688033563
42.3357 1.27106 5.60065 32.7874676255
49.1177 6.24762 4.0307 31.3634892398
48.715 1.97167 11.729 29.0274704748
41.7439 0.255253 16.8746 28.0248484246
45.6176 9.67187 3.8421 29.4424173334
44.2344 6.71134 17.6675 31.0104470119
38.4449 4.41789 21.5861 28.0310627539
42.0985 2.39771 21.2273 29.6793142112
46.1204 12.1709 21.0123 28.8358589687
37.2823 1.36781 22.23 26.9208609189
46.652 1.10876 23.8707 60.0364984131
41.2803 6.85124 18.3202 29.7857159947
40.4852 4.23378 19.5918 26.9917894849
42.464 10.68 20.7455 28.8697523163
42.4953 5.98806 21.0939 29.3678544308
47.2653 6.75084 17.8777 30.8519248535
48.3606 4.07819 19.7833 28.433252875
45.5894 11.2048 24.2514 89.5018210208
41.2717 11.4083 23.5232 40.9243915087
41.26 8.39443 21.5647 26.0471084059
39.1292 5.96713 16.9182 32.7869698048
40.7076 9.40577 18.6948 24.8861209441
39.0285 12.0696 19.0614 28.7107713978
38.6103 11.8125 22.3912 26.3348787236
47.9782 8.60773 20.5988 29.9081057433
38.0588 7.85269 24.7011 117.0381058282
38.428 8.90983 21.2591 28.1451208505
45.6949 3.63582 23.6707 41.0486633105
42.4336 2.87661 17.5104 29.002433564
45.8021 3.94736 20.8656 29.5113324963
48.6049 4.87133 24.7033 127.6450479122
39.6608 5.54906 23.8973 39.1627974491
40.51 1.10532 24.2007 55.4005735549
42.3691 5.39869 23.9389 56.8221876155
41.3169 8.73374 24.391 93.8572207855
45.4431 6.62161 20.5232 28.5334217321
42.8025 2.73411 24.1196 75.602193921
45.8724 6.55575 24.3049 85.1830351526
47.5499 8.59033 23.2183 26.9509547833
44.8715 2.48436 18.6964 27.3804349496
38.7986 2.99622 24.5746 89.5612418218
44.0744 8.49979 23.9318 46.5962970233
45.0085 9.52538 21.3264 29.8606908814
48.9975 10.302 24.3047 92.9305811867
38.9691 1.55227 18.548 29.9377827103
37.9108 8.94248 18.5483 26.4145881408
44.0936 0.268629 23.0175 30.4313666344
45.6278 -0.0549381 18.5187 28.203820782
39.789 0.656871 21.1924 27.4448780862
36.9405 11.1611 16.7975 26.1187454285
46.4292 4.15057 17.1773 27.592599747
47.3181 8.13069 41.459 31.0724022886
41.3524 2.26855 35.7784 60.7713366598
49.0306 8.89441 38.0537 31.8517348039
42.5833 7.89804 35.8472 62.9472198388
38.3322 4.4748 42.1736 27.362925737
46.9232 7.27524 38.424 26.7291481787
44.4991 1.38631 35.6752 94.4245469641
46.948 1.63622 36.3711 58.4410461084
39.8424 5.81661 37.541 26.9280128285
37.8504 7.76942 38.4391 30.0255282815
40.3428 9.67013 35.6912 74.9106310981
42.3105 1.61167 41.5171 26.8240306615
42.269 7.05784 38.6541 26.2147794838
45.2518 8.8043 35.9528 73.7365597111
41.7221 5.1536 35.5518 87.4324903497
43.6761 4.7341 38.6051 28.7447236654
44.2463 4.31535 36.0726 46.1071484959
48.3532 11.4974 38.2429 30.5869843748
45.7335 5.11213 40.526 30.6389228357
38.8297 0.948424 35.6113 77.8684088969
47.8021 5.87013 42.8692 29.7078644008
37.9811 5.18146 35.6536 90.3179405572
43.7872 11.6579 38.2547 29.9085165337
46.5727 6.11596 35.7343 106.8930988989
39.6295 3.94928 39.5649 28.8617042885
37.2029 11.2034 39.9411 27.1218597361
42.0207 7.50465 41.3118 30.2232007536
37.4559 10.6197 35.3637 93.9239687067
41.9151 2.4524 38.4091 23.0349541676
46.7693 0.701155 39.319 31.8749790951
44.377 8.59001 41.8903 31.8746744254
39.894 9.90068 38.5725 31.6414603463
41.2945 12.3379 35.8951 53.8151012779
39.761 0.871455 38.5769 27.9042778328
39.7066 9.41838 41.6836 28.5908273898
48.2006 4.07207 36.7186 37.5766177963
45.031 2.47826 41.279 34.3706248679
43.7418 11.2111 42.8131 27.3517657255
44.5795 8.96716 38.9031 31.3538095031
48.1023 4.5665 39.37 27.4766491734
44.0813 11.8055 35.6751 90.9996378419
37.9394 7.16842 42.8742 29.2721426762
37.1614 2.2961 38.6553 29.4651662396
41.3295 4.70227 41.8255 31.2053867566
37.1357 0.20616 40.7781 28.4925724143
41.0042 12.1404 41.9158 29.0608574423
43.7078 0.473134 38.3915 28.9432051206
38.1598 2.59231 44.1945 28.8544845348
44.5691 7.6133 46.0536 29.6452617593
