18.9834 46.3155 9.80971 28.9921316602
11.4395 42.1397 8.37971 30.7132923985
13.2904 44.1997 8.15971 28.9211271223
16.0954 47.9447 8.76139 27.6019250354
17.1145 47.3325 11.7239 31.3773169643
18.6808 37.3681 12.0412 28.4440569466
16.9598 42.4524 7.01793 32.6476071857
12.9203 41.9107 4.24443 30.2091571766
12.0569 46.5274 7.44948 27.3147828854
16.2864 47.6765 6.22429 25.4266499992
17.8611 33.4159 9.91858 30.0671509326
19.4595 45.1123 4.84295 36.4989017762
16.0753 33.6862 6.93262 26.4711344204
13.0571 36.1132 9.93323 28.5078103222
14.6003 43.3401 5.79289 31.4901137294
17.8878 45.067 7.41077 28.2332057006
15.0994 42.5261 10.9315 33.217859425
18.7661 35.3581 7.70328 30.8741231166
13.1164 47.9059 5.48125 25.1164113322
14.0054 38.5771 10.6827 27.1511251871
17.1523 41.1336 9.73321 36.4607716161
16.7396 37.1539 7.72656 31.9520787962
16.6952 38.2655 10.3308 31.7627952914
10.6267 34.422 9.60024 29.4556069397
12.2571 43.6387 11.2879 29.0491382275
15.5577 45.2994 9.71272 28.2330786825
13.3452 48.2872 9.04533 27.5427361869
10.6292 37.1768 4.82812 29.660907994
10.3641 37.8754 9.22869 30.9757291454
9.84955 45.3743 10.9845 31.1710807392
10.5644 47.1576 4.18318 28.6915471746
10.3188 38.0885 11.909 28.2112406343
19.4956 34.7827 12.1644 31.6940372981
14.2104 34.7299 12.3139 32.8130491321
18.6858 38.8886 14.1933 30.6675698616
12.53 36.1292 16.697 30.8035057117
15.853 36.8313 13.1225 28.2343464637
18.3191 37.1603 16.3762 28.8030763472
16.3794 45.7986 19.1591 26.2258561782
10.0766 41.1219 17.2992 31.7521021668
17.7786 41.4238 14.6562 33.0270384039
18.2476 47.4601 20.8109 29.0025335769
14.8875 45.655 14.7719 35.868338771
13.4889 43.106 15.593 31.3414208683
11.5388 41.8183 13.1468 30.477887879
10.0511 35.7772 13.4318 27.8167541889
17.6109 47.2675 16.9913 27.6035487603
18.8781 49.012 14.5611 29.8041775238
15.1353 41.7703 13.6991 31.0738822635
14.1515 49.0887 16.9801 35.2659638012
18.0887 43.6797 18.717 28.9298023318
15.3738 35.5818 18.9911 29.905990009
16.6901 35.5565 15.3646 27.8203151248
16.956 38.0526 19.9025 25.710518083
19.5597 33.6688 19.5959 30.9951217401
10.5246 43.3546 15.6761 32.5948436696
14.7071 37.8437 17.1663 29.325671021
17.4922 46.154 14.3192 29.1376267111
14.8876 39.0027 14.6297 32.0891520538
17.8582 33.4304 14.0036 29.7625278397
18.7521 39.1282 18.3718 28.8155993158
11.1619 44.4001 20.183 35.0200046337
14.655 42.0081 17.9639 29.8681066044
14.0982 46.2209 17.4305 31.4845726868
12.4388 34.6237 19.1279 29.0551329998
17.2959 41.3978 17.5817 32.2931817682
15.3216 43.2248 20.1928 28.559023251
17.2044 34.2896 21.0014 26.7041550511
19.5517 44.9346 16.91 32.2745270484
13.1719 39.9903 18.7468 33.9739024365
14.5499 33.9701 16.5508 30.3652634448
11.3949 45.3496 17.3981 33.2201326192
12.2106 34.3581 14.4332 29.8051159029
10.706 38.3788 17.38 32.9690910879
18.963 43.7461 14.0769 35.086441574
14.7681 39.2526 20.8899 29.622985153
12.5733 39.3327 12.9285 32.8760763198
16.5333 41.5178 21.9819 27.2226987974
18.9347 40.0605 21.5034 27.4163475628
14.7111 37.6689 24.3165 68.4094234073
14.7368 33.9581 24.5223 91.3380111479
11.3228 37.7097 24.3554 79.0417944355
14.0416 40.1507 23.8473 41.7070541556
17.3614 37.3639 24.4192 74.5968370326
18.5937 43.818 21.7552 29.9371349374
18.8055 39.7711 24.3233 59.7034758368
19.0638 43.1983 24.6477 84.216389888
11.4185 43.6163 23.9651 81.7911824279
14.5173 44.0353 24.2769 68.1581232504
17.6599 34.3545 24.2735 65.5976531115
16.2519 41.8808 24.761 97.478715306
18.2572 36.804 21.781 26.9482500186
11.3373 40.6974 23.9693 64.862953523
14.8492 46.6969 24.3791 91.0735491033
13.587 44.8782 21.635 29.985689
17.3301 47.6484 23.5557 34.6576740033
14.2095 36.6005 21.9198 26.3252514377
19.1558 45.8873 24.2383 70.2242185801
11.7579 48.7038 21.5905 30.5489016524
10.5074 49.0173 24.0237 52.859625127
14.4797 33.838 21.9199 25.1161953472
11.8299 33.0478 24.3533 80.1018212953
11.514 36.8477 21.5285 29.5956255732
10.0791 35.2707 24.2473 73.2381601228
10.0058 39.5362 21.1151 32.7648672572
13.2443 49.2333 24.3981 88.5934541154
14.1921 47.4176 21.6796 26.1267741896
19.5635 36.4223 37.9445 27.2239586191
14.1277 44.4883 36.7864 35.3026785437
12.9758 35.2894 35.5036 98.3406526907
11.4509 35.0886 38.5881 31.7979843999
16.0193 38.3883 35.8547 57.4705590666
18.0144 36.3422 35.4528 111.7298629898
17.6806 47.5176 38.3259 26.6469294326
17.0617 43.6583 36.6393 35.5231767678
13.6017 37.6392 36.5975 29.7979083259
11.0493 44.6303 36.243 61.4075197775
18.7678 41.0798 35.4454 90.7943500023
12.9421 41.6227 36.4078 39.288966145
17.0345 33.9159 36.3555 42.1099276014
11.5687 39.2215 35.5954 97.7740796479
10.4176 34.4738 35.8376 75.8286425016
17.5128 46.2819 35.9419 79.8530012625
13.723 48.5674 37.9413 27.1256366794
14.744 46.8214 35.8819 78.8259616303
15.5955 41.0174 35.6035 94.1518389335
14.5739 33.0438 35.9064 72.4161721092
9.75913 47.2357 35.9465 74.581936044
10.9838 48.1311 38.4516 29.3704255313
16.7746 38.2274 38.6796 29.1713538326
13.6062 37.0233 42.4036 31.4633788217
15.129 32.7422 40.8503 31.1862467913
12.8445 32.5804 39.2404 31.7335565479
14.6103 35.9376 40.2305 31.9396922368
11.3754 34.6632 46.4373 33.2518275386
10.3491 48.2747 42.8844 32.3701474917
14.001 38.592 39.1862 27.5052272027
14.5795 41.2856 40.442 33.2143634739
17.8862 38.0986 45.5783 31.641480629
15.2421 38.9834 44.153 35.5884342628
12.7243 47.8769 40.963 31.6939251263
11.3521 38.5974 40.2717 31.6968456006
17.5971 44.82 42.1133 28.5646159367
11.171 45.3125 42.4985 31.6183652967
15.5182 48.3153 44.5865 29.1825851687
13.392 43.9601 41.1201 27.0835994133
16.8531 41.7106 39.2326 28.8987759418
15.9351 41.6408 47.1143 30.5118151245
15.9271 48.0268 40.5341 25.1107490332
17.226 45.4503 46.9955 33.741101492
17.0636 47.4242 42.7397 29.1156064615
18.1764 35.1093 42.7422 32.1409833293
18.2534 41.8945 41.907 27.5029998849
17.3717 35.6603 39.9803 27.9940273771
14.2259 35.3018 46.9222 31.5169519801
18.4362 39.1107 40.6831 31.8685142953
16.7034 33.4521 44.8697 32.1574067643
17.442 34.4309 47.2103 32.8691961374
19.3369 37.6708 43.0599 31.4040868966
12.2862 46.7034 46.4644 30.860692503
13.5004 38.0584 46.159 28.6530141928
14.6087 45.6387 39.3561 26.7378400987
14.1445 34.7837 44.1018 32.2469717065
11.1875 41.0063 41.9999 29.759901932
16.392 41.5536 43.8655 28.0080207478
15.0809 43.9212 43.4662 29.2898676646
14.8932 45.9493 45.4262 31.3241143455
12.6256 42.2711 44.2116 31.9127340904
10.6278 37.3183 45.763 29.8409371734
17.4976 44.6727 39.4225 25.8828117842
10.4138 35.2676 41.2483 29.8266126609
10.8831 44.3705 45.3731 32.9987384427
10.5517 37.6454 43.0441 31.105027836
19.7637 32.7989 40.1003 26.1757066221
12.1829 32.7882 44.4118 31.1178314007
18.7081 40.6573 45.2627 30.2033442762
19.731 36.0013 46.5212 29.609797008
10.3171 33.0048 42.4493 33.0553530884
13.1699 41.0429 46.5925 28.3469021816
11.7175 41.6465 38.9087 27.4088743977
17.1338 33.0855 39.0272 26.4329865733
11.3252 44.845 38.9308 30.486449328
18.4357 44.5182 50.596 25.2664785838
16.9881 41.7854 55.1487 32.2053520724
16.8001 39.5394 48.3939 25.2484056683
10.9371 47.9016 53.8785 27.9774764856
17.6143 35.7843 54.3141 28.4482863768
13.9992 47.6332 48.4484 30.3226707343
12.1563 37.6368 50.7472 32.6125099897
12.5707 43.334 53.2448 26.4504179884
11.2829 41.1276 52.0984 25.6116913753
18.8589 48.6124 55.1596 30.132306713
18.5563 38.1484 55.5262 32.2474335076
15.5422 46.5223 50.6965 24.9671453889
12.1307 37.7258 55.0522 25.1494581932
13.823 35.2288 55.7107 30.2418692084
18.1313 43.3583 53.2565 28.3377638013
14.4307 45.986 54.4857 30.6113740814
16.2435 44.1255 48.9699 26.9123418795
15.4832 36.5999 50.4337 24.2336083095
14.3283 41.6486 54.5119 26.6724730991
15.9838 33.9508 49.6913 26.6268164922
14.4152 38.4342 48.8473 26.0228221328
11.5802 33.4455 52.4958 28.9412623859
16.8116 48.8236 51.8175 27.8365091175
13.4742 47.8778 52.5693 26.2047622607
10.7665 39.7223 47.6527 29.9994301889
10.5834 44.274 50.2901 27.5452906364
18.9603 47.1769 51.1781 30.4319023827
13.9431 35.5201 52.5579 27.6354384453
13.3745 33.7302 49.4729 31.1889169284
10.7052 36.3176 52.9893 27.3330513367
17.9986 36.786 49.3085 28.8394349862
16.7476 41.3753 50.7104 30.3506187108
10.6358 40.0961 54.5645 29.9768113563
16.1391 33.4074 52.8689 29.0679735525
14.3643 39.0212 53.9124 28.4507668921
16.5207 37.8769 52.7461 26.889687939
18.1882 40.1178 53.2604 29.8980244364
15.7767 44.3384 52.7423 28.6986334235
9.94036 42.5028 55.965 30.3822853378
13.3245 44.3293 50.532 29.4881978146
13.9104 41.9013 49.4617 27.4498772563
13.7146 40.1084 51.4268 25.1143248904
9.82147 33.7259 55.0439 34.9319136079
19.3226 39.2722 50.7443 27.6780421033
17.2747 48.1879 48.2191 28.9225113548
9.9605 48.3408 47.522 28.1978417028
11.2959 44.893 55.1556 28.6011536577
16.1188 48.5121 54.6934 31.1220704475
11.5907 48.0656 50.1784 30.1229534968
16.5274 34.2932 56.339 30.9102728958
10.4347 42.8049 47.8319 31.6505669254
24.6257 4.47634 9.75102 27.896208325
26.6906 0.383258 4.78222 28.2476328106
27.3752 4.38303 6.74991 28.0201923151
21.2193 0.301176 10.7525 30.0277124636
22.4717 11.8853 6.53306 28.7936265393
23.4282 6.93744 8.508 26.5623285759
25.5118 6.41926 6.54513 26.9863784442
22.6198 3.01693 7.91772 27.7289619941
19.7241 12.6624 6.25506 30.4067067401
24.6718 11.6874 4.9343 29.2158440371
28.5577 10.4257 5.99602 29.6616498469
28.8682 10.3353 12.0403 26.0195874255
25.7006 9.23196 8.47034 29.5538816373
22.6608 1.89684 4.68492 26.773019615
27.7547 0.488835 7.34528 27.2505415464
24.6016 5.29109 3.8726 29.8981894821
20.0181 13.7019 12.1998 32.0895911765
22.3986 14.1052 8.3523 27.9445137385
25.8793 8.99385 5.11889 27.6589312614
28.0155 12.7805 10.7106 28.5894165786
23.4061 15.4935 5.95786 29.7978272219
21.665 6.06715 5.04401 25.9972174437
25.101 2.93861 5.87919 27.917300782
26.2846 13.9457 4.8089 29.3802603612
23.9081 9.18543 12.13 29.3040597746
25.9197 11.9278 9.05212 27.4937658235
22.2914 3.1529 11.0345 29.4128605825
25.511 1.43345 8.76128 29.8637726868
27.1473 2.00712 11.005 29.2513595627
28.068 7.8677 7.63191 28.1786478888
20.3619 1.49605 8.15417 30.9207053436
21.2315 9.40308 10.6179 25.787406489
21.1574 6.8446 10.7372 26.3736766485
21.2916 5.4416 7.70866 28.4850858616
27.567 4.68965 9.62129 27.6932628998
26.6886 6.27906 12.0134 29.7094418879
21.6679 12.0693 10.4773 27.6333369702
22.0421 9.51452 7.84901 26.9286231948
26.7481 8.71669 11.1889 30.1084360118
19.8461 15.4732 6.38555 27.2611073611
27.6434 12.6584 7.12842 27.2830197681
29.1683 6.23428 4.9586 28.0725670358
24.8745 14.5102 9.91685 30.9307690758
24.1499 11.6838 11.392 28.5160473674
22.781 8.59524 5.10155 28.09248471
20.2884 3.08839 4.67806 29.6091776002
23.716 6.22311 11.9934 27.8855765377
22.5362 1.82498 15.9767 33.0781763742
27.214 0.0164737 15.1935 27.4941166046
27.0589 11.9878 18.3009 26.6315048137
28.3001 3.34632 15.0369 31.204952532
20.3384 6.89793 17.5499 30.9833729876
21.5969 12.1359 17.5287 28.0714716004
24.0914 13.1996 19.1991 27.6573020768
24.3405 6.8935 18.8427 30.4627114868
24.4907 6.22721 16.0279 34.7245312082
27.2917 6.00304 14.9512 30.5611060071
28.8897 8.16053 16.1053 26.9945446899
20.8583 14.4804 16.515 29.3233528493
25.9531 11.6007 15.7068 32.8933133184
24.0991 0.754383 17.9535 34.1109140263
28.2311 10.5488 14.8063 30.1563223138
22.7652 4.75496 14.4688 30.3590652737
21.8104 14.6508 13.9399 31.2605701862
23.089 15.4898 18.1351 29.8657662839
22.293 3.6657 19.9435 30.9783027162
26.3521 1.91148 13.6054 31.3518870991
29.5755 14.7691 16.0026 31.3657517412
21.209 4.20176 17.278 31.2278990253
28.5266 15.5003 20.268 27.8229239807
22.2954 11.1036 20.0249 25.5970857459
28.4398 3.43964 17.8436 32.8846170057
19.9711 14.7056 20.3287 29.8969627811
23.6679 1.98635 13.2443 29.6210859657
21.0627 8.50015 19.9937 33.8541852255
27.4036 5.93477 18.3032 31.5382533009
27.4561 14.943 17.8566 30.7401523429
25.9756 14.9517 12.733 28.604419186
20.292 4.6551 12.7317 26.5230078347
24.2093 13.1606 13.8755 34.063457855
25.1554 9.47018 18.7115 27.1863806545
29.4287 6.98257 13.0583 29.3447782384
23.5564 10.7385 16.7436 28.5695516527
24.7863 2.29942 20.245 32.6565449999
20.7153 8.32933 15.2463 31.5274136691
23.5844 8.60871 14.7618 32.7440468399
28.7842 0.473888 19.8311 28.2885427326
28.1596 9.11667 18.6647 26.4084935064
28.6786 14.4115 13.0761 29.066176902
27.6846 3.07878 20.9834 26.534100984
22.6864 6.17818 21.3305 30.0918193513
26.0214 5.63072 20.845 26.4989995927
25.8947 5.46489 23.8122 61.2152543816
21.5404 3.61416 24.3939 90.9586077303
20.2694 13.9313 24.2204 56.9848773022
29.5823 2.51865 24.3879 71.5776154912
27.0811 2.87692 23.6361 35.5236102448
21.4174 1.43577 21.6938 30.3213960266
23.3078 5.99219 24.0137 58.7979286761
22.0465 8.36459 24.4487 103.7832086394
22.5644 0.768533 24.2542 72.1184266316
27.6675 7.63881 24.1295 76.7240839065
24.8075 10.423 21.3398 29.5887100901
23.6072 10.6634 24.2063 58.8664658502
23.0296 13.2535 24.232 56.7123454764
26.0643 10.0997 24.2222 78.1405906849
25.637 0.784618 24.4629 92.555705174
25.5376 14.3362 24.8156 111.2072666065
27.0734 8.20511 21.3612 28.4415819749
27.3913 12.6939 23.9421 46.2985538853
28.2277 15.8189 24.1828 57.6838672078
24.7849 0.177533 21.7572 28.6140591636
20.2196 9.61444 22.8159 29.7085422166
21.0626 12.3958 21.8984 25.530405609
23.6318 14.7901 21.662 28.8875927421
26.4882 12.8545 21.2119 27.7035145245
29.399 5.21557 21.9015 28.7165142483
26.1662 16.0233 21.9726 28.296001028
23.5498 3.40624 35.6075 88.677184924
26.5209 12.5866 35.8185 80.1851082165
25.6755 1.40037 38.7067 29.1616340205
20.4373 14.5241 35.5034 86.6870047472
25.5129 5.75701 35.9768 50.325482751
28.8349 14.219 35.8722 62.313476364
22.1946 7.30448 35.8621 66.6076470564
21.196 1.40051 35.9788 49.7271043751
21.1821 4.76614 36.0404 49.7819732498
28.8105 2.37512 36.0372 53.4435310584
23.9485 10.3728 38.4893 26.8866085053
26.1009 1.37021 35.9187 59.6278775691
19.9616 11.8015 35.826 58.2656884193
28.2431 5.09176 35.4543 113.2597613095
26.1788 13.4705 38.4205 28.1391781778
26.3635 6.80764 38.4923 28.7357515863
22.8975 11.1738 36.042 62.9399876975
27.4329 10.0187 36.0689 67.2924902354
23.7045 13.9151 35.985 65.1962746045
24.7424 8.46339 35.7485 82.603722065
27.3525 9.43924 38.8914 30.4529626351
28.9765 13.8216 38.9386 26.8544828889
24.6874 16.1761 38.4303 27.1535979747
22.2601 8.13617 38.6567 27.146405809
19.9438 11.4929 38.6045 27.1151264321
21.1697 5.3697 38.5761 25.96587465
24.1995 4.06726 38.3449 29.4341081237
23.4057 1.58993 41.2575 28.3266121767
21.8609 2.38391 38.8896 27.1259016218
24.9723 12.6017 47.495 30.5947541174
23.3233 12.8943 43.2435 29.608061943
28.6961 11.9473 41.3549 30.0270120307
28.4385 5.86652 46.4782 35.8375444759
20.2978 13.8977 46.4305 31.5112671009
19.7584 11.1681 45.4637 30.8422006551
27.4545 16.0255 45.9182 30.4072677037
23.2784 10.2637 46.7907 35.9552026403
19.703 8.08048 41.9345 30.6273158097
28.0661 5.36612 41.6075 31.4887869212
29.0023 13.0769 44.8969 30.1712205782
27.2005 9.64329 44.2613 32.9630489553
24.3278 7.32199 40.2675 30.6534978827
25.3165 9.1481 42.3594 30.4071422869
26.4628 2.93352 41.3128 28.6908436051
21.0188 10.7592 42.3465 28.8024517054
22.467 11.9436 40.2016 28.2427673367
26.572 12.5827 43.6555 27.9497810716
25.8992 11.3509 40.4651 25.1791741502
24.7651 14.294 41.1652 26.1976396207
22.1976 14.7948 39.5325 27.5640771246
24.2338 2.70557 45.2618 31.8594133469
23.9051 5.54821 47.4176 30.2471327865
24.5459 5.38498 44.4715 30.0040824719
26.1891 1.60528 43.7836 30.6442766007
28.7207 15.3678 41.2031 31.8593472344
21.2913 5.73526 46.484 28.82263722
21.0427 5.42242 41.7881 29.6889141202
21.9511 15.7169 44.9316 29.1385795285
22.0316 6.8739 44.1124 32.1992808905
23.8449 4.62201 41.7301 28.9102886349
22.0195 1.70106 43.6043 29.3673319471
26.9989 6.56329 43.9278 31.3891068616
28.034 1.01044 45.9141 32.0650131307
23.089 9.65931 43.9223 30.7196862196
24.2235 14.3981 45.3806 27.0166752734
28.7852 1.58793 40.5118 30.4873903989
19.7083 0.446616 47.599 28.9909967129
26.1123 15.5844 43.3862 28.5981263303
27.6072 11.3735 46.6878 32.5968995635
21.4444 15.4445 42.2192 25.7352482341
28.8345 5.50387 38.9841 29.4137041233
25.5302 11.1581 53.5405 27.600710717
24.0769 1.91242 48.2374 33.4743050509
28.2008 14.1123 55.4457 31.5686578673
27.7695 3.42727 47.795 32.0755348606
26.0368 14.8772 51.7776 32.5653249762
20.625 13.2892 49.3247 28.406560745
20.8052 10.2671 48.2294 28.7002636862
25.7515 3.91374 49.3011 31.7757273468
23.2187 0.18773 50.306 29.4015283262
25.7212 9.05015 50.2099 30.5780549073
21.9527 3.72989 48.8956 27.9764801223
22.8005 7.07086 53.2283 27.8247220766
24.3774 11.267 51.3517 30.8142902354
26.9554 14.8925 48.8657 28.87106674
20.7317 9.79367 55.6067 28.6731680588
28.212 9.83966 48.9254 32.3258046293
28.9602 15.089 51.6894 25.6596101534
21.0883 11.3052 51.4066 31.8290445887
28.6416 9.93856 54.3152 29.9513578323
21.6111 5.04763 54.7185 26.1159529339
23.2792 15.2351 55.0655 29.9935489391
29.0399 5.34483 53.1156 32.1063758351
28.7904 1.04796 51.2571 31.0292401214
24.12 13.674 49.6705 28.6094500253
27.4196 5.88215 55.3688 27.7884483416
20.4471 6.37516 50.1857 27.7881915046
22.4814 1.28477 54.4624 27.9900335449
27.8677 12.4955 53.1716 27.2720393037
26.3603 2.24732 54.1016 28.0461718833
27.497 3.29281 51.7585 30.2041390251
23.7889 3.5127 54.2053 23.8413540677
29.4392 13.5008 49.275 28.9691809384
22.5717 2.74823 51.486 30.4137512599
22.406 8.37313 50.8881 28.1637174422
28.9813 11.1126 50.9824 26.4778979569
27.9095 2.99305 56.6153 27.2497390257
26.3833 8.44487 54.958 25.076528876
24.64 5.24519 51.841 30.8498716981
23.9882 8.03971 48.6453 33.0544850823
23.4978 9.04054 54.7544 28.1426268413
21.7565 13.9533 52.6511 28.635418777
23.5037 12.5344 55.0929 29.6393059521
26.6166 7.34112 52.2851 31.5576505606
20.2831 12.5671 55.9906 29.9161577622
22.2958 15.9326 49.4415 32.0485487089
19.7963 2.22121 54.4797 28.2867242946
28.9216 0.927669 54.2318 28.2449473617
29.4332 8.58133 52.3265 31.0715252342
19.9765 3.93647 52.1023 27.4479228007
19.8146 7.76596 48.0753 29.3456794621
26.8315 31.149 7.5105 28.0671177798
27.2886 26.9559 6.62322 29.5327030952
29.1357 29.0038 6.10701 30.3655757412
26.05 24.9441 4.68136 30.5717898266
19.9755 21.2766 4.14553 31.0021284687
27.8595 17.5945 6.76356 28.0774898563
28.6389 25.2064 10.6168 28.1416590954
22.3522 27.2269 5.20728 34.4315833186
22.7054 22.6645 8.12737 32.3100699514
24.0945 30.5659 9.52727 28.1877714559
27.9797 21.2268 4.49783 31.1460854304
26.3052 29.8809 10.8021 27.2202318188
22.0542 30.1007 5.70017 26.8520853053
24.972 28.5426 7.08667 27.4551898486
25.1267 20.984 8.247 28.588414498
21.4127 23.2224 5.69081 33.2976133055
29.0331 24.5453 4.16821 30.5002110223
22.6569 27.6413 8.32797 26.5011705944
25.3152 24.489 9.20871 27.9162401817
26.3755 23.2788 6.7807 28.9001896169
19.8089 28.3214 10.4557 32.8781895831
21.1841 29.9775 8.62673 25.833841146
27.6983 20.1366 6.96508 25.7082695118
22.1381 25.0966 9.62915 32.9318469643
25.9168 16.7763 5.018 30.0751915313
19.6765 17.8238 11.4796 31.1785941194
26.7764 26.5531 9.18869 24.8364896795
20.8117 20.5659 8.84881 29.7139399401
21.7382 19.7853 11.2948 31.8489653693
21.4931 18.924 5.29319 30.2348417793
24.5009 27.3446 10.7089 30.6067667292
23.656 32.0648 6.98959 28.5264408929
24.1427 18.5337 10.8921 31.037846414
28.1035 31.1396 4.45571 30.985682046
28.6392 29.3607 9.2279 30.127905129
21.1299 17.0023 8.29524 27.7985104239
28.8106 23.5643 8.22532 32.778379933
27.042 20.998 10.3923 29.3711100556
24.2233 19.2487 6.00991 29.6341429896
25.9447 23.1064 11.5603 30.601783349
24.1097 17.4824 8.32877 26.7922332449
22.6024 25.4322 12.3914 28.5230642601
28.4443 16.5231 11.0057 27.9356619347
26.7203 18.5995 11.9627 28.5224923479
25.1348 28.1757 4.26255 31.7118912222
21.3025 16.5533 4.26671 26.5488493006
26.6485 16.5116 9.00169 29.8840475008
23.237 24.3992 3.8288 30.9426495476
29.1312 17.9002 15.438 31.882741299
21.9974 18.6662 15.5444 29.7584755133
26.2307 21.7738 16.1118 28.7045066724
25.1136 17.0225 14.1362 28.3122207031
28.4239 23.701 15.6235 28.4537751663
25.7813 24.0883 21.049 30.5194342374
22.8104 21.9217 19.0398 30.3662129414
29.1822 21.4262 13.9713 28.4715717491
23.7877 30.9434 16.3755 27.5240890034
20.5662 25.9475 14.2671 29.908501176
27.13 25.368 18.2576 25.7482124513
22.57 17.1297 13.1793 29.7715626681
23.9159 24.701 18.6254 26.846572049
28.2539 27.7532 13.8748 30.8803825233
25.9367 32.0972 20.2682 29.3878798103
21.9934 28.7222 14.8168 32.9739055305
25.3819 20.8878 20.1174 29.6508606905
26.0258 26.0881 15.7829 26.2007523075
26.0324 29.2712 16.5924 29.0800822908
24.031 23.0911 13.355 29.9940062921
25.259 16.4676 16.8242 31.179712287
19.7357 21.529 15.9988 33.0444840953
19.931 21.1746 18.9406 30.8599398924
21.7373 31.1286 18.3772 26.9359781679
25.8979 29.7172 13.5319 32.8988997035
23.0379 19.2362 18.175 29.4113496252
28.0197 30.0845 18.1383 30.815708442
27.0169 19.6746 14.4284 29.1475909807
24.4023 23.8396 15.8009 30.8839483637
25.7973 19.1017 17.5808 28.2245647704
21.4995 31.3789 14.3167 32.4991835531
21.6908 28.4095 17.5552 25.5843886798
24.2844 28.3883 21.1776 30.2318753244
27.3091 22.5554 18.4329 27.1441527236
28.6552 18.2988 18.3065 30.7809746635
20.6296 23.2988 13.1976 33.3576606401
21.2833 26.5751 20.4616 27.3429653937
26.9181 18.6179 20.9244 30.8362917986
24.7322 27.5886 18.4826 29.7559052734
27.5707 25.1525 13.2124 31.1761968555
21.3061 25.795 17.3622 35.0111026686
22.3442 17.288 20.3506 33.1621149409
22.1973 20.8633 14.019 33.1970473503
24.3203 27.5583 13.8572 29.3654870302
27.37 29.1732 20.8177 28.6586491539
21.8017 30.0395 21.3021 28.129914775
21.9588 20.8795 23.9394 84.3398660512
29.3074 19.3293 22.0123 26.2538285041
19.789 22.6915 23.8393 68.7382884638
24.0239 17.1249 24.1502 61.5618123692
27.1985 21.9133 24.6562 91.1130144286
28.257 18.5935 24.3233 57.0611647497
23.091 25.8795 24.6754 97.0470378186
22.1279 30.4492 24.265 66.4428825768
21.5592 18.1935 23.4164 37.515851456
25.2672 23.988 24.3255 63.722311456
20.3813 25.2523 24.2461 83.1948200932
19.8301 16.4384 24.5194 109.6010302812
25.5646 19.4086 24.5378 86.5808861104
27.1004 28.573 24.2591 75.5976577441
24.209 28.3427 24.4169 75.7358224691
27.4144 25.7447 24.0209 55.99718427
24.5938 21.6326 22.8581 28.7175488429
21.0069 32.6739 21.7659 25.8696837606
26.2016 31.282 23.3127 34.9939247847
21.9699 22.9198 21.2992 30.8552058751
23.8601 32.7278 23.8864 55.9705453412
23.4231 25.7207 21.7969 26.2774296716
27.6224 26.2488 20.9577 31.0705493037
20.5284 22.0258 36.6989 32.6807694807
22.7082 17.045 35.7743 75.0856792656
24.2552 28.7504 37.7578 32.3820939411
26.4483 24.8511 38.7483 30.856520463
25.1638 17.961 35.8302 73.8448490784
24.121 23.5901 38.187 29.8171645179
29.3662 19.1494 36.2177 44.4232945026
26.5895 28.9004 35.9436 84.7042945498
28.8195 24.6754 35.7282 68.8749546666
23.1161 22.2418 35.6859 95.6015472872
25.3339 20.5793 36.0315 56.2391137129
21.7388 17.5787 38.3971 27.9787035097
20.4398 19.3562 35.9976 80.0653276951
22.2325 30.6748 35.6154 96.0103251529
28.0516 21.6551 35.9287 69.7076001677
22.2056 27.8112 35.9386 52.9093404888
20.9461 26.983 38.5072 28.7837197012
27.8176 16.8953 35.9854 67.170730785
26.2681 25.9834 35.9351 62.7489451703
23.5991 25.2078 35.5667 98.0820933782
29.2901 28.8465 36.469 43.2430626332
28.0078 31.1187 38.584 27.708964512
26.1376 32.0802 40.1378 26.148453834
24.5705 20.5291 39.1077 31.4539071748
27.5004 21.1191 47.0431 31.973022825
26.427 18.9779 40.6236 27.6889042549
28.3033 26.9806 42.7603 32.9289593134
23.3959 21.9861 42.1028 31.172610261
23.9188 17.362 41.5368 27.4545652424
20.4547 25.6495 42.5685 32.6272341769
19.574 30.8468 42.2471 26.3076907414
27.3389 17.0222 38.8094 28.8345943996
26.3148 20.5666 43.0014 29.8412250469
23.9131 22.4992 46.3244 27.0530083044
24.7269 26.889 40.4407 32.2250354654
26.3538 25.1119 41.8523 28.3455956359
28.455 23.3409 40.9657 31.0316648799
25.3268 29.5149 41.2944 28.4326052861
28.3901 29.3621 41.1885 30.2341396363
22.7517 31.6373 41.9562 29.5656387712
22.057 19.7946 40.4167 28.0932111376
28.8035 31.1152 43.3406 30.4525081388
20.2681 19.186 44.9127 29.9928230965
26.5093 32.295 44.3685 30.3630664145
24.3446 29.9282 43.7053 28.5633677498
28.9328 30.5675 46.2063 34.8213046345
27.276 21.8483 38.8144 27.7291579467
21.9284 17.875 47.3834 26.9243175623
28.14 26.5492 45.8707 29.9723220044
24.715 18.4014 43.8576 29.4558196651
22.8046 20.6527 44.4968 30.7522529377
25.4716 27.1942 44.2355 30.0245067541
24.1548 29.8709 46.6822 32.2639004377
25.2381 25.4422 47.0086 26.0243321079
24.9168 24.0434 44.141 30.5166656289
27.3093 22.701 44.6858 30.9319413547
20.6492 18.2719 42.2515 32.0035044844
22.3124 27.6193 44.0345 35.9866321143
21.5114 23.6596 46.5689 29.5132952625
21.2922 23.199 41.0795 28.0755216658
22.5618 25.2377 39.7275 29.3715595548
24.8458 17.1956 46.4835 30.0252071207
20.7432 29.5799 39.5892 31.4850112687
23.3761 27.201 46.9325 28.717439358
23.0924 30.988 39.1921 28.934406161
19.7585 21.6311 39.1409 29.5388712229
28.9874 19.4926 43.4426 32.2180381145
19.6967 28.1705 45.0879 30.2306685693
29.6348 18.0097 41.413 27.0385495716
29.2404 19.4948 39.0929 30.4820369464
28.8844 16.4534 54.2433 29.3800846585
22.6701 18.4847 53.0235 31.0489360404
20.6485 21.8342 48.3727 29.0679518113
20.6245 32.5084 49.6457 29.278622087
22.8128 20.0119 48.735 32.009435102
27.9763 22.5276 52.5473 27.0506337723
26.4669 30.6819 48.0507 29.9615675785
26.741 27.7871 48.3387 30.1606283965
23.1961 21.1118 52.0408 28.3951517017
22.6803 32.2747 47.7245 28.3504181419
25.6358 18.839 51.3124 29.5036560129
22.8056 29.3884 51.5946 29.4639939839
22.6646 23.9826 50.8647 30.9098755108
26.5836 18.3442 54.8866 29.5612684031
23.3385 26.75 54.5027 30.7892442811
25.6475 21.9832 50.9428 27.6400612204
25.3646 20.4686 56.2145 33.7536646193
25.3295 27.8697 51.0353 31.0102100021
21.0138 31.2548 56.0651 25.494838723
21.5652 25.8601 48.4127 27.7362459059
21.1725 16.597 51.6064 30.077824054
21.5555 31.8766 52.2405 26.3122226486
20.2955 19.4665 54.3417 28.2523100655
28.678 26.7636 50.2206 33.2538334272
19.7865 22.5985 50.8529 27.1579524407
26.3663 17.9829 48.8786 29.8123497915
26.3285 23.8059 54.1433 29.0154096678
21.2995 23.443 53.4701 29.5169758938
23.9184 22.3257 54.553 30.4580315332
28.0042 19.6178 52.4765 30.2389128452
28.5086 27.4665 53.0334 33.517269892
25.4269 24.8767 50.4375 29.48415396
25.3402 31.0133 50.9162 29.6915721467
29.1484 23.7746 50.2558 31.9859682792
25.9216 26.2333 53.149 28.7289660209
19.9964 29.2774 53.5837 27.1206685421
26.0736 30.3422 55.2052 29.8620969729
27.6978 30.0516 52.9451 34.5957034023
20.8016 28.0192 49.9501 29.4192652625
21.3761 26.3371 52.3988 29.9639441947
23.0627 29.8874 54.6735 29.5304449759
28.9163 17.2263 49.591 27.6624158514
25.1135 20.9917 48.3138 25.8824989915
27.1727 23.704 48.0954 26.1816312529
24.7096 16.7438 53.3304 27.4544047533
20.3522 30.0383 47.6504 32.3491483923
20.5437 43.6927 7.92706 27.3521877145
21.8401 33.8127 8.16507 26.0776019374
22.8755 35.8078 11.8675 25.6674988854
26.6246 44.1421 4.74279 30.5283971534
26.153 37.2673 7.10333 34.6793356278
26.4648 33.32 9.21537 26.1219913232
22.8233 39.9415 3.99339 34.9683750663
29.2704 44.8616 4.9636 30.4172027704
23.9563 48.6581 11.7695 30.0787229301
22.7338 45.2109 9.75604 27.5625927593
25.8571 41.5006 6.78528 34.0558030259
24.9613 41.9219 11.7338 28.6929511055
26.0396 39.4049 5.00425 28.7372177719
28.5942 48.6171 10.0909 32.0680636965
29.0544 37.1788 8.59581 29.618497283
24.0898 32.7887 11.6838 28.5525284539
29.5501 43.6691 9.76379 32.037076384
23.7112 46.3471 5.73532 30.7500948502
28.5872 39.6679 6.82048 29.6791164162
24.9793 47.5966 9.14928 31.5675286798
27.5673 35.7331 10.9647 29.048718912
25.6313 45.137 7.10308 27.9344436304
26.9906 32.9522 12.0648 27.3279097032
21.649 35.2656 5.7185 31.0096919739
21.0563 41.2226 5.78506 29.9121565194
22.0524 43.8602 5.33355 27.7399050145
21.6393 48.5221 6.15567 31.7585463657
21.0958 40.2355 8.20609 32.7072600319
27.3575 46.1 9.54235 28.9911289472
25.9169 38.7064 9.57446 29.6352824435
24.1579 36.4935 5.05168 30.4057556159
23.8256 40.7388 9.43513 28.1025706581
26.5291 42.7258 9.5272 27.8225799812
28.7933 47.0126 6.86014 27.3110931539
27.9477 40.543 10.2177 26.7731298848
24.151 35.0791 9.4082 32.0135351168
23.5529 43.2184 8.0238 26.0402541648
22.1214 40.092 11.5921 34.1598157513
21.2819 47.3993 8.71753 28.3800508179
24.8718 33.817 4.95721 28.3964169452
25.1733 37.2536 12.0546 28.862606347
20.9035 37.0813 7.84996 36.4869872548
20.3077 44.4287 11.4775 32.5229545284
21.2466 32.5813 10.7523 27.8450106037
24.0543 44.522 12.079 27.5072079184
28.6725 34.0575 7.84871 29.2321032005
19.865 41.903 10.1138 32.6723436728
21.2256 37.6248 10.6472 30.5747226012
27.5311 33.7622 5.23287 29.232143401
28.2325 38.2388 12.5445 29.2650901456
23.7612 39.8916 14.2157 28.5980731239
25.3587 36.3856 15.1558 31.5011535079
20.4026 45.7547 20.0638 27.7968194937
26.4589 39.2118 14.4619 26.3477382202
27.0367 35.3487 19.8301 30.8453541665
26.949 39.4144 17.3415 28.7001987853
25.5521 47.1486 14.1723 29.3125917637
26.7842 48.7352 17.7653 30.7847539663
22.4502 36.788 14.6688 30.0773749768
26.1425 33.7601 14.7785 29.672546718
26.7343 40.0301 20.6541 30.5292954689
24.9527 45.2129 16.217 28.9008248345
22.4663 45.3886 17.2481 28.0584311638
22.6407 47.1504 13.9765 31.8315472468
22.2024 44.3166 13.9021 30.2970563303
22.0681 47.9119 18.599 27.0594056358
24.0164 42.6112 15.4315 26.6842010533
27.7096 43.1605 16.9064 29.2780368801
20.0815 33.104 15.6507 27.7671662396
26.7429 45.4246 21.2784 28.8472141375
25.7319 41.8559 18.423 32.6852117383
25.5247 33.0265 17.5018 27.3880892482
21.5637 39.2133 18.1236 30.1615300208
29.0718 33.1536 15.2853 33.3160441034
26.6996 42.0736 14.547 28.0738069791
26.8318 45.9521 18.2183 33.4808404121
25.44 37.0995 17.823 34.0470759854
22.7081 36.3791 18.8687 27.5907454292
28.9095 42.8942 12.5839 30.4533319783
21.2528 48.4359 15.8617 26.95609181
22.4043 43.6899 19.7453 30.0846717423
23.3999 33.7075 14.397 28.72095586
21.4312 39.3319 15.4015 32.6713380317
23.6967 33.4565 21.1007 24.2503689568
23.0775 41.756 17.8816 33.6201821794
20.6956 35.6539 16.7081 30.3181566269
23.0149 33.5517 18.48 26.4566008913
28.4653 32.7808 18.1766 29.2748699068
28.6139 37.7451 20.8965 27.9153388259
29.266 38.4081 18.3556 30.6880109732
21.9662 38.8608 20.9092 29.0714904723
23.975 45.2011 21.48 29.6102176166
26.8119 45.2504 12.7416 31.8318148632
24.302 35.4053 24.1935 62.9408660175
27.9325 33.462 24.1345 55.2267773699
21.7338 41.9978 24.3356 63.5440246067
27.024 35.9341 24.7564 115.8385933363
27.8581 38.3024 23.6385 45.1418263986
21.5737 39.1766 24.1968 58.5902314505
20.9378 42.0233 21.6956 31.9493243293
23.5974 44.7424 23.9523 54.1752908705
24.5783 39.078 24.2884 73.9872883423
24.7929 35.8275 21.4031 26.6288679561
24.8189 41.9623 24.5027 102.4513291209
21.7305 46.9006 24.3232 87.7061562274
26.5556 42.5953 22.1639 34.1007054149
21.4254 36.3298 24.0977 62.2110985847
26.8272 45.2738 24.1815 64.1508153953
20.9306 35.9876 21.3481 28.2594151356
27.659 47.8121 24.6226 80.2254853727
29.5296 44.1159 24.1405 67.0040820577
20.3766 33.7028 24.357 83.0895278575
24.512 38.4882 21.6662 29.7633806545
27.3452 47.8439 21.769 28.9332380568
29.5705 42.3801 21.6964 30.1698865543
28.6307 33.1458 21.4909 28.482568087
22.5896 47.6251 21.361 26.5067299033
20.7093 34.0681 37.9778 25.1399148218
27.5115 32.3295 35.8812 80.988308377
24.5468 44.689 38.4707 29.0739128317
25.39 33.9676 38.2666 26.0981657039
26.0519 47.8291 35.6721 76.435376712
26.3327 38.7926 35.722 84.2027040666
21.4425 44.9082 36.3793 45.2837540982
29.0966 37.6526 35.4405 86.1973938176
23.6558 40.9483 35.6843 68.3833680541
27.4665 35.3955 36.0193 60.6424458958
24.227 45.5044 35.8345 55.171256038
21.3264 42.3956 35.6245 79.5458247004
25.6116 42.849 35.4526 87.1644933661
28.2324 34.4792 38.4928 25.8050453558
22.936 48.4703 38.3552 29.6093542689
23.0503 35.0513 36.2591 81.0769396603
28.2149 44.3707 35.7002 72.2800360205
22.737 48.0927 35.3544 108.8749212274
24.5863 32.3543 35.9367 73.7395048737
28.0229 40.4229 37.3375 27.5965857882
25.5219 36.9875 38.1694 30.8536889998
27.7519 44.4923 38.474 28.1596925257
22.9982 38.1372 36.4607 44.0652209939
20.1459 38.5435 35.8295 73.3985920474
29.5276 41.7469 35.4612 90.1851498573
19.8624 42.2138 38.1357 28.4301420246
23.8157 41.7787 38.7067 33.576837602
25.8442 38.0062 40.8353 32.1023493895
25.5426 39.1744 46.617 31.9070831043
26.8852 41.9807 39.2068 29.4456693932
21.9298 37.3122 44.0745 31.0423768619
28.7639 46.4031 40.3484 31.0579034141
20.7757 34.012 42.6535 28.0841725992
20.3659 45.3181 42.4778 29.3484869359
20.5601 44.7824 39.099 28.7689417307
28.4303 36.9602 39.8317 28.111907327
23.4097 42.1742 41.7576 26.4538850738
20.3406 47.841 39.4429 31.6348365288
28.0267 45.4519 46.3849 28.0094541144
25.7352 44.1503 42.8337 29.2134147277
25.6561 40.8341 41.6249 31.7187938118
22.745 34.6675 39.7984 28.8977131773
21.2403 43.5948 44.3289 27.2361834661
23.4347 37.0779 41.4721 31.6971349721
21.6054 47.9113 43.0537 29.7581725813
26.49 33.8939 46.6318 27.8914087886
26.8865 36.4551 45.5354 36.6627315546
24.2547 47.5855 41.3698 30.4310497202
26.0538 43.8116 47.0245 27.6829107331
21.1003 40.3534 39.8565 30.4195424019
23.9129 44.8004 44.9534 27.4523096684
29.4004 37.7101 44.6004 35.532035394
20.0821 44.7505 46.613 32.7979150483
20.8447 33.6542 45.4957 26.2773570493
24.0113 34.2033 42.8056 26.9542439659
27.5055 45.9678 42.8059 29.2779006635
24.514 47.1637 45.7665 27.9783041288
21.7415 48.4071 45.8025 32.1317246625
25.8624 48.0676 43.5896 29.0928131296
21.6465 40.2138 44.8816 29.3331771443
26.4653 35.8261 42.7593 30.7083779519
23.3718 33.7954 45.358 25.8615527447
27.3361 41.949 43.4147 29.4441157982
24.3853 41.5655 45.1825 28.6577583997
27.4024 41.1017 45.9791 28.4384805236
20.8754 41.4569 42.6399 25.5632220702
22.8007 44.7322 41.0096 28.035703179
23.8417 36.4467 46.0454 28.3480645842
27.0937 47.7341 47.182 28.4600819096
27.6054 33.6329 41.8673 28.277336746
29.6961 42.2983 41.062 29.0369057917
25.7452 47.3743 38.7066 26.7014462211
28.3687 48.6651 38.5424 26.737472543
21.7901 37.7212 39.1832 30.0892923454
22.4212 37.8236 52.8049 30.3298925853
22.9797 36.3897 48.664 27.3441667202
28.2985 38.9147 55.601 27.2947510717
24.5993 37.1701 51.0881 32.0857054633
20.9639 47.9534 49.4555 30.4398714593
20.2691 34.6591 53.7412 29.8643769614
21.7903 40.5678 52.0452 29.9903858571
22.8708 42.59 47.3201 27.0429222859
19.8928 40.4575 48.3201 30.7157221736
25.9759 42.4625 49.8767 27.5193180799
23.6438 41.093 49.7043 27.835759139
20.1619 43.4496 49.0289 29.7764424233
22.9322 43.8327 55.2295 29.7893922477
21.2565 43.2661 52.0089 29.1101742121
26.4853 35.2189 51.9772 34.2860445651
25.943 39.8006 53.5321 27.96178166
23.53 44.9275 52.038 29.2563919435
26.1595 43.6701 52.5163 30.3432905396
20.4754 47.2972 53.6735 32.6391879136
27.8108 47.4082 51.0354 29.4809898895
23.9902 44.7041 49.2742 26.6907802652
25.4159 47.138 49.1334 32.1565949022
28.9909 35.3967 55.9952 30.5811318264
25.8615 48.5747 53.0664 31.1361307721
29.4138 35.4602 52.882 32.4709228814
27.5081 45.7952 53.4248 26.7775823835
20.4546 44.6343 54.3377 30.3165208689
28.6383 33.0515 47.6571 33.4676263634
26.3603 35.5664 54.7929 30.2931295182
24.5416 37.7218 55.0612 27.1169971291
27.8254 40.735 51.6236 27.041418552
22.4049 39.1375 47.9263 30.2088199459
23.3654 47.6724 52.6823 28.3877490998
23.6338 41.2648 54.1752 28.789488076
25.5401 39.135 49.3546 30.3392431146
20.7367 35.148 49.3779 28.0862594528
28.5772 42.0877 48.4966 28.5918274651
24.4506 48.3419 56.4047 31.174648849
24.6014 33.9424 48.9285 30.8013751074
26.7259 41.7987 55.1194 28.6846460565
21.9129 33.8061 55.8636 30.8786035432
21.2479 37.6333 55.4929 33.1220346041
20.0785 36.4737 51.6634 29.5392797574
25.2913 45.4376 55.2923 28.5827914198
28.8557 39.1919 49.2654 39.0226047814
22.0168 46.2043 47.6945 26.0254644699
27.6897 32.9505 50.4172 33.1337826359
23.8971 33.143 52.0835 31.8309308851
24.9679 32.8735 54.7269 31.0363051547
28.8698 47.9338 56.0939 28.4727997877
36.8664 4.41106 11.4634 30.3484081816
30.6194 3.56273 4.55107 28.5796902488
33.0539 12.8559 9.23073 30.9472271116
35.1135 5.20491 9.2316 29.8257400357
33.9023 3.02983 7.55442 30.6526631153
29.6928 14.1203 5.23568 31.963156384
35.5701 15.4174 9.39674 30.2952480767
34.6881 8.87301 6.8575 29.025095134
35.7064 12.5907 6.15381 33.0694812253
33.6572 7.69565 8.8698 27.6088688015
37.448 6.93548 8.77104 27.8081747661
29.7522 6.76388 9.66988 26.1146655664
38.5849 1.44856 6.86894 32.4635396515
32.9959 11.107 6.575 32.006371783
37.0304 8.21672 6.35953 29.8973289134
30.9822 13.865 11.5628 28.7845737969
33.1732 15.7531 5.8075 31.7455764639
36.2391 0.498725 5.65072 29.9749559223
34.9392 13.7898 11.6168 29.8424408405
33.7325 0.766974 11.557 30.9671858265
30.5159 10.9693 7.87965 27.01419523
31.1525 3.93426 8.24571 29.5734703395
37.9242 2.20732 9.91153 30.0859502373
30.674 0.820425 12.4677 30.7977682516
32.3312 11.3748 3.53449 35.1781285023
30.4555 9.44005 10.0009 27.2986380049
39.2191 12.2008 10.962 30.5403199468
36.2301 3.62062 5.36209 34.2975222745
33.3644 3.95692 4.97513 27.5855618616
31.4612 6.6561 7.26207 30.6979167385
30.6807 1.32376 7.11929 28.5820689596
33.643 5.7788 11.6178 27.9377351528
31.1047 5.07642 11.8465 26.7643820186
36.3846 11.5905 10.4904 31.9716040819
33.0538 10.3552 10.3738 27.3841363963
33.5824 6.79498 4.99261 31.0685781229
36.1647 8.67967 11.0909 30.1760264546
31.5377 0.0810735 9.30365 29.2734386221
37.5226 11.6365 7.90359 30.5549439213
36.3299 0.0763205 10.645 29.0067627104
36.024 15.3725 6.39836 30.5143123192
34.8493 0.438845 7.98859 30.6411537053
29.9277 13.5256 8.69107 27.8942474764
38.334 4.39616 7.87961 31.684398418
30.6923 16.2113 7.09269 27.5905721919
34.2761 3.14997 12.706 28.37259244
30.0701 2.88231 10.5958 27.3874424907
38.9535 15.0142 7.09011 29.7674849922
31.9687 14.3139 3.38418 32.2141036865
31.216 16.5233 12.4948 30.0506440396
30.3261 9.23253 3.97684 30.7430671393
33.5007 2.11334 15.226 26.9288312503
33.3624 3.35738 17.9794 28.4465218252
35.8875 3.87191 18.4185 29.5368122315
36.3522 1.82337 14.7028 28.0290991288
36.9803 6.68627 15.3241 29.206208475
39.2745 1.42228 19.3529 28.3492821214
37.6286 8.94464 13.3909 32.4659543345
33.0752 9.07395 16.0403 28.657579099
38.0062 4.45675 14.25 30.2317645173
29.8823 11.2329 18.6289 29.8407580159
36.6791 1.34328 17.1813 31.319365216
33.2598 14.1164 16.639 33.4500143096
37.0867 13.4408 15.3601 30.4297885663
36.0197 13.9188 20.0926 31.8988684954
35.6307 10.2714 14.9845 26.3202400853
34.5598 12.7098 14.3745 29.9483157963
30.8803 3.24245 13.9855 27.445167703
31.0836 7.16887 17.1281 30.1319507795
38.1919 15.3336 13.7205 32.7271480629
38.5309 11.2872 20.3834 31.9783219932
30.7621 1.50003 17.4349 30.3180091609
32.3426 5.05728 16.086 29.5192738027
31.258 3.81944 19.6542 27.6764923722
35.4743 6.11241 20.001 26.6827284404
38.9656 11.5649 16.4629 29.2279564686
29.4825 12.9763 21.119 31.4372495722
31.9228 11.0063 20.9227 29.8346769996
34.3429 6.14172 14.5774 29.4801453752
31.2588 6.85133 19.9594 31.1574033211
35.3745 7.60076 17.6365 29.57214063
34.1512 8.63593 13.1133 26.760893358
31.0752 9.28277 13.5866 26.9124813716
34.8856 11.3233 19.3857 28.9022191981
38.1999 6.37204 17.9761 29.7651988646
30.4632 12.0653 15.5686 29.8308966102
31.7135 16.3239 17.0706 31.6346420388
33.9274 3.93849 21.4443 28.5239642882
32.8011 11.5026 17.7154 29.6846546479
38.6183 14.638 21.2677 28.2472253034
36.014 15.0325 17.3682 31.9599814746
36.6292 10.2414 17.5868 28.176199015
32.1976 11.6938 12.8481 27.2149152563
36.757 2.18563 20.8712 28.4849798186
33.7488 8.22111 21.0485 30.7984877068
38.1778 7.21292 20.7952 26.3803020139
32.6605 1.63516 24.5674 87.41293292
30.3895 13.4566 23.9409 50.6311676049
36.4325 3.64741 23.7405 52.7111460207
33.5193 7.33283 23.9911 62.2980307065
33.5458 4.47131 24.074 58.8711591475
34.0059 0.768616 21.4131 30.343931231
39.1614 5.50385 24.2872 89.9917414127
37.3163 0.852194 24.088 80.3116887573
38.5861 4.52271 21.5221 27.6121804788
36.4922 6.78676 23.6442 44.1347789684
30.6346 5.13646 24.3389 76.5163155486
34.2691 11.3946 23.9636 45.4321548171
36.3391 9.55557 21.5325 28.8555259293
36.6302 9.61538 24.2409 76.4467568039
31.5558 10.8798 24.7109 122.9742981138
30.878 8.0998 24.2185 59.7711577765
31.2613 2.07668 22.0312 26.4724730149
35.4883 13.9061 24.4689 97.3529134667
38.4442 14.0521 23.8788 49.1734208552
32.6852 13.5056 22.2973 31.7249665222
29.8844 8.74188 21.3983 30.0398126972
34.3393 15.8229 21.0602 29.0461367348
32.3886 0.773392 35.8758 68.614813882
34.3534 13.1004 35.456 93.1671667009
38.7392 0.67876 35.8408 56.855399881
30.8061 5.72036 35.9742 49.984289464
31.7089 14.7686 37.9462 31.9143303916
35.2197 2.83236 37.6043 25.9646160316
34.3984 13.8507 38.3205 26.8665388055
33.7842 6.25036 38.0439 26.1194528518
36.4247 15.4104 35.5098 81.0566321181
32.593 3.59624 35.8695 62.542619088
35.5513 10.373 36.0163 48.4278765529
31.4791 13.2996 35.4469 97.0690328322
38.081 5.14443 35.7815 70.8992153922
35.1252 5.21398 35.4826 84.0990370122
31.6913 8.24337 35.9028 65.7253732486
30.1891 10.5803 36.1726 50.4664859629
34.2635 8.03335 35.4356 94.8592220712
36.2416 1.54389 35.6007 90.6099274568
36.8037 5.10367 38.3722 28.574355711
38.2438 9.41524 35.6491 80.7255192981
38.9979 11.1387 38.3945 29.2911905614
30.9441 7.23486 38.8892 29.6745548936
31.6901 -0.0108594 38.5195 29.9341800687
30.7762 11.4437 38.4678 28.7330298552
38.7192 14.1355 36.0257 58.3861638034
30.1781 2.92666 38.3578 26.4030582169
37.6491 13.8996 38.7364 26.9327798962
35.9034 9.84921 38.8871 27.5375535362
38.9493 3.21177 38.4928 26.5796529591
30.4314 0.943448 42.863 31.7388424563
37.6719 15.5315 42.183 29.1461549235
34.8995 7.72186 39.9708 27.006882437
36.7148 4.30558 41.5754 30.0788014767
34.7834 14.7949 45.3048 29.8939476352
34.1475 0.978769 39.9509 27.8012270793
30.5985 4.15159 42.2691 30.5882053735
31.7816 15.3947 42.2086 30.4836277456
38.2445 10.5335 42.3932 29.0375674302
37.2889 12.0817 45.105 30.0390543836
33.0822 1.45026 42.3497 30.2580812474
37.9103 3.46572 43.9039 31.8862257255
37.2673 0.16506 42.6528 31.7497200954
38.6283 2.2032 47.6399 30.6044169139
32.8626 9.04174 41.2213 27.986504456
37.5144 7.05494 41.2884 28.0124322201
34.2154 4.04418 42.981 30.7123435409
36.7317 8.54076 43.509 30.7330590525
32.6067 5.57057 41.3068 28.5816425022
35.1057 14.5481 41.1607 29.0792604903
38.7339 14.4684 44.7433 27.3529769326
36.7224 1.5827 40.235 28.0588988224
32.7048 3.77037 39.1747 27.6879123837
33.4875 11.4288 39.5564 28.4270599718
36.3349 4.0004 46.5186 28.873540662
30.489 1.51948 45.5753 28.6903715835
35.6868 1.03497 46.9508 28.3697417848
36.8623 6.8785 45.884 32.417925111
30.9318 11.2978 44.0951 28.7139025676
31.1127 3.84312 46.4022 28.9078919218
30.2043 6.2124 44.2428 28.4142281642
32.5689 12.6901 41.9068 30.3014269348
32.272 16.0489 44.879 28.3185927106
33.694 4.74434 45.6151 28.994183576
34.2957 9.28178 43.5673 30.1252897099
32.2979 11.6941 46.5638 33.2380182617
36.7048 12.0858 40.4744 28.2748189773
33.0007 7.37263 45.0309 30.7110822232
34.392 12.1143 44.3617 31.0902073897
38.6049 8.44094 39.0171 28.5559357468
35.0248 0.461466 44.2307 30.7362994447
32.374 8.88061 47.2126 34.3463089775
30.8859 14.4009 47.0267 27.5637315945
29.8762 9.38301 40.4067 27.8090468539
38.7634 0.248997 38.6811 30.3189008456
29.8929 8.98113 43.3324 30.2815227464
31.5513 6.03876 49.5352 32.9931802214
29.8965 7.81229 47.8584 34.884095778
35.721 8.65687 50.8259 33.7325600043
36.3971 7.57158 56.1934 31.1753616915
37.9566 1.52094 52.3859 32.7025868489
31.5073 13.6985 51.8022 30.6225123064
31.4123 6.98747 55.3062 30.6635592714
37.5136 11.5361 47.6583 30.7171102195
37.1431 12.9012 56.2249 31.0761740265
34.6284 3.39904 55.0435 28.5804520278
31.5301 1.80568 50.7122 29.7413222457
33.4694 10.1742 49.6168 33.7090548757
37.2066 14.9959 52.2675 30.2223932511
38.2111 8.76962 47.7917 30.7942392807
38.7126 5.31334 50.0937 28.7917951527
38.3851 8.8521 54.7516 31.1519036244
39.3168 0.459022 49.7236 29.3683429836
37.1952 12.5963 51.3966 27.6389604626
32.8261 13.6679 49.3982 30.2028742241
35.5282 12.1499 49.2295 29.8783955271
32.9025 3.6463 52.6937 25.6256995455
33.541 1.39344 48.3355 26.3643626514
37.1274 4.92913 55.2392 31.8038907805
36.3443 6.35959 48.9562 31.0666743779
38.2283 9.47058 51.9485 31.0956262678
34.7412 6.45419 52.47 31.0182553399
37.1734 4.27614 52.157 30.2428261032
34.9033 2.75292 51.1756 30.2968355825
34.7872 0.744798 55.4402 30.6112494171
30.2383 3.55972 49.1839 30.2133161092
34.0233 4.62622 48.8701 30.6703717621
35.3566 15.0321 54.3816 30.8181163789
35.1342 15.1159 48.2223 31.7670805017
32.6834 15.4065 53.6356 28.1962034309
31.8176 6.09559 52.3009 28.0610977435
35.8533 12.186 53.8013 32.7861297931
33.6694 10.671 54.0623 31.9762272793
31.6632 10.8809 51.6807 32.2878854281
34.0659 7.93301 54.5553 29.5960394197
31.289 2.51345 54.6166 27.7363700352
38.4274 15.2221 56.254 28.3400538637
30.3881 18.2008 5.10312 31.6487432429
36.5969 30.6589 5.42955 27.4323777695
34.0437 18.3145 4.67807 29.5610071729
39.0771 18.512 4.69912 31.0952350759
38.3292 23.1891 6.13851 31.7431124438
34.5934 20.7246 11.0236 36.3482299717
32.8823 32.2333 4.98173 29.0327771239
31.5717 19.8218 7.08123 29.6909333754
34.0264 19.5514 8.5077 34.4204291461
34.1112 26.7834 4.42507 31.9666525424
35.7865 20.0608 6.3932 32.3231285335
30.4695 21.933 11.7907 30.2841888412
32.3681 22.3773 5.67777 35.2612045159
38.7152 25.7757 6.84438 29.1053962018
31.1562 27.0768 4.87376 31.7257542985
37.1815 16.9035 11.2218 31.8273921512
33.1838 16.7713 9.02083 29.5517518112
31.4845 30.6275 6.96499 29.7550075419
34.7285 29.9428 9.80136 31.9658347952
35.4352 28.2432 6.39509 30.3788187377
33.1476 28.6833 8.02165 30.7928631808
29.9503 28.8468 11.9531 33.7663634632
35.3221 22.6082 5.89807 31.3975473561
38.8419 29.4134 9.00416 29.4399649307
34.4914 16.7399 12.0878 30.7639697036
30.8085 18.1342 10.1046 28.2755818552
36.6941 19.4064 12.3702 33.8301837781
34.5757 24.4309 8.24958 34.5145390525
36.3344 26.5358 8.09138 29.0276895004
32.3551 26.0204 8.44466 31.8735187452
32.0664 19.7703 11.8486 28.8312344754
38.4089 32.0195 7.48856 33.0688553837
30.9639 24.7354 6.29513 29.0804300242
32.1454 23.9768 12.1587 28.6496385934
36.4605 28.1987 10.1603 26.1922357356
38.3329 19.3665 6.91155 31.2093928609
29.5534 20.7259 8.84818 29.1040982917
31.0565 26.3511 10.7974 28.804956483
38.8747 17.1972 8.77263 31.2635072092
34.482 23.516 10.888 32.9722723089
35.1384 31.3569 12.1953 29.6591887302
29.962 32.0003 9.12652 26.3693777039
29.7639 32.5393 11.8124 27.4628495718
39.0203 23.7454 12.2197 28.0700329281
39.1551 26.91 11.498 28.5130046565
34.992 32.4316 6.85714 28.5295232256
30.9871 21.5101 21.4944 34.4093813116
32.5249 26.7714 19.5894 26.3925813585
31.0608 19.776 14.6589 27.4847338905
35.703 18.7013 14.7678 31.4649213106
36.0548 18.157 18.8084 28.7097320584
39.0273 29.4553 19.4106 29.7979836038
38.5358 25.6336 18.5539 26.0282647438
32.6012 20.9089 16.846 30.6326178776
39.2495 32.1158 14.5089 29.4230279836
29.9735 25.8854 18.4711 31.2983984417
34.6244 25.7967 17.0142 26.9623627892
35.956 27.0867 12.8619 26.4706718837
35.1298 23.6592 15.1 27.7785158607
32.1766 23.5621 14.677 29.3947074991
32.5559 26.1711 15.15 28.1819366828
39.4169 21.6354 15.4757 28.1564501154
30.2967 27.193 15.9502 30.9100277653
36.972 27.8607 18.0663 25.8416228432
33.377 28.7971 17.538 28.9416694426
30.7995 23.2268 17.654 28.534046901
38.2325 31.7711 18.289 30.5818010406
35.2195 30.8167 18.892 28.7605871023
35.726 30.5829 16.0516 28.8474672867
33.9078 29.7113 13.8867 30.7608370489
36.0875 23.5229 18.674 27.0797963651
33.323 27.3819 12.554 30.7736504012
35.8867 26.7356 20.5271 28.3885217335
39.147 23.9225 20.7252 24.6169679769
33.0158 17.6156 14.6296 31.4884652544
33.8111 19.7924 19.1383 29.6769949908
32.6942 17.1753 19.5432 30.5242444483
37.3816 26.5768 15.3829 27.7969317481
33.1909 23.9871 19.0973 29.0369979486
35.2812 21.2696 16.1084 28.1531278086
36.8857 20.7662 17.9962 24.6951845789
37.8519 23.82 16.3313 27.8704074628
29.3536 20.9776 19.0054 32.1622275949
37.3022 17.1837 16.515 27.7430267035
30.7823 29.8857 16.9481 28.7269839049
38.9592 21.1874 12.7884 32.4018770798
30.8747 30.9216 13.9322 30.3423970236
38.378 29.8202 15.8084 30.4903778581
38.2228 29.4278 12.7734 28.6864529964
31.8601 30.1915 20.0634 30.2672929184
36.3401 24.4918 12.606 30.0832240837
30.7222 16.9338 21.3016 30.8709061316
34.4435 32.5966 22.6966 28.4813073545
34.2399 16.2704 24.1238 64.0037332733
29.942 24.626 24.0681 62.5563529902
33.1016 30.7635 24.3701 71.557160036
31.2631 19.495 24.6973 95.786428951
