2.02748 20.0839 21.0555 27.0016699112
8.84879 17.781 16.3766 29.9966102264
2.15302 31.9672 20.8064 28.0492115301
1.49969 27.0011 21.2547 28.3190361568
5.18873 19.3842 24.6096 123.5926427938
6.68759 24.7773 21.8345 25.9757272476
0.554437 26.8983 23.9827 74.7417935359
0.416203 21.2148 24.3113 96.2741285329
6.94493 23.1942 24.1714 76.3700793466
6.04132 31.8995 21.167 26.6179982659
4.7056 32.0072 24.7523 112.1091574564
4.20183 23.7244 24.1374 92.2624462909
7.55125 31.6894 23.7551 47.2415673687
7.3849 20.4299 23.5206 31.5415790168
3.28168 20.8615 23.4262 34.9714910252
9.09888 26.5529 20.9054 26.1497070675
4.2622 28.3415 22.0346 28.8887607089
3.98081 16.3886 21.182 29.2600301247
0.973486 24.1313 23.1143 30.7594761291
5.92845 26.9729 23.9648 92.3958535086
9.21432 16.6421 24.2796 76.4802492093
3.16234 30.5615 23.0775 28.6370237441
8.07529 28.7197 23.892 73.8618441544
4.62878 16.7423 23.7822 45.355505353
1.15395 29.6945 24.5358 120.1273764567
3.60501 24.9777 21.7905 27.5621678846
9.52824 17.6749 21.4684 28.0067204052
9.43642 23.0496 21.1821 26.4610843215
7.97019 29.2768 21.0325 28.0475091291
0.505794 32.8284 35.9255 75.2885104842
9.73709 28.5559 35.6642 93.39450919
5.0776 26.165 35.7467 71.5885707606
0.677004 20.6871 38.6649 31.0870328622
1.9065 27.6765 36.5693 39.4307260921
3.98608 22.2499 36.1877 41.2399796801
8.07389 26.4458 36.1124 49.8298156122
3.17028 31.6124 35.7525 89.035901598
4.70119 19.3578 35.5534 93.0700160366
7.24273 22.6143 38.2806 28.0164308299
1.00274 30.1247 37.5403 29.2290637855
9.24996 21.9053 35.4646 102.3266300505
2.40969 17.2551 36.0072 49.8042520607
6.6287 23.4772 35.7292 75.4265466093
4.62111 28.8931 35.8151 76.0464234893
4.77999 26.024 38.6922 29.6538299334
7.13404 29.8578 36.2012 44.4794919163
2.35493 24.6922 35.6667 96.0118684971
7.29247 19.7553 36.3252 32.2758920406
1.20789 21.3562 35.8984 67.1724117416
0.00971462 18.8214 35.6913 83.833912484
2.03729 25.7397 38.748 27.3224721592
4.93853 18.7525 38.4326 28.0376076011
4.58275 21.6999 38.7588 31.3005120945
8.6216 17.4066 35.4374 102.1460344718
2.05505 17.3452 38.7955 28.8906715301
8.71926 27.3434 38.868 24.8943999898
9.24508 17.04 38.6878 27.5967106859
9.89307 20.3619 41.6741 27.397395296
7.92615 31.4266 43.7334 30.5617850443
7.12801 19.2888 41.9637 29.1362707804
0.551685 20.2358 46.4964 36.4909906913
4.57927 17.5893 41.1757 25.569290602
1.77241 25.2702 45.1103 30.7304277951
2.72865 22.9538 40.4081 29.8993101322
4.33734 28.7647 38.8546 29.6097002411
1.02811 21.7223 42.1494 29.4789043679
2.04475 22.0319 44.727 29.628896157
2.27333 32.4231 43.7198 28.6210659671
6.93217 24.1743 43.0209 26.7518938753
4.9511 31.2611 44.4254 29.3611920948
4.45482 24.7345 41.6194 32.4267792341
8.59072 29.1185 45.4538 30.1515265301
7.90822 17.6927 46.5811 26.1868658198
9.52268 23.1234 42.0687 31.0898056299
0.136657 17.8862 44.6722 31.7353792087
7.47047 25.239 45.4341 26.8783110648
3.47962 32.1626 40.2354 26.5103889358
8.83631 17.0004 44.1084 26.7247316542
7.03878 29.9875 41.6119 27.2878813164
3.9657 20.2929 44.8897 29.7864514631
2.36019 19.394 41.0544 31.5820554332
0.1759 29.7713 47.7611 27.3560057547
6.06076 21.5832 43.5462 33.8122856613
7.48051 27.5515 42.8234 28.896894461
7.4683 20.1955 45.5618 28.6743603778
3.1356 23.4815 47.2599 31.920994917
0.517549 27.2322 40.4354 30.5443628757
4.12966 28.8425 45.8908 28.0762632626
4.59886 26.0435 45.937 30.0944801539
1.49198 29.6264 40.1976 25.311225463
1.36829 27.3592 43.27 31.2296735676
9.66847 26.9497 41.4691 27.4583782687
4.03147 29.7556 41.8961 27.606421378
4.48155 27.1542 43.0892 28.4828613833
1.30336 29.8472 45.2058 29.4984005371
7.23182 24.8783 40.0836 28.1305682815
4.47305 17.5815 43.7956 30.5252224885
7.34652 22.8254 46.6535 29.811247417
6.27655 29.3889 47.4818 26.3938996666
9.81382 21.5061 38.8891 26.4889425263
8.58352 31.8742 39.3238 29.040597772
7.14388 29.3328 38.7533 26.2080607162
7.67903 19.2225 39.2476 26.0746117106
1.79053 19.4223 48.9995 30.2745961999
0.527886 26.749 53.7817 28.0101309112
4.07236 28.6954 49.4962 27.6485609997
5.5453 22.9284 48.8189 31.6075301945
5.97891 18.2653 48.389 32.4502406882
6.15536 22.6464 51.7298 35.9718049007
2.02018 31.2662 50.6855 28.8858923878
0.938722 24.1339 54.4995 31.1874492237
2.14693 24.1343 49.8299 32.5426845616
4.11477 28.069 53.6169 29.1952593594
8.31603 27.5302 47.8973 27.6576661228
7.78668 31.1163 53.426 29.9198004889
7.96966 24.8528 51.099 31.2639179055
9.57991 18.7275 50.2543 31.6361688443
8.07299 17.3985 54.4949 28.5203833849
1.3555 27.9475 49.5281 26.6317755574
4.41209 24.1182 53.1927 27.6664855418
6.24641 26.0728 54.4849 39.578812414
6.87523 31.6937 48.876 29.3587490722
9.56757 20.9999 53.9374 31.0906525477
2.94383 31.0576 47.9798 29.5366387447
6.81029 18.1216 51.0128 29.259414151
4.34345 20.312 47.6716 31.4148250374
6.0304 27.0179 51.1004 26.8700643487
1.82689 28.5493 55.3765 29.6000835521
2.42252 20.1777 51.5561 29.3577765731
0.670925 31.1257 54.851 31.7172307585
4.49267 30.3691 52.0934 27.6927997919
5.68779 30.3886 55.2468 32.3922654781
8.67736 26.3041 53.1365 31.0107545704
5.96445 25.8163 48.5436 28.7462486326
4.39578 19.0618 52.9989 28.9071896005
4.56316 18.8094 55.6775 26.5763656406
2.87518 26.1484 51.7715 28.0128719745
3.53812 31.9198 54.6291 28.3144704854
0.383263 26.1886 47.6373 31.825358516
1.87322 16.3927 49.445 30.4272934513
4.89753 21.9092 55.2291 31.3411994686
7.15102 20.126 53.4192 27.5153464466
7.49672 29.5827 50.7458 29.2644294713
2.65947 23.145 56.7166 31.2031523917
2.16724 22.6385 52.4481 29.4471834382
0.703073 18.3398 52.7354 31.4288758513
4.39131 16.1441 52.4528 28.4627874987
9.4384 32.3672 48.0 34.7578729801
6.30966 27.9211 56.9147 36.1986981928
4.648 33.3198 10.265 31.8694845009
7.3847 36.9187 4.07435 27.6479832926
1.27139 44.2961 11.8478 31.9640265623
5.26985 46.7453 10.4634 30.5175682089
2.75216 48.5471 9.56062 32.7942728679
1.57095 44.197 4.37004 31.5066314034
2.52794 36.145 5.18969 27.9141769387
4.74346 42.3982 8.62492 31.8853012713
6.86174 44.585 6.99141 30.3061700054
8.98337 32.5407 11.1065 31.1255497963
0.425216 34.2152 5.76486 29.7801126547
8.12321 41.7644 5.37702 27.3557334794
2.05909 39.5189 6.01653 26.8160434714
3.43466 44.7343 9.9025 30.3035817912
8.63707 48.0367 10.1108 29.2527707703
5.36323 38.9292 6.03101 28.6122066283
4.92402 47.3066 4.5893 29.1406547733
3.74459 34.3014 3.79386 30.6469100064
7.52027 44.013 9.58631 27.4263599398
5.57908 41.8702 5.9662 27.5490569886
3.81071 37.7628 10.5483 31.4991381346
0.258691 39.2179 8.79445 31.6209470615
5.85613 36.6672 12.3261 33.4352026646
6.02394 35.1003 5.51835 35.6814107711
8.18535 38.0557 6.98539 33.3763782346
3.60675 42.1304 4.25011 29.8438692732
2.11126 45.0189 7.22706 33.3916443183
4.04742 47.0348 7.10337 27.190043228
5.49163 44.0271 12.19 31.7196749971
7.84389 36.5251 9.4232 33.5410197306
6.20928 34.3954 8.37172 30.5236556371
3.46286 39.6459 8.5678 29.4426743002
0.0725938 41.8312 6.10033 31.555655914
4.16042 36.7063 7.4237 29.8700904548
8.67585 37.4012 12.1222 28.7068442138
6.70037 47.5037 8.33922 27.9713855387
6.63703 41.2467 10.5889 40.9000578405
8.60411 33.0498 8.54389 29.8853582395
2.66897 35.231 10.0414 30.5576124038
7.54268 46.9441 3.98686 31.6230258552
9.06604 40.1904 11.9525 33.6617055608
2.11572 40.2206 11.438 30.1774205265
9.49437 45.5114 10.756 27.6779222883
0.246957 35.1186 8.46491 31.0226146822
0.0583629 47.1055 9.52562 30.5121312968
4.67048 41.999 20.926 28.3032104159
3.03202 38.5526 20.5666 28.4097527255
4.1623 47.9823 18.0082 31.4120424108
9.24982 40.4921 14.9018 31.981653411
8.93891 47.8464 17.6399 27.1658062679
1.58844 35.2245 12.5931 30.7007188643
6.94298 35.2542 15.1084 30.6301754581
6.14067 46.5885 20.7778 29.0001642718
4.57323 40.4956 15.0984 32.0621930661
5.37666 33.8053 17.7635 31.9627308369
0.974319 39.6329 16.7705 30.3957377561
6.76659 38.8663 14.5115 31.960922619
6.03585 46.7308 13.3834 31.2627084484
8.39935 34.8056 20.679 28.4048694793
1.49323 37.9669 13.1868 28.5107519896
7.57853 48.7224 12.6692 31.9311111786
3.71695 41.7094 12.9438 32.4580083821
2.71951 44.3795 14.2254 32.4567422215
9.11607 38.4422 18.6479 29.0263851639
1.69292 47.6608 19.3519 32.985349127
4.18115 46.6733 15.5064 31.4175317928
7.62673 43.2011 19.1751 31.6612285951
8.86224 45.5837 13.5353 29.2469278788
3.15296 33.5006 13.7189 31.7096921011
0.399639 38.1906 18.9695 29.6131972539
7.81789 35.1748 17.9713 27.7237496252
3.52717 35.0917 16.0675 33.1576759787
1.52314 33.7577 17.6425 37.8658469036
6.98727 37.7656 17.2271 30.0204732925
4.90501 38.9478 18.5545 29.9390884126
3.12513 37.9367 15.5574 32.9064692149
9.50653 42.7589 21.5366 25.197960686
0.745396 41.9132 19.8419 27.1358828942
6.50921 46.5434 18.0825 28.9571917222
7.08493 40.0757 20.3212 27.8353365902
8.03682 43.0254 15.1542 34.6362852975
0.962591 44.4592 16.3281 36.375562745
2.06876 41.9953 17.608 30.3007465198
4.72968 41.7207 17.9796 28.1259441781
6.04771 44.0008 17.0432 33.0249191613
3.89292 33.8721 20.4972 29.076684555
2.21746 48.1935 13.9141 33.0493811242
5.84333 33.6695 12.948 29.5914078545
9.66328 35.3191 14.1768 33.2259983942
1.62577 44.6056 21.0208 34.6107477006
8.82095 45.6294 21.2476 29.5438276048
9.64639 48.2177 21.466 25.8542100782
4.29574 47.9725 24.6894 100.8028547079
2.7294 36.1966 21.7585 27.6181536551
1.39041 39.2919 24.5713 96.2952567419
9.77559 39.7667 21.574 26.85146542
7.11115 34.4186 24.5449 95.3042317883
5.81133 37.5446 21.5292 30.7156194981
3.23627 37.0338 24.3749 64.7337653421
1.98022 42.3497 24.4066 85.7553882386
1.53239 47.3481 24.1774 69.0531340142
5.91751 38.3178 24.2728 82.0076418358
5.95864 34.8789 22.1582 26.0304166695
4.70011 42.9981 24.3613 88.2479207581
5.75132 45.7044 24.2155 58.1299354074
0.503395 44.7282 23.8099 45.5746313191
8.8736 38.0673 24.2534 74.8800996546
8.58638 45.5011 24.0513 56.8777018505
8.25135 42.585 23.8188 50.4484376398
4.35068 44.686 21.7609 32.5065250993
6.18539 40.8425 23.1746 30.2674936051
7.21054 48.767 24.2876 54.2458448016
2.84071 34.3857 24.5507 71.2883984497
2.24064 40.6452 21.9239 29.6995815523
0.446193 42.9293 35.7913 79.05381019
4.31348 46.1013 38.4918 29.2672452252
3.67929 47.9011 36.1 57.4252046097
1.35407 35.5871 35.3155 105.231400645
1.67289 38.1588 37.9305 29.3505454277
3.59912 36.8969 35.6575 72.7460458806
9.77322 35.9608 35.886 63.3775457641
6.4192 36.0016 35.4027 91.3468988592
8.01084 38.5128 35.5232 108.2149744971
6.37605 37.326 38.2171 25.5411462001
2.46739 41.0489 36.1277 51.7662279128
4.36242 42.8539 35.4378 126.1646901358
0.902479 47.4271 35.6738 72.7689034045
6.63993 43.6425 36.7597 33.9661652825
6.77507 32.7277 35.8334 79.5674058701
5.21655 39.685 36.5623 37.1075234795
8.15172 41.1821 36.5328 35.7943674767
2.64008 44.7988 36.126 44.4668249732
8.04873 49.1333 37.3253 37.861788625
6.63553 46.5892 36.3147 61.2864062382
2.15156 41.0312 38.866 27.2434435479
0.715076 34.9225 38.2015 26.8761787769
9.34929 33.35 36.5934 33.9531604436
4.33499 33.1377 37.8283 30.0544956472
9.46035 46.5041 38.9321 25.7811766943
3.76064 35.8473 38.3254 26.6417568196
9.33262 45.6996 35.808 74.6945826835
6.83569 34.6 38.3988 29.2997581396
0.183035 48.0211 38.5778 30.257103751
5.34075 38.5692 40.5599 35.3321282847
4.34264 45.535 45.2645 27.0856918876
6.92157 45.8182 39.5897 28.9491906544
0.276311 39.963 41.0741 30.3728989537
7.32036 34.3333 43.6634 27.0482004191
2.57819 38.0468 43.5849 27.1341844792
0.0936381 47.6803 45.5333 30.9585484468
6.63536 44.2821 46.8942 32.7021256008
6.66629 46.0191 43.8037 31.8190584125
2.28092 40.5086 42.8136 26.1716367377
0.707252 43.0681 43.6043 30.0892000555
2.96876 48.7271 42.6522 30.3859891926
9.21371 41.7938 45.7706 29.8311355312
7.64462 39.2201 42.4608 33.473447557
7.09894 41.1688 44.1473 34.2228159188
0.253433 37.3208 40.4033 27.8898610283
1.23855 40.2944 45.66 29.4922130854
3.82597 42.4944 41.5366 29.6760734107
7.46602 43.0684 39.7826 27.1505131117
3.92704 48.3214 45.5571 29.3081434683
9.56779 37.0646 41.7744 29.7849973664
6.445 43.5267 42.2856 32.5476342304
2.9822 44.7447 43.0849 31.7765249095
9.42935 45.5648 44.2373 32.7467184632
0.482224 42.9948 46.5612 27.8615801068
2.8568 48.1957 39.3863 34.2734638807
9.39687 34.5189 45.9581 34.2452325128
5.82452 48.4265 42.7592 30.9682248298
8.30677 34.3959 41.1866 30.5393209351
3.0876 36.3472 41.3867 29.1506684515
4.47332 33.833 41.8935 31.2064406583
7.34668 37.0848 44.4699 30.8963439908
0.954924 46.7607 43.0536 31.0214516942
9.03009 37.9894 39.36 28.3757386395
0.648812 34.272 45.8303 31.9494742943
0.247231 36.8733 45.0422 27.7310542724
8.64004 37.3386 46.9058 29.5357724466
8.97282 40.5343 38.976 29.6945555953
4.3285 40.811 45.3746 30.7856372717
4.6367 37.2874 45.077 32.2602377284
4.81579 34.3026 44.9519 31.2216445951
0.983533 33.0744 40.4524 27.8159088147
2.40643 44.7289 47.4487 27.7880892377
5.22282 40.9353 39.2284 29.7152651701
4.51991 38.7151 47.5801 30.7310804061
4.32958 42.6628 47.1142 29.1357428908
0.8704 34.744 42.5444 27.7202529947
2.27183 44.1934 39.2759 32.6249134817
6.21897 36.6025 50.3384 32.6167885337
0.282293 43.6803 50.795 28.6321515268
8.46463 48.0098 49.1806 30.0438524483
5.05032 44.901 52.034 27.9678985748
8.42626 35.4563 51.4269 26.7436327298
5.35737 38.6638 51.8662 29.095778975
3.74431 37.3851 54.0968 29.8878502588
1.1189 38.2363 53.2862 27.0317076037
7.90976 42.2167 54.437 27.5485482251
1.58326 35.1597 48.4264 29.9890307037
7.00612 38.7076 48.4882 29.8843336272
4.06741 34.6459 49.7156 30.9010174244
4.0124 42.6483 53.376 31.7848736137
4.48137 41.9218 49.7927 32.0510329602
3.52901 33.6529 52.1419 25.0547440045
1.80097 47.3385 50.4416 27.8047615506
8.77195 43.0592 48.1447 25.9047739848
9.48468 45.3614 52.8522 29.1906156866
7.45994 44.3618 51.0719 30.7356998407
8.47421 39.941 55.9036 29.2111009495
6.0203 46.6686 49.0414 31.1368856371
2.15758 47.0753 53.441 33.0114920151
2.64533 39.6332 56.0211 25.6723670548
7.8422 38.4196 53.5479 28.1270501358
7.36683 35.6372 54.0394 28.191966621
0.360989 40.9192 51.1921 30.2485698192
1.59687 37.8874 47.9316 28.3353301049
4.63529 34.9881 54.1858 27.3786096893
8.23465 40.8636 49.7441 26.2227104919
9.27446 33.2843 54.4765 30.0781812757
6.31698 41.1137 51.9551 26.0147269521
9.90131 38.1178 51.4515 28.1373400339
0.96653 34.7796 52.6147 28.9442289002
6.68745 32.8723 51.694 30.0413142559
2.66349 39.5273 50.2013 32.5292842593
1.57392 41.341 53.888 28.157529113
5.42596 44.0131 55.4703 31.1792065208
0.732026 37.3815 56.1232 25.6850571153
3.28064 45.8669 55.8203 34.8045594669
8.61256 47.7727 54.1868 31.2304612991
2.89789 44.5403 50.4123 27.5250257387
4.76242 33.139 47.6439 32.5018123901
4.81167 47.5096 51.3584 29.3401548844
0.591894 36.7565 50.7175 27.8498953625
8.14343 44.0653 56.6078 25.1769310357
9.44737 42.1878 52.2163 26.185212297
9.97331 45.9163 48.1177 27.8984338295
5.6426 39.0703 56.0134 30.5497170633
2.14036 47.4576 47.4842 27.4861730071
13.8387 3.12743 11.281 32.0424721103
13.4556 1.92833 6.20886 31.8612798102
18.6451 3.29736 10.1014 27.8520820976
17.567 11.1102 11.6125 27.7343542457
12.1246 13.4915 11.3589 27.9612304468
10.1488 1.22339 9.47301 30.6846388421
11.119 1.71642 6.87198 29.742458161
16.2565 4.47605 11.0009 30.6329745453
18.175 14.2959 6.68684 30.2332592905
13.847 8.54168 8.45567 30.6863285656
16.824 2.06928 7.62755 30.0272759427
10.3646 9.66897 7.1107 30.2479655885
13.4373 7.34395 5.9309 26.7464613327
15.0653 11.181 7.82909 31.7689475909
18.0432 8.71107 9.86975 29.6338604536
16.0444 6.03522 7.10405 33.6592693769
17.3989 8.05589 5.18321 32.7872952039
19.5615 12.808 11.1188 26.2691550606
13.3969 13.6028 8.40222 28.7637161201
10.7292 12.3971 8.45325 31.0587075652
15.2875 14.9252 11.4535 27.9024214223
15.7826 7.02071 10.0238 30.0758845304
10.4709 4.20739 6.12546 30.6451372489
17.3528 9.80726 7.54294 28.4575199859
9.96218 11.1665 11.4747 31.9287683525
14.8765 5.12174 4.40599 30.5785715265
15.2983 14.9958 6.45212 29.3829703637
14.5247 1.21696 9.01779 30.8506219085
18.261 0.958908 11.8221 31.0807206355
9.98352 13.7615 5.95391 28.9059528552
17.6813 14.6379 9.77884 30.8263552444
14.6847 12.6309 5.32268 29.4692903644
13.7477 8.63539 11.88 29.5762622887
18.7057 4.92003 7.40961 29.7220051578
15.2675 12.1882 10.7453 28.2733836391
13.1949 8.97834 3.97347 29.3594672622
11.8079 4.75568 10.4908 35.5900783117
10.9362 11.4004 4.95553 28.6910754956
11.1183 6.78879 6.87696 32.1702385613
11.5035 7.46394 9.68034 28.6869154549
12.0203 4.84917 3.73632 28.3805630968
18.5192 0.181594 5.10551 28.7243564494
14.9893 1.09694 3.9263 29.8148160665
17.0113 2.99273 5.03572 28.73368147
17.3085 12.6815 4.38035 29.404246747
10.8292 16.1554 9.59539 29.1112471064
11.8661 15.9863 6.83847 28.1387247441
19.4243 11.7467 7.05719 29.7525741189
14.8388 1.17105 19.9099 29.5816893515
11.4356 3.4926 17.3856 30.5722212738
14.8099 2.13858 17.1552 26.06476184
12.8012 12.1811 18.7723 29.2567746243
15.4211 14.7803 14.1727 31.62706271
9.77085 2.87023 15.2871 28.3440350811
11.5356 6.4435 16.3276 27.6389053369
16.2734 6.73762 17.206 29.6330104817
17.0329 4.31802 19.7322 29.9483870005
19.3101 0.179357 21.0503 33.061095851
11.8731 0.866972 14.0581 29.4547751706
15.1895 7.13022 14.0468 28.9927907424
11.3534 9.75848 14.9645 29.5450383856
17.158 13.8052 17.0646 28.0348817813
17.1932 12.2347 14.3975 29.6994340757
11.3506 12.7976 14.2921 30.5027887173
11.575 7.49536 13.1524 27.8318844634
12.7852 15.2842 14.7255 32.3461055201
13.6389 11.1128 12.8271 29.4006243375
19.0134 15.0977 15.1936 29.28731678
12.7857 0.00374172 16.4881 26.4777272158
17.7031 11.1586 20.6723 30.3159539315
10.2355 15.4665 18.3727 29.6395556474
15.8756 9.54842 17.2184 30.0488642332
15.8058 9.85456 14.5244 26.9996755164
14.0593 5.1971 16.0904 26.0468770445
14.1544 4.42234 19.1351 27.4119651017
19.4681 5.58351 13.08 32.0075782944
10.1572 2.43718 19.4359 28.46678017
12.2268 8.06883 18.7035 31.1497152135
14.8531 7.17745 19.5675 29.501918922
17.7904 8.28607 12.9368 29.1376464747
16.7766 4.92099 13.7084 29.522457387
13.2074 10.0306 17.1182 30.2691095911
13.9679 2.97221 14.3863 27.7435164008
17.5762 2.0193 17.0257 31.536932367
14.8655 14.0277 18.4559 30.8039360247
17.8926 11.2998 17.8839 30.1349590624
18.765 6.15287 18.0925 28.5287282163
10.3732 12.7033 17.1663 31.1901977568
19.3077 -0.202011 18.1269 37.0411032137
18.3383 15.4051 19.3352 30.3293578093
11.1684 4.82112 13.7751 29.7594977657
16.8861 1.97394 14.3197 32.6121868797
12.436 3.75596 21.6009 26.9886069036
10.952 9.62841 21.3266 32.1204744748
13.9612 11.0278 21.1715 29.1967361204
19.5817 1.69149 23.8568 52.613847927
17.3603 6.37536 22.4631 26.4662235812
18.9692 4.70763 24.1717 77.250152342
10.9578 2.05276 24.3531 71.4334474063
16.432 2.81557 23.9825 63.9729479621
14.0858 1.28251 24.2767 76.5410126039
9.96404 5.62743 21.2104 32.8805105511
14.8674 5.08764 22.4832 27.9922339146
19.2802 13.9925 21.3721 28.7755946103
13.8296 6.49262 24.3297 105.494291757
11.3758 4.80712 24.1665 63.8312011641
18.2196 8.36779 24.5443 112.0873606799
10.6162 9.12949 23.8508 55.9087119465
13.9397 15.8707 23.8922 45.6358019625
12.6235 1.23487 21.8319 25.895858831
15.3611 8.82267 24.0592 62.9815696257
13.5984 11.3132 23.9364 56.8675837773
10.9673 12.0015 24.1719 80.9538597041
11.3203 14.7837 23.8875 55.6155004168
15.304 13.4642 24.2488 81.16014373
18.1096 13.3078 24.3863 90.4679390853
19.7529 11.0059 24.1025 48.3205388401
16.0975 8.97865 21.3557 29.8193255726
17.074 2.0565 21.3885 31.2185811143
11.4545 15.6026 21.1779 28.1841747592
10.7629 12.6979 21.0631 30.541376746
14.2744 15.838 20.9727 26.6208588932
15.7795 13.1755 21.3217 28.9398067645
10.355 13.735 36.7565 33.6706138479
10.3492 5.33184 35.5381 90.3750716178
12.6409 3.52776 35.7278 76.9247824166
17.7347 5.91417 35.8354 83.4079877594
19.289 3.15176 35.714 87.7114352422
16.5501 1.86413 35.6353 82.0889949067
14.5256 12.8304 36.2056 46.5555807005
16.4553 5.67982 38.5845 29.5530001494
19.0174 7.2307 39.194 26.5224396395
18.4722 8.56499 36.3642 45.2698617965
17.4539 15.6478 36.1128 48.7655950255
15.0041 5.0017 35.8037 68.1253550888
14.0595 10.168 35.7771 99.7790121443
16.2439 2.82578 38.188 28.4574635646
11.276 10.8556 36.0711 68.2232993066
10.5043 6.8052 38.5533 31.4557702569
13.2883 7.2338 36.0188 57.8869053455
17.5508 12.8943 35.7175 80.3003818677
11.871 2.72447 38.2809 31.7653144201
12.6241 15.0197 35.6143 112.6433397003
15.7863 8.56709 37.5768 30.3267264144
13.5444 0.552871 35.7674 62.5194648425
10.2725 8.0824 35.7926 67.6859923608
10.117 11.1444 38.723 27.8972141726
14.1665 2.66841 40.0365 34.0740115122
13.1086 7.8729 39.1113 31.8218129797
12.2806 5.7162 42.6931 30.8187333748
17.5195 16.3056 45.6212 30.9059959593
11.3794 8.2227 43.2392 32.4900291102
14.2945 5.66983 40.601 31.8958830383
17.833 8.25831 41.5862 27.9537850614
15.9944 6.68796 42.8557 31.9217182045
11.8267 13.9184 42.5243 28.6746391196
13.0527 9.63374 41.3609 33.4604922771
10.7763 16.2474 41.8179 27.1080750179
19.4849 11.2889 44.3113 29.6787180149
18.2539 5.00495 42.7033 31.9310758516
15.6208 10.1531 41.9803 30.7180961225
17.2922 10.3914 39.3136 30.8725749156
14.2459 7.04203 46.6745 37.8628826143
14.639 13.6084 39.0672 30.3087523489
10.0266 12.4187 44.7701 30.0764377188
9.68089 1.14658 40.4458 31.1419611345
17.4671 13.2213 45.8095 30.4735698358
17.8293 2.68778 44.5692 33.2440974265
13.9461 1.18715 42.2308 31.299796132
11.8879 8.32948 45.8798 31.0836806634
11.2042 3.62655 46.0426 31.0671122205
19.5309 13.4628 42.4812 33.1308538763
17.7454 1.06357 39.6488 26.9012691642
15.1198 2.29534 44.5258 33.6701834273
13.5057 4.6574 44.9664 33.9144567115
11.8319 11.0246 46.2845 32.3430433804
12.6151 15.8455 46.7349 31.8257137374
17.3319 14.9506 41.6463 29.0718491757
13.914 14.213 44.1619 29.3367343554
11.4727 -0.0466542 42.635 28.9631971021
12.1758 12.2291 40.3858 32.3533305091
14.4801 12.0584 45.656 31.9911438698
16.5994 7.93453 45.538 32.0854337034
16.8767 10.3876 44.5911 28.977524365
15.2145 13.1597 41.851 30.9197665247
19.041 2.03663 46.9811 33.5664411316
18.4222 8.27177 47.4573 28.546718576
18.7048 1.47246 42.1246 29.9890675189
9.98569 14.9797 45.649 29.7275308365
10.1465 2.16012 43.9568 28.6293846483
19.1221 4.85807 47.1339 34.5604455837
9.83068 4.27533 39.5089 29.8089687557
17.3317 13.024 38.427 27.1373195222
18.4018 15.977 39.0624 29.3149994788
11.3494 8.16626 50.1284 34.5848853491
12.491 3.10507 51.21 32.4347039141
18.0393 10.7126 48.8926 31.4832217108
14.0135 15.9381 53.0318 30.5534333861
13.0107 13.4955 48.1079 28.759628305
15.1815 5.757 49.1792 39.0889823456
11.0332 4.46946 53.2437 30.5345830426
16.0429 3.76939 53.4344 33.5518110941
15.2092 3.25803 50.5377 31.2921418391
16.7967 8.72233 51.0707 30.8910508441
11.6123 2.47199 54.9931 29.2027473784
12.6407 13.8157 50.8764 30.0967028605
14.8858 11.6761 53.8701 30.626256198
14.8897 11.029 50.6809 32.1180803003
14.1594 7.75957 51.2445 33.7576007714
13.0593 6.45998 53.7585 29.5844036814
10.3264 15.0324 51.5328 26.988664646
15.7358 13.8436 51.9207 31.2445212108
17.3809 13.9319 54.7866 35.1224496807
17.7118 1.86114 49.3971 30.0273321653
10.8274 10.8531 54.9869 25.5011760047
10.1221 13.4773 53.9432 31.237233046
9.87958 3.1543 49.6539 30.1921897197
18.3884 2.15661 53.2269 27.3300957384
14.1802 1.65241 54.2721 28.8568679262
11.2532 7.56528 55.6843 28.2537234329
19.319 15.6155 54.5171 28.8364643736
12.5205 10.8901 52.3241 28.9068993186
14.088 1.05858 48.9209 31.3804215767
18.5371 7.76181 53.3617 31.0115371532
15.6474 6.36109 54.8467 27.5803839894
17.5282 14.6362 49.8483 27.8144820184
18.3971 5.14228 55.0982 35.0194355098
15.6797 12.6145 48.3638 30.0281860584
10.9835 11.3433 49.458 31.0405246707
17.9089 10.5888 53.6532 28.3907750046
11.6489 1.69826 47.9297 30.2236684303
17.9039 6.50312 49.3677 28.6440779691
12.6149 15.388 55.4401 30.8740485006
19.2082 13.5211 47.9722 26.9965630573
10.9178 8.61271 52.9244 26.8566896347
13.1484 12.6348 56.0691 28.8714043854
18.6069 10.4203 56.3536 26.792926345
15.6724 9.03107 55.8555 30.8621925647
12.1079 0.159322 51.544 27.3458910958
18.831 18.9189 8.13281 29.3627831045
15.601 25.7895 11.9688 27.4146618397
14.1678 16.7803 4.64753 36.5389065319
14.0933 18.1049 7.7184 28.5387224833
15.8925 30.3279 4.61712 27.4927567292
16.2071 32.0531 7.0058 31.5977400478
15.4679 31.1484 12.3286 27.790366553
15.42 22.3258 9.00246 34.1828414985
10.1855 18.1479 6.32584 29.0704562223
15.0953 19.6676 5.12188 30.3115796951
18.3952 16.4719 11.6691 31.3148524728
16.8561 20.8398 7.09327 30.6218220849
13.1166 28.442 10.0232 29.2326930607
10.5966 30.4336 11.3567 27.8366565682
13.0165 25.1843 5.41292 30.2187054943
11.1995 24.5239 7.28004 32.7619702893
15.5131 25.4027 6.59922 27.2544462081
18.0956 26.9955 8.218 28.556325226
14.1326 28.1998 5.55315 31.7242646632
11.1338 20.458 5.22878 33.4756477829
10.0084 19.0281 10.8727 29.7401225884
12.4226 29.1459 7.33763 30.2108888433
13.2031 31.4804 10.9755 30.3860255821
19.129 25.127 10.3906 31.521936618
19.1946 19.1976 10.9868 32.0398821695
13.531 31.783 6.66246 29.3491501958
13.6573 16.6972 10.3105 32.8447230326
18.6306 24.7414 6.56122 28.6440167757
12.1277 20.9297 11.3588 31.9017054142
13.5425 20.4376 9.09209 31.223486722
16.7091 22.9181 5.21117 25.8320538975
11.5408 21.7518 7.8151 33.1365774577
14.4496 24.8393 9.00025 29.8309230371
16.7962 17.1963 8.49454 34.3534437422
16.8539 23.3006 11.5022 32.2709632714
11.8147 25.4 10.143 27.5815045894
15.856 27.6257 9.92602 29.2305526324
17.9317 30.8042 9.17051 29.593310089
17.1845 29.3218 11.4331 27.5092599827
19.1285 29.2747 7.06566 26.7518410233
19.4472 25.8605 4.007 26.152139056
10.3991 27.7373 5.7413 29.9000456613
17.9969 28.7888 4.25866 28.3353901
9.97698 28.5995 9.42323 26.6023494923
16.6045 26.2984 3.74067 28.1577724027
14.3255 23.4085 3.77606 29.0547124071
13.2806 32.5951 17.4503 32.0372106596
9.78314 26.9677 18.2529 26.4913487387
15.6443 17.682 16.3571 32.410375169
17.0974 31.8848 16.15 30.2384860608
17.4988 17.1564 14.4696 29.4924778759
10.4383 19.9662 15.5125 29.6461556356
14.2637 22.6347 15.9675 27.9242531702
13.4586 16.4709 17.6799 31.4315783517
11.8516 23.9751 15.5767 29.867985968
12.3198 19.3734 13.7073 29.8767184783
18.9003 22.6822 15.7849 30.8886086434
10.9554 26.7907 15.4401 26.6332888005
18.7562 19.5663 17.9285 31.1108131889
14.1864 27.6377 15.1023 28.2433442659
15.9997 28.755 19.0833 30.2395247683
10.934 29.2896 14.0625 27.7215060662
10.9858 18.4691 18.3225 29.3797986895
18.5019 27.4839 17.1309 29.5482970806
15.19 29.9506 14.8434 31.4471735281
12.7386 31.3089 15.0004 29.9196842451
12.2009 31.4421 20.0115 29.5489019901
16.8347 17.1673 20.9305 30.1126421115
17.857 27.023 13.5715 30.9952518358
13.3848 18.6815 20.2867 28.5748579927
13.9507 27.668 17.9914 28.0060325108
16.3622 18.9967 18.9155 27.7721365593
11.2645 29.3537 17.9275 31.503067504
18.984 19.6353 15.1689 27.8625167353
14.0704 21.0949 18.5798 32.5578417354
11.7713 24.5366 20.6992 28.2652371244
12.4215 25.2505 18.1929 26.4610277347
18.0074 31.3677 19.3441 24.8768965448
17.8478 23.2667 18.6473 30.9678940715
18.8194 21.7476 21.3599 30.0049235161
11.2324 21.7593 17.878 30.8385812258
16.3194 26.1165 16.0519 25.2326695229
15.3084 24.4048 17.936 27.811620112
16.1872 24.0801 14.4599 28.5560055037
12.8085 26.7657 12.445 28.7692303985
12.0319 16.9991 12.7218 28.2098482112
19.498 25.4184 18.8181 29.1788462381
14.7723 20.2524 14.6181 35.2314895827
19.4124 23.4203 13.2282 25.8867560753
14.1998 23.1639 21.2114 27.8503361469
16.0755 26.638 20.9624 28.8400065227
14.8711 30.3441 21.0545 27.3589910202
11.9901 23.6346 12.7048 32.6497231794
17.0307 20.7138 13.1004 36.6092081531
10.3659 26.57 23.8711 67.8156543958
12.8598 19.0354 24.3743 65.9529846071
10.4373 20.4369 21.869 27.8146683495
13.4171 26.3122 24.1864 92.9142623315
14.5407 30.7355 24.1866 97.1461680526
15.739 18.0523 24.7029 100.5642219988
19.4256 22.3422 23.9648 33.9272082958
19.2555 26.3363 21.514 25.5339004165
16.529 20.2393 21.7769 28.5421143175
18.1254 17.3921 23.5282 33.3537630114
17.6313 30.2567 22.3832 28.1842584741
19.0388 19.8732 24.7365 106.1252001214
15.9442 20.9599 24.3327 55.5878885105
10.3875 32.7699 23.2022 35.9415299402
14.078 23.4589 23.9609 40.3391618934
17.1785 23.9065 24.6827 98.7101588651
11.8297 21.936 24.6229 91.0002889988
11.7765 30.341 23.8766 83.7118985699
15.6547 28.0612 23.5168 34.9271752927
9.83728 19.2836 24.6475 90.2345226494
18.0415 26.8439 24.2728 76.6205928295
10.964 28.6689 21.752 27.0511103523
13.3952 20.646 22.1251 24.1853199977
19.0876 32.185 23.7375 59.7598415273
9.71794 23.7088 24.0552 60.9233876897
13.2719 27.1837 21.4343 27.9001435938
16.9998 24.037 21.9136 27.110704982
14.8917 17.0772 36.0914 61.1978997164
13.5192 30.9742 35.5782 97.6526968294
16.1088 19.5865 35.8462 62.2041058876
12.6662 21.8026 38.6016 29.4234040341
14.9519 29.9165 37.8803 27.6833893857
11.4038 20.2601 36.4451 39.6209690121
12.6739 24.6356 38.3835 24.9643960378
14.0491 21.3325 35.5984 91.345016519
18.3221 22.9865 36.2168 43.1356109823
18.6994 20.3284 35.6394 84.4342128983
11.3827 17.495 36.5151 37.4470894219
15.7642 22.9539 37.9828 25.2042000423
14.2734 24.1308 35.5595 77.1920746699
18.4 27.632 35.7135 60.065723321
16.6095 25.3383 35.3925 88.8397998206
15.2546 26.0277 38.4139 24.7963624
10.7265 31.3107 36.0192 63.6139233191
14.6469 27.865 35.8108 69.3292982596
12.0577 26.8259 36.0485 52.4714573498
18.6327 30.6597 35.5289 105.946912526
17.682 30.4589 38.0965 29.1446273419
11.2751 28.4999 38.3777 28.7153396085
17.3203 20.5135 38.35 29.733488895
10.2262 24.5203 36.0985 55.6247866634
14.6975 16.3248 38.9979 32.7111485034
18.0067 27.3532 38.2774 28.2454685851
14.4356 21.0338 42.3832 32.291602376
14.8743 17.0717 44.4806 29.9155405885
17.2397 20.6616 44.7416 28.1207731964
19.5407 20.7691 40.1034 29.3190864889
18.2706 23.9948 39.3706 31.2608701841
13.9276 27.549 45.6973 29.8535505307
14.6351 23.4193 40.6716 28.8582370086
11.2332 24.4112 43.7736 30.5622712891
10.0534 29.8869 41.7022 30.2848101439
17.2687 21.8708 41.9181 29.0797748546
15.6838 20.3447 47.4437 29.0409104321
12.5875 26.1957 41.6483 31.5061455689
16.5829 18.1153 39.9525 34.6564285598
16.3104 25.6095 41.4936 27.4538282397
11.408 28.9128 45.9979 27.5682533779
11.4037 30.873 43.8574 30.6608298204
12.4812 19.6661 40.6671 31.0363425187
13.754 31.5818 39.9277 32.0042502395
11.966 18.1226 43.3956 29.8988245595
14.0134 27.8073 39.9036 26.9388301111
17.1923 17.4279 42.8903 28.3165843932
14.2819 22.8636 47.3124 29.6460907645
18.4747 25.0291 42.9791 30.1943097971
19.3527 29.99 44.9126 30.1675220075
13.923 19.7114 44.8464 29.5858028843
11.9418 22.2098 45.6642 31.5638337552
14.3947 25.4797 43.6653 29.9138670338
15.1775 23.0536 44.7503 26.1665696744
19.3852 19.4535 42.8685 26.4616511009
16.5112 29.4664 46.0486 29.6016384235
17.8289 28.4601 40.9021 29.8143369581
16.9224 26.4407 46.5574 33.2696512853
14.3802 30.1732 44.0991 30.2109148707
10.0655 20.0358 44.4507 31.4888706375
15.339 29.7817 41.4927 36.7190953542
19.5948 21.1698 45.8248 30.2757206578
11.2928 31.2069 38.9803 26.731919085
17.6717 24.0243 45.6037 32.2877856993
19.3002 27.4016 48.0296 30.7374553231
17.8037 32.0827 47.073 27.2485114583
11.9087 17.2114 39.6027 30.4731146034
10.2217 26.0231 45.6259 28.9919169502
19.4026 27.6286 43.0977 32.2460357665
10.2969 24.4439 39.4798 26.8207256277
14.7805 17.6386 47.8139 31.9240687854
9.88561 22.5808 47.5186 31.7978617171
9.89677 28.7812 52.3395 26.4553666267
12.5301 31.7821 55.4633 30.5973034987
17.1428 16.9463 48.7642 28.3210072448
19.6912 21.9365 53.2647 29.8275648362
17.196 18.3496 51.1656 30.6893800408
17.3218 20.9589 49.7897 30.7990613299
12.6543 24.0346 50.6414 26.1203967513
11.0145 24.9249 54.4368 37.4376743991
13.7224 20.8442 49.7546 29.8125412669
16.7809 22.6275 51.9707 30.8622582516
19.5986 22.1884 48.8052 37.6332491305
18.2268 22.1503 55.9647 28.565598156
13.7689 29.0215 51.0628 27.9772546266
14.2602 18.3636 50.6732 29.549729838
14.7795 26.7048 52.8853 29.2904982856
19.6818 29.0208 54.1753 29.6563739005
14.1823 31.0787 47.631 29.5984950962
14.122 22.1925 52.2667 27.0427614797
11.6672 17.4106 51.5876 28.1154454857
15.8704 29.0074 48.9658 29.9136736525
18.7208 27.1739 51.6453 26.7950820046
19.5027 25.6951 53.8084 29.1696725787
16.7997 25.4653 50.947 34.4100360954
11.9322 26.4464 52.0439 27.8902646627
11.5222 30.7538 51.3561 28.4022636218
10.7467 21.1661 49.8392 34.0640681893
19.336 18.1994 55.9893 34.4366035964
18.1422 29.6325 51.1999 27.3139747564
13.9893 19.7987 53.8136 30.6881619531
11.9797 27.0999 56.1258 30.6804069187
11.1252 18.6336 54.022 30.2515302988
13.2856 27.2503 48.3971 25.9973231252
16.0694 17.9975 53.8942 31.8962935646
14.6728 24.9613 49.0564 29.5737015493
16.9155 19.3595 55.9284 32.0122658245
16.9547 24.0436 54.5328 27.6106905078
14.8069 28.0398 55.2101 30.331610335
11.5927 30.5729 48.2921 28.7767693855
15.1293 30.9029 55.0193 28.7979328025
13.8011 24.2704 54.0323 26.8069323167
15.8125 30.5536 52.2787 32.0589124844
14.9679 32.3509 50.3243 30.3561225542
10.1575 22.8277 52.1454 31.0717934192
19.6497 30.3071 48.5379 26.2726948987
13.2443 20.9014 56.2706 31.6437948698
10.6909 27.954 49.5568 26.5729214825
10.5044 29.5766 55.4417 33.130243003
10.897 25.1106 48.2723 30.6189477961
10.415 16.9752 56.31 28.4432014493
9.99698 17.2837 48.0629 34.2747342754
9.952 40.2368 6.62087 28.8625910259
16.4523 45.8245 8.00775 27.1989963283
14.7144 43.0771 6.10609 33.6537681564
15.7408 46.0627 5.09476 28.7734983361
11.1713 41.5376 10.7544 29.3935789217
17.3577 40.9444 5.81751 29.5194703891
17.8898 36.562 5.70214 34.3290684825
13.7142 36.0067 4.49045 32.8794580288
14.4838 39.9182 4.98433 29.4467086963
16.2862 37.9601 3.58937 26.2827595772
17.7218 33.662 5.06574 32.5724320122
19.3982 35.7855 10.8264 29.6912953849
13.2424 33.3188 8.86555 30.4976861027
14.3967 47.6472 8.34694 27.9762135538
16.7237 43.6191 9.92146 30.1688890402
18.2187 48.307 7.76157 26.742770397
11.4381 39.8103 4.3359 33.0501979978
16.2463 41.1318 8.37595 28.6323698389
18.1085 44.0572 6.16452 26.8657847809
15.0833 35.3384 11.5447 29.4465873892
10.8615 36.9283 9.68231 29.7096218035
10.8213 46.9724 6.60516 34.3719962022
17.0799 47.7842 10.6251 30.8188621545
9.59932 44.5448 6.27069 30.6339984278
12.5336 44.1478 7.38543 38.9916099492
19.2574 37.7838 8.29459 35.7616781107
15.1914 36.6877 6.76756 30.0138771634
12.2412 46.0631 9.51715 29.2927254317
13.7088 41.0154 12.1551 27.6654441574
15.513 34.8387 8.78314 29.900503435
18.5112 45.5812 11.8862 27.4619280346
13.3997 45.2663 11.8768 25.9541313552
17.2642 37.0092 12.5295 31.7956230619
11.8098 39.4118 8.67708 33.1259410415
10.9492 34.6647 7.57163 32.2442571285
15.1012 39.5111 10.5404 28.5658155443
11.0169 34.6323 11.8272 30.255380648
17.7979 33.7871 9.73419 29.5472243719
9.88797 42.571 8.5499 29.957172261
18.768 40.5232 9.54072 27.1398548366
15.0896 43.1728 12.005 26.7474430627
14.3872 38.8964 7.72774 29.465190153
13.1316 37.3862 11.226 30.2803913751
13.4134 48.0931 5.81683 32.6309084373
19.4347 44.6914 4.02852 26.4366044584
12.193 33.2929 4.97982 29.6537445696
9.66386 35.8755 5.33972 31.3899114231
12.4554 49.2718 11.0621 33.8485565189
18.4651 42.5204 11.9911 25.1335523894
17.4187 39.8531 12.0928 27.3496294398
11.1672 48.9235 18.8655 26.9307714126
19.1385 33.5924 19.876 27.8149049907
10.8704 40.1113 17.3546 30.3764518364
16.2766 34.2159 14.5689 29.4599952437
15.7209 36.1551 17.84 31.4512840054
18.416 43.4861 16.5642 24.2719821414
11.89 37.5384 13.8647 34.1808170424
15.6599 46.5038 12.9077 29.7145821482
18.8389 45.912 14.835 28.5887575882
15.915 33.3812 18.2409 28.9674184216
17.1321 36.8538 15.3163 30.26200403
11.8654 42.3774 15.2435 27.2778360434
18.9491 43.9591 20.463 27.7642606208
17.3661 33.1635 12.3739 24.8734014107
13.1467 46.4778 18.7305 29.8059926638
16.0124 39.6752 14.6933 34.0740627484
17.304 47.139 17.0852 27.1862931429
16.3936 43.9668 14.3479 28.2870067794
11.6358 46.9969 13.1228 27.5874552057
11.6765 42.5241 19.1515 27.3267812038
11.3437 43.582 12.6241 29.0725263932
9.93259 43.5793 17.3782 27.1163806386
14.1215 43.8805 16.0128 30.3227150909
14.3449 43.5957 18.7686 25.3357741915
15.8127 33.1207 21.2322 26.9582535935
11.216 36.3312 18.5045 31.649670506
15.544 48.3535 15.1449 31.6837936475
10.7117 34.1989 16.7074 28.8951686986
19.461 38.2739 15.8705 29.2913541156
13.0488 46.3573 15.5466 25.8470184209
13.1801 38.028 17.3657 28.1790244855
10.2833 45.8374 16.3011 28.391902791
17.4705 38.2205 18.8641 26.7588610219
13.2014 35.4041 15.745 28.8643988316
13.2255 39.9665 14.9151 29.039070108
14.2622 39.3612 19.5115 27.8620988921
15.8312 41.3224 18.9861 27.7110825544
17.5471 40.624 17.0982 33.9126271864
17.0693 44.7813 18.2489 26.9567747492
15.5596 47.5486 19.3161 29.4010272261
12.3965 40.444 21.0528 29.5883888389
13.2004 33.5585 13.5086 27.8009943396
15.1658 47.8737 24.2433 61.7288025655
17.5811 34.334 24.0911 69.4301122948
10.0105 48.556 24.4004 63.9331423953
18.1003 41.0626 24.3014 89.6403466356
9.92601 35.3247 24.1025 59.2053885151
15.1285 43.8642 21.803 27.6697470358
19.2851 45.8245 24.5769 86.9107545518
14.6365 38.0409 23.9729 69.8549993177
12.8542 35.879 24.4338 102.0365721876
10.3801 40.7194 24.35 92.0606865166
12.0593 44.3171 21.5809 27.5137421713
17.3629 43.7022 24.4011 72.6931762083
14.8308 33.7577 24.1851 72.6591771459
13.4082 40.5826 23.64 42.2031045254
18.9204 46.4135 21.7637 28.6582816597
17.4932 38.2365 23.9234 53.4426064304
11.3018 43.9014 24.3494 65.6046917122
14.3065 43.0584 24.5542 99.7083626512
17.7952 48.3028 24.5232 90.9173303225
12.141 46.6407 24.5419 83.85365354
16.098 46.3448 22.0388 28.9777709568
12.4851 47.0783 21.6467 28.1079623859
17.9723 39.158 21.3982 26.905194603
15.1675 37.169 21.3537 28.2233924368
13.0435 33.3152 21.7026 26.0529159825
17.575 35.513 21.551 25.7922134289
17.191 41.9882 21.5092 28.9388403785
10.0867 36.687 21.4937 27.4417959446
12.6726 35.7975 21.3693 29.4111082198
12.468 35.7691 35.6175 102.2586334024
16.5423 36.1675 37.3181 27.823674045
11.4281 44.2978 38.0153 27.0720295047
11.6367 36.9515 38.3119 33.4681437233
19.8491 38.9085 38.9262 26.3647990558
18.4197 41.8994 38.2698 28.1491949637
16.1009 47.9931 35.7 83.1853000349
14.6004 37.8435 36.2037 59.943157545
12.9263 41.5261 35.5202 103.4732609779
14.9126 33.8954 38.4979 31.631587004
14.5696 33.6364 35.7803 69.5821885791
15.0612 43.5516 35.7143 76.3129784441
16.04 40.3813 35.8416 79.0693003396
18.1433 33.3946 38.5329 28.4568020375
17.2081 33.2705 35.9426 62.2331032063
10.3649 42.7961 35.6736 90.8960413263
18.9174 36.2436 35.837 81.600041474
18.1114 46.6432 36.6361 29.5714571188
13.6501 46.0818 36.2129 43.063845306
12.6926 41.5363 38.382 27.3863913237
11.3328 47.6881 35.4027 118.1976087687
18.3294 38.9815 36.2364 44.7242479629
17.7706 43.9373 35.9982 61.9363348505
13.6778 38.9214 38.5379 27.0573523544
11.1912 48.9764 38.1546 29.1011515754
14.5584 43.7861 38.6016 28.3844065992
13.5966 36.2896 43.0954 28.9156671891
12.4026 38.8055 45.1942 28.3987741832
14.3113 41.0902 43.8001 33.5923646449
10.0421 48.9302 46.8757 29.9884896298
14.843 37.4828 40.5984 31.1020488685
16.6603 44.6233 44.9986 29.1905560555
17.5753 39.0829 41.9976 28.7332660613
12.7976 45.6354 41.7531 27.6450869012
11.656 38.3963 42.53 31.0982698297
17.8716 37.4146 39.7562 27.9085269697
18.631 32.9155 44.502 32.9378611822
10.4263 39.5732 46.6246 29.8663060939
18.2582 47.9234 42.8849 33.4900579321
15.6634 41.1032 39.0404 27.6409593811
12.4104 45.017 47.2419 28.133880958
11.3164 40.7418 40.8806 31.8366059397
18.626 46.2152 45.3976 31.0798417177
10.7566 33.3393 41.1378 29.3020279844
14.7548 43.129 46.3204 31.5379855707
16.0383 44.8657 40.7649 28.9488218635
14.0594 46.8594 46.0393 29.5038402022
17.2704 43.165 42.6043 32.8923023966
10.2157 46.3986 41.7194 28.2118785099
15.7196 48.2062 41.9539 26.0867868629
18.6475 44.8186 39.1169 26.7740739029
16.405 34.7836 43.1354 31.9229329241
11.7426 33.582 43.9282 30.5128328753
11.5676 47.4212 44.8304 29.2667073769
17.8217 35.3712 46.1802 26.3977470852
18.427 34.7611 40.9695 33.7060966774
16.6153 37.4323 43.9811 28.8471232802
15.3139 33.5608 46.5785 29.9355449472
14.9329 38.2151 46.078 28.6690814354
12.0707 36.0167 46.0036 33.4007770231
12.8775 35.2018 40.1034 31.5031168895
12.2728 42.8577 42.7077 32.7469371555
15.875 40.9984 41.6548 27.55072318
15.7885 40.7373 47.1736 32.6450542659
11.1587 43.4033 45.2193 30.6052740318
14.8813 46.3568 43.429 27.6302866598
18.3839 41.3878 47.4634 31.9235434914
15.27 49.5035 46.4512 32.6642504177
14.3903 32.9582 44.1075 30.057898435
19.4574 37.6691 45.2714 34.5752690654
10.1733 43.6231 40.3795 29.197556209
13.2921 46.8541 39.0791 29.3028164367
15.9159 47.695 39.1108 31.1448538259
10.4458 44.1118 54.9721 30.6003120526
18.9953 39.4619 49.3666 32.6750571519
15.7055 44.2866 52.7697 30.5803123251
12.614 46.0569 55.0345 40.382739065
17.5446 33.3049 49.981 31.5352322445
17.9593 42.1813 56.1949 28.2243073292
15.0437 39.742 49.7471 29.236303548
15.3545 35.4147 54.97 32.9688737446
17.5894 35.8691 48.9806 27.4911965335
18.4831 41.418 51.1683 31.0634571864
16.8261 37.8233 50.2201 26.9332239735
15.5475 44.8292 55.4543 27.2991333936
10.8791 40.1208 49.3167 29.2892186608
15.7111 44.855 48.4348 30.6342466419
18.1477 43.4777 49.105 30.4407580739
17.6041 48.7163 53.0479 30.1695715987
19.389 37.132 54.52 31.3462256124
11.9782 40.8593 52.4207 29.6417069496
12.8932 37.645 49.7025 27.6746640338
18.6172 46.1813 54.4441 29.6040394935
19.2349 46.7423 50.4147 31.249620832
11.204 43.0706 49.8054 31.2184070855
13.3043 34.5447 50.3142 32.8036308611
13.1922 35.1834 53.2192 31.1789527381
10.5911 36.368 48.8657 28.8924137839
17.0054 37.4918 52.9287 34.1887356713
11.6665 32.6983 53.1963 26.770534383
10.7303 36.3853 53.8605 28.0217362246
14.522 47.8389 51.1909 31.8582519796
15.4593 39.2655 54.1412 29.0336304425
17.2822 47.6876 47.5877 32.1478954369
19.4667 34.4868 54.0847 30.0780657765
14.5034 41.8167 51.1825 30.8574628922
16.5966 41.4871 53.4661 28.2465505123
18.432 44.578 51.9714 29.5719593628
17.0445 33.1893 55.3875 32.3563257552
14.8075 47.9218 54.2571 27.4813511192
12.8225 38.1216 52.7247 30.5589505215
10.9057 46.3539 50.602 31.8582192919
13.8997 44.7233 50.5065 31.0003430141
18.8975 39.0176 56.2985 27.0060331101
14.642 42.1542 55.9588 27.8640891831
17.1057 48.4545 50.4214 25.5369448239
10.4989 33.6943 50.3434 29.7810624015
12.1091 41.7516 55.1696 33.804981644
14.8988 36.351 48.0157 26.8349658826
11.4107 48.7259 54.1574 30.108393359
11.3482 37.0117 56.377 30.5974168964
16.9436 47.8259 56.4815 26.4436369701
26.9215 8.51306 5.30634 29.8611394439
21.4027 2.66973 6.94713 29.5531376366
28.9699 13.7128 10.8734 26.7753878667
24.713 5.13548 4.73475 30.5353442039
19.8664 3.5988 4.83902 26.5931926653
22.4583 14.67 9.56121 31.3022373151
27.8385 6.86088 8.84847 29.2104288619
23.5151 9.27989 5.27931 29.8722122234
24.029 2.341 8.40651 30.2561537738
24.116 7.12579 7.08977 28.5227991283
28.8617 5.32301 11.1196 29.8325428078
27.1212 3.14924 10.5486 30.8289678341
20.2536 15.9852 6.06995 31.3599258979
24.1102 12.4492 6.35936 26.4190541736
25.8813 12.0613 4.19075 27.210476566
23.3915 10.025 8.29724 29.2291502149
26.5289 13.9341 6.90944 25.4747168391
28.5355 10.8865 10.4893 27.3733332892
20.8579 14.451 3.82744 27.6300479165
23.527 0.443773 5.67242 29.7145469267
26.8457 2.29104 7.75686 27.5124605728
28.9015 15.3029 8.46053 29.802601684
22.6059 14.753 6.81321 27.1199863821
21.4164 10.4988 11.9484 28.186316286
29.0222 13.0595 5.95013 28.6026859227
21.4863 11.7428 4.91664 27.2319062783
29.2862 3.69472 7.16805 26.8445605641
26.0082 12.8897 12.2 26.0773163985
22.332 7.37419 11.8307 30.1926167199
19.7991 1.11764 8.58836 27.3650735066
21.2108 12.0738 8.97959 28.0440083768
26.87 5.36888 6.71312 27.2960869715
24.6752 6.10875 11.3397 29.4733673569
21.0501 8.82366 9.78762 28.0525660072
25.4358 2.28578 5.13634 34.1023029036
21.8342 5.59311 4.79936 28.8782386951
25.6124 7.79656 9.60717 29.1714277966
21.8467 5.52727 7.8575 28.383315094
25.7784 10.9301 9.62002 27.0653646443
24.1405 3.37199 10.9677 30.2114243935
27.2743 10.82 7.22968 28.5614062713
25.1684 13.6962 9.50431 30.1081602696
28.7104 5.89815 4.67582 30.5450884918
21.13 4.75296 10.7782 31.0375193427
20.0408 7.57987 7.20875 29.1192463985
20.7772 8.8159 4.50491 28.0965707134
28.5322 0.139429 8.11418 30.4666508164
28.6129 15.8224 18.9601 30.5086139538
22.1866 2.77887 13.074 32.7093389141
19.8958 3.71854 17.2356 31.8195672781
24.7851 4.0112 16.1602 30.0330939516
19.595 6.41607 20.6792 30.3519548376
20.7132 7.64779 16.8238 28.8267284185
23.4313 6.35405 15.4558 29.0116322959
20.2437 12.5215 14.1504 28.3263180631
24.9216 8.52133 14.3477 29.4147747822
29.1213 13.5286 17.5551 29.8352107023
23.1197 13.1921 14.0492 30.8379477622
26.4259 1.47635 12.8592 27.3249872834
26.7499 7.02079 12.9606 27.5791546921
24.6455 14.8305 19.3552 30.2570890598
28.11 11.8149 13.6929 28.1475384698
26.8089 9.04345 16.1803 31.1829201204
20.4985 0.57186 13.059 34.4331343729
28.7428 5.24617 18.443 28.828423809
28.3618 16.2393 12.4734 30.5082411024
26.6756 1.19829 19.4109 29.1288355974
24.529 15.8335 16.0746 28.8167616501
27.1684 5.09749 14.7427 31.0029083522
22.717 12.7412 19.6957 30.7645189978
28.5279 6.79935 16.2825 29.8183299601
21.1597 4.87459 15.2505 29.2038709827
22.0295 3.10937 18.5999 31.7026609413
24.3706 1.62216 14.6663 32.0495085593
22.7638 11.0593 17.5291 33.7934308344
28.6822 2.62533 14.3501 35.5381028374
21.1782 8.91651 19.7463 29.3876032297
26.437 3.76165 18.466 30.0915714986
23.8457 5.10462 19.1216 28.3393736413
23.4425 7.82667 17.9466 27.944454673
26.3737 12.3876 19.5696 28.1975233949
25.7026 9.28448 18.8658 29.6504275565
24.6375 13.0045 16.5758 30.0118498535
27.1612 11.6868 16.4775 31.7080976111
25.615 15.267 13.4764 30.5483422549
26.8132 15.6499 21.3107 30.1359429031
19.9604 10.5772 16.4483 31.2041782422
20.2807 8.738 14.0832 30.8207141859
27.6551 7.51608 19.9118 30.8241301319
20.8145 15.1489 12.5051 28.8071759709
29.5752 0.317651 15.8385 33.0486126504
29.4435 15.3647 15.0135 30.6299117297
23.9979 0.621339 18.7469 34.2041085693
28.7787 9.40438 12.899 32.8698575544
24.1541 10.8537 13.0391 32.9439857791
23.2004 8.58526 21.5463 27.7693102794
28.9093 9.91582 24.2362 62.8164413507
24.518 11.214 21.3818 29.4559120936
26.4429 6.69582 24.1801 52.0782561626
25.0583 4.05462 21.6712 28.9997775193
22.0116 4.59118 24.2575 77.3526785763
25.4101 6.81505 21.3672 28.3507487526
23.6861 13.7279 23.6871 40.3903218895
23.2694 8.84823 24.2557 66.8315446924
24.965 4.30056 24.4028 75.8348341458
27.0357 2.6427 24.3032 59.8844296394
22.4992 11.3078 24.7742 122.1731977989
29.0874 5.53003 24.5926 92.4654889558
26.1588 9.2642 24.4135 79.6007441019
20.567 7.26276 23.5795 36.1402064508
22.3216 1.17838 21.0809 31.1131062528
21.665 4.36615 21.3765 32.1460829167
21.91 14.8636 21.351 29.2979123585
26.0767 12.2827 23.6484 45.1036129923
28.0459 13.1208 21.6914 27.4894093822
28.1855 15.2183 24.3797 88.4777141824
22.3469 1.82696 24.0241 63.4373269601
19.9195 15.6221 24.0268 62.5861730711
29.4078 0.889021 21.1762 26.6020592504
27.8975 3.56501 21.3365 27.5363000158
20.547 11.1301 21.2344 30.0825503948
20.6436 13.9251 38.3388 28.5936134306
22.4339 5.09455 38.8157 27.7507075271
28.1132 9.64745 38.6256 28.7859120498
29.1255 5.89204 36.6358 35.9167575808
27.2915 3.74303 35.8005 90.5040943491
24.1523 4.40848 35.7055 91.4813641267
28.6391 1.16067 36.6261 32.9718702526
24.2685 7.41211 36.0412 65.8949291113
21.2829 5.06008 36.2231 49.5709298379
28.5871 8.54027 35.7891 91.5040435051
21.4789 8.28943 35.9461 72.074007243
22.6026 10.7655 36.1232 60.7055984583
23.804 1.63728 36.2226 52.5830649396
26.0641 9.75541 35.9522 64.9123266192
27.1733 12.6195 35.6663 98.0241689669
27.1737 15.4147 36.3309 41.7992796808
21.3656 0.908959 36.3614 39.972487458
21.2682 13.6742 35.7871 65.3803978791
27.2549 12.4026 38.3461 27.1395234675
28.7137 14.584 38.574 26.3727985953
21.3271 8.62716 38.845 27.3678818491
24.2631 15.2233 36.0112 71.7173509882
19.9683 16.0788 35.4127 98.3820169328
24.5654 6.75379 38.6672 26.3807109892
24.5599 11.0952 38.3199 29.5663918951
23.7403 15.6789 38.6618 31.7351999607
25.9469 4.26381 38.3594 30.2113963235
19.9301 10.8557 38.5114 25.5411464128
19.5866 11.1889 35.6563 79.6266817738
25.2653 3.17556 41.1321 33.3427073671
21.8748 1.30453 47.0188 37.8398210533
20.1432 6.1153 44.5877 27.9537982996
26.0503 10.9246 46.06 29.3648691062
29.2323 4.90644 39.3689 31.2979221594
27.6999 10.6858 42.6309 34.5363416822
22.9998 10.0085 42.4385 28.7156652575
25.7265 15.4144 47.0293 30.7487909633
24.923 14.261 42.6848 34.5585996112
20.6729 11.0749 46.9396 29.0217741242
23.1833 0.222546 42.7037 33.8584059541
24.2073 7.80283 43.4294 28.0026886658
