36.2345 18.5669 56.518 28.7847235484
26.9905 22.6696 47.3254 29.9029631571
35.9133 14.0009 52.2477 27.3146802986
30.8831 13.4288 51.5784 33.516900917
25.8007 14.9788 44.3878 32.1145964586
25.0551 18.9537 54.4539 28.4563506442
35.266 14.6641 47.7378 31.5241833471
28.1648 13.3982 51.5664 28.5876654223
32.3857 17.7005 52.6987 30.1561456725
29.6948 17.2933 44.6364 28.8896467356
36.7102 15.6254 56.0867 29.111506127
31.595 21.2452 54.599 29.7512833646
36.319 22.5206 55.3377 27.8574882521
29.7226 17.8475 51.5535 30.0631863308
26.8218 20.1335 50.8323 28.644947067
36.1785 17.5585 50.7027 30.2008848828
34.4568 13.0052 54.8924 26.3436842834
29.7313 20.4836 49.9873 30.9418407144
34.1201 19.6888 53.5647 28.5885371808
36.6538 19.2652 52.9457 28.2045610587
30.9114 14.9284 44.9575 30.1867009623
36.8184 16.8577 46.8744 30.7752464052
28.2802 12.8109 47.5839 32.3556551294
33.4517 19.0132 43.3144 31.5337210609
24.9837 15.0817 51.8848 26.7024412119
33.9212 22.0122 51.8663 30.9164479545
30.6994 22.3592 52.0453 32.5737352981
26.6939 19.1065 44.0375 28.5960659172
25.4652 22.3532 49.8744 32.1525134331
33.5432 20.1684 47.7869 34.346342446
34.6911 23.9673 53.7186 28.6186339011
25.7029 12.7131 46.1948 34.6602247137
34.2361 16.0786 51.5889 30.0026910074
35.9606 17.8162 43.9736 35.6716142516
31.7365 14.1683 54.136 29.6996991792
31.4216 16.6455 55.1112 27.7733715263
26.4976 23.5774 53.3681 30.9161672194
28.5734 17.6 56.3291 26.3690915301
26.9403 20.8497 53.4959 29.200854067
29.2657 19.6533 53.8858 27.2583115566
25.5155 18.0918 49.9288 26.7840007403
32.9844 14.3762 49.6969 37.3601980579
25.2743 18.1906 47.3696 31.8939062868
29.3139 22.6508 56.0895 27.2206426876
27.2232 13.9955 54.0393 31.798166194
32.4848 20.5255 45.3872 35.0273630557
32.0154 24.2701 54.8476 27.1687542412
33.7783 24.4733 44.4391 36.0612380536
34.7278 24.9968 10.9044 30.0286791576
30.3365 26.6151 5.4063 28.0950861028
35.4947 26.6909 4.49819 28.5088077365
35.3814 31.2043 13.3728 31.3201368471
28.6646 29.8744 10.4338 32.0932992073
35.074 28.1775 7.6726 30.3749818766
25.0709 30.2063 4.85949 27.3563682928
25.7211 35.7251 15.8786 28.7594499248
29.8484 29.5009 3.86229 27.1923985426
31.8827 29.2463 5.84762 30.7471386633
34.3652 30.1773 5.51034 27.2921191415
28.026 34.0962 15.2796 30.1613414264
26.3006 33.9458 5.92149 36.1721211962
25.6385 27.3039 4.30927 27.4183487089
28.6019 32.5382 5.7466 31.0597587673
30.5452 33.9298 6.52499 31.4581973301
36.6929 26.7292 14.634 32.1164968596
32.692 32.6183 4.95181 31.4314704392
35.0577 34.447 4.88589 33.5454727902
36.2709 33.664 15.1855 28.5673045037
27.715 25.9036 8.78355 34.4054982464
25.486 31.1251 16.8716 27.4069917587
26.2634 27.7306 7.174 26.9137086174
32.6567 28.951 11.3665 30.9208853653
26.6594 27.11 11.0772 29.3294699764
33.9346 25.5666 8.26967 31.4490660148
35.4541 29.8439 10.0302 30.2929187492
24.9936 31.808 7.36864 31.2922763583
29.3056 31.9382 12.1024 29.7155034428
26.6509 25.8216 16.1261 27.8327889236
31.3067 32.6125 8.87834 33.2534092426
27.7382 30.037 5.59098 30.5157698897
34.0337 33.0147 11.6407 29.3251536212
31.9206 31.1182 12.5089 29.1677065264
32.7688 31.3017 15.1055 33.7561640493
26.3806 29.8591 8.95012 26.9490232387
31.1764 29.3804 8.94234 33.6660165364
34.964 34.6235 7.54353 28.9533086698
25.9699 31.9308 10.9203 33.0069620474
28.1484 28.287 16.5943 29.2852316105
30.535 34.1386 10.8902 31.5099628776
36.5398 31.4276 7.13888 29.023473689
34.2085 32.6287 8.84795 29.6908732386
27.3603 31.8996 13.845 28.4802358792
29.719 26.3908 14.3754 27.4696337853
33.929 26.7345 15.1459 27.4691682105
31.2227 26.531 8.06567 31.1073150082
28.275 28.2105 13.1456 33.8689708874
35.4327 27.3746 11.909 33.0260584269
26.2773 29.617 14.7849 28.1618169954
32.1368 35.2021 12.8456 29.7228604661
32.286 26.7278 13.0887 29.3402441858
25.1128 35.789 12.9848 26.8530073475
25.9291 25.0227 12.792 29.1960303217
36.0994 35.0826 12.4068 31.1327380987
28.6401 36.0697 9.54875 34.0653279763
30.6748 33.2979 16.5979 30.940275699
27.7756 25.7152 4.65731 27.8372520454
29.8521 36.278 14.3493 31.1018842232
25.9111 36.2081 9.33272 29.7496304925
33.4804 34.4001 15.8123 27.5220271261
27.6977 36.7457 12.3903 29.9880871446
36.0495 30.7375 24.1495 73.3570251219
26.0283 30.1043 21.0783 29.0341880068
35.0609 27.2324 23.9541 56.5323699492
35.9256 29.2754 19.9746 27.2411587105
30.41 33.9555 19.3573 27.3876184164
31.3505 28.0125 19.4882 25.9145308119
28.0957 35.3162 23.7422 62.5780898412
31.8527 30.7261 18.2465 26.2708790814
26.9651 30.6923 23.6282 36.6660920273
29.0512 30.413 18.2239 27.7835429893
30.0586 31.9246 21.1612 28.2773774143
27.2353 26.0783 22.2833 26.8655339427
33.3208 33.296 18.6587 27.1829408937
25.4072 35.7728 24.1277 65.2158670744
25.1846 32.9619 21.5987 31.2118268936
27.7666 32.7058 17.9367 27.8424365766
27.7128 36.317 21.2235 27.7497845779
35.8356 32.1326 21.4618 26.4100913601
24.8144 35.6768 18.2308 29.372537551
36.3209 32.9434 18.476 27.5674637381
35.7174 26.8263 21.3479 26.1835864037
28.7329 24.7384 17.5046 25.4143472944
30.7862 26.8257 17.0289 26.7100146975
33.3261 29.6095 20.7948 27.7593923364
36.1244 30.463 16.9083 29.7189600024
31.4175 31.3428 24.2675 107.2730497809
29.0475 29.1881 20.6311 24.3071841126
35.7171 35.6146 17.6408 27.5792448954
32.6342 25.9814 21.3206 27.4232203005
24.8877 32.7703 24.3934 96.6132939498
27.8281 27.9631 24.5202 112.5166395827
35.5697 35.3285 24.2958 87.15937919
34.0901 32.8569 24.1275 69.9854322291
32.7495 32.7401 21.4746 24.4471981689
26.0196 26.8486 18.7671 26.4983176668
33.4627 29.4339 23.6349 39.5522190052
26.6957 34.5089 19.7617 30.1403988167
28.7489 32.5392 23.675 55.449814265
28.5614 26.4319 19.9395 24.259620759
34.9642 25.1126 18.9807 31.2527067749
29.9861 29.0542 23.1688 28.0373296248
31.7547 26.9733 23.7015 51.4555902068
36.427 27.4462 17.8821 29.4567068757
35.6711 34.9504 21.3588 27.1368483127
29.6151 25.3867 24.1915 68.5743895923
24.7073 29.4121 18.7103 26.492947073
32.9235 25.0738 17.0845 26.9201392723
25.097 27.7378 21.8965 24.8211656046
33.4976 28.8638 16.7318 29.6634154645
33.815 36.6719 19.5698 28.954857353
32.4489 35.5211 21.9232 29.1396918297
35.9904 27.1457 42.2213 31.0776025425
28.3924 28.9715 42.1194 31.4884645693
24.9921 34.5442 42.4334 27.3656462248
30.9785 34.913 40.0498 27.7672277453
30.1469 27.3125 35.6405 90.9832410041
33.9296 34.8695 39.1859 27.2924539567
25.9934 27.8942 43.0251 28.0886576385
24.7922 27.632 40.4767 27.6796544725
25.694 33.156 38.6681 27.9465897379
26.0257 30.4753 36.0506 77.0282844142
27.5239 27.9494 36.5422 38.8222037497
36.6014 31.6255 38.072 30.0730843411
30.5292 30.2291 35.5509 109.5399437815
35.7386 30.1051 35.7256 81.8873568906
27.3079 33.3726 42.0225 29.8692897243
34.6948 25.9781 35.641 106.9022942563
26.6868 35.8336 35.6124 93.3458183494
31.3453 27.6482 38.0864 33.2926031105
35.8767 27.2129 39.2417 32.8206036957
28.586 31.8687 36.371 47.1176261231
27.8084 31.6833 39.3844 29.0326750172
33.4389 31.4654 35.862 74.6548624557
32.0926 30.6389 38.3101 33.2317800224
34.2213 32.1538 39.5906 31.604788732
28.736 34.3585 37.3355 27.3669441618
33.7547 35.6023 41.9152 30.1867451877
28.0217 35.8524 39.7189 28.0804019297
25.9971 25.8863 38.6903 26.6725068923
28.5943 35.8317 42.7683 31.7297838841
33.5339 34.2567 36.2757 45.9310802693
36.8518 29.7092 42.4123 29.0604359243
30.7627 32.383 40.316 32.1541209589
25.7002 25.6462 35.9281 84.704604042
26.8893 25.1841 41.6538 28.8299879952
29.5865 25.1527 42.3306 29.8920235224
34.4775 31.2436 42.2843 29.4291074363
34.0912 27.9993 37.2229 31.8733281687
27.5165 28.7067 39.3033 31.7539119296
31.8805 30.8753 42.5166 30.2713912877
30.8966 25.5903 40.03 31.5868901942
31.0849 28.1614 42.187 33.207620766
25.2765 33.3416 35.6705 81.5482069697
30.9661 35.506 36.1248 72.8534568605
36.1764 36.766 38.6214 27.3405218515
31.3544 36.7484 42.4807 32.0265789128
35.2335 36.21 35.5771 92.7738883562
28.4182 29.2061 50.9421 30.8485966773
26.8834 24.5015 50.6884 27.3254789081
26.7556 28.8657 54.7975 29.7176171153
32.6516 36.1087 53.6651 32.5079800401
25.2011 26.2369 48.8607 28.8497674931
24.9513 27.4691 45.9763 31.9642428911
27.5328 29.4603 46.7293 29.6477595586
25.037 35.4887 50.9026 29.6436310121
30.0728 30.5078 47.5905 31.2007767648
33.5251 27.4043 43.5203 32.8732826751
26.1187 32.0948 46.4614 31.0298566185
24.8623 30.4919 43.3586 28.7026597762
33.3081 32.3506 45.8409 28.0873122816
26.231 31.5201 54.0749 32.0399066158
36.2012 31.3063 45.4357 27.973057921
32.5277 34.8371 44.7912 28.8717221552
27.7457 27.0225 48.0543 26.7065965965
29.6437 34.6835 49.5092 31.9258533695
35.0383 33.5199 43.5164 29.6854689804
35.2773 25.9735 51.6855 30.5202750556
36.3283 35.6805 50.8351 28.068605466
32.3845 36.4428 51.0478 33.6675923765
33.7959 26.9091 48.0536 33.9937203907
29.6134 33.4199 55.8637 31.5759664023
30.3222 27.582 49.7046 28.2521311974
32.7023 26.8021 51.0197 30.6799651257
30.7685 26.262 45.0174 32.9908369604
32.2513 31.5701 51.9675 30.0884544908
35.426 31.5315 50.0313 28.559204705
24.7834 27.7611 52.7395 26.928311704
30.5478 31.6133 44.9931 28.9750114183
27.706 30.8742 43.9098 28.3148501548
26.3687 30.0348 49.3536 29.6050501748
28.115 34.1723 47.1279 29.0030801092
33.674 29.3292 45.6579 30.1478910207
31.3678 32.4115 49.4272 33.2416956039
34.3401 35.6071 48.916 32.2936752349
36.5655 28.2924 53.0287 26.8900655795
31.4557 28.0846 47.2188 29.1673604108
33.7086 32.9406 48.6057 28.9740760627
35.8838 28.618 47.3302 31.8747000546
27.5356 27.035 52.376 26.7650289861
33.3299 33.4848 53.9419 33.9749317304
31.7645 31.6117 55.5036 25.1223035135
32.6652 26.7567 56.1928 29.5578294798
33.9581 29.4582 51.7633 30.8936180937
29.6747 34.1353 44.7412 31.3998856735
30.7103 25.4353 52.6318 27.9030041023
25.9242 32.8493 49.1401 32.4769063284
27.9832 36.4655 53.2794 29.3192339763
29.8113 30.6445 53.1326 27.8361792418
29.89 27.9257 54.3874 27.3079706072
26.5541 36.1876 46.276 31.992110251
29.4383 24.8078 49.9129 27.9086042027
26.5303 24.9797 44.6697 28.9304145022
27.6686 34.4881 51.4551 29.9123309627
35.6597 32.959 52.3982 32.9004411258
25.036 32.7552 56.4639 31.0241814904
28.429 32.9092 53.4111 30.0317340395
32.7116 28.9619 54.3618 29.2237701817
30.2268 35.9212 55.058 34.8903380299
35.3955 29.3712 55.9531 28.0260837878
28.1923 24.8616 54.6499 28.4676492975
33.1314 36.6896 46.4971 28.5687203511
36.8983 30.6856 53.9148 30.0674297418
26.1212 36.7915 43.6621 29.0143767694
35.0827 24.4299 46.937 34.4852760928
28.7343 24.871 46.6734 27.5437628154
34.8552 47.9957 12.23 26.2613323087
28.0396 39.7147 12.0101 29.3051734116
26.3277 40.5703 9.88913 32.3595578761
25.2324 39.3437 5.04202 31.2093680856
26.8479 41.2728 6.99183 28.5164118298
29.6985 40.3978 7.8841 33.6118351909
35.4869 45.723 5.90796 32.7625498585
32.1484 42.7861 5.12353 33.3949527022
28.1888 38.3183 6.01182 32.3598112364
34.3988 41.537 10.784 32.7756748584
35.0565 37.0571 8.76255 32.6546943032
25.0599 38.8096 13.112 29.8126309094
35.0916 46.4289 9.98473 31.4502459596
24.7461 45.8996 13.7975 30.2665221517
26.8246 42.0526 15.6577 30.5284941341
30.255 47.9876 9.96107 32.6654441681
32.2516 38.5028 5.1481 32.0885313098
30.7565 42.7587 14.4476 30.804309075
31.2191 47.7795 15.2143 31.9798578238
34.6746 37.2664 4.68421 30.9365026536
24.5809 38.3343 10.3837 26.4005267546
29.6333 45.7819 14.1387 27.0266726403
34.2204 40.84 4.88743 28.3599722189
36.8428 37.8537 6.30202 28.4765272137
36.0333 48.6499 5.51167 27.0188329747
27.0269 45.4291 15.5223 29.33928011
25.8844 43.4783 10.5585 34.3930379557
29.1846 43.1322 8.55004 31.3046657158
30.0177 38.494 10.2925 31.5416254135
25.0618 43.7712 5.71705 28.9373275829
32.2978 39.37 14.023 26.3277757128
27.3595 41.93 4.2202 28.2603289645
32.5367 38.3307 8.38575 29.7914017962
26.5211 44.5204 7.9782 32.76411907
33.8872 44.0669 9.8817 30.8132290192
28.2654 42.4232 13.2315 31.7689092556
29.3065 44.0982 11.0294 32.1449254276
33.2562 46.2957 7.47902 28.827565004
33.061 40.963 8.27505 30.2717272863
26.1477 46.41 11.5154 32.7041474601
32.1936 37.6893 11.9032 32.5300129163
28.6574 47.0198 11.9224 27.3059724984
35.7278 37.9393 13.05 33.3819082163
27.3647 46.7553 6.68177 28.2380938831
34.2908 37.4474 15.2951 28.5927358307
32.1693 44.2768 11.971 29.6337554297
31.825 43.7858 7.6032 29.1832237967
24.752 48.5364 10.0836 30.7083991326
28.1639 46.2831 4.04385 31.5247326228
30.0759 46.6432 7.42084 32.3373871504
34.9965 45.9155 15.325 32.8503508781
33.0947 41.6385 13.1919 28.8497786693
35.7897 40.3405 7.6496 29.0180451326
29.4525 38.913 14.5715 27.7494742664
35.1807 42.882 14.506 31.1442950867
32.9015 46.3907 13.2334 29.2584957474
26.6926 38.5678 15.6834 32.7117039007
30.7885 47.3433 4.70692 30.2115904126
33.3573 48.9217 6.35675 33.2167209183
30.5098 36.7702 6.91013 32.8518744892
25.7122 36.7203 6.7558 30.6967824532
36.515 47.1382 22.2098 30.8784092245
36.1031 39.2093 17.1153 27.958130962
28.5726 40.2255 20.3148 27.8398946476
25.5461 40.2082 17.6237 29.5467936949
29.4455 46.7513 17.455 30.5893565803
30.839 39.2412 21.7208 29.6564601809
31.9855 39.5029 16.7881 30.3776276602
34.0713 40.8686 18.0084 30.6858535335
28.0088 45.3083 20.8561 26.9933546346
25.6368 46.3289 21.6508 27.1898686764
27.7982 46.9074 24.7575 112.380188193
33.2466 36.9779 24.1531 82.858802325
34.0124 43.6147 16.9663 29.7665085653
34.7495 45.0576 21.5663 27.4700900667
26.3867 44.4461 18.5584 26.8878739269
32.2819 46.5122 21.0262 30.8313717152
35.7306 47.6455 17.8523 27.0537677779
32.0185 43.4822 21.1671 29.7921213923
26.109 41.7814 20.1129 26.8095865389
29.7537 47.6648 21.1996 30.8667470549
32.9523 48.0231 18.879 30.6935688595
25.8256 38.7796 24.3336 77.9733559808
28.4173 40.262 24.4559 105.4740827555
34.4596 40.0509 24.2911 71.7673967596
34.8596 38.5384 21.6649 27.6577465387
26.1836 38.6672 21.4831 29.7938380039
35.3683 42.7816 24.4764 81.9820128315
29.1127 40.061 17.5678 33.2396001933
37.0307 39.4466 20.0941 29.2338874551
32.7679 47.2278 23.9958 45.7971605293
26.9974 42.0774 22.8543 27.6065647406
29.4699 43.0387 20.5365 28.1790419604
33.3071 40.8652 20.8481 29.4155722263
31.4491 40.4751 24.1297 67.7822471949
31.0743 43.1065 23.6775 40.9469681651
35.7242 42.0413 21.7029 29.3096653984
33.2101 44.6675 24.5402 101.3951995311
28.5225 44.3618 23.6223 44.6066317
30.3042 48.2687 24.0897 57.1660309746
28.8008 42.8882 17.621 27.2585431122
30.1774 37.201 23.7523 62.7180748868
26.9452 47.8749 17.5185 28.8660524821
35.7513 44.6702 18.9692 30.9494999748
30.0516 36.6725 20.313 31.1624723684
24.7316 46.6447 18.8715 28.7063208025
31.183 44.332 16.9437 33.9888072489
24.9102 46.4246 24.3375 59.9680110452
35.0446 48.6493 24.41 103.7850802075
31.8946 36.8456 17.4734 32.4714194115
28.1381 40.6209 35.8144 59.6293153671
29.0279 37.6269 35.8235 70.7460825134
35.5192 37.8287 40.9866 29.4896819821
25.4654 36.9295 39.2074 30.486807912
32.6169 38.2833 35.8666 67.6174556002
30.2452 44.7856 41.0224 29.3498260805
34.8573 42.3259 35.6761 77.8436732761
27.3509 43.4109 35.3641 86.5309891062
25.3696 45.715 35.8293 70.7839884811
27.3697 43.815 38.3351 27.889768933
30.8149 40.4608 36.0128 49.0875544599
29.7015 44.5905 35.2936 85.8853981727
31.5053 41.46 38.5729 27.0528565253
25.0887 44.7773 41.8706 26.1481793879
24.7587 48.4442 38.8981 28.0009852484
25.6218 48.3674 36.2483 48.777886607
26.6155 41.2256 38.1048 27.3671329665
34.2144 46.0742 41.8592 26.9488789721
29.0016 47.0518 36.6439 32.5638730673
31.4931 47.1948 35.4515 110.1412325877
29.5927 47.7093 39.2017 31.890328976
32.0815 42.8904 35.6576 70.5938208708
24.8499 47.3318 42.9229 28.5661158011
32.2735 46.8216 39.8363 26.9924093464
32.0661 37.4716 38.6053 28.9543855105
33.1376 39.9181 40.1753 27.0494083925
24.7893 37.6154 36.6452 30.8319557252
35.0941 39.5692 35.805 62.6365216136
30.1416 44.0075 38.2597 26.0101948408
28.8703 40.6109 39.6872 30.926695428
25.3656 45.5392 39.302 29.8457690195
33.9714 42.8286 38.6905 29.7373574954
29.3558 37.8851 38.4976 29.496830155
35.5482 40.1785 38.6156 27.0732716753
35.7376 43.5439 41.2779 25.9912450115
32.531 45.5624 37.4485 27.3669953256
25.7239 40.995 41.3306 29.1189091596
35.2758 45.6949 38.5634 27.3838184028
28.4834 46.7602 42.2412 27.1480757421
28.0074 43.1213 41.5859 27.3393600976
36.28 45.8802 35.8797 78.7053163248
35.9656 48.2316 38.6969 27.3640680379
36.0255 48.7834 35.9287 79.7484867199
24.8977 40.3157 35.6526 86.0880283477
32.5117 43.7086 42.6542 31.784885655
31.7587 39.4982 42.6019 30.035187391
26.9672 48.5369 41.1475 28.4964603975
29.4075 40.7495 42.6346 32.506345429
34.2414 41.4647 42.8395 27.866742794
24.7218 43.3882 45.8268 31.5620296488
29.8533 42.7023 56.1169 31.4388082037
34.4763 46.3863 54.6562 32.8455132304
27.8311 38.2419 47.7235 34.3318441296
32.9651 39.3604 45.3888 37.4160189607
30.2481 48.1018 43.8105 33.0573662969
33.3225 43.3841 46.7933 29.1551382157
28.2394 41.1933 47.5791 31.7098667074
25.6314 40.7997 46.3383 30.0292976317
32.2974 45.1842 56.1896 30.7509171908
28.9856 42.1913 45.1214 33.1134233379
35.9573 44.1535 56.284 28.9313948028
31.2317 44.1203 45.1381 32.9773961474
36.0422 38.1705 51.9425 28.1706357551
34.4749 40.2931 54.9179 30.9424764218
25.7349 37.1839 54.5012 34.3228742903
35.794 39.3202 43.7067 30.815245157
28.3998 48.4233 46.7758 26.7569002606
27.0737 46.8325 44.8325 30.1388068703
24.7704 36.8571 48.2775 32.2016840429
27.1375 44.0873 44.2692 30.1501673522
33.0606 48.1393 43.4908 29.494658311
35.3071 45.5602 51.6814 29.6091069956
26.2219 38.7608 50.1076 28.8570205713
30.8158 43.5364 50.8203 30.0018597981
27.3685 39.6111 55.7744 26.2333152504
31.9759 47.2462 53.4576 35.6916517859
35.0792 43.1315 53.5223 30.2694210326
33.4331 39.4225 51.9781 30.6424254723
35.3545 43.5131 44.8899 27.5246608796
24.7723 41.2986 50.5675 30.8603843996
31.0091 41.2338 48.9734 33.9764766771
30.7781 38.7047 50.2314 30.1886018553
33.3824 40.8915 47.7657 31.3507503345
27.9725 45.0059 53.6066 29.574481415
26.6593 39.7553 43.7867 34.2568108387
33.842 44.9494 49.1651 30.3227924636
26.3552 44.1264 55.7449 29.7843268071
26.818 43.0171 49.45 34.4601754492
35.4098 46.305 47.3061 25.6669437225
27.4523 48.725 55.3361 32.6411399049
32.0308 47.5533 50.5655 28.7586004671
30.7003 46.4913 46.4353 28.7605841904
30.7878 45.5124 48.9682 30.725043245
25.9308 47.49 48.1121 28.3578747336
35.4178 46.2403 44.4996 28.2121402688
36.6419 42.4474 50.828 32.1369680672
28.5245 38.6429 51.8204 29.9439077992
35.1126 37.4915 54.6128 27.3417464482
35.37 40.233 49.4519 32.424687525
24.652 40.8099 53.6601 30.5689785289
28.192 43.2675 51.705 28.5350259196
30.7423 44.4269 53.8542 29.1145656238
27.6981 40.9429 52.931 28.1103931708
30.1899 40.6803 54.2662 32.9548789461
32.6493 41.9394 52.7265 31.3525690661
24.8283 44.6699 48.5181 32.3029452005
27.0202 47.2533 52.1839 35.3719788337
32.9739 48.0341 46.4703 29.819221891
28.5613 47.4624 49.774 33.6744076058
36.4991 48.1804 55.7758 30.3092598809
34.5051 48.26 49.9444 31.0125925115
35.7401 37.326 45.6984 30.0588349903
30.5256 36.8248 47.9836 35.2182019918
29.9189 38.4667 56.4206 30.5501856239
46.8352 7.00559 3.88103 32.1011507582
48.5323 4.93302 15.5541 34.2727587726
45.1838 10.9733 3.84027 29.7240909974
43.5504 5.22721 4.15505 28.175263255
42.35 9.78503 14.545 27.7431478297
44.3365 2.16591 6.54187 32.9093564638
38.0454 9.87598 13.7736 29.0314608231
44.4948 2.63195 3.6859 31.1152986082
48.3368 11.1717 5.66438 32.3312386301
43.4021 1.0806 11.6367 27.5024476512
47.598 6.51568 13.6222 29.288714583
41.7046 5.89155 6.86149 29.3679323068
47.6728 0.341232 10.3913 35.2172341519
44.064 4.66056 7.77489 26.6817129484
41.0189 0.71131 12.7858 26.7374219321
40.1883 7.86478 14.2062 27.0600363863
40.3059 10.1573 11.9049 27.3168506365
38.4816 6.84551 5.86038 32.0912003481
39.9381 9.41207 6.46037 30.3200068064
44.4816 9.37032 12.4302 33.3164514729
45.5142 6.88113 6.19539 28.6744229318
42.8664 3.54362 15.293 33.3937808393
48.4427 2.36405 12.2302 31.3758220513
48.3325 8.89963 14.8523 31.1873906959
38.8008 2.42089 6.4606 32.4694738903
39.3917 2.24556 10.553 27.837658752
47.5385 5.09271 11.2299 27.5453015226
38.3254 4.3758 15.6646 31.2609069295
47.2609 4.30846 8.48526 31.5057021582
38.6256 8.30028 9.88569 30.5415434715
38.4371 3.91881 8.52272 31.4541135731
38.3195 2.78012 13.2871 27.4820802598
43.1316 3.38013 10.2026 31.6158831609
40.9991 4.9599 11.0457 26.8771006505
42.2665 7.93057 11.421 27.8986547021
44.2837 6.79149 9.98938 30.7552146101
48.9896 8.51308 11.7493 29.154196746
44.7877 4.63847 12.0673 28.8900475923
40.8145 3.73093 4.94741 30.0848650862
40.3429 10.8164 9.08494 30.0459061663
44.8627 11.6518 10.5091 29.4666288784
45.3628 9.60884 6.71524 29.2517632957
40.0008 6.1933 9.07628 26.6445858056
46.668 8.23425 9.51066 27.7694594379
47.0071 1.40463 7.93301 31.1935021356
47.3025 10.8958 8.79119 28.0788332197
42.5412 5.92497 13.4871 28.4708177567
48.1706 6.83076 7.92345 28.482859574
40.6171 2.04632 15.0437 27.7631227486
41.7453 12.3841 15.4414 28.4709319525
43.0482 10.9352 8.28213 32.1369053587
45.013 2.09229 13.7076 31.5875542087
44.9947 7.44189 14.4398 31.5118124068
47.9492 2.20909 14.9885 31.1738786364
42.6572 8.61186 5.94156 28.926256623
42.3596 0.201681 6.57941 32.0640861771
48.6126 11.1742 11.6836 28.2573098504
38.4507 5.85773 12.5137 29.9112087711
37.2636 11.0017 5.36736 30.3160370334
36.9838 0.0582291 10.0862 29.1210942598
37.5458 11.6296 15.8491 29.4238303235
44.9425 9.70133 16.6325 32.9556904346
40.8335 0.169227 9.10466 30.281535025
40.3356 10.9571 3.93937 31.807851236
48.9501 4.74038 4.10228 33.7725031734
36.7014 6.84843 14.6546 27.1788593683
48.1015 12.1527 14.1642 27.64842623
37.8672 2.45112 23.9966 66.4358970617
45.7083 2.43871 19.1274 31.32969726
46.3643 4.32796 17.3757 33.9157555001
39.6328 6.31379 18.8262 27.6463931335
38.7899 7.91707 24.6946 124.0519240608
40.4888 4.2101 17.6074 28.5336854938
38.3322 9.66489 21.6638 30.4520468964
42.5994 7.90304 17.1344 28.224444977
43.8049 11.59 24.7106 105.9075770576
44.7045 5.20126 21.1391 30.2367507003
48.3181 4.55413 21.7117 26.5259022675
39.9524 8.55754 16.8493 26.8857225724
47.1418 5.8149 19.5622 27.9226035564
39.3265 11.7679 19.9814 30.440059566
46.6372 2.8405 23.7403 38.9324561934
46.4144 8.49614 18.964 31.4670133806
42.4369 9.16634 19.7065 31.1951619896
37.0869 8.12726 17.2295 29.8007291683
41.8943 3.78328 24.2369 86.1251353114
42.0664 1.07725 23.6796 34.4519918435
40.4203 7.76404 21.1189 31.2356353813
38.446 3.12255 20.0652 26.1784270351
41.8912 0.76877 20.8825 34.5962867562
42.8243 3.32157 19.9341 32.7467286358
44.6238 0.875249 24.4856 119.2992767717
48.1158 5.55893 24.2983 73.2906016354
38.9161 10.6177 23.967 47.8672196646
42.9392 11.8679 20.2475 33.0714365045
41.4621 6.97666 23.8493 47.5582394003
44.2705 4.78058 23.7369 39.7548557157
47.2658 1.95184 21.2261 29.2599541324
45.7319 7.08325 24.5181 90.9319229728
44.4758 8.02257 21.4592 29.7505821101
45.2924 12.0729 22.4229 29.2665532305
39.108 4.83724 23.7019 39.5977443141
40.3409 4.49841 21.4032 28.6662506845
39.4885 0.694981 19.332 32.2434641982
43.5778 8.99511 24.1138 56.0042447289
47.5155 9.39568 24.2113 69.945041149
47.1067 9.7085 21.3814 28.2302639835
39.8086 11.4294 17.4682 30.9889742442
43.1914 5.13416 17.3738 30.4916456397
48.713 9.11895 17.5803 31.9162704753
48.9254 12.0036 23.6017 37.153687687
39.4861 0.526351 24.2042 81.6133709121
39.4486 12.0886 40.3224 30.1010027877
45.9293 6.06524 36.0593 43.9712445017
48.6145 10.5247 42.6346 27.9202505253
45.1372 8.69633 41.6003 30.0143925673
45.9613 6.72229 38.7764 30.0708016719
45.9258 1.47684 37.7731 31.0695053017
46.4602 3.16211 35.5917 87.0608778442
44.5074 9.20603 35.7197 86.9125057371
46.9082 10.954 40.5135 26.4689589822
37.4665 2.15568 36.3581 43.3926673996
39.6427 4.01134 35.4977 112.1164288009
40.3532 4.34769 38.6743 28.1210532769
41.8812 2.09722 36.5342 39.9827478516
43.6055 2.37852 39.1584 30.0740287455
43.4138 4.50189 35.515 95.5082982979
39.8226 11.8461 35.6986 81.7602438788
39.7503 6.58275 35.7959 66.0752196892
37.7239 8.71876 35.811 81.2285811467
47.6726 1.49155 41.762 31.1530358414
43.2614 7.75101 39.7567 27.5760569109
42.2196 7.01995 36.05 51.7639163186
48.8702 3.77803 36.2466 36.9653211643
38.7385 2.21979 39.156 28.0300549208
38.7643 2.20868 42.195 36.8395652797
44.467 11.7796 35.9146 53.4862163309
48.4382 0.9881 39.093 31.1254464324
47.9129 8.74593 39.1668 29.2236622575
40.2091 10.046 42.179 28.3395033033
43.1005 5.12206 38.2886 27.9656223614
43.065 10.2615 42.9321 33.1975507423
39.7586 7.35696 38.699 26.4005773231
39.7183 10.1551 37.9188 27.1969772001
45.4531 3.03122 41.3666 30.2770147655
47.3985 9.02771 36.032 47.6801456229
41.034 7.48325 41.259 27.3455574583
41.9083 1.86344 41.988 30.3581959972
47.4017 12.0803 35.7846 92.371253447
46.4065 5.36122 41.0524 29.841582288
37.669 4.91856 41.6837 27.7636042123
42.4715 9.6515 38.015 30.3952455744
40.6928 4.73759 41.5269 30.4032273302
37.1692 9.08905 42.3278 30.5128048204
44.4766 11.8255 38.8662 30.2565703301
39.5782 -0.10234 36.3445 52.6329971424
48.8714 6.65787 35.38 108.1099794341
37.3191 7.13294 39.9261 30.9252891659
44.0121 8.33747 44.7472 31.0225330024
44.9449 0.350439 50.7454 28.3950006332
47.2435 4.4562 46.1128 33.1777585228
37.8757 6.87209 52.1031 30.6737772857
43.4549 5.77204 53.3736 30.0505723826
43.2234 2.0568 46.9949 27.7072235251
37.7143 5.56057 49.5603 29.9826316378
42.2836 2.72954 49.5788 28.7293291865
40.248 2.70514 46.9609 34.2331857874
41.7948 1.9434 55.7241 33.1654997473
43.7159 1.91686 44.0616 28.6009945383
47.4883 9.46021 55.9055 29.7837919607
39.6969 5.91822 56.3109 31.301040255
40.3943 5.51601 45.7089 30.7006921025
47.576 6.55446 48.3898 27.3599900439
46.1198 8.53684 47.5093 35.1230190849
37.8789 2.72617 49.8267 26.9250443101
37.4014 0.43719 53.0372 31.5803234404
41.8889 10.5241 53.5205 28.8030505462
39.2517 9.42094 44.7711 27.4335376326
46.7922 2.57236 53.3892 29.4660947338
48.0482 5.52533 52.8455 31.1539539246
38.538 6.58164 43.7619 28.217323111
42.2207 6.37669 47.7428 26.1023337634
49.0703 9.7025 50.084 28.4224309157
40.0717 8.05411 53.3019 28.6835291921
44.8399 4.29656 44.4444 28.1681617553
45.6506 4.95567 55.0868 28.1865917735
46.9559 1.15992 55.9478 33.4326581613
45.6859 1.143 48.2316 31.9477672047
44.2797 4.62114 47.3849 26.9714212503
44.5908 2.73741 51.7784 29.2957102852
37.3716 2.14427 47.0171 34.6777440712
41.8751 8.99335 46.4223 25.8445660314
40.5827 5.19104 49.6549 27.2302366356
38.7286 7.23429 47.3489 27.0861907547
40.194 0.599987 53.0623 29.5250055901
43.1384 11.8351 50.0088 28.4883158862
43.7553 9.03062 48.8596 28.5295297579
45.5788 4.62795 49.7232 28.7957882631
45.5194 11.6954 53.8774 30.5680403734
39.9422 9.33539 48.8471 28.6615334456
44.0034 9.92493 52.0542 30.9965461743
37.0745 10.2678 49.0479 32.8627792435
46.9472 7.29714 51.0734 26.9785540118
42.0666 7.16518 55.1036 28.0298916454
39.2389 3.88881 52.2075 28.8895101616
42.7134 9.63869 56.2843 28.6978107502
40.364 0.829585 50.4754 29.1376317747
41.8821 3.21726 53.1119 30.8444566963
48.6627 11.1202 45.8138 28.4969554311
38.0712 4.33368 54.6869 32.2402043001
47.5902 9.59255 52.9132 31.4332934784
42.5607 6.0905 44.1114 31.9662739722
41.1445 7.74429 50.7197 28.1652177759
38.6915 10.4235 54.2036 29.0549535041
44.1789 7.19273 51.2415 27.1073379832
47.9366 3.0189 48.5406 32.4352100475
47.3753 11.1609 48.3169 31.5987884518
42.463 11.7845 46.9455 29.8527926553
40.1505 12.0226 49.6452 28.8042229812
46.2495 6.74065 43.4775 28.1296086168
48.792 7.65029 43.4808 29.0680447941
39.1132 23.1669 12.6043 29.6683460608
47.5389 20.6486 6.52217 34.7614714432
44.1899 19.1545 7.4379 29.9169020432
41.5746 18.0441 8.47893 30.8428793353
45.1198 18.0257 3.90869 34.5433536785
39.7844 20.2858 13.4395 33.4929066095
49.0533 13.7545 16.8778 28.849824381
45.87 17.1111 16.4226 30.3498781652
45.0604 23.4318 13.6927 31.210891408
39.2481 14.005 11.7026 29.4435325025
46.0869 13.7066 8.03118 32.273289753
38.6973 12.9389 9.04014 30.6400094388
40.1295 20.5392 8.34257 32.7256491994
43.0873 15.5795 9.87079 28.4581364643
43.8456 20.554 11.5585 34.1534132228
44.4532 21.7927 7.9115 28.0454345108
46.111 13.3687 5.02156 29.3484201442
40.9355 17.4306 5.90165 29.7376353318
41.2575 12.6628 12.6664 28.2599571893
44.7592 23.5963 5.83226 33.560698317
41.6795 22.2836 5.3452 29.4566965715
42.3956 22.2691 9.63927 36.1505306143
37.9447 18.6325 6.02089 30.3252567508
38.462 15.5164 5.58649 29.1212106875
49.064 16.7678 5.12158 30.2224361072
43.2369 13.5445 7.56637 32.0118116367
46.5838 16.3407 8.90468 31.8098732512
48.1423 16.5166 11.4756 26.5951546263
40.2863 14.7871 8.06671 33.3970926159
46.5251 17.9037 6.4006 30.8073861035
38.2883 14.2496 14.8807 28.2791209214
45.4836 14.4658 13.5143 29.6833636671
42.2305 16.683 13.4341 29.9849361997
39.0307 18.3462 11.512 34.616161242
40.5492 16.2648 11.0069 27.5110657477
45.2946 17.4039 13.1834 31.6945915844
42.388 19.6484 13.822 28.6226041467
44.7217 17.9532 10.2853 27.1081008841
48.2557 21.0458 14.2845 28.4630717634
37.6743 20.3318 9.6283 29.8464304892
46.6824 21.8216 11.9823 27.159463344
47.1892 13.9594 11.4611 29.1263808676
37.1508 23.4659 5.10656 28.809701274
46.8333 22.1463 9.03268 30.4883919778
48.6286 14.3154 4.35724 30.4511768244
40.6037 24.4222 7.14958 28.5840371414
39.0862 21.2597 5.70466 28.7351997072
47.8628 23.5808 16.7991 29.6471736691
46.3632 21.2363 16.6694 33.0325595941
44.3872 14.9493 3.60629 34.6082261095
48.2841 17.8699 14.6868 28.8342635478
42.6328 19.268 4.85494 31.9550524769
43.818 21.4896 15.2885 28.225012696
38.7074 20.0251 15.7326 31.1253947238
43.2369 17.9073 16.2109 28.3840301591
47.5914 19.3368 10.5047 28.5204817445
36.9797 17.0959 12.9629 33.8620459238
42.0191 14.7326 5.22912 34.3380631563
43.7309 13.7114 11.8231 27.4890937878
40.9336 15.1446 15.1439 30.7403418289
38.2022 22.5871 16.6264 34.9621397493
42.3669 23.6846 16.3901 29.592698843
45.7243 12.3197 15.483 32.267236877
47.8469 24.4723 14.0562 25.0882986281
40.9269 15.7356 19.9489 34.7544053833
44.0931 24.25 19.4958 32.6143017133
42.1935 15.7006 17.6041 31.5547206754
47.0079 14.8182 20.3724 29.8929761802
46.2053 18.8033 18.5926 30.4279844149
43.3112 13.0127 17.8134 32.1951688366
38.4765 20.1027 21.5908 33.6212081927
40.3853 19.4341 17.7746 32.1775518414
40.6887 21.0742 20.2079 31.9515906197
44.6683 21.4696 19.918 30.9374421741
48.3984 12.4622 20.9234 26.7150994049
44.2484 15.0101 21.4412 31.4834908791
46.2979 14.4817 17.5396 33.7818065216
37.631 20.8369 24.5054 102.9148226593
37.156 14.9489 17.1374 29.0300949227
40.8106 13.4259 21.5697 31.6484953578
39.5479 14.9347 24.6855 113.8111754828
42.6144 17.3101 21.6797 32.2075299714
41.6159 17.166 24.4378 79.9827737376
46.6465 13.4462 24.3589 80.5850812331
43.1268 20.3383 17.8413 28.54337398
40.4117 23.0246 18.0009 27.3746682965
37.0315 14.7894 23.7927 44.8124841398
40.3945 19.5408 24.1536 59.2319856501
42.8779 20.3029 21.61 28.5353477424
44.5404 20.7665 24.2704 59.5239355543
45.7684 18.2055 21.4604 27.0102606404
44.2725 15.7789 24.1922 61.1948689849
48.2219 17.0427 21.3808 24.6004246693
45.5664 18.1777 24.4482 80.6092075977
37.3828 22.6615 21.3457 32.7086649376
47.8313 15.9903 24.1576 61.2054654697
38.9183 16.892 18.0953 30.8648996635
42.0565 21.7289 24.359 79.796589832
41.0104 12.5796 24.2536 60.9264870989
47.0429 20.8689 21.8463 29.2729916946
48.4931 19.1756 24.0204 57.2842965073
46.3353 22.8203 24.3513 79.2448710499
48.9169 19.0513 19.299 29.3726714553
49.2148 23.851 22.0217 26.0234969391
48.8309 22.0921 24.2622 66.2883157502
37.0897 17.8573 20.3664 33.2775415205
37.0091 23.4774 24.2918 68.1088151285
38.2919 15.2504 35.9683 63.1117731337
43.8007 12.9135 41.492 28.5369603577
37.5696 19.3229 38.2599 28.6446540468
45.9795 19.4723 40.3856 31.062919655
46.9757 21.5466 42.3208 30.3935672988
40.7089 17.3676 35.8408 98.6380074031
40.9396 13.5125 38.1364 28.7895035208
46.2828 14.1991 41.7765 28.0872861894
48.803 13.3511 40.9923 26.4388232191
48.9054 19.5049 37.301 29.1985807084
37.9714 21.2761 35.962 76.0878797374
43.1655 15.7467 36.3425 39.2769294471
42.3465 16.5155 40.9035 35.9824026936
45.4836 17.1604 35.8748 93.7541359401
38.2388 23.4513 42.7387 30.5901599884
40.5813 20.0421 36.4803 33.6930452471
40.5442 20.2176 39.2636 28.8810394125
38.715 21.9674 40.2627 28.3870458384
42.3135 21.8133 35.4251 113.6529680823
44.5708 20.1653 35.7961 75.0954178805
42.7805 21.8085 38.4713 31.3278400155
47.4823 21.6537 35.7537 82.940866481
37.1458 12.6762 35.7006 69.9328035061
44.5385 22.8006 42.7707 32.2032958607
39.131 15.0707 42.5012 27.0844220527
48.8378 21.5294 39.5519 30.2071774182
43.4474 14.7921 39.039 27.0031347775
37.1123 14.6518 40.0298 26.7590503175
48.2911 17.156 36.1725 88.5228864257
42.2841 13.4359 35.4559 101.9389014162
47.322 13.2441 38.3219 27.3156603828
39.8145 17.4951 40.1437 27.8591703477
41.3462 23.1205 42.6179 27.7553852526
42.7065 20.6754 41.7284 29.1161221811
47.9541 17.9219 39.6158 27.8906145866
44.2491 18.4045 42.2478 29.0658944886
46.0941 15.9583 38.5592 31.5460563471
46.7198 16.8352 42.6981 30.4275610254
41.1321 13.2053 42.6888 26.2838431473
45.4883 21.3459 38.1197 29.731156165
39.1971 15.5502 38.4494 25.7442603659
46.7826 24.0039 38.7286 29.892895621
38.5027 18.3649 42.5783 30.6558975344
41.3246 19.659 45.7971 28.8564778656
38.4674 18.0743 54.7032 31.53292497
48.2511 12.6218 53.0584 30.263272058
37.2381 13.5356 43.2136 25.683751886
38.1822 14.7193 53.616 27.3643251383
46.3802 17.9896 45.4772 26.7942521628
43.0499 15.0198 43.7466 29.3009198853
37.2556 13.3779 46.0548 27.306712697
40.8208 23.3691 46.072 27.290402793
47.5529 20.5906 44.6323 28.2871200956
42.0443 15.3032 46.6639 26.2063588533
43.275 17.7372 45.016 32.9289005672
46.1881 22.7202 46.666 28.9592661635
39.3076 21.876 49.2999 30.183686946
39.1009 15.8725 45.2549 31.3545803082
47.3815 23.2119 49.4103 33.3668050543
39.5743 14.0626 47.871 26.6121589483
42.9075 20.5387 47.6779 30.2230339481
39.9385 19.8356 56.0223 33.258899936
41.2619 13.4536 54.0039 30.139110102
45.2902 23.5414 55.7627 31.1322825224
48.585 14.6043 45.3571 26.7665851201
42.8784 14.6656 51.3084 30.382422466
38.7198 16.1549 50.1739 30.2832874425
38.6588 21.8768 45.1467 37.3561391816
47.6419 16.3531 49.3973 28.2557400991
44.6463 13.4481 45.6892 31.8600408707
38.9349 12.2061 52.1993 30.4584526105
38.8174 22.0322 54.1407 27.8001145039
46.2478 15.69 46.9885 27.8156157218
42.7379 18.4405 49.6267 28.5976534951
40.4724 16.2931 52.5034 35.8258386343
41.2952 19.1207 51.8966 32.5970889629
43.5863 15.9073 48.7341 28.1219956
45.2286 18.6512 51.4236 30.3331989149
40.3925 17.2408 48.4009 28.3931703399
40.4819 20.142 43.1721 28.5853421247
47.2581 19.205 49.5862 27.2966976587
41.8842 23.1463 49.0119 28.6387201605
43.41 22.786 51.5561 37.3413889903
45.7128 19.9833 47.407 31.2498713957
45.1653 24.5742 50.1993 30.5444298252
46.566 17.362 54.0452 33.751727135
41.0401 23.3544 55.5514 33.0553072938
36.9444 24.2413 50.231 27.9954864193
39.8145 13.6898 56.4641 28.2743784265
48.6152 23.7753 45.3227 29.5842757482
44.0681 14.1921 53.8577 30.9320096856
45.5632 15.6909 51.659 29.6329584291
47.277 20.1276 53.9075 31.5586194461
47.7226 13.4325 50.5281 29.7222798645
38.7823 19.5983 47.4279 31.5695757594
45.2196 13.1945 48.8881 28.5385089621
43.6955 20.2872 52.9332 33.567643051
37.7896 23.9887 47.401 30.4341309252
43.6144 23.1582 45.4055 29.6264171683
48.6247 20.8568 51.7037 31.4757333862
47.0898 12.71 44.2585 30.0437826427
39.1034 20.5193 51.746 29.5824061414
44.7316 20.7447 55.4347 33.0024257016
36.9791 13.4101 49.7677 29.5899571515
49.3481 16.783 53.4791 31.3997331332
40.2694 12.3262 45.3423 29.6441238025
37.2003 12.5513 55.9383 27.1216535679
43.2512 24.3227 53.9021 30.5216426839
43.0848 36.711 15.8022 34.4598245317
42.8391 28.3206 5.31479 30.092569379
44.5444 30.7555 5.04184 30.7384538708
37.8428 30.6391 11.7704 28.0450842046
47.0088 25.1459 6.7459 30.8194989149
46.2654 34.4801 14.933 30.5821579689
42.3285 33.1221 4.96649 29.8287684601
46.2147 26.7068 13.6746 28.1147702529
39.3047 34.0762 16.4403 28.6484556817
39.9195 28.6 7.39238 31.7727642885
40.2959 30.753 5.41631 28.8170761405
47.9075 24.6589 9.87585 30.0592467021
39.3639 25.3993 11.0181 29.8989255493
41.4376 34.4731 14.9496 30.7514640155
48.5942 33.1197 13.9066 31.8774214166
48.1027 30.6305 7.96887 30.9909505996
40.3351 32.7049 7.59754 30.7351865
37.7324 34.1247 8.33919 29.1314489023
44.862 30.885 13.0877 29.4338427455
47.83 32.7424 4.95014 29.2495732808
42.651 35.1732 6.97545 31.6140674325
47.06 29.5807 5.7724 30.3846928539
38.5606 28.67 15.2177 28.7172323934
38.1925 33.7487 11.1472 30.7628504739
37.4874 27.1401 6.87986 29.1594214658
45.5312 27.3425 6.23828 27.073723189
41.1507 29.1378 10.5228 35.0122253008
46.3936 26.7614 10.7496 31.2278262796
44.9313 32.9229 10.6759 33.3098419138
38.592 30.8534 8.96176 27.0329332597
38.8262 36.3286 7.27126 29.2194845691
46.1277 30.3782 9.88928 31.6164575049
44.8715 27.7981 8.80689 34.0083779543
46.8423 34.3849 7.54846 32.0342810008
44.6325 32.7432 7.21094 34.1833088566
39.6758 25.0537 4.67351 31.5042683982
39.2043 27.9689 12.3255 33.1485660589
41.9822 36.183 10.8004 30.1725607988
42.4468 33.7008 9.60214 28.8896346617
47.6952 29.2225 11.6668 30.030812154
47.8765 35.1545 9.98683 29.4709215592
45.6195 35.3006 12.1144 35.92690817
43.4843 28.1012 12.0203 28.5793547059
43.4413 25.5169 12.7489 27.6997247429
38.4262 31.6089 14.9345 28.4144282804
40.8491 31.8926 11.0221 28.7352630666
37.7364 31.0867 4.27141 28.1351314061
41.357 31.828 13.953 32.1476592469
42.6776 29.3501 14.4664 28.0791841962
39.8776 35.0069 4.72534 29.7984754109
47.2778 29.2331 16.7577 29.8321135358
42.1221 26.5897 7.62333 30.9527098539
48.0782 36.0228 4.00311 31.6843425456
38.4337 27.6405 3.98429 28.8662463503
40.1376 35.0892 12.632 28.6688107047
44.3457 32.6138 15.2467 30.8796000767
47.2971 30.4692 14.2556 30.3387114697
48.738 25.5962 4.79057 26.9576322354
41.2298 26.9346 15.6522 27.7571554824
45.2705 27.2054 16.3785 30.8418063393
38.2832 25.1487 8.54282 30.4268991891
41.1935 24.7031 14.0907 32.0057836563
42.096 25.2399 10.3818 32.3560153927
41.1207 29.2946 18.7241 28.667225304
39.2959 27.6321 17.7829 27.5699913014
44.8997 26.3597 21.8898 29.2444069005
48.4805 34.3088 24.479 102.8806541279
39.109 31.4919 24.1229 73.1392628771
46.9052 30.5135 20.9821 28.2078137956
44.2034 28.8947 21.7272 31.9862543771
48.9229 28.339 21.3622 27.1785455691
48.5893 33.0919 16.9997 27.5237669484
43.3065 33.2544 20.2238 26.1551639266
47.0572 31.1721 18.3668 27.5328928186
38.7401 25.5177 23.8394 43.4120680918
40.5692 34.1899 19.1243 31.7977756862
39.0123 34.2429 21.365 27.5343507688
44.5403 31.9385 17.9595 32.9917440462
37.8945 28.2966 24.2977 86.2692189111
47.445 35.7602 17.0409 31.3679405879
41.4212 27.6624 21.2178 24.8668450977
44.1034 29.2716 24.5557 101.191965365
40.9162 27.9463 23.7894 45.6422195496
38.9812 31.4929 18.3858 30.2548000871
46.5475 25.6627 24.0668 54.1270466918
38.654 31.3192 21.1193 26.3742123282
38.5165 28.28 21.4646 26.9865182704
42.7914 33.5429 23.6279 45.1996638994
41.9769 30.9181 24.0888 62.4985059205
42.7829 26.4265 17.5299 27.5565757913
42.1191 31.1129 21.1445 29.7388426881
38.0889 36.573 23.9857 64.0090749543
45.9499 33.5012 23.9354 57.3909866031
46.7098 30.3479 23.8961 46.5036569449
41.2879 24.4537 24.1459 66.0040485574
48.1432 28.095 23.9736 48.5801036318
38.09 25.2957 21.1074 26.7232718691
39.8678 34.0808 23.9009 62.0626780382
45.7996 33.0857 21.3528 27.9174157475
44.9285 36.3486 24.0486 62.5482184379
48.4488 35.1253 21.6945 27.9574480635
47.7103 25.6863 20.7031 30.2220555827
43.4409 26.2268 24.4295 84.1556352878
42.594 35.8131 21.3844 29.7903757075
42.1028 25.1173 21.4436 29.7575948683
46.6107 25.4928 18.3405 33.2889951593
43.3577 29.5041 17.0417 30.3608424758
44.9799 36.4847 18.1561 33.6108124336
40.1394 25.2486 19.3348 27.5174060201
42.2654 36.6206 24.2528 89.0572821006
45.5263 36.0439 20.8815 31.1036807182
37.7977 35.1099 35.6392 87.0878962196
38.3686 27.3507 38.594 27.0285388814
49.184 25.0149 39.8214 28.153079898
41.5744 25.5143 41.3926 26.5970705184
48.1689 28.7401 35.6169 78.2586916642
46.8604 35.0184 38.4973 27.2159560149
44.6527 35.0509 35.5867 86.1698304844
47.124 36.0665 35.8355 58.5069964446
41.3971 28.511 36.2378 56.6980657838
45.022 35.5098 42.1531 27.4256383331
38.4362 28.1888 35.8674 81.400797649
42.87 31.1589 35.5835 99.7705319705
44.724 28.538 38.8241 27.3128669229
49.0454 31.1923 38.5423 33.0950868671
45.4621 29.1377 36.2214 41.2507750372
42.2709 24.5629 38.8436 27.9197924893
44.3194 25.486 41.6438 31.4789670073
40.6103 31.5667 38.8096 31.9850401309
41.3511 33.7367 40.5402 27.8213108724
40.9577 32.9647 36.3733 42.908580979
45.2703 32.293 35.6538 68.4811204607
46.0068 32.4656 38.4709 31.9910699691
48.1119 30.457 43.189 29.9590717512
38.1348 29.9773 39.9822 32.5765745144
45.948 30.2604 40.9361 35.4088814284
40.5585 28.0214 40.5625 27.6904759574
39.4713 25.3842 35.8962 71.2368746133
48.1267 28.3565 38.4377 29.8786268397
44.114 33.7942 40.2285 28.0534741074
44.5702 26.2349 35.5515 100.5718649277
44.8152 25.8813 38.6385 26.2172743105
39.4054 35.6256 40.1033 29.0518330418
47.0681 27.0293 40.7868 30.3345085558
42.1534 35.2591 37.1167 30.0551241236
42.1579 29.0374 38.7904 28.4384288517
48.4583 31.7273 35.6604 81.0565147113
43.5825 31.5396 41.5709 28.1915355439
49.1981 25.9189 35.5902 90.4917249675
41.3255 30.2241 42.1819 28.7596713917
38.2389 32.2438 35.6238 95.5523839792
39.43 24.7745 38.4882 30.528871012
37.92 36.1255 42.1874 33.9803444528
37.8249 34.1693 38.2619 31.9554693178
47.8681 35.4246 42.2991 27.8637807997
38.5913 26.2484 42.8659 31.8622313088
42.0093 24.731 35.9467 53.6990470463
46.6732 24.6831 35.9702 53.5738688412
40.5559 33.01 43.0982 33.2775408874
42.4839 27.496 48.2665 31.4943347275
45.2243 33.1726 51.5578 31.0138850651
46.4542 29.4138 45.1047 30.0964221663
48.5436 30.0409 46.8574 27.4658248282
46.8671 26.1386 47.8509 26.9288001882
46.2583 26.7547 45.3448 27.7544970018
39.8145 31.0928 54.2223 34.5583221001
38.0745 26.8419 46.0065 32.5049912424
37.7022 33.9497 44.1547 32.4619478137
42.3745 28.936 44.6854 33.1991400537
44.2082 30.7934 45.6771 32.3533294323
43.4341 35.7466 55.1765 31.3214878248
49.2554 30.4802 52.2684 33.7191326181
37.0753 25.8136 54.4979 30.1553459162
37.8221 35.6066 46.5004 31.619927392
40.659 26.1182 52.6461 30.8990338547
47.5912 24.9398 55.0111 28.803442021
42.2772 34.0951 44.9254 33.8823336115
42.9037 34.5966 47.9406 34.8803170044
48.7323 25.5743 52.651 33.7204164011
40.2324 28.69 46.6322 28.9060149607
42.1264 29.8317 52.0148 29.1847669343
46.223 34.2923 55.4106 32.0849093654
45.6508 27.6291 54.1516 31.0327227973
46.5103 27.9996 49.6619 30.2341999312
46.2936 26.4109 51.9067 29.2949260453
44.0439 25.4191 47.65 27.5242096455
37.2634 32.4102 47.8596 32.9931358788
39.5763 30.7332 48.4083 34.8281975729
43.9229 29.1231 49.8277 33.4258774698
48.326 29.8868 49.6364 29.8011138619
43.6028 32.0153 48.0851 29.4295994023
47.5863 33.1514 44.2641 29.3665299388
40.7577 28.8392 56.0495 31.8026439815
38.5046 35.0116 49.3652 31.1316937352
41.4501 31.6896 49.8729 30.3415946775
46.0228 31.8934 49.4025 30.7947053579
47.7811 33.9783 48.7102 31.8872320342
43.7552 26.3059 44.2828 29.4442960619
43.3386 35.0572 50.9587 29.8589631646
42.8263 27.5274 53.7409 31.4550603558
40.1208 35.268 53.5276 29.6900732421
40.7972 34.2671 50.9387 32.4656631102
46.7481 36.4608 47.7165 34.1899340226
44.7816 33.0422 43.837 30.9539952196
37.2737 35.4231 53.813 30.382570661
41.673 33.4158 54.8401 28.8650385223
43.9535 31.8378 53.601 34.671813091
48.1293 35.9648 45.4225 28.0123623313
47.6297 29.4903 54.3771 33.1857786571
45.7822 31.3203 55.5982 28.5580448129
47.5342 34.161 53.0527 30.4542049864
40.8753 25.7686 44.8736 29.0891058114
39.4842 28.6339 52.1353 31.6925809197
37.3412 29.3834 49.8164 30.0601730654
38.7651 30.3995 44.0732 33.9925589126
40.8575 25.6856 49.8225 31.0945548217
49.076 32.6127 46.3887 26.4087401484
48.0497 26.1026 43.3213 30.64769196
38.5719 26.7664 49.0117 30.0704749614
40.5538 36.5569 45.4801 31.2854259902
38.4905 24.1271 52.6344 30.0391087345
48.4993 36.8033 53.079 31.3557697766
44.1073 26.3001 56.4618 32.0272361257
37.6112 33.6865 56.3145 33.0094821332
49.1563 28.2163 56.4021 29.3407143891
40.9109 37.4785 8.66376 27.6131621991
45.8594 40.6718 11.9681 30.8533128803
40.822 40.7042 5.80615 30.2368144012
42.6717 38.9432 7.41774 28.6467768588
40.3354 38.5442 12.8135 26.6297591304
47.7473 45.3867 15.2445 29.3378335895
44.5817 39.4251 9.35535 30.1465275963
47.6073 39.1886 4.59523 30.0503678209
37.4092 48.3945 15.6276 27.5788649305
48.989 45.8189 8.32351 39.1800994567
46.9016 43.8302 8.17416 27.9451706169
45.7674 44.5975 5.54076 27.4797155367
44.5988 39.8434 4.61427 32.5932667865
44.0076 42.9558 6.87425 29.9149908521
38.6305 45.7282 6.58613 26.6762386294
48.1213 48.3816 15.3207 32.7761982996
45.2459 48.5615 15.298 31.704005077
38.0061 37.0193 16.4902 30.5361650006
41.3025 44.559 7.26234 28.4144778915
48.7142 41.5945 8.3746 30.5555279055
42.7281 38.6512 13.9109 26.9486794053
37.4473 43.2765 7.39733 30.4606285467
46.5207 40.0439 16.0659 32.3850060363
41.5789 41.7683 11.3573 29.2241579455
42.5369 47.778 14.2534 28.8940178846
41.7421 45.1257 4.4882 29.5377259396
48.236 41.5092 13.9842 30.0576604358
38.7509 39.2882 4.75622 28.3440414309
39.938 42.3205 7.71707 28.6770332394
41.2392 46.2612 9.87747 29.0330949658
39.4766 44.8342 14.9958 28.6560112277
43.4843 42.0519 9.64167 29.0562685654
46.7892 39.4706 7.77541 29.6864617244
46.8211 47.2955 6.79807 28.8912309831
43.9733 45.3624 9.02455 27.9754652064
38.1824 45.995 9.39838 28.2869775702
37.1426 41.0968 15.4798 31.4043097399
44.5045 46.8361 4.47202 31.2079844518
38.9626 47.7912 11.795 29.4912478605
44.811 45.6511 12.0307 30.6200108342
39.1759 43.3924 10.5302 28.170259021
44.4116 47.938 8.14685 28.8022930918
39.5661 40.9966 14.0921 29.0602380616
46.0917 43.3995 10.6583 29.5198742674
44.419 40.9016 14.2659 32.6020256367
40.2492 39.5692 10.239 29.6989629433
43.2631 43.3848 15.6478 31.98188926
48.3972 43.4568 4.4991 36.1647587692
45.0387 48.1867 10.8974 31.1808789865
37.7383 43.3233 12.8398 32.3541775001
43.5785 37.3831 5.18624 26.8345072526
41.4155 43.4466 13.7028 25.0511401719
48.8178 44.2859 12.0282 30.0368993559
37.2651 41.0791 10.0873 30.4634850136
45.0107 45.6558 14.7477 31.8946858974
42.0095 45.6808 12.5468 27.7225935198
37.3612 46.4826 13.6989 27.8312575218
38.276 37.0015 13.6573 27.9770343089
41.5919 48.2825 4.02045 28.5883943767
48.7991 39.9508 11.2606 29.6286151321
48.5563 38.2246 16.061 30.650624444
41.2897 40.4052 16.3848 30.7537678587
48.5606 47.7377 4.51061 30.5031957076
36.9722 41.5547 4.97725 27.4085636643
44.1752 37.6769 11.836 33.0913065782
39.626 49.2092 16.6842 30.0317795426
42.4456 42.4143 4.31485 27.6037115672
48.0031 37.8151 9.4718 29.9398384167
38.5717 48.565 7.40921 29.4153280393
37.1289 38.2615 10.2685 33.8588854337
40.8218 46.7771 16.1112 29.5882731084
46.2657 37.0801 6.03574 31.7081964664
39.0974 47.2552 3.94118 31.6154158097
38.9422 40.3625 21.8889 26.383600399
39.7818 43.2173 21.5272 35.5306713045
47.4438 42.8806 17.0777 30.4701855836
41.3283 39.4705 20.9134 32.2180254584
42.9743 40.5904 18.8129 33.0895518088
44.1779 40.4859 22.2714 31.839719092
46.137 38.9323 24.2208 71.3825111171
37.3127 42.177 18.4784 30.5234499897
41.7417 45.8008 18.6218 33.2751055344
37.3886 39.2574 24.1054 62.1036175088
47.4211 48.0641 21.4373 28.5365218351
47.1256 46.2878 18.1356 29.1925529802
43.8426 43.9414 21.9129 29.7480404961
43.3929 47.8653 19.5791 35.8383382866
47.6697 40.065 20.1692 28.026377884
45.7117 43.8443 19.132 29.4332328805
37.6318 47.2578 19.6053 31.2028272834
48.58 44.1187 21.2414 28.3374277229
45.8176 48.8942 17.97 32.4442108378
41.5841 43.3347 23.9305 38.707263665
39.278 41.5328 24.6278 103.9690248043
49.125 46.4981 20.2162 27.8983654645
43.6728 41.6229 24.7507 99.894417307
39.5625 42.9368 17.1959 30.5557864647
45.5131 39.2091 18.6752 31.854793891
38.0436 36.9149 21.0556 29.2715608728
38.6487 46.6647 24.2595 82.1154047019
40.632 37.0557 19.6156 28.1249653147
46.3784 42.1681 21.8135 25.5816985828
41.291 46.1525 24.3 90.2614940447
46.8807 41.7813 24.5776 89.1357840491
43.1718 43.4586 18.6475 28.7646453264
45.2583 44.29 24.2927 67.8856787866
48.8836 38.4394 23.7746 52.9140917345
39.1862 44.8072 19.2532 30.6706829457
45.0498 46.5221 21.2265 29.0279181858
43.8602 47.0518 23.8509 49.1374825461
41.5673 39.2893 24.02 54.5916966697
48.0072 45.1884 24.1567 77.7017522809
48.6041 47.9457 23.8418 57.0042402132
37.7751 43.9245 23.7811 39.5305677502
40.8034 37.8049 17.063 30.5502701078
48.6101 37.6055 21.172 27.6259660149
43.1522 38.0354 35.5655 92.6611368577
