22.5182 48.2012 48.2362 32.8873575887
16.7919 39.2672 52.8378 28.0660597402
20.3922 43.0151 53.3436 32.2235010937
20.7617 38.3714 51.8404 30.6312409597
13.5204 44.5681 49.8259 29.3315878813
22.2085 40.8082 46.2891 27.8417600547
24.2913 35.7542 49.1039 32.5497840257
15.2996 37.3599 56.0769 31.2864401883
12.7789 42.6529 53.9615 28.4072268928
24.4287 40.4728 53.5248 27.6781471842
14.4713 42.8774 46.6565 30.3017787571
34.5034 14.284 7.10322 29.8218438357
31.0389 16.434 7.11493 29.3062281223
28.9534 2.19386 5.19969 34.8835002561
26.6257 3.31324 6.84108 31.6792682631
35.5447 0.78945 9.48445 29.2056356344
35.1578 4.88521 4.2699 29.9180800148
24.4239 3.59587 9.5768 31.1992408405
30.0294 6.24088 9.16709 32.5442066631
29.9321 4.56491 4.11833 32.2288241261
35.6346 0.306977 6.8731 27.1873397912
35.5754 2.24913 4.52062 29.0340489177
26.1895 10.7627 4.8569 28.8283557661
35.3862 12.1238 10.9264 29.3727400828
30.6363 6.75713 6.44178 28.8030157441
28.9663 8.21842 5.01037 31.3604178844
25.1143 16.3816 11.0767 25.6422530628
30.1423 -0.0820203 8.37902 27.6462638293
28.7781 14.2133 11.8161 32.8525061927
28.6941 13.3942 4.51498 29.2205263331
25.2861 11.7362 10.0545 32.9691702983
26.2197 8.02765 5.55346 27.4018966774
27.601 4.53494 13.495 33.2810699537
34.2724 15.2156 4.28813 28.9770243336
34.9617 7.8775 13.313 29.3112910362
24.7033 10.0075 12.3736 28.9601330903
26.2755 14.4973 4.78526 29.3749850965
24.7133 16.1201 8.24904 31.3795634173
27.3996 7.52905 9.15385 35.8392373083
25.2164 5.80795 7.98113 27.5235984749
32.5201 8.53459 6.72642 29.3467882465
29.2629 3.69627 8.31245 32.4540205698
26.3587 7.91256 11.6164 28.874373964
33.7057 5.04935 8.58887 30.9060669935
31.9117 9.94018 10.1273 32.1276305846
25.5126 9.38172 8.13791 27.5818402078
33.2017 12.3837 8.7221 31.4697737827
28.0359 11.8509 8.49736 33.4441634495
31.5429 11.2004 6.66517 31.7171628188
32.8054 11.4964 12.6261 29.8959833765
35.1076 2.76109 13.176 31.9776533933
29.0745 14.595 8.59144 30.5375730919
31.2707 15.1307 4.61312 31.2949610131
30.6965 15.3109 13.6399 32.5580567182
32.2884 15.0968 9.38311 30.0217986532
28.913 10.9674 6.07982 28.1806209103
25.4713 3.17509 12.1842 29.6743680022
36.2396 4.02798 9.14021 30.7839364215
28.8287 1.83752 10.3903 33.7477925115
30.0613 3.4815 12.1067 28.4346842024
31.5692 2.08435 7.00601 28.2255220739
33.1468 2.35855 9.4408 30.2769205922
25.9114 13.9816 11.9681 29.9246741989
27.0837 15.8471 6.96925 28.8051388112
31.7903 5.20437 11.0035 30.550146795
28.2542 9.97133 12.7389 29.9841873307
32.5171 7.75554 11.7296 27.708149371
32.643 1.74837 12.1399 31.2002946106
25.1327 0.659159 7.9995 29.5030852192
29.5876 11.7281 10.7949 31.3512948387
25.134 5.10798 4.96104 27.1484954626
33.921 7.83093 9.11076 27.5522862597
36.1248 10.5712 13.1938 27.7579089309
32.698 4.80681 5.6575 32.7604797831
37.0037 14.423 11.4443 34.6614150605
31.9513 12.3659 4.12102 29.4309765577
36.4093 8.88586 7.06775 29.503598255
36.8314 5.68802 13.6295 29.6402173512
26.3605 0.230147 10.6558 29.4907801351
34.3642 7.89801 4.93718 32.244935113
33.2409 14.0593 13.3164 30.4175851048
36.3079 8.1849 10.3807 28.5792145186
34.3691 15.766 11.4823 30.1367330067
36.7594 10.5873 4.91118 27.9413360862
36.7543 12.6607 6.63595 31.2208482877
30.481 7.66132 13.7398 30.7424775136
34.368 11.1977 3.59551 31.5830425305
34.616 1.75865 20.9569 31.5132690987
33.9541 1.28101 23.751 45.8895265067
28.2662 6.05784 24.1232 54.0845701115
35.6664 13.6985 24.1532 63.8246682164
32.1477 1.57817 16.1549 29.5231265526
36.2718 2.64429 24.3915 100.7991423052
31.2415 1.68836 23.7974 42.2872374737
26.2197 7.45613 16.4063 29.4241952991
25.1166 15.325 17.6688 26.5626604036
35.7568 5.35632 24.4183 110.6628465351
31.6975 6.13402 15.5951 33.3926805583
25.3054 6.4168 24.0175 60.3107295282
29.0042 11.945 16.1552 30.281395058
27.4961 13.8722 17.9988 29.3120462758
32.7197 10.1859 16.7045 29.9434723786
33.8588 7.84995 15.9069 28.0014467948
25.4711 13.3835 23.9448 59.7837798443
27.814 0.326082 23.4676 26.9160493193
35.2994 0.911008 15.9279 30.5572223899
28.4695 1.02559 21.1019 27.4814201512
30.1517 14.5274 16.3594 31.5632366061
33.2154 9.4861 23.3231 35.8930971945
33.577 12.9289 17.0274 33.9970473688
32.4669 15.6221 17.3471 34.4344502988
26.4949 3.59372 15.9742 27.7861545861
25.1092 5.85454 19.9438 29.1797505324
27.1698 3.57339 21.0776 27.489731449
28.5084 12.4036 24.4861 95.2257544547
35.3596 11.097 24.4145 107.0124237301
33.3797 3.92972 15.2211 32.2878704795
34.2374 12.0608 19.6902 27.5709596481
36.0696 10.4435 18.4567 30.0316351318
28.0986 4.24325 18.3242 27.8762456171
30.3597 2.51739 18.1326 31.727810805
34.8102 4.16502 19.5109 32.4679332307
27.9474 9.18149 17.731 29.2786479762
26.1432 9.60743 21.6163 27.2580660845
31.1452 1.81359 20.812 27.7858115292
29.8768 6.10342 17.8581 32.6103150684
28.9827 14.0546 20.4107 33.7075066457
35.3366 12.8257 14.8864 33.1751252403
34.9597 7.42931 18.4586 30.2170035741
33.224 9.70994 20.6145 25.925086965
35.858 13.8899 21.3181 28.7650329368
31.0725 13.7934 24.115 69.6550194802
27.3235 12.2807 22.0316 27.5177146404
33.9035 15.8281 24.0461 60.5131357455
35.8098 3.75261 16.7905 31.2424774363
30.7789 11.5168 20.9288 28.9870275819
27.3357 16.2618 21.5724 29.8406522683
25.8639 16.0285 24.5556 110.0467180811
31.5561 4.56627 21.5045 30.659570128
24.8791 14.9855 21.2226 25.9848391988
30.633 10.3844 24.2011 71.8915697513
28.6378 8.49514 24.5212 86.0681853453
32.3169 15.7731 20.223 32.608793763
27.1514 7.49074 19.7608 26.8998572731
28.7568 0.165642 17.8784 28.2899765525
25.1563 2.21508 24.4995 97.2425607796
29.1779 6.06781 21.2289 26.3321280148
36.8894 8.69391 15.9917 29.3443971972
30.8198 4.67141 24.204 86.9728413626
33.7653 6.41781 20.867 30.4494314908
33.4783 6.54287 23.9205 69.2957990322
26.0085 9.27956 24.3166 73.75832047
26.065 11.2741 17.8986 33.6425816368
31.0676 7.67007 19.8701 28.005626658
30.6209 10.2202 18.4354 29.4873242146
32.8223 13.5695 22.0237 27.7067618925
29.1229 9.25273 21.8176 27.5641506932
26.125 0.374454 19.1831 33.2266816594
27.4493 0.877521 15.6255 30.754824018
30.9088 10.4561 14.2855 30.8437504021
26.7023 11.4375 14.343 28.4478340059
36.5414 10.1533 21.4401 26.541153547
24.7813 12.5008 20.0731 26.4375131654
24.9221 2.56559 18.718 25.1833571929
28.1474 2.88557 24.1408 63.0083605556
24.9329 0.0599112 15.1007 29.4913355118
29.9715 1.83647 14.4008 31.2334681617
27.7129 7.19324 14.1604 29.2989195086
24.9156 13.7875 14.3339 30.1493029163
29.7278 4.61375 35.5812 82.1451895847
31.6394 0.156213 42.1482 30.6722002915
36.1499 6.66021 36.0211 66.5603383692
35.6485 0.450126 43.0852 29.6925731401
25.3584 5.59913 38.5063 28.2753212954
31.861 1.60886 36.0189 54.0549973404
29.6364 6.59506 38.781 28.7746721135
35.5513 8.30485 38.5199 30.3706401354
35.7903 4.09186 36.131 55.1488971032
35.7378 7.49862 42.0133 27.5157890607
34.6648 5.73728 39.8937 28.3976990986
26.4784 2.94361 38.0614 30.7155619607
35.0632 16.0538 42.4005 27.9083075016
30.5607 11.7653 39.6618 28.8666194157
26.0626 14.0686 35.9634 76.1349865046
31.1051 8.91804 35.5537 110.3287444546
34.8512 9.662 36.0146 70.7928447167
26.1159 11.7923 40.4954 27.8511367163
32.6624 10.223 38.9627 27.8577540159
34.2689 13.9357 36.1495 63.1914556007
31.8816 13.8098 38.3309 24.7478151565
29.0699 13.1656 35.8499 89.8472552089
27.5347 3.17068 35.6035 75.5454135709
34.4785 14.1826 39.0281 27.3478890099
32.5448 11.2781 36.3226 49.5750114582
28.8616 7.02509 36.1588 40.8014457483
25.4287 12.9144 44.136 32.0709537847
30.1643 16.1251 39.3191 29.7873212438
25.913 6.22735 35.7301 86.7800990918
29.8142 3.92827 38.6696 27.3759347261
29.9174 4.2217 41.6793 34.211638258
32.4479 3.25528 38.78 29.3932326834
31.8472 0.395067 39.2632 28.4414711338
35.6236 3.07732 38.5039 31.2181603709
28.6991 8.77549 43.0255 31.0390237766
32.9 7.28103 36.4754 35.6901990896
32.2978 7.3731 39.4616 26.5552256079
32.5778 6.58233 43.9457 29.1747963931
32.8823 4.71772 41.8094 29.3694564731
27.2666 15.8802 44.6158 31.5785819717
28.2564 0.399148 35.49 79.9777775531
34.6431 11.1553 40.6638 28.2925213611
28.2682 10.8601 39.0011 29.831546536
32.0353 12.3788 42.1305 28.6722040059
31.391 8.01684 41.9302 31.1239017908
25.4172 8.37161 44.9148 34.6764600571
27.7206 6.45107 44.5789 31.9129591488
28.1246 14.7749 38.1601 26.4988965817
26.2454 14.3406 40.2674 30.5160233756
32.321 15.259 41.3284 29.4918565518
28.4829 1.67328 39.8986 30.0096421108
26.2519 1.16651 42.0462 25.7489288442
25.8308 6.90221 40.6575 27.8337573672
34.4287 0.562435 35.6468 92.7114792404
28.9931 1.72281 43.211 30.6796108
33.3465 2.28902 43.156 31.9099727592
35.1637 6.98 44.9792 28.1224533529
30.3604 6.68729 45.7997 36.1232879571
27.0358 4.89781 42.129 31.6846499371
25.13 3.13574 43.3174 30.0776609048
28.8703 10.544 36.2853 41.1190794674
25.0016 11.5413 36.2284 48.6933641301
36.4239 11.7819 43.3274 29.1567999851
27.7269 14.0446 42.5971 34.1319902401
25.9596 10.4412 42.9516 27.2195844395
28.0711 8.16529 40.3074 29.6564601734
33.1092 12.5064 44.6991 27.4233728458
32.6724 15.3378 44.3378 30.776925549
33.8903 9.53561 43.1087 29.1721470133
29.5031 11.6562 43.1093 32.9158003352
36.8205 13.9214 41.4843 29.5104668835
31.3748 15.4969 36.1125 65.2976019594
32.6098 4.3734 35.9011 73.0435704239
36.693 3.1666 44.2688 33.9607831001
25.7579 0.0199682 35.5088 101.1923718138
35.5986 12.8199 45.7302 32.4020098643
33.0064 2.73411 45.7258 31.968078008
26.4649 9.09174 36.079 64.905974547
28.0734 1.26048 50.343 31.5412959185
28.7975 4.05895 50.2145 32.4167712296
35.1905 6.16651 47.6291 26.7466453511
28.7448 2.21579 46.1342 35.5612715912
33.3316 2.47207 53.7411 30.3339837338
36.2024 16.2717 50.5759 33.6004296006
26.2575 4.43442 46.0028 31.5121759387
32.2765 5.12251 47.2061 32.369368901
36.1131 4.36349 50.3546 31.1140691334
33.2892 7.34388 49.6235 28.4968020054
32.7165 9.75089 48.3157 30.8077602528
30.2595 9.09916 47.2051 33.459497591
29.3444 9.15465 49.8331 32.5658349669
35.2 0.97951 47.1808 26.1163933745
33.2536 11.9087 50.4648 30.6920080538
27.0383 11.7739 46.6403 32.4210412383
35.1304 6.72743 51.5044 28.7107844163
32.6764 14.3125 49.0267 29.1486130246
34.0795 8.67885 55.0807 28.1909641635
35.5179 13.638 55.2695 32.7409163304
25.911 14.8134 46.8973 36.7432486876
25.5339 1.06646 50.4862 25.6739542283
31.1644 0.693661 46.4958 31.7914029752
34.5852 0.59719 49.8165 26.9836326551
33.4989 0.465479 55.9316 33.5824250819
33.7036 2.87183 50.799 32.268780288
35.1991 4.95114 54.2269 29.4465569073
28.8062 6.89814 52.3245 28.520457283
26.5656 5.10309 48.9398 31.5923457874
31.416 4.4084 49.8474 34.8961325538
31.333 6.73868 51.6745 26.1403833754
26.9062 7.93676 49.8467 29.1755629276
36.5761 12.0394 48.5639 30.9424019889
31.7336 9.71989 51.5099 32.1299450972
31.5326 9.34042 54.2219 30.8388136513
35.9975 11.4358 51.5784 31.8432035306
36.3278 15.46 46.7865 32.4349776888
36.1156 9.03719 52.9962 30.2855121769
27.9072 11.7923 49.3921 36.8555466269
30.5995 15.4086 50.4299 31.6514507126
28.2218 14.3033 50.5976 33.0611062383
32.0973 13.7971 52.4549 29.5793270914
35.0978 14.1951 52.5268 32.1714633595
29.8072 16.3806 55.4009 29.4418561753
25.1259 1.9976 53.2521 33.2218745592
36.7463 9.64342 47.7191 27.094071068
36.1164 3.7432 46.7018 28.5321978229
28.7705 12.9361 54.5432 32.3623624555
31.5341 13.5263 46.7419 37.283649284
26.771 14.0376 52.908 32.8787504005
27.4502 5.71613 56.0022 34.0013363998
27.9958 4.27675 53.0796 34.7790774031
34.3694 9.72551 46.0676 30.2507836854
31.1109 4.09179 54.5136 40.5149751648
31.3444 11.9862 54.3524 30.0728618358
32.9966 6.29379 53.8892 28.8703788482
36.4902 1.95922 54.434 32.8377696403
25.4268 7.74095 52.2923 27.5910545419
27.2178 0.839827 47.6837 30.1532285462
28.93 7.98714 54.9364 30.310446123
34.1889 16.2778 48.4353 30.5834319719
25.4718 5.03285 52.8399 27.703510212
27.5475 10.4521 55.2179 33.4383831974
25.5599 10.4251 50.1939 34.843550784
25.2291 9.68119 53.9939 29.5240868542
29.6406 11.4976 46.1275 31.5655639318
34.9463 16.7087 8.20258 29.1728127312
28.4777 27.9312 13.347 29.7778601489
36.6955 22.4206 5.30942 28.7904348198
27.2478 32.4686 4.14239 31.5958707867
26.2579 22.812 7.46882 31.1475554203
24.9309 30.2912 13.0878 27.7536701185
29.5173 19.7724 9.08761 26.9131661906
32.5597 26.3532 7.01542 32.3242751792
33.8328 21.6472 4.6565 28.6806485252
33.5183 21.267 7.43772 28.1748625322
32.8732 23.971 3.61949 29.2133068519
30.6549 24.8711 5.39376 28.4873393533
36.5704 25.6416 8.67227 29.0493044741
28.8221 26.9234 4.46931 28.8128763551
34.9117 25.2922 13.3203 28.6265691848
26.3584 27.7962 3.91547 30.4149708816
33.8129 25.4807 9.22749 31.7131659215
31.728 32.3318 9.67234 33.4433578296
27.1022 24.6976 12.0804 28.1459941206
26.4683 28.7628 11.5123 27.5470325638
27.1235 18.3694 6.12998 27.4080819438
33.273 18.5766 6.2993 29.2300716942
29.9741 19.1448 6.27545 28.1903220796
25.0276 25.0448 3.98087 28.4586646545
31.3674 17.9697 10.0681 25.1809349086
33.7791 18.1011 13.6792 28.0388444797
28.8638 30.6231 14.1168 26.957983925
30.9904 21.7935 10.6513 31.0068531662
33.8067 18.6197 9.72585 28.7333399872
26.0182 26.4398 10.243 27.5216155123
33.2341 22.6742 9.89917 30.1169270577
35.5025 17.9397 4.49344 29.1759563991
30.7786 21.8257 7.06392 27.6944402487
27.2325 26.3049 7.95914 31.4049618396
32.173 29.1385 7.35871 33.1583290368
29.09 23.9297 7.75909 31.9243832085
34.8757 31.4157 5.91431 31.0687349909
29.5958 24.297 10.7982 31.8435276786
34.4638 26.25 5.12948 31.7351389744
35.1719 29.1648 10.9129 30.1712598779
28.0238 28.8925 7.28471 28.7969939225
29.4218 31.2061 10.8788 33.0063988348
30.7215 28.942 4.06463 31.0886266087
35.3958 20.1955 11.4849 30.493114939
24.8961 18.5463 12.6027 27.4970151653
29.3776 30.9698 5.48911 35.1334355174
27.1051 19.9497 11.4242 27.1461509003
31.1428 17.839 12.6259 29.6922946053
35.983 31.1492 13.0933 32.4099140932
29.4178 22.1223 4.49894 30.3910041984
28.1658 16.8375 10.4206 32.9806875836
26.7061 20.1939 8.55925 29.6350326249
25.1142 29.4594 5.69688 33.9715297219
36.0319 32.588 10.4244 35.3201723816
29.1698 20.3103 12.8054 29.9948851903
35.4002 23.0154 11.6765 27.7064935835
29.9403 28.7936 9.22084 30.8305856754
26.1992 22.6618 4.6399 29.5264734406
30.2047 27.0419 11.1404 30.8372729491
26.8631 30.6928 9.34841 30.7749375363
33.3032 27.0273 11.4377 32.0399292135
34.0011 30.9228 8.70629 32.8767240567
25.4786 22.3794 11.9002 30.782124582
29.5544 23.1259 13.568 33.7291780283
33.5013 29.2473 4.52885 30.3351074068
36.4529 21.2353 7.65146 31.1785235761
36.2157 27.7744 13.2358 29.4573057509
31.4431 27.9242 14.0371 30.6031254897
27.8755 18.4307 14.3742 34.7483853684
24.9888 19.9033 24.2115 75.1802454
30.329 18.872 16.4093 33.4183362899
31.5577 32.0402 21.2608 27.2727685201
34.651 19.9667 17.5671 33.5320176062
33.1867 18.1254 16.3487 31.4254263218
30.6217 29.3068 21.6113 27.1335463329
28.5943 22.683 19.4198 32.1065008247
34.0003 29.8733 24.1826 75.2344417504
29.108 26.3053 17.6787 31.8347406053
30.6054 17.6849 21.3147 30.3414801928
26.0576 23.7881 16.0638 39.1414238891
27.763 20.2129 23.585 37.0968659648
25.7614 29.5142 17.3033 29.1731236266
28.244 17.4062 23.9094 52.5754044767
28.2976 18.1218 19.7501 26.4635408779
32.616 25.2522 14.6675 33.0829687236
34.2985 30.6038 17.6986 26.6178387233
27.9608 32.4153 22.032 28.5739893363
26.0783 31.253 15.3827 26.4770002087
27.2779 26.4703 21.4704 27.8136050753
31.3826 31.1809 18.4072 29.950219967
36.9132 32.5935 24.4678 105.2461153426
27.2187 27.9091 24.1826 59.1262754398
24.5193 21.0395 21.4836 29.8973770902
36.5128 17.5615 14.5542 28.6528311356
34.1469 32.661 20.9321 26.3020876156
27.2227 20.5979 20.9588 31.0339891862
30.3384 20.3029 18.749 28.4322261543
34.9699 19.7012 20.6163 31.0531749227
30.511 22.5699 21.4128 31.8274968182
26.448 26.8648 17.1088 28.604025106
26.3152 24.0233 20.8735 30.0995993515
32.0721 21.7141 17.5365 29.093319638
31.9218 25.0839 20.8124 29.4246890006
25.5264 19.0329 15.5566 32.9155056992
28.8201 30.6312 17.2883 34.1182346413
28.788 23.5644 16.6559 36.4913185148
33.1449 27.8215 17.8786 28.8353801741
30.659 28.2478 16.7937 28.930626233
32.7406 27.8501 20.5196 27.2041116053
34.2652 25.4206 17.0598 33.7807742267
25.2906 30.0978 20.139 30.78968438
34.2378 32.541 23.8324 35.266538701
31.3559 29.0444 24.1712 66.8257937853
26.7115 32.2572 24.3323 83.944028446
34.6754 16.8551 21.366 29.0419623719
25.648 17.9892 18.1861 31.7088230207
26.4138 26.208 14.3448 28.134665538
24.5839 27.2463 20.579 31.590452649
32.1547 20.2718 21.1637 32.0816096797
31.7023 19.4544 24.2229 67.8169767708
35.9939 22.4942 23.7509 39.266111889
30.9311 16.5848 24.2916 80.292495625
26.4655 23.1628 23.4378 36.5211903578
36.2472 27.7484 24.1342 67.5050519367
35.2116 24.5879 21.4486 31.6051785302
30.4749 24.5226 24.4881 95.3215520771
33.6478 23.4849 18.961 34.9790564398
32.0899 22.4874 14.8195 32.7298940158
28.5896 16.9767 17.1858 30.9034466153
34.3225 20.1906 24.3869 97.0758849724
28.0142 25.1097 24.5307 98.2282951745
34.0269 29.7868 14.6293 30.0630837758
29.9 21.6761 24.2294 78.814241657
27.8133 29.6681 21.6567 30.0195282871
32.218 26.1609 23.4834 34.5746614378
29.5438 26.7611 20.232 30.1007978771
35.7689 30.8903 19.8407 30.4208147968
34.8288 25.2127 24.1346 86.6958227691
30.797 32.3649 24.1283 59.4101333337
36.923 26.5819 18.0982 30.8536886907
34.9846 28.8524 21.6382 30.056214778
36.3892 28.6367 16.3235 27.4969763537
36.0514 17.7929 24.2063 87.653620872
31.5312 31.4591 14.2986 29.5183793127
34.374 20.951 14.1805 30.4612173822
28.5545 30.1523 24.7923 105.6609283979
36.0877 29.2559 35.4888 103.894678768
30.7115 30.8925 45.7386 31.5308426179
26.7956 19.9635 35.8162 91.2965329137
31.6498 19.7923 41.543 30.5800629617
33.9756 20.8985 35.5276 112.560008574
34.494 16.7778 36.2234 56.7018906494
35.7358 31.4603 43.3318 27.9859223561
28.7153 16.7296 36.0717 69.5795913286
32.4209 19.5077 38.6485 29.241118964
26.1465 28.0623 43.6349 31.9682787887
27.5622 22.5464 38.4377 30.872643483
29.5485 19.3321 36.0253 64.9081207197
35.6924 32.3454 36.5783 46.452889862
36.4658 17.018 44.5702 29.4199450869
26.6211 22.69 35.7988 85.0942780548
30.5439 26.9149 42.7831 31.1698663572
32.7888 22.2335 38.3411 31.4628826855
31.3419 26.3191 45.711 31.4106524131
36.0028 21.8033 39.6569 31.3747323805
35.3337 26.5753 35.4234 101.1863772526
27.0211 26.8822 40.4184 29.9806291275
28.9026 26.0377 37.4871 27.6625817927
32.111 30.357 35.6967 106.8608773238
32.8959 28.4483 38.1057 28.2560903976
30.4954 23.8855 38.998 29.5237042557
32.8052 25.6849 38.8961 29.1966276489
24.8237 28.214 41.0142 31.7428723528
33.756 27.4616 45.5761 28.692835141
32.6463 25.6739 35.8241 55.6039438243
29.7237 18.946 38.5925 29.3608741299
30.1071 21.6356 45.2701 32.2832034799
33.116 30.217 40.0174 29.7877568318
30.345 27.4248 35.843 77.6792517428
32.1035 23.2046 35.5877 87.9936225552
29.3419 23.5104 36.1533 55.9993316374
26.4854 19.859 39.3992 27.6710452927
29.0735 29.9692 36.1681 42.6047358286
29.2867 31.1219 41.7461 30.4046153967
30.0855 17.565 42.2156 30.8011240959
33.6477 20.0155 43.1896 31.0514766833
32.879 22.3793 44.9659 30.9962711293
27.7972 19.0882 41.7246 31.7888464578
26.2286 24.2221 40.3784 32.1906731469
30.4497 22.3098 41.6459 33.9566022897
31.9799 24.4589 42.9126 32.4359295357
26.2274 26.2059 36.1251 67.0554458521
36.075 20.4037 41.8565 31.0335047659
30.5237 27.2098 40.0479 28.4264898657
27.7676 26.2329 42.9239 31.3570443917
35.2587 27.4616 43.1 28.6075406726
34.7685 24.6919 42.4423 32.9263522888
34.883 24.1687 39.7958 29.3891156694
26.4515 17.5293 38.2691 27.9822145001
26.1339 30.5649 39.9671 33.1103227666
28.9157 29.4072 39.197 30.085359725
26.6083 28.9102 35.5838 103.1548711096
32.786 28.8056 42.3983 29.5812152223
35.7728 28.4492 37.9953 25.1594036747
35.7962 29.7641 41.092 26.4385104207
36.9332 24.323 44.3148 31.9993146756
25.8813 18.0604 43.8005 32.108727443
26.662 30.8901 42.8359 28.5057737074
30.0103 16.9045 44.9425 35.5925911871
36.871 19.7852 45.7661 34.8569194885
36.6288 20.5336 36.6803 37.6893179091
32.2968 18.533 35.9144 65.9053310569
33.9742 16.8896 38.9841 29.4740235487
28.0981 21.5028 43.1986 34.8489415175
36.2626 17.6168 40.6454 30.654902615
26.2857 23.4761 43.3318 31.8240743012
31.5641 31.1738 43.2623 28.5996500938
33.7715 18.0682 44.9857 28.8212558554
29.5783 32.3685 38.7973 27.5726089294
27.6214 30.8101 45.3404 31.787970926
36.7156 26.0961 38.4826 28.9991303915
26.9806 24.5545 45.7228 32.8947491482
24.6681 26.948 45.7802 33.296506579
28.2546 19.0091 48.6176 31.0228773481
27.5879 31.137 54.6091 28.3824059754
32.8821 18.3331 47.5904 28.1496627387
34.524 20.4458 53.8321 28.0095108999
35.9846 27.9673 56.1317 27.2049715852
25.0902 16.8886 51.0159 33.6319280007
26.0439 16.6349 56.4119 27.3525543115
35.0261 32.2249 48.845 27.7619099631
25.5974 31.3402 50.4199 29.2841988512
36.3763 20.4308 55.9791 26.8953238351
29.4504 23.6369 47.0765 32.3562026047
37.1797 22.4049 53.7785 29.4441855132
31.8864 19.1343 52.2773 33.5899266135
32.3981 32.1817 51.1295 29.8917133293
25.5197 32.3311 53.2678 33.2223432654
33.2028 29.6465 54.5577 29.2987782381
32.5423 24.0528 47.3491 26.8427016051
33.5836 29.8647 46.554 29.8855966084
36.2829 31.3166 46.4108 28.9046202326
25.9527 28.8299 54.128 30.7674132599
31.779 27.2722 51.575 27.631868834
36.4645 20.3095 50.4424 31.0444429237
34.765 27.7156 50.1138 32.7633506773
30.966 18.1189 49.7315 32.6669326777
34.2409 20.4986 48.8992 30.5501827276
35.8481 18.2431 52.5915 28.7373011919
27.0716 24.6893 50.9308 30.4923098196
28.5186 20.3991 51.0545 25.9597727008
29.4142 22.8276 49.8791 28.7186385636
33.7871 23.2807 53.1496 29.3714467056
26.0341 28.4387 49.4282 29.6329994503
30.5225 29.6505 50.1535 34.0720077289
30.1735 24.4399 52.0429 30.0425157871
31.0905 25.872 49.1455 31.7273875221
34.4429 25.3528 54.8009 28.1117773624
33.9679 24.541 50.4606 26.889441427
31.8023 16.3796 53.3861 31.6326462182
25.8038 20.6091 47.6169 36.0611348128
28.0432 30.3955 51.561 32.4645485688
27.3532 28.4287 47.0075 35.6276171359
34.1262 27.4147 53.0986 27.1196574183
26.9816 16.4521 49.0405 35.2937104871
26.6936 18.4913 52.3102 30.2838659943
30.0962 19.1263 46.511 33.9430429753
35.0786 21.7166 46.7612 27.9316640396
25.8171 23.5959 48.0371 30.7149454064
29.9874 20.4757 53.5623 28.2956612235
26.3567 25.3824 54.1765 29.6176793247
30.2053 28.3992 47.6306 31.812243985
36.1802 23.0312 50.9264 25.8522579767
36.9383 23.3956 48.0988 27.092212283
27.6925 22.9 54.9197 28.2174254124
25.9584 20.8132 53.7449 27.9279056358
31.0134 22.7529 54.3562 28.1607288009
30.5942 29.6115 54.2206 27.8389704995
32.3721 22.4774 49.7714 31.790029911
34.9137 26.0526 47.9534 28.5841906614
33.2252 30.1148 49.5035 26.7720378688
26.4112 21.9325 51.3654 26.0966864898
27.1686 27.7444 51.9808 26.8393748115
29.5006 25.4546 55.3672 29.4352366972
29.4773 27.2029 53.2327 27.1054788929
34.1654 31.9969 53.5911 27.7618998415
30.056 19.0087 56.0662 26.5056039167
36.8928 28.5051 53.4262 26.3973375138
34.3725 16.9379 54.4968 29.3702851742
27.4324 16.599 53.9784 29.6400586797
35.6174 30.037 51.3276 27.3236205739
30.2604 32.4088 53.7973 30.0161801042
32.994 19.4448 56.1456 29.0533796148
24.6254 19.0725 45.8676 31.9882025819
27.5182 19.7102 56.3734 28.1917842953
29.923 47.897 5.9557 28.5167890388
27.1389 34.5086 7.20093 30.0925876278
29.959 35.3598 13.1433 28.9815004378
26.8323 41.7225 11.6804 33.3791531068
33.8753 33.9255 5.31869 28.8516248889
29.1622 38.4012 13.4981 28.8737697952
26.97 44.8614 4.68966 30.3915122325
32.7254 37.8022 4.85074 29.1638610008
31.5647 40.5849 4.79048 30.2747723386
34.3871 33.2232 13.6432 26.8568571276
32.1428 35.9952 10.6902 29.1200719911
26.8219 41.0373 6.39606 29.9495223047
26.456 47.3382 5.0041 27.0349563356
26.9739 43.7806 13.4147 29.9980514096
33.1315 42.9362 8.5847 27.9936707806
34.6596 38.5738 6.73326 28.0815598874
34.182 40.9843 4.94979 27.2429495989
28.5981 34.9635 4.87643 29.8894036032
32.9536 48.9688 5.92646 30.7653457912
32.2998 47.7696 12.2126 29.8079957584
26.1354 38.7686 4.65403 30.5650956353
28.8946 45.5184 9.9902 27.9900502983
32.087 33.225 12.2442 28.5394190739
26.9283 39.0086 12.212 28.5848655157
36.322 35.1666 11.9714 30.9026592073
34.559 46.1929 11.5198 28.9522990745
26.5928 37.4353 7.53513 27.895800913
36.1928 41.7698 9.48131 28.6620741619
31.8427 43.5121 4.01567 28.5567894125
27.8431 33.7104 9.44301 31.0626442041
30.7571 36.3402 6.19779 30.8687229177
29.2927 37.7863 8.02466 30.0166477571
30.7036 39.6629 9.3139 30.1902522824
31.8956 34.7165 7.93521 32.8205135875
29.7259 41.0751 6.8494 33.5351894557
27.5284 43.8497 7.3606 28.907829098
33.2102 43.8378 11.1604 29.9315314124
35.1043 35.9336 7.04503 28.1000890828
33.8162 43.6354 6.05794 26.8624214115
33.9426 41.6368 12.7471 30.9779971843
29.7776 47.9208 13.6725 33.0999090664
30.206 43.1818 8.7474 26.5299499068
31.052 45.161 6.36579 31.1833697412
30.9486 33.2732 4.78579 33.4629598885
25.6324 42.524 9.14062 30.813793982
35.3563 46.963 9.0993 27.0985018283
26.4076 37.2906 10.2929 27.3235255978
29.2 36.1034 10.459 27.9087320138
34.4381 38.6385 13.0269 29.6856504833
29.7456 41.3819 11.2496 28.2133522138
27.5477 46.8823 11.9392 31.9134232994
31.7463 38.5712 12.0205 29.3899952923
35.5839 38.806 10.6889 27.2902613109
34.7921 36.114 9.9762 30.1279367527
27.1778 47.8808 7.59357 28.8694630417
30.3658 43.9812 11.9165 27.3756301008
24.6229 39.7081 8.02072 27.365847243
33.1252 46.6396 7.65878 27.8786945746
36.4643 44.5653 5.88805 31.0512494088
26.3038 34.6523 11.7756 27.3111322025
33.7351 40.1408 8.71859 30.2471752201
25.3485 42.2846 4.29209 24.7587335161
25.9186 45.6666 9.0278 27.8679084364
31.396 47.0689 9.61961 28.4752931038
28.2534 33.4041 14.0278 27.5561272353
31.0443 41.0784 13.822 31.3659698772
24.5911 45.4611 13.3891 29.5645308526
36.6631 45.6803 13.0465 30.3277222142
28.5177 48.879 3.73968 32.270853959
35.3254 36.4803 3.9054 30.1622319215
36.5109 33.6107 3.94917 30.4891177164
35.5453 39.3333 20.086 29.1817769585
33.8381 35.7819 22.3443 28.9133116414
28.443 33.5935 16.6409 29.2152014375
35.0713 44.8176 22.0582 27.4662882869
34.1917 36.8723 18.8085 30.9077679793
30.7284 46.6691 22.9816 30.3870986658
33.2339 46.9195 22.0017 31.9822858677
25.0535 37.5452 24.0849 54.0834698999
34.7313 42.9067 15.1156 28.2882048785
35.293 45.723 15.3959 28.2169020136
36.463 34.8014 21.8504 33.0116030757
30.0137 35.7146 23.6965 36.157703797
32.5461 34.6488 24.5651 118.6463261464
24.7211 44.0821 24.4924 94.9417179388
26.2912 43.2231 15.8943 29.6354693284
28.5797 46.3301 17.3102 32.1204442907
25.7094 47.6813 24.2896 73.0043435892
29.6428 44.4132 19.2088 28.7251811017
27.2846 45.0424 23.8035 44.5976323619
30.9081 38.4226 24.5463 124.6209770222
24.7263 39.8216 20.2571 33.4363939407
31.3089 33.3021 16.5562 27.6686764411
33.1928 47.6415 14.9782 30.7453287031
28.17 38.461 15.9202 30.8634579834
25.829 35.0545 18.0879 29.3931639729
32.0843 43.4942 15.1352 31.037485461
24.5553 37.0454 21.3853 28.8320799878
31.5173 37.1964 17.5082 32.5397251645
28.6009 36.3299 17.4308 28.6380671183
28.4951 39.9657 24.0462 45.6062854019
29.9519 34.4475 21.243 30.2699736285
29.7593 40.6892 16.4239 31.0364992506
27.0098 41.3775 19.8442 33.805074892
31.6315 39.8845 18.2431 33.6812866532
34.3732 41.0686 17.5713 34.5917456963
36.6219 39.2022 17.1585 29.1369716849
25.7543 45.4963 17.5143 31.1926229439
28.2965 42.5423 17.5853 29.4966729539
35.243 33.4197 16.5964 31.0893472035
31.9603 44.7147 17.7718 32.7962744777
34.3756 43.4677 19.1139 30.9242934979
25.2297 38.6185 15.9378 32.2528423423
25.1533 47.7536 21.4409 28.5786292177
25.1191 33.7441 15.8627 26.6240738197
31.7951 47.6263 17.4727 29.6163946946
28.348 46.3144 21.1854 32.4243686396
32.903 48.5864 19.9826 31.3994512997
35.0142 47.5695 17.8313 32.1475309305
29.1418 42.8002 24.2789 73.1727554161
27.3058 35.3106 24.112 82.7307595844
30.0458 48.422 24.677 119.5077136444
32.3331 35.6418 15.0964 31.8297991748
34.8082 47.6985 24.4396 106.1754578587
26.6349 35.4793 21.3994 26.2432704351
32.5425 42.4859 21.2156 31.1819794302
36.2434 44.0794 24.4907 100.0063007903
33.3241 33.9566 18.5081 29.1042832409
25.8629 40.0394 24.6566 106.7280995961
28.2908 39.3273 21.4289 31.0592972671
31.3106 44.3944 24.6118 113.0035730968
34.9476 38.3462 22.621 30.8674871871
28.5751 36.8291 20.0488 29.808456276
31.6951 36.8699 20.8023 28.4532852949
25.5476 33.1283 20.0465 30.9555890156
33.588 42.7662 23.6551 45.3251990438
26.7109 43.6807 21.3152 30.3795844525
31.109 39.7484 21.0944 27.8907227648
29.776 42.712 21.577 28.6196673371
36.5203 36.0914 16.7825 26.6564282302
29.5004 45.0594 14.4288 31.584292934
36.8979 39.3552 14.6341 27.2912506354
34.9714 36.2828 14.3298 28.9601031827
24.9231 45.5146 20.0344 29.2259559178
33.02 39.8889 23.4582 49.4699931109
25.8812 35.8974 14.3346 28.4903686826
26.0581 33.7782 35.9704 75.1438600469
30.412 44.4173 43.4248 27.843070519
29.8084 39.1732 37.2269 29.252466937
30.7211 35.2095 36.0689 64.963648426
29.6526 36.8083 38.6024 30.0409767851
29.2803 48.5219 38.2462 30.4150357028
32.1608 47.2774 44.43 26.7024763863
34.4057 36.7903 38.3751 26.4728857663
36.0917 42.6022 42.8653 34.7119804672
35.6029 47.5126 41.152 35.0963189301
30.3694 41.6569 38.5449 24.9191772273
28.5187 44.0074 38.6827 27.3979260622
26.9639 33.5296 38.8049 28.4277130108
32.0657 38.0755 35.8648 79.3948700378
32.9873 42.2897 38.4933 30.0780680694
25.4269 39.6759 41.2712 26.0756337041
35.0406 44.3238 35.5737 85.0862344548
27.9503 36.1246 35.7549 87.0948843821
30.8263 47.7422 35.8465 67.3271550118
30.1944 43.2471 35.9768 58.9371159949
28.8997 45.6089 36.1797 56.1974965353
25.9812 35.8935 42.5338 29.5777144911
28.7134 42.4002 44.8419 31.2273760054
26.8902 36.1531 39.5791 26.8770524638
36.734 38.1006 38.7559 25.5604435799
26.2291 46.6097 36.3652 31.6215631913
26.9907 38.851 36.0997 56.0369424698
34.9544 48.1556 45.3134 28.227944342
29.0888 39.2386 45.6249 27.606068917
25.0992 42.5643 35.8918 57.5356721687
34.7465 45.4838 38.3284 28.1858079354
25.023 33.0544 43.737 33.1075106599
26.4489 40.5871 44.9447 28.3006400376
28.082 38.5112 40.8398 27.6286874087
30.9572 35.5724 41.3041 27.9236276995
29.4556 35.1614 44.2918 27.7702200992
33.6506 46.7822 35.8161 68.8018798993
35.1162 36.8513 42.7685 34.1921351879
27.1077 40.4321 38.6422 27.7536523684
29.4082 48.1907 44.839 25.4433787849
29.7476 41.3703 41.1001 30.8079979557
31.3125 38.7 40.9477 31.0973272542
33.1623 39.2542 38.5697 31.2196106483
33.8753 41.1435 44.0969 33.5300836624
25.0682 37.7555 38.4282 25.9557128476
25.7919 43.5754 38.4504 28.9921771877
27.7258 43.663 41.807 28.9737242671
32.0333 42.6366 42.4109 31.988104945
34.6708 44.2009 44.8973 27.9118472704
35.8437 40.8169 37.8958 26.7436329535
33.7957 35.4678 40.5687 26.1578509064
27.9423 41.599 35.5823 104.1638953543
30.519 45.902 39.4218 31.2938321685
32.8952 44.5792 40.1025 28.1771373417
29.8279 46.8056 41.9377 27.4886681677
25.3458 46.8525 39.0117 30.649842422
33.669 45.6047 42.578 29.8700271995
28.6959 33.8383 41.4524 30.1627594048
32.3515 35.5225 44.1935 26.4728323376
33.7319 35.6496 36.0835 72.6893053585
28.8575 32.7348 36.1589 61.3333395579
32.6414 38.4526 43.6667 31.0182206803
29.3406 37.7433 43.478 29.0652927645
24.9209 38.2636 43.8907 30.483981157
32.9839 42.3896 35.5712 85.5120884155
24.6861 36.6712 35.8506 73.4394382556
34.4823 39.805 35.5377 86.6344413775
26.7959 35.3504 45.3854 29.3491780698
27.0072 46.5875 41.5571 32.0766201262
25.8434 44.965 44.13 31.3046921303
26.7855 48.0907 43.7983 27.528205997
34.1159 48.2886 38.5934 29.2625582259
32.9649 32.9329 36.6033 38.3073512477
35.8803 35.9491 45.335 31.0094347797
25.5521 42.0048 42.6896 26.8935796962
32.2863 32.9882 39.4556 30.2673266421
33.517 33.2938 42.7256 27.4584282732
35.9544 33.4204 40.2306 28.6019517697
33.4798 32.8811 45.6447 28.2581234514
24.9992 41.2707 47.0976 29.6978035911
33.2127 43.1629 54.2467 32.3303349042
30.0645 44.0171 47.8804 29.6404195952
36.7056 36.2313 49.3518 29.1176668733
28.3004 34.8006 49.0352 32.3038677107
25.624 43.7936 53.3061 28.7104708673
33.9655 43.7856 49.8772 32.883547963
25.2265 37.0683 51.4128 30.6310332883
28.5685 39.0709 49.2319 34.2523278669
32.8119 37.9435 54.7084 28.0532976587
33.5057 39.4587 48.2851 27.0165717701
25.774 43.3197 48.5747 30.145215335
27.85 38.7917 55.2636 30.6717683977
25.2868 37.5549 47.1379 28.7097372597
34.7656 34.8018 47.8104 27.8014416328
25.58 47.5996 51.4741 29.887235728
35.464 41.1898 50.4717 31.6851376261
32.2407 35.8315 53.2591 28.6836259673
32.4945 48.9622 52.1233 32.1489569483
29.7592 48.5311 51.3779 34.2267019682
36.7173 33.0144 53.9007 28.5829827247
30.3742 46.5228 49.4006 33.002336099
24.7738 39.2767 49.1515 29.1092928611
33.9656 46.0832 47.8236 32.1715108788
32.415 48.2358 48.6466 30.2463475221
34.3171 34.5555 51.2445 25.1322268455
34.6402 45.0196 52.5187 31.8633130464
27.2316 44.6083 46.578 31.9878653725
29.9172 47.0198 55.205 31.6456588848
28.5622 34.7443 53.2294 31.4324237023
31.8947 38.0945 46.4056 29.1826456833
31.0906 34.612 50.1152 33.7249714038
28.2725 37.2121 47.3543 27.6942148131
26.5407 48.8735 54.4218 33.4773759577
35.7044 37.6024 51.9205 26.4871911491
26.6661 40.0759 51.3691 30.0862724517
31.0781 39.974 49.7552 26.9875973447
25.2564 33.2004 48.2817 32.5233181457
31.291 41.3152 53.0049 29.1699958715
32.3641 33.5515 55.0652 32.1089524126
27.105 42.8614 50.9508 30.7236272163
29.031 42.6576 53.9831 28.5480857166
24.8236 36.1435 55.537 28.8304956579
32.4477 47.2393 54.2263 31.3069951739
36.7275 46.2309 46.5052 29.9101390456
30.4831 33.6776 46.4935 29.4658330322
28.2556 46.8257 52.9604 28.9198692543
26.5779 34.5543 51.3786 30.0648457176
29.2947 44.4302 56.1574 31.6366848847
30.6671 39.2923 55.3627 31.6506980104
34.4031 45.5867 56.0079 34.1229295325
27.6251 33.2357 46.8768 28.4060868508
34.2465 39.9571 52.9501 29.5429496174
31.2833 42.8232 50.1627 30.5613947502
30.8379 38.3407 52.1981 26.3753753496
35.125 41.0596 55.3494 29.4063754322
32.8831 37.3973 50.2931 28.4775400179
32.1256 35.7041 47.7046 26.8184610683
35.3385 35.6395 53.7506 28.710934221
35.5098 47.71 52.4274 31.2951595334
26.639 41.3679 54.9894 27.9269124451
28.3274 37.6335 52.3555 29.5859124238
29.2668 44.2922 52.1052 31.6215893496
28.5126 47.1323 47.3 34.466359086
27.5584 36.0741 55.4882 30.1211795726
24.7467 46.448 54.2633 29.7281093915
33.8491 41.9141 46.9732 28.3768483011
30.7651 41.3051 46.9406 30.3533810348
32.0677 44.682 45.9536 28.0338399058
35.7964 48.1547 55.2389 26.8948458338
36.8911 33.42 50.9019 26.8387728746
36.3873 38.889 48.2957 27.607752314
24.9052 45.2694 50.3971 29.3067463863
47.06 9.81673 3.64335 30.6588402533
45.0944 0.313301 4.89576 25.4976270156
39.9468 1.26307 8.59541 29.0226849827
37.9305 6.31988 9.23637 28.0853969736
46.2286 3.44361 11.2828 32.2284815949
47.3145 9.73829 11.7969 36.5377066576
39.3958 11.831 4.13784 28.9950263675
48.4291 4.60761 6.14968 27.5035143884
48.9479 3.81466 8.96751 30.1527450775
42.0956 0.191202 12.7637 30.5607912021
48.5083 14.1026 3.96584 30.7325271315
40.8286 8.11527 7.30962 29.8794806791
44.177 5.58205 8.83689 29.0850707787
46.6301 6.95593 6.75364 33.0137185869
48.7565 2.03912 4.85677 30.4037028527
41.8535 2.33396 11.0562 26.6783914186
47.0105 11.5294 7.04606 29.0083830751
41.1891 10.2527 5.47735 30.9070114159
43.0689 12.9312 12.2306 28.9338303476
45.6711 12.9346 9.09526 28.3529968845
40.7426 11.1123 11.4042 27.958336455
44.7016 14.6733 5.70605 33.3283757768
43.0812 14.1046 8.06715 29.2677641194
42.5589 6.6699 5.0332 34.2491562783
38.0056 0.970797 10.697 28.1987884643
45.033 0.960714 7.7152 30.5470103359
46.8753 6.96598 12.0387 28.3588704862
45.8101 3.02575 5.11289 31.5280161064
42.8588 9.53805 11.5258 26.819212679
37.7393 3.65583 11.837 26.2464008039
47.3999 14.8836 13.7718 30.2221587311
40.6808 6.23743 11.4032 26.0380021402
42.2695 4.4509 12.7607 24.0135256964
44.252 3.03709 9.67078 30.3958124912
46.8372 5.83007 9.87805 26.0128490147
39.7455 10.0091 9.28677 30.149975811
44.2911 5.17483 6.3656 32.1615050269
42.3964 7.51319 9.55289 31.9646548654
44.9178 11.0075 10.9483 36.1616290981
45.2528 9.47149 6.09074 38.4648519698
40.7298 1.71473 5.75764 34.6351362055
43.5004 10.372 3.94436 29.8894757749
48.0259 13.0863 10.3411 27.3522931513
46.5555 15.3843 11.1974 30.9793537393
41.1455 11.897 7.5327 35.2359580287
40.6401 14.1431 10.2467 31.1372832737
48.4306 10.5156 9.02667 27.0406400552
37.0001 10.5682 9.13861 29.798581769
43.608 15.2904 10.704 33.2399273037
47.5032 14.6961 6.44397 28.8937985338
38.4492 6.94492 6.64045 33.0531161083
39.8773 4.16152 9.88192 31.9531740086
37.7572 2.68936 7.13423 28.0358494277
38.0379 4.51994 5.20923 26.5479565656
37.7095 14.7422 4.9269 28.1992502139
47.5887 1.32908 9.67378 30.2193056603
39.8254 3.60238 14.0046 29.043991619
38.7153 7.48877 12.8244 27.715606935
37.0413 0.653512 14.0183 32.1850536382
39.3463 14.4852 7.54599 30.7749794754
48.8103 7.94531 8.87543 30.4236734085
43.9621 6.68706 12.7022 27.5366221455
38.7424 10.3517 13.3382 30.5859236306
39.8445 15.0529 13.3267 32.681424045
40.9317 4.23689 4.50948 36.6315525151
38.461 1.46088 4.0227 31.6461785535
48.1405 2.00553 24.3561 77.6284000307
37.5043 4.52398 19.7411 29.7268194048
39.1888 1.2621 15.6884 30.1448173094
42.8617 8.96756 14.2327 28.6211784774
40.7536 2.04097 24.3358 99.3169828525
40.4856 8.16322 17.3266 27.5344451366
48.9009 7.33362 21.2644 33.0710638301
37.1344 1.41572 20.2004 31.9439760882
45.0435 6.44685 15.2357 33.3303593423
38.5262 14.3065 24.1319 70.6596896293
46.1588 8.31775 18.9998 31.5034123606
41.5515 14.6098 15.5804 28.1535913473
48.3004 9.04582 17.0973 29.4188329894
41.9607 0.895551 17.3476 27.3782377873
45.781 4.10596 24.3513 91.0542010642
40.1539 14.3542 17.8831 29.2025930974
44.0767 14.0789 14.5735 31.6803667817
43.5331 2.21468 23.5296 38.3238462463
47.0767 9.43632 21.5599 30.2599711729
48.0596 6.65724 15.4015 32.0933608706
41.2573 12.4981 20.9434 26.2579364016
39.8235 2.74224 18.2871 29.3820473324
41.7165 15.2132 20.0642 29.2580254151
46.6271 15.6463 24.3006 59.9649491445
45.4637 9.28069 15.9781 34.0177329967
42.4211 4.6765 15.6206 31.7440085951
41.326 5.25833 18.4327 37.5235686517
44.0935 1.17416 19.3792 30.8676505887
46.8496 5.80557 19.7151 36.2654806533
44.629 5.05502 21.561 32.6396773261
48.9306 12.059 20.9768 29.910867442
39.1546 10.4057 16.1587 28.1066077566
46.5134 9.0434 24.1116 54.5193668697
40.0871 10.0191 19.604 25.9871244725
38.799 11.9788 18.3569 30.2216319655
41.1317 8.02042 21.4521 29.2899572755
47.8969 12.0426 17.7954 32.1286053313
45.18 12.2036 16.4932 32.4575638363
37.9693 16.054 17.197 33.5975526871
43.6964 11.2525 21.3014 26.6975444835
42.7972 10.6993 17.5045 28.5637919592
43.7747 13.2656 18.8093 29.4259124952
46.2896 14.5664 18.6269 28.5047395563
48.0747 1.26257 21.8715 29.3758093285
38.3546 1.06702 23.1209 33.9354030592
40.742 7.07232 14.8639 27.4414844365
48.2884 4.98281 23.9985 50.2980978374
41.7112 2.23496 20.386 29.5872904204
48.0709 2.38068 18.8015 32.3549397381
46.238 15.257 21.778 26.593222354
44.7683 13.1482 24.2361 70.5569844036
43.9541 10.4924 24.0899 65.1794555741
48.5203 4.86013 17.5525 31.2513502696
44.6175 6.86116 24.0048 53.8605284014
37.9397 5.61876 22.4899 32.9762474013
38.0757 7.99101 21.1692 27.5934630006
41.857 5.00865 21.4599 29.0122917662
41.9212 6.8668 24.5757 119.7476279118
37.4708 9.43949 24.0215 75.7363800911
45.9275 2.49593 21.2435 28.3840735995
39.468 11.4677 24.005 70.8898951694
47.2307 11.7709 24.4789 90.75155475
38.1553 12.3232 21.421 25.7326614613
47.6162 2.67426 15.1956 33.5192656308
41.4306 9.32173 23.7936 42.5921237066
41.9612 13.3516 23.6538 44.5649943184
43.3152 8.98397 19.5772 33.1529330029
37.2526 14.9229 14.5618 31.7890436881
48.9004 14.3998 16.4897 32.1924774127
49.2419 14.3969 24.2031 72.5294903146
43.2189 1.86423 14.862 29.3821495907
46.0086 12.5218 21.6732 26.2379265628
48.9584 7.62891 24.242 75.9694064626
40.2268 4.71449 23.8202 50.7954330666
38.2139 4.98652 16.1508 28.641357105
39.1741 15.5299 21.5624 29.2474627936
41.6429 11.4377 14.7865 29.3949593574
45.3999 3.72078 14.1205 30.6059603762
37.9034 7.07406 18.4678 26.335431202
41.0211 16.0 24.2875 97.0691434582
46.1508 0.514945 17.4099 31.0013650794
42.7076 3.95767 40.793 28.7070665892
43.1345 0.659221 38.6169 29.3748689036
41.4917 5.06577 35.5499 102.3785230564
47.2069 11.4923 43.4907 25.8796654361
46.9694 0.911053 38.4348 30.467549269
42.9596 0.692143 43.353 30.4306739028
44.0122 5.55492 36.3061 49.4412924172
38.1877 6.89233 45.3463 30.8191063891
48.2455 7.67711 45.0594 30.4513104408
47.2318 4.24731 35.5477 96.8534224942
41.0866 7.57008 39.2649 28.6249798189
38.9559 6.69497 35.6429 88.4214402667
46.3397 3.54096 38.0639 30.8215999095
37.8841 4.355 40.0307 31.4673737198
43.5839 7.28186 38.3727 26.297699211
45.0317 8.45047 36.0311 61.7966709012
39.3057 15.5526 35.5817 93.9495390777
47.8617 7.40187 35.6564 83.5835330731
37.0459 13.7489 35.7103 82.765161257
40.0641 10.1375 38.8046 32.8157524248
42.5187 9.88264 35.6716 95.5647958412
44.1846 12.4948 35.6236 89.2583090795
38.3521 2.70825 35.9263 74.8458656425
48.77 11.6775 35.6517 99.3498881681
48.2745 12.0131 40.4632 27.6641411969
39.2576 2.20109 40.4215 28.0402282833
45.6448 13.9801 43.5397 31.1732590036
48.6854 4.54116 38.8859 31.4280113428
41.1391 7.52641 44.7905 29.9944815247
45.7884 14.9217 35.8534 72.8216883545
40.6747 2.41174 42.6503 29.5055906589
38.4366 0.66105 43.2483 28.9751561531
38.8398 9.75486 45.8415 30.5851233969
44.8912 2.39816 42.1436 28.9754018217
41.2818 4.6494 44.5248 34.1881454081
37.5332 13.6848 38.5876 29.6376936804
41.7525 13.9877 36.0434 64.3913140156
39.9557 5.42279 38.1838 29.4298466193
46.4848 5.37913 42.1256 29.5296290021
44.595 9.6913 39.137 31.2742459428
44.824 5.37221 39.7761 31.9558606384
48.1891 7.40413 41.005 29.3329878613
41.173 1.93467 35.8931 79.4958285205
40.7056 13.4765 43.3288 33.0772973203
45.9194 12.7527 38.9656 29.9122660964
40.8448 13.0263 38.4991 33.6829440804
46.6877 9.63419 41.239 32.3938837385
40.7044 8.76787 41.9858 29.6153040777
37.0008 0.47428 38.8971 31.2653154098
37.0737 10.6551 38.781 27.937876624
39.0223 15.2766 41.9079 29.570782897
43.153 12.6035 42.1334 33.5704219429
43.5179 13.7988 39.6443 31.1234686694
43.1966 9.95853 41.4922 30.6553110236
48.1294 13.9703 37.1186 27.8723299642
37.6404 9.32679 41.422 32.3105729934
48.6978 14.3807 42.1334 28.5354910139
48.993 13.2673 45.0583 30.4293576729
46.1667 10.9123 36.7037 31.7450953688
48.3581 1.65812 35.7101 71.0348205178
44.0208 9.02067 44.1428 33.3374959539
48.9722 15.9622 39.4 28.0141414824
48.9179 4.08486 42.8138 32.2618847025
45.5481 10.9115 45.5379 31.1350022587
40.5815 5.64867 41.68 30.2289243669
39.0917 11.1407 43.4862 32.21925975
37.3584 11.1194 35.9029 69.3776968182
45.4339 6.47897 44.5377 32.8207949285
44.214 3.82659 44.7251 28.8152891073
41.4607 2.85117 38.6777 28.2886526401
39.558 9.52462 35.9549 63.6628594447
46.9954 2.02785 43.8461 28.573141497
39.6318 15.4593 39.2214 25.7166927129
37.4827 5.37625 42.7553 30.1736931302
43.52 16.3764 36.5555 34.6145284066
49.1379 10.1437 45.3851 25.2798058618
49.0803 7.00441 38.2308 32.1400340572
43.1829 16.3756 45.9145 30.2564858713
43.3067 0.0442975 36.0051 72.1777212678
44.295 0.325496 45.8341 32.0166301055
41.7423 0.566049 54.4725 34.4886029402
38.7005 3.40774 48.7687 32.7721930791
46.8896 12.3076 55.4056 31.2598918295
37.6011 8.70845 55.5463 32.4965949392
46.1072 2.21864 46.5854 31.5924672303
47.8923 6.58779 49.9714 32.0705645478
39.1682 6.0828 48.0446 30.3159116544
38.9198 15.9281 50.3934 26.7561285707
46.4768 7.16518 47.3137 31.0939988283
42.347 4.55654 47.3435 28.3433350325
37.2844 7.62697 49.4322 28.3639103691
37.8513 0.662164 47.2859 31.2300852699
41.1884 7.85429 52.345 36.2769912994
38.7466 11.9581 52.7834 30.7050479821
40.8219 11.1216 47.3142 31.5821961526
43.6768 -0.100129 50.8081 32.2505518337
42.1152 9.92618 53.8966 30.8594144924
41.0785 13.5467 46.0266 28.8463570081
44.6257 1.51374 54.8141 34.6821753517
38.6773 14.403 48.0561 31.5055189244
41.6272 0.0663693 46.745 33.1080267007
38.4927 14.5473 54.8575 29.0575444222
47.8487 15.2722 48.7499 29.0892405287
43.7936 7.80247 55.6043 31.127606429
41.2798 2.40854 48.3984 32.5908068046
37.8543 2.58633 51.9455 34.0602909705
46.5792 7.4917 55.13 32.7422024235
39.7058 10.3774 54.8848 29.6071627616
42.5431 8.8476 46.9357 29.513125896
47.4913 3.89085 50.5092 27.4871264854
41.5418 6.89744 48.7197 31.94529427
45.093 4.56808 47.6986 29.8274486256
46.8411 7.95915 52.0741 34.4573541913
40.5711 2.707 53.0132 35.3095805554
41.8168 12.7494 50.0885 31.5383247684
39.0985 11.3103 49.6701 29.6198090277
45.014 9.21739 47.8716 29.1904614675
44.7944 9.05336 50.8926 29.082215257
47.0736 11.0468 49.4491 32.493897529
40.2393 14.1579 52.0223 28.0496464857
45.1796 4.27004 55.3263 31.5476867724
44.6278 13.2166 53.8494 30.8654179751
43.6572 14.0082 48.6014 29.6386577411
42.1593 15.3213 53.6895 32.8494694269
46.1154 13.6633 50.0361 30.5068047353
46.2397 14.7738 52.4047 28.4512474455
48.9353 11.8803 53.7049 34.4196896201
37.4172 0.239742 50.4242 36.2196387191
43.049 5.54719 53.8368 33.3504191831
42.5428 2.55683 50.8837 32.1338533319
44.6089 4.18746 50.565 29.989973932
43.5603 13.3172 56.4202 30.0037918611
48.2329 2.18316 48.4676 32.9063686898
37.8704 6.05348 55.5331 34.4841229962
40.2346 4.91335 54.6484 35.2030807227
43.1755 6.86858 50.8941 29.2107823782
44.0913 13.4826 45.9242 28.9554324616
43.5193 11.2074 51.8947 34.0166734081
45.8418 1.9389 52.115 32.5617379084
38.5966 8.96846 51.3726 31.9282909971
41.1047 14.3737 56.2329 29.1228303267
48.5347 9.98425 51.551 34.6386485193
47.7736 4.42877 54.6306 33.9939524641
48.9455 14.5779 52.7243 32.7887492122
46.9022 15.2 46.0521 33.7894098844
48.3799 19.6973 11.6942 28.8334897829
37.2724 28.221 9.58664 32.5652808154
43.6688 18.4085 6.01701 29.5175390267
46.7788 21.587 6.79883 27.6232056911
46.2057 18.8371 7.49788 36.0069390829
45.9095 29.7657 7.09539 29.9262926202
48.9579 21.6726 9.97773 28.3134099403
48.6898 29.3743 12.701 33.6521474853
38.2847 17.4445 5.07332 26.2962238153
43.2683 24.7535 6.57938 26.4124283818
44.7343 22.6618 5.35197 29.7082708822
42.584 20.691 4.98154 28.1671440541
38.2066 26.7165 4.29108 24.5283938183
39.8553 27.6771 6.50647 30.5594175498
38.7057 16.699 10.768 33.1856673524
47.3759 26.1311 7.00205 29.874851198
44.9589 26.8952 6.09454 26.161195253
42.8948 18.2825 11.1656 34.6505368757
38.3418 29.7495 7.35959 30.4918394456
42.9004 30.1858 4.84193 26.9542746455
42.7072 28.4484 6.71163 27.1040780089
47.0771 17.9113 10.2131 27.8589903348
43.5512 31.3479 7.75825 30.2562163439
49.2178 20.5101 5.32089 27.167261088
38.7442 19.8531 7.26127 34.4690968825
41.2914 21.5093 7.37894 27.294627837
46.4949 22.7986 9.26559 31.3235473582
41.817 18.9143 8.61495 36.1936552764
40.2459 31.6287 4.98742 31.5132351725
40.763 23.6923 6.06681 26.6385365814
39.571 25.3158 8.19747 30.8253586185
39.3138 21.7147 4.42075 28.1558183067
44.0133 25.0986 9.05689 30.1198807159
47.2743 25.6103 9.8694 24.24551753
37.1834 23.1246 9.5805 30.2331579765
41.1448 16.9829 4.15926 28.4478483574
39.5303 20.6013 13.5834 29.1918543682
42.6072 29.1959 9.57258 27.2243899583
46.2615 28.3094 9.61614 28.0739417847
48.5761 23.7883 5.75922 32.5699372472
39.6953 28.0278 11.3446 31.0439838904
45.0519 31.7974 4.66742 27.3523898254
48.2214 32.0572 13.6906 32.315405996
40.2964 30.653 9.84629 34.4684864805
40.8915 32.4578 13.1382 32.5697966032
45.1136 32.3212 11.1722 32.9121764435
44.7248 29.3552 11.4529 30.1431078146
37.5115 18.6883 12.5481 29.4190465117
44.4462 21.9294 11.1885 33.7797729248
37.9822 32.7144 8.25079 33.3963431884
48.4624 30.7712 6.08975 28.2381578255
45.1827 19.4305 11.9527 29.9380742045
40.6817 29.6439 13.9998 31.7842302578
48.2766 17.4575 6.48945 29.8020772598
39.6548 22.3052 10.974 36.5585832825
44.1712 24.0514 12.7724 31.3116166811
42.317 22.6733 9.73621 31.9764047774
46.6883 25.6624 12.3831 31.6728400131
39.7354 24.1609 13.0447 30.283134842
44.3979 16.9381 3.77396 32.1933050036
42.1486 25.817 12.6589 27.5582636132
41.6356 26.6594 9.76625 27.5272362684
46.3624 28.1565 13.6139 31.4798472424
40.7206 18.0972 13.0349 30.0940025177
37.2454 30.78 5.05221 28.11356277
41.7103 16.3098 7.07314 30.5461699776
48.9987 16.8682 13.3694 30.0487586541
37.8363 17.0059 7.8119 30.8314541219
48.7889 29.3936 9.91046 29.7259738507
38.9077 27.1112 13.9312 27.1255676705
36.8347 25.0836 6.14673 28.8172855782
43.0484 28.1293 13.6673 32.6219145138
48.5408 24.4074 13.9308 33.9368553293
41.2376 20.4931 16.8755 27.2885474512
39.1141 28.5492 24.4704 95.8050440195
40.9966 22.8491 15.0748 28.6839281421
48.1889 16.4075 20.3779 29.1871799764
38.7657 17.7036 23.4823 33.4812726154
