7.32863 7.76909 21.0908 28.6230152288
8.31095 5.32693 21.2817 29.4503541166
12.0506 6.64801 24.6633 130.3646703872
11.167 8.72649 21.0686 29.4022279536
8.08149 10.1774 19.0493 27.0103088635
4.33971 2.07261 18.6055 31.4839452188
3.13221 11.332 24.1682 46.8658935677
4.74723 6.83569 24.6119 86.4118308207
9.15176 1.19787 23.8922 43.3370931695
9.19615 5.86175 24.1114 56.8032052173
7.80331 10.346 23.4939 34.2292779283
12.1375 8.98795 23.6006 34.2939759832
11.9299 1.41271 23.9048 70.703228958
0.610361 9.81336 21.1362 30.592849589
0.505382 0.907551 22.1653 33.0294908162
10.6105 9.21602 17.2098 29.3692414184
0.249743 2.17238 17.9599 27.4939049384
5.72598 12.1951 24.5727 102.3028664145
3.94696 3.4491 35.4213 123.3358969
11.999 7.57238 40.5516 29.7490178695
4.64443 11.1807 35.9665 50.11358373
7.59981 9.47561 41.7287 32.6693733978
5.11048 5.21688 38.5374 31.0451482526
8.96529 6.82294 41.1333 28.7362960496
9.01349 2.39451 35.5886 82.9418522307
7.68461 11.7389 35.6783 85.8020280651
0.17123 11.5864 35.9648 58.9599996228
1.49519 7.64655 38.6509 25.7239387826
5.24572 7.63049 42.6482 32.0487860719
7.33149 0.671729 40.872 27.2389443768
1.5157 4.31642 36.3691 29.2668397321
9.69529 5.54099 38.1779 27.0023766773
5.78363 5.76301 35.9196 53.3955970242
8.53645 4.93598 35.8665 61.5975989759
6.28401 3.87903 42.6226 28.043164068
2.64519 10.828 39.9138 31.3893883223
1.96825 9.16359 35.9596 50.851843168
3.26416 11.2913 42.7544 26.7589583116
3.09151 8.21626 41.3064 26.7610142374
11.8184 1.7724 35.6637 87.358331048
4.77739 8.35555 35.4859 95.0937948886
10.1424 8.94306 35.9214 67.3984625849
10.0281 8.34737 38.6006 27.0588932722
7.39559 9.20176 36.6977 33.0611398903
4.70093 1.85153 41.0449 30.3001286441
11.7482 2.7026 38.6776 29.2522338874
4.05617 7.68106 38.3017 28.7816717948
0.338918 12.1828 38.852 28.5327069204
9.8829 2.05862 41.6416 27.8758547045
3.60511 3.16617 39.0033 28.32923417
1.083 6.38213 41.8989 30.2235818413
11.5829 4.56812 40.772 27.1438907386
7.82208 10.6883 39.2847 26.5431585948
1.25081 4.937 38.7798 24.6335728231
10.4678 12.0265 35.5991 75.7466352506
5.07664 10.6766 38.5905 30.1227774117
8.86148 2.46387 38.6809 27.2282722137
7.49796 4.66341 40.209 29.2444547443
0.844231 6.71406 35.4442 85.1182189133
5.14566 1.66675 36.9525 34.6766109273
-0.0313247 2.04553 35.5629 100.0165623894
10.247 11.9341 38.3201 28.8673353022
11.3002 6.0877 35.5826 90.1615017337
1.88966 0.292232 39.5683 27.9491870282
5.97934 11.9849 41.8291 27.5665550474
3.9207 1.32047 46.1976 29.3050733811
3.04007 5.57719 46.3677 29.2627270882
2.35782 9.0275 51.7738 27.0117818179
8.64823 8.4417 52.3625 29.6336316819
7.5242 5.22474 45.2867 33.4019602601
1.40853 3.43216 44.1518 29.3809525544
0.10711 -0.161055 47.8027 32.1797674859
11.6169 4.39585 49.4472 36.0894725301
11.6393 2.05322 47.9092 27.419165104
9.9087 0.461918 49.1071 27.6086288678
5.41147 7.06095 46.001 27.6498713024
0.296004 6.20253 44.6549 32.2397607569
7.88045 8.33482 47.2124 30.5885271143
10.2322 6.7967 54.319 32.2065151065
7.93559 8.20764 56.1261 28.9822870379
4.23389 5.12322 43.7282 31.8028051475
5.06734 9.80404 44.5457 28.8572285073
0.258937 9.82738 50.2675 27.2921375582
9.59904 10.2168 44.0618 31.3965420235
7.53649 10.9433 45.7265 28.7496498162
10.3512 8.58989 46.0881 27.5632413655
0.979944 2.71997 49.635 27.8994686488
5.45095 1.73533 51.1351 30.7633837775
6.58023 1.41039 46.7961 31.0006693671
1.84166 8.31621 46.6124 29.4677968519
9.73612 5.87006 43.5232 31.427212139
3.28237 3.40099 47.9879 30.0188788837
11.7361 3.76767 43.9694 30.1686786839
2.9546 6.41311 50.8735 28.2428085745
7.52735 3.87603 48.0314 34.7870914853
5.24025 4.13469 49.9087 29.8030436442
4.78408 7.34448 48.9576 27.5682673134
7.89569 2.22477 44.2355 27.6926133705
9.17556 4.64148 50.1347 31.6981330655
5.26925 12.0238 48.9064 25.4126115617
3.37341 9.84031 48.6545 27.1900099012
5.34929 9.40255 51.4762 27.8366920292
11.4104 9.69607 52.5698 33.5461099212
7.36892 10.4268 49.316 29.7134455841
4.83464 1.64856 56.0069 29.9099216604
7.82644 10.9704 53.0858 28.5892330301
7.64801 7.17713 50.0285 32.0501871086
10.9144 10.6222 47.6933 31.8423647885
3.22886 1.31526 43.2807 29.577077703
5.94289 2.78527 53.7686 28.6079148549
0.243297 11.8062 45.7165 30.3007147169
0.373076 5.35935 50.3281 28.050791093
4.40728 5.33682 53.0764 31.2916531547
8.58244 0.957793 54.9912 35.5390105981
2.77906 1.23648 51.1982 30.6207685113
8.83286 0.63986 51.6371 27.5426599428
2.35422 2.7033 53.6069 33.3856595561
5.9763 7.43374 53.7782 28.134325368
2.76783 11.7444 53.1589 28.1895250313
7.83575 5.24041 53.6631 27.8686519972
9.43714 3.06205 52.4494 28.5782914394
4.18661 8.7482 56.0175 30.7582426342
1.61106 9.45702 43.9684 28.1560247792
12.0908 2.92163 53.2916 32.2233167198
3.24998 11.6181 46.2244 28.1618707981
0.343846 5.32125 53.2413 31.4154136785
10.5383 1.70425 45.3564 27.5139024135
1.80174 7.52894 54.091 30.9952072001
12.1893 11.4349 43.7551 29.4824669525
8.2394 11.0232 56.1755 30.2911810582
3.63378 11.3667 55.8848 30.5385996336
12.4624 6.71994 48.1533 40.10083924
1.24012 12.0268 48.8625 28.2047768123
7.04207 12.5228 8.12451 30.4885858008
6.83628 22.2656 7.14234 28.7156814507
5.68503 15.7185 5.78224 28.4706665406
8.82069 17.9709 5.95197 28.0861365349
4.19117 21.8223 13.7882 27.6928999769
6.09938 12.4566 11.5521 25.4418403724
7.66662 15.2108 7.44877 26.3414955849
11.9417 24.1022 5.73242 31.1503668895
6.59314 21.2579 4.58669 26.6192811394
7.49801 24.1468 14.1046 26.491006908
1.66409 16.296 6.19603 30.5651182196
11.3918 17.6808 7.91996 26.8547871761
10.8349 12.0218 4.04357 34.3866624643
3.96721 20.6164 7.8207 29.914295152
11.8705 18.1277 5.1185 28.8212217558
5.48741 16.7451 15.1924 27.782110624
0.5216 18.4275 11.6375 29.6525242879
4.34945 21.6302 10.4512 26.203277525
8.83131 16.9783 9.63575 30.8572592663
0.548251 18.9344 7.0744 30.9284975132
10.26 22.3434 7.5897 28.3527425653
2.26764 13.0761 12.4631 29.1605272133
4.94631 14.0737 9.26736 25.4192905411
2.78352 18.7305 15.1247 32.4733609206
-0.0689442 22.5487 14.0611 30.257353439
4.50565 15.1505 12.5012 32.7025998065
10.0806 22.8921 13.6787 29.0218141042
9.8814 14.654 5.29807 35.0377779667
9.5627 12.9711 9.61029 28.549604078
10.4959 15.2789 15.139 28.6387494227
10.3463 18.004 14.0098 29.4785205444
9.3434 22.8958 4.75707 28.6194631821
1.81915 21.3545 5.96126 30.3351523981
3.47488 14.2757 6.52925 30.9257738643
1.92798 15.1803 9.42476 30.1816393337
5.78979 18.7922 11.2319 28.4227920167
7.34039 15.2934 11.6929 26.9112048088
3.27434 19.4253 12.3618 30.1978317208
5.50513 17.1083 9.0898 27.0073205973
7.49313 21.3235 10.505 29.0628282383
2.70208 17.9936 9.37888 30.8455638464
5.60938 24.2863 10.3707 28.9318012306
5.84075 18.572 6.60032 28.0588171426
6.82104 21.5778 14.4854 29.9565881474
8.68562 19.6327 8.41318 29.1314511257
9.12211 12.9167 12.4687 26.8857071763
2.98551 23.7681 7.02142 30.0683115784
10.7527 21.2579 10.6615 26.8605702066
8.03992 17.3472 16.9341 31.401871219
7.33095 17.4853 13.284 27.3380963149
2.24574 21.8372 15.5339 30.2455377776
5.1358 24.1587 16.7715 28.4497080279
8.67315 20.3892 12.9472 28.5657107542
4.22483 19.5815 4.33059 29.6445991903
4.08001 14.0899 15.7918 29.0040681344
1.93375 22.9883 10.2677 29.1284014061
-0.0220267 22.1475 8.35372 31.0660810766
10.9973 24.1861 10.5253 33.6787276756
1.44313 13.7291 16.1618 29.1734224306
7.86149 14.5998 14.7169 26.2402805859
11.6067 18.9091 16.5434 29.7971155391
5.48543 12.3611 14.2148 24.9724292008
8.4905 24.5213 8.32702 29.0549690896
0.497396 17.2746 16.1521 29.3326305265
11.9675 13.4957 13.1755 39.349176847
0.521278 15.4564 12.1091 32.5426374544
11.2507 15.2235 9.17592 30.8617562295
3.50147 24.4755 12.8718 27.2162840869
11.2243 21.8009 16.6501 35.741598821
1.74009 15.9374 18.3666 27.8076218896
4.17832 14.3341 21.0617 25.2254254017
11.8954 21.6962 21.3611 29.5201097783
8.81486 22.3004 18.2263 27.5282311605
7.67309 15.9434 19.6946 24.5359038859
8.08896 18.036 21.4546 27.0647937866
5.17874 18.705 17.0951 30.9766084186
0.174253 20.0207 22.2148 33.0981000727
3.5244 19.0099 21.1283 28.2518396906
11.1111 12.582 17.5698 26.645534695
10.2626 14.0876 24.3652 81.4880121233
10.2565 14.9516 18.6406 25.0096221696
2.26286 22.4875 18.5509 37.2761617624
2.267 19.6559 18.1602 30.9638972631
5.28502 17.0667 21.9149 25.4115974262
7.87702 13.4184 17.5138 27.2676285594
11.7433 21.2424 24.2852 62.6628071871
0.846104 13.1455 24.2901 78.1819339303
10.0297 13.6302 21.3459 29.2365977891
10.5891 17.7126 19.9676 28.6155565248
7.67421 15.0008 24.1661 60.298276947
7.03558 14.0102 21.55 24.9817212352
4.71099 16.6861 19.0253 27.0116223029
0.986831 17.5312 20.7696 24.0676430306
4.59283 14.7802 24.1564 56.2228242562
11.3102 18.296 24.433 85.9959155134
1.71524 16.2152 24.1652 60.9924207418
7.48881 20.6024 20.4787 30.4529936128
5.0864 17.9241 24.5448 88.1915626576
8.63727 17.7607 23.9969 45.1744070734
1.72075 21.4071 24.6222 110.7188812066
2.64906 18.8428 23.8547 34.52210133
9.28788 19.5827 18.2586 28.5533799824
4.81751 21.5293 24.0368 54.672610834
4.86985 21.6588 21.132 35.4053529199
9.25332 22.6061 21.6129 31.6258353102
7.07209 19.9231 24.4477 75.4506439995
5.37452 13.9569 18.2052 27.2041257459
9.02579 22.3621 24.4371 88.2358183988
1.53179 14.8871 21.7466 25.7652286883
6.3374 21.8137 17.2651 30.9241892348
1.10598 15.0472 38.8679 30.2420802602
0.999791 14.4851 35.6148 74.7806080099
4.81823 15.7776 36.4766 38.4670875307
1.07115 20.101 42.1736 27.1274537909
11.8783 19.4964 35.4749 96.3142878429
10.3716 23.5624 41.6942 34.90010143
5.48279 14.6674 40.8361 27.3622182347
3.37209 21.1219 36.1913 41.6026870175
1.94192 17.0825 35.5439 78.7428184442
3.6038 18.4938 39.4591 28.4438448525
4.54755 18.5754 35.7403 82.3382091947
7.59534 14.7122 36.4156 44.9205181721
7.57509 13.6776 39.0539 28.2579726041
6.14429 19.1125 38.6582 27.4367698399
9.38926 16.5001 35.7514 76.902156859
7.55925 22.8127 42.7106 35.7270588009
7.64391 18.6267 35.9515 65.4688737955
8.17521 23.0291 38.5781 27.0866593359
5.26543 22.9982 35.8015 83.5507138844
8.01726 23.3143 35.8844 69.9864789685
9.41543 20.8925 35.8102 65.9504249078
7.01882 20.434 40.9446 31.3437013376
10.0369 13.3127 42.5691 33.8529401692
3.7143 15.8118 39.1594 29.3291536316
1.62378 24.237 39.2871 29.9104898419
10.0929 17.7973 42.3663 27.7795893674
7.46239 18.5769 42.8814 25.93990716
2.20587 17.706 42.0909 26.4907781833
0.0953353 17.2787 39.8727 27.4975806777
7.14841 17.0295 40.5273 27.3195967196
10.0976 21.029 38.3691 28.1294173119
9.48067 19.0034 39.6098 26.1288859401
0.830427 21.9435 35.6119 90.5377745834
9.31683 15.1746 40.2582 29.2643155152
3.53648 13.5892 35.7772 80.3549057131
11.9315 14.3055 38.2815 30.4560800895
10.7341 16.9 38.1732 27.8302513782
2.63303 21.6767 39.8713 28.655782458
5.33123 24.3548 42.326 30.5097066386
3.23448 22.7001 42.6431 28.7377016511
5.16646 21.975 38.8736 28.3447408653
11.9533 14.6645 35.4645 91.8587160863
1.20777 18.6443 37.6087 26.5800601197
12.3156 24.5486 35.3985 113.1945224097
5.0561 16.9851 42.799 26.2887948028
3.4381 14.467 45.9802 27.1631828061
4.05774 24.1208 51.7017 27.2681469274
10.4392 15.1346 48.5267 29.1559293587
1.01166 18.1164 45.1719 26.4372866128
6.15285 16.4854 50.9054 31.3745588478
11.1753 15.5949 43.6288 32.3969363161
7.87331 17.6215 45.7044 27.3473537866
3.1306 17.7508 48.8234 28.8330276303
10.3084 16.7273 46.0409 29.5010474813
7.83414 20.7902 44.9398 31.8697989888
5.79033 19.0401 47.323 29.2167524383
9.21536 12.8036 48.9061 30.7459445787
3.96887 21.0606 44.8338 31.8607879985
6.82059 17.4581 55.0338 29.1524790226
1.39266 20.077 48.9134 27.7576652027
1.92882 21.8482 46.693 30.8874824205
6.67712 14.4085 53.0253 26.4561318019
6.19148 15.2425 44.8663 28.405807399
6.90462 13.5866 47.2626 29.2500823961
7.73707 22.9872 48.5573 32.7217780094
11.5379 19.2636 44.4069 28.3376458608
5.30462 15.7911 47.9356 24.6834219327
3.71825 14.135 49.888 26.0535257779
8.37094 17.9341 52.8101 27.0115275698
1.02332 15.6145 46.6352 26.4072776399
11.3157 19.0024 47.8325 29.3289412358
11.5451 15.7268 51.0218 26.6386360703
10.1056 23.5883 52.5995 33.360542374
4.17799 18.9389 51.507 26.7102398624
9.87642 18.2351 50.1837 27.7796143338
5.77056 20.6856 50.0168 29.2811747234
10.5853 21.0464 46.1393 29.9947964875
7.5958 13.0259 43.7211 30.6028546402
11.0111 18.2806 54.5141 29.3074343051
3.88956 22.3412 49.1701 29.0618731052
6.22514 23.1576 55.2273 29.1343875145
6.92893 23.9399 52.5288 29.5560303774
1.41587 24.3152 43.6019 28.8060911856
0.0585354 21.4086 50.8526 30.4724711197
1.36118 15.6539 49.3126 24.3792102891
8.72279 21.1309 50.6687 28.4688173892
3.29067 15.9921 52.3975 30.4283924552
3.68623 14.8803 54.9761 29.0130477582
3.83117 18.2355 45.0293 29.396360574
8.50407 19.4637 56.1831 26.6296757265
7.98662 16.9785 48.6172 28.3064042846
0.479539 24.2899 46.4879 28.4969137478
10.2508 23.9174 47.1741 32.1980208325
9.12599 13.2442 52.0699 29.6031994055
9.99317 15.5587 53.4133 29.8809060338
7.68612 15.1334 56.2491 28.2879821858
0.796414 19.123 55.0234 28.06470278
5.96698 21.8375 46.7389 29.1753395839
3.67086 22.4379 53.9229 32.709244265
5.04702 19.7235 53.948 27.7761410985
7.55262 20.7345 53.0389 26.0947855202
11.3522 21.8909 50.784 32.0712601176
1.1165 13.6521 55.5759 27.8280447378
10.1016 21.4816 54.6941 27.9454336416
1.12922 13.5365 51.7565 26.6155583143
1.5045 19.1388 52.4705 29.2242191998
6.06578 12.929 55.3887 29.3703062132
3.29104 14.267 43.1147 30.5375327464
11.2135 12.1147 53.7246 28.4970282488
5.36717 12.3525 51.892 26.8015325521
-0.351308 20.6424 44.4445 30.8759115744
12.0455 23.1085 44.6563 29.4288440203
11.9467 24.1687 49.1824 30.8704680398
0.598495 13.9538 43.7058 26.1168591079
0.953559 24.0149 51.0322 29.437921371
1.32557 21.6308 55.5904 31.4100859549
0.0316502 16.7935 52.0632 29.0808656147
2.62139 17.2291 56.1729 31.7262398514
9.20885 26.5195 6.52201 29.5897417497
4.50328 31.338 13.9629 27.9406104135
4.13083 36.8269 5.38496 27.4390007324
2.53065 35.2959 10.7533 29.763222184
5.01218 32.5629 5.50678 34.428856712
9.53056 34.163 4.37137 30.4707212471
6.10559 36.1276 7.9483 34.7566342584
7.1269 28.6296 6.951 29.9971893138
5.48956 27.0577 8.74608 26.7499975278
11.9453 27.9289 7.23394 30.8976972301
9.23881 31.5637 5.41127 31.41489898
5.02695 35.2513 15.3913 30.0156851268
0.547448 30.5554 14.3474 28.9362676482
2.68363 34.5485 5.30818 36.7030235482
6.72022 35.0448 5.14856 33.7156098722
8.22252 24.7357 11.5061 27.6287598312
7.23707 31.5686 7.26613 29.7932384521
11.7388 30.839 6.56017 31.1336708472
8.13527 25.7606 16.4741 26.741380914
2.85082 25.4796 9.26828 29.0114852283
5.55258 24.9167 6.73489 27.8469995819
9.80681 36.1472 6.47228 30.4891205801
5.945 28.1274 11.469 29.5386892091
0.501349 33.3812 11.716 28.875176813
8.64586 35.467 8.8349 28.7731286664
9.47894 29.077 8.69665 30.9363018411
5.68874 25.6911 4.072 27.7479228721
0.260309 25.069 4.86873 30.8307545555
1.48436 28.6107 6.42962 31.2624171541
2.45148 25.0087 15.4819 26.1199238049
3.52679 28.7979 8.69827 27.250953129
0.450736 24.4479 12.0481 26.6731314057
10.9659 31.3047 9.52019 30.5129672292
8.86153 27.7656 11.0992 33.6238534986
7.45692 29.9697 13.1258 30.2332571676
3.50282 32.5867 10.9719 31.6281532441
8.09589 35.6301 14.9789 30.1696498171
11.8161 34.2235 10.1977 29.5758704597
0.476744 30.7755 10.8005 27.8723293671
8.49886 32.8278 9.46583 31.0972711061
4.23993 31.2964 8.42601 40.906041931
7.90409 32.5678 11.9715 30.6539304817
5.74458 26.3501 13.6507 29.3746193082
11.0127 35.547 12.2932 28.5445440933
0.675593 27.6976 9.3308 29.6138007315
9.95609 27.6584 15.5374 29.1133755569
4.05254 27.0898 15.6069 25.3612296442
11.5276 31.3063 15.0762 30.1555611754
10.681 29.082 13.0998 28.4353357584
12.4014 35.2778 7.49004 32.35779038
1.79892 27.304 12.1974 29.3612974937
2.84901 29.3729 14.4468 26.6144648024
3.53972 29.5246 11.4851 26.0406608734
7.78874 30.1428 15.7752 28.0653192903
9.53391 33.5153 13.7315 29.3953464779
11.5326 25.7359 14.0515 33.1476508315
2.81705 26.1624 5.06771 31.4025509115
5.49589 33.8558 12.5519 31.8057517006
0.766565 36.139 8.75585 29.1503274021
0.725608 33.7436 14.443 30.1859584796
3.1221 33.3984 15.7414 28.1602223299
8.90912 32.6477 16.4537 26.3090503472
0.174277 34.1388 6.96376 34.0146591722
7.05021 28.5096 4.22357 29.1527892993
8.57096 25.4272 4.04558 27.2845297089
9.54411 35.7148 20.0094 26.5127660845
1.40331 31.8745 24.5023 82.6576416079
3.02208 26.7984 18.6752 28.7330078315
3.29052 29.3373 17.8218 26.3422880703
0.865018 30.53 22.0084 29.1442498866
9.53422 27.6586 24.5689 94.9663559333
4.0337 33.8768 21.8849 30.353529823
5.515 24.7035 24.1231 73.1472605486
6.74119 28.7995 19.9306 31.7630664848
1.6015 35.7879 19.0438 31.224511041
5.44312 32.9495 19.3194 28.4299917614
11.649 32.0849 24.0404 54.1313914981
7.84453 31.2798 19.1019 29.6323421724
6.80367 34.7398 21.7139 27.7112133074
6.68209 27.6477 17.2318 27.0107418826
2.48996 27.1922 21.5525 29.6639691586
0.939093 26.4837 24.3659 92.3598491819
6.86763 34.6515 17.507 28.5526275053
4.05617 27.0497 24.3108 82.4290458552
10.9997 30.3405 21.8447 28.0789093066
8.0303 25.3479 21.0103 30.7235300289
9.12707 28.0954 21.499 30.0040812461
2.83384 30.8711 20.1387 28.0972892014
10.7637 33.8426 18.1918 26.9818079027
1.05877 35.1538 24.4524 66.1376851191
4.44911 29.1984 21.8308 31.4941253097
4.93223 29.7335 24.2804 70.6621148437
3.95839 32.7657 24.4581 80.1835884489
8.81428 32.3025 24.2869 74.8471399745
9.05954 32.757 21.5506 29.9355060586
7.79411 29.908 24.339 71.7779368706
9.59916 24.9226 18.6826 27.1990945393
4.50693 36.3338 24.2115 65.18428633
6.82618 34.6746 24.3603 72.9408964862
8.10067 25.1179 23.9534 48.5685801363
5.79019 25.7289 19.009 27.9457663014
1.87301 35.5626 21.6757 25.1286012335
5.25952 31.0879 16.7639 28.2526640224
10.9871 31.2581 18.8968 25.8020607616
11.0334 27.5061 19.4667 28.9012622676
2.68446 33.1489 18.2559 26.7439809039
0.340632 25.954 17.5991 28.9969509112
11.9183 33.9846 21.4616 30.2882841579
12.182 25.0223 24.1791 59.4178804272
4.52248 24.6899 21.6853 36.9196548305
11.381 29.2252 17.2865 26.1589750157
0.623444 30.7954 17.3321 28.5303511434
9.75026 25.2061 36.2739 39.265696553
11.881 30.2497 36.5399 36.1491855473
7.72282 36.2056 36.8749 29.6698063113
10.1134 31.3877 42.3913 27.9564608112
8.40131 27.6335 35.9094 76.266590443
7.72342 28.6648 38.3523 27.4269992714
1.94391 32.5798 36.3765 38.0715579817
3.87937 25.2169 36.042 62.5066988508
10.4387 28.714 42.4409 25.7295125301
5.54662 27.5663 35.7968 98.4582226585
2.07923 29.9984 35.756 115.5951303061
9.05229 30.6928 35.6605 104.2898987977
7.70422 33.4347 35.7693 86.8379141055
7.75846 31.253 38.2108 29.1208885875
11.7605 36.2488 38.1082 31.2189795163
1.0431 24.5063 36.0719 56.5739210569
7.22151 36.7439 42.3043 38.2859934513
5.14047 34.1475 36.2521 56.4571647903
1.98932 31.6536 39.1306 27.7093030223
0.318821 27.3297 42.0143 29.2084652064
5.27187 34.8487 39.1563 32.5154683287
5.00234 31.7966 37.9457 27.9657792606
10.351 24.9278 38.9975 29.2815261268
11.5293 33.5189 39.2973 26.4724655213
10.3663 34.9827 35.6995 110.3008901458
3.62048 25.9582 38.5786 28.8826631253
4.16635 29.1958 37.3054 28.0346641478
6.33026 27.5041 40.5313 28.627202114
9.61953 27.5829 39.8964 28.9428653331
2.75657 29.2558 42.3773 27.4292794051
2.70687 28.7404 39.5287 29.030270912
4.56532 32.4055 40.5305 28.496828688
6.64812 31.2145 42.1011 32.9643066425
8.23323 26.0945 42.097 28.7074697759
9.1587 32.6868 40.2758 29.9927280896
2.14509 35.4408 35.4596 117.0073454993
5.29818 28.9585 42.4671 26.3803122365
2.60761 34.1271 41.4997 29.0418808753
8.12148 35.2355 39.6474 31.5447471876
11.7168 29.5402 39.0552 31.3178495161
6.03456 24.8492 39.4358 29.9621112424
3.74277 37.0327 40.601 28.7914107529
12.0424 32.7546 36.3969 54.1091907298
0.152525 27.1662 38.7203 29.271589727
8.04072 27.2712 48.3654 42.3897942925
10.1078 26.6253 46.8963 28.533290058
10.2999 32.746 49.8691 36.0896444467
0.318122 31.0723 53.4101 29.2816776396
9.03745 34.3732 53.8399 27.4268369253
4.52675 25.4748 44.8339 33.0520892174
2.25191 31.7372 43.1662 27.7639408475
6.42635 25.2594 49.6133 29.3664777376
11.5079 26.1696 52.793 30.491906639
1.12923 28.9666 51.1472 32.2730130718
2.2216 27.048 44.3485 29.1743611677
6.35261 27.6905 44.5018 29.9594994887
10.1408 30.4059 45.6756 30.801062547
6.78734 33.7951 49.2156 31.1674489946
5.27922 34.8884 47.107 33.8956424048
4.68213 32.4834 53.8755 36.7802437818
6.73617 32.4826 44.5836 30.3173490064
1.58391 35.576 55.2979 31.0987369219
5.20539 30.5804 56.0466 32.3309183184
9.39929 33.0154 45.3769 30.0779738479
12.1614 34.1392 55.7773 27.6281780166
1.69718 24.9818 53.6213 29.5067185045
1.68776 25.3918 48.7452 29.8142744147
3.80834 29.3377 50.1134 30.0225822434
4.60946 27.1066 51.5515 32.5999117074
0.49895 27.8435 54.0283 28.4337234402
3.44279 36.2691 51.6125 31.984624521
2.80336 31.0732 46.8084 30.8527293218
2.15244 33.9641 50.8959 30.6519492511
0.596755 31.836 49.3494 33.419363159
5.56394 30.0345 46.0897 29.5174942606
3.62385 32.0983 49.2346 30.3221670919
6.29765 31.121 49.6107 31.0709530479
9.10924 34.7146 47.7593 29.2526397913
4.07912 27.8669 47.5682 30.830144044
11.646 25.6734 43.4758 29.9815687818
6.58034 34.7159 53.3601 29.7507410847
10.5633 27.1405 55.385 28.4209614166
4.29819 25.0688 47.826 28.2606621385
6.15895 35.9402 51.0366 30.4693400355
2.38566 35.4666 44.598 31.3916095004
12.0706 34.8317 46.0257 32.5412131632
0.245438 27.9398 48.7038 33.6215558483
3.73962 26.7815 54.5772 29.2953814275
3.82229 32.9246 44.8394 29.0161134528
8.32573 26.4756 53.2252 37.5387094051
6.26734 28.3842 53.6034 30.399890221
12.4237 30.7384 47.2864 30.3053894518
11.9188 33.3855 43.6339 27.5396875487
9.13518 27.5661 44.3677 28.090060352
10.8398 31.0957 52.0307 31.27521726
1.13808 28.949 46.0209 31.9880877135
11.3927 34.6255 51.8482 28.3670421416
6.30874 30.9013 52.4664 31.8434680563
8.91185 31.7533 53.6063 29.6908815908
7.95211 29.7898 47.5608 33.5442495483
6.89354 35.3467 44.8928 33.2137911695
1.88192 33.3979 53.4252 31.7919955074
9.67375 29.9566 55.5532 31.5968869307
12.3898 28.8308 51.9506 30.5863692358
0.544575 30.7658 56.1279 31.1402753845
2.63329 29.1074 56.1268 30.9794087864
10.7787 39.233 10.505 30.546429811
5.40356 39.8126 4.34701 28.7993109998
11.414 47.7302 13.9967 31.4184604611
6.87281 38.7551 6.75313 32.1798346587
9.42232 40.8528 16.9169 29.5510163454
3.96468 44.8359 15.3431 27.9902126304
0.200411 40.2843 11.3708 29.9845882955
9.75737 42.3954 14.3612 27.6765306457
2.28821 40.1843 9.60771 27.8207972164
2.88276 41.9255 7.74514 26.8580037454
0.97393 42.423 13.0475 29.1222679469
6.70888 42.9808 7.81563 31.4931363515
1.22295 45.887 5.20675 30.4286356158
10.7167 43.3241 6.64031 31.4896175947
11.6121 40.7457 5.84856 30.9026304632
1.18584 46.4685 8.12597 32.6485326047
3.65508 47.5215 6.79825 27.0927310446
2.68359 39.5453 5.55806 30.4863700683
5.50196 45.5668 5.56254 25.9819643246
8.7906 47.2221 6.4657 32.2152748805
8.46981 44.6496 5.88231 27.6326938207
7.94615 45.8171 16.6789 30.8599005733
4.66276 36.8159 10.7469 26.7249845066
3.08733 37.7604 8.18915 29.4036245562
1.08142 38.8252 15.7291 31.1932086461
4.73175 39.5359 10.6931 27.0467222437
4.08263 48.1793 16.3602 32.5121796006
9.36021 38.8065 5.57382 34.7283771858
11.4677 46.9416 5.08567 32.4432542258
8.62804 40.8294 11.0044 29.0933650637
0.638994 46.09 15.4055 31.1306940124
6.59385 44.8811 14.6337 28.3366072737
4.18453 42.592 11.1515 31.3378795623
1.95958 44.5381 11.5051 34.5854325548
6.69469 40.401 9.02541 31.9768069502
6.47161 43.9651 10.4397 27.2944800418
11.1819 43.9735 9.41512 32.7341680457
9.01991 43.3598 11.3455 29.7447809998
6.6277 46.0601 12.3329 27.752265971
3.66363 44.4949 8.40637 30.0396501942
10.3823 45.2087 14.8514 29.3844149989
2.89503 46.5443 13.466 28.4646631365
6.27458 46.2408 8.23266 27.51733334
6.94049 37.0626 12.6344 31.1597892792
10.3779 47.0855 9.21968 28.7703805233
5.19386 48.223 12.4456 28.6639456165
9.18889 46.7469 11.699 29.0942330329
4.71691 42.4903 5.76785 26.0904497837
3.91342 37.9579 15.6649 32.4553620878
7.86534 40.0142 13.4459 29.004607163
4.84836 39.8877 13.8349 30.5942687539
9.5163 38.2414 15.2496 29.2397177429
11.8809 38.4769 7.91556 32.0843756134
1.81025 41.5922 16.6338 28.6848787255
6.60562 42.1095 15.192 30.960354753
3.25191 42.2898 14.3086 27.0096768423
5.641 48.4604 9.57612 30.1383022987
9.23075 37.0268 10.926 29.8954203863
2.71123 37.2303 13.1354 32.5355084939
2.58655 48.2934 3.97837 30.7200051873
12.1833 37.7936 14.5532 26.8899455517
11.9067 45.4275 11.7961 27.5189067214
-0.0549563 44.4187 9.28069 31.5788142865
0.0855322 42.2772 7.36091 30.3137000208
0.973983 48.6525 13.2155 29.1591105746
3.24839 44.3108 4.07036 27.5525544826
0.889255 40.9729 23.7946 34.0580108162
2.93941 38.0375 22.1549 27.4571354112
0.710714 37.97 24.4612 87.8798988476
12.1868 40.1729 18.0691 28.6960326356
2.46571 43.2582 20.4047 25.6633495042
3.50509 40.7809 19.0543 25.9092498442
3.29586 45.5813 18.2677 28.1026411427
8.34905 37.9618 18.0011 31.1082377617
9.32922 43.6311 18.1823 31.6945473649
1.41547 45.3076 21.7057 29.1677828675
8.22245 37.0189 24.16 54.2344846284
3.86479 48.6415 19.8965 31.4068141712
10.9382 45.6726 23.9184 63.3217540904
6.2469 46.1483 24.0149 65.3788158591
6.92299 47.8806 20.1432 28.9584968758
11.6378 48.9347 20.987 29.0728876726
5.28945 43.3661 24.0651 77.6095322536
5.43993 42.1993 17.9929 28.523769207
7.59736 41.2153 24.0973 54.5992813241
6.12342 38.7841 24.3635 84.5679906795
7.10327 40.4543 19.0867 28.8564455856
6.01349 44.9135 18.7118 28.0986631783
5.11009 42.5111 21.434 25.926573476
10.4665 39.7748 22.0602 25.5529952391
3.66223 40.7347 23.686 51.2174721189
6.38411 44.9972 21.4768 27.9941542908
10.1481 41.904 24.7027 124.0767594591
9.06279 44.3523 21.092 28.7547186268
3.71775 37.9317 18.571 29.2541342884
4.40484 48.3054 24.0084 97.4366562151
12.1272 43.2525 23.5486 34.3988586374
0.0801684 47.3334 24.4441 105.0077842251
2.23366 43.8348 23.9448 62.9662627871
8.42741 41.6664 21.5261 28.0032392084
8.09205 48.3732 17.8928 32.552081218
9.35919 47.2066 21.579 30.4644388382
8.60363 47.5891 24.472 108.0898479576
5.51644 39.1789 21.1672 26.4754371616
8.50294 37.8462 21.5741 26.8323928025
1.6373 47.7511 18.1411 28.0331796241
11.8659 39.4791 24.2809 66.267596838
2.28779 48.074 22.3433 28.524965892
0.688766 43.749 18.0722 31.2028400499
11.899 43.3847 20.6013 30.2231909113
0.862708 39.5501 20.0689 27.8556021061
11.0162 48.8707 17.955 30.7243122956
11.8453 36.8068 21.5599 27.520895049
11.2507 37.3667 17.8265 28.9344482788
10.877 36.9849 24.3773 79.048640951
11.9563 44.4498 17.0295 27.3235244265
0.248398 41.7453 21.4767 25.8834692278
5.95049 36.7532 19.5382 28.8101691085
7.47506 49.0382 35.9038 68.9705536945
6.23583 38.0669 35.6923 110.5058586806
0.359744 39.5095 38.4736 27.3253268341
1.85437 40.6339 36.2021 62.8305604191
11.1767 47.752 38.4643 29.1333311378
1.66484 37.2565 42.749 28.4187246954
5.12515 38.9716 41.6455 28.239385878
4.11157 46.9263 42.2548 31.4018482147
4.04493 42.451 36.03 68.9927256911
11.3025 48.9268 42.5257 27.3569410325
7.91261 40.0674 36.6391 44.4088451362
6.93608 43.0432 35.9292 77.8414173389
0.32732 45.3376 35.3778 105.4237492098
9.67256 44.0755 36.1849 44.5343888206
3.26553 45.1527 35.7336 76.9449008591
1.70062 48.2423 42.2106 26.7551140854
1.53096 44.4986 38.2397 30.3159892853
3.51071 48.4711 37.4943 33.5371433653
6.51802 46.9024 40.3313 31.7317541728
9.52297 46.7349 35.5543 90.9473363923
4.36516 43.1771 38.6553 25.5577833634
5.0216 46.0623 38.0276 29.9286230598
11.9982 47.9979 35.8862 53.0740817705
8.53864 48.6307 38.4621 30.51924501
1.6267 42.6675 41.6775 31.1736224062
2.59065 39.8641 42.6169 29.383177237
7.43755 40.8164 41.2458 28.0130318598
0.266914 46.5245 39.9783 34.6888160324
2.02166 37.1163 38.2844 30.6005764115
10.234 46.2899 42.4717 28.2508114479
10.2056 37.1055 40.8169 26.7976025921
1.17791 48.1769 36.0993 61.013383762
9.44579 39.4727 39.4018 30.8671163176
7.0855 42.1964 38.9385 26.2300863034
2.82901 40.8097 39.6296 28.4442374063
11.0238 41.4271 40.1121 26.469436885
6.39669 45.8335 35.6784 85.4602910582
3.45863 38.1124 35.8974 69.8350625642
8.07115 44.6568 41.4052 31.2617635662
9.56301 43.4761 39.0312 28.8483619133
4.07803 44.0198 41.5877 32.8326874078
5.43278 39.6151 38.6378 33.0272529292
10.1471 37.89 36.3718 49.3960595619
11.5541 45.3591 39.6728 29.088342447
12.2985 39.7384 35.9397 82.6489013533
11.8634 42.542 35.7225 83.4496028533
3.12396 37.9602 49.3304 30.6967081221
3.18823 40.8063 49.0642 28.7506695309
9.96702 47.8525 45.441 25.1943923701
0.148013 37.9703 49.2632 29.1728299151
2.79428 48.0871 47.3114 28.033881651
5.50181 42.0235 47.3858 27.1983805517
7.4784 39.8809 46.8118 28.0479941179
3.73624 37.2138 46.6347 31.6665081436
2.25814 42.2288 46.7931 28.6221786802
5.81486 47.6314 56.0884 31.6846184934
8.84217 37.3739 45.8011 29.9814854881
3.89079 39.9381 45.3461 32.9114311052
11.9947 46.9091 47.4092 28.2653907113
9.19013 41.7832 47.6676 30.1654125317
8.65993 45.1534 44.9033 31.8877532987
2.72315 46.2971 45.3255 25.9996232712
5.23053 48.0144 44.616 26.5411490578
6.31017 46.1201 46.2294 27.3610146919
7.11893 45.809 49.046 30.6301936199
9.13555 45.2448 53.8285 32.4706218886
4.54094 43.9993 45.4832 29.3013621945
11.6162 46.085 54.531 30.1344614481
4.01196 47.2572 49.5826 30.7346239425
5.69403 41.9265 50.7076 30.5188304864
7.74569 40.0497 51.4551 31.0586301924
6.00721 38.9489 48.9572 29.8544068648
9.66828 38.1616 43.3186 27.9083702261
1.8833 41.3339 56.1115 28.6439497158
10.9958 37.2792 47.6966 27.6600024355
1.50921 45.0078 47.4475 28.4069684393
4.27434 44.1865 48.874 29.3551416331
11.2777 40.1911 48.6484 31.3479485989
8.10323 43.223 49.5943 28.8568701184
12.2906 40.4314 51.5598 30.3407956639
9.88962 41.1791 52.8555 27.811515349
4.56434 44.9571 54.016 36.0339253935
0.51083 46.2891 43.8961 30.0650332643
1.97103 45.5325 53.1699 31.8522019264
6.39641 48.0718 50.8259 29.9641861604
7.86103 48.44 43.3812 27.934327254
9.86056 43.5889 51.5942 29.8950527064
10.3357 46.3599 49.652 32.9721868098
1.80122 47.5755 51.2701 27.8854801299
6.80352 46.9109 53.4216 35.8402872859
10.2672 42.9758 45.3812 30.3814162778
2.45729 39.8606 53.6345 33.5216302902
12.089 48.5914 50.8955 26.1766423373
0.664492 41.5619 44.4309 30.0183270997
3.06332 37.4127 54.1765 29.758862402
9.05947 37.1273 52.476 28.8910435395
6.51919 40.6631 44.1281 30.1451084231
0.635948 43.6173 55.0177 29.1865939493
4.83582 41.8273 53.2474 34.7196255028
7.18204 39.4348 54.2947 29.8478806529
6.28458 42.1905 55.6112 29.7289900439
10.7849 41.7899 55.4153 31.0359452219
9.69291 38.8533 55.2616 32.263137955
8.57607 43.5356 55.8922 30.9592793529
0.783396 41.7288 50.1005 28.1573849572
11.6978 37.2718 50.6324 28.6019524212
10.723 48.4272 53.4413 27.6918271907
1.5404 44.1762 50.4931 31.243710809
8.10882 48.2645 47.3047 26.4418099355
0.601778 37.2997 46.4989 30.8792364446
5.65152 36.961 55.2212 32.0811633437
0.77249 48.7853 54.2711 31.4461085023
8.33112 37.3731 49.5554 29.7842502588
11.5525 36.9109 54.1019 32.743064334
12.1488 38.1724 45.0837 29.2041759797
0.256983 39.7588 51.9776 29.7636430318
9.62118 40.9528 43.5535 29.8910824444
6.26465 43.4367 43.1226 29.2054159459
16.4195 3.05427 7.67676 30.0478078651
20.3115 6.5208 4.15101 35.7069612946
18.7095 0.623111 7.94023 31.5522201584
22.2315 11.0112 14.7674 29.8591626577
17.9261 8.51783 10.9838 29.865814041
22.8216 2.72011 5.95131 35.1582085242
24.2079 7.55392 6.53307 30.6622928741
14.434 4.62486 6.48203 33.2835831966
16.3005 2.83792 13.3045 30.3278273277
18.8308 4.61836 5.63872 31.9288017321
22.4415 1.57052 10.4625 29.9535727398
24.5183 10.6007 13.2819 27.4913374277
17.1465 0.212173 4.06183 31.0091036769
18.3422 1.09958 14.791 25.8961636786
15.2148 9.00617 7.51304 32.4262920596
15.3415 0.670556 6.1278 31.5320662651
22.5836 8.41021 8.25333 29.6359435767
20.9539 1.18816 13.3795 26.7228814939
20.7929 9.1995 4.41268 34.0158463806
16.7363 6.71619 15.9659 30.9709373195
21.3618 1.28299 4.18842 31.3460817637
14.0545 1.29574 9.1327 30.0304081405
13.1169 5.62303 13.3319 29.8937293751
18.6209 8.70254 15.8373 31.1464101212
24.5848 7.56602 12.4807 29.7719812192
17.8944 10.0372 13.2582 30.4099587868
18.1901 10.2937 3.99882 31.3329620523
19.7621 3.57168 15.1922 27.5498667189
21.6062 3.62392 12.2204 28.7824813246
15.0439 10.3314 14.3192 33.1601252789
14.0118 6.5329 8.67415 32.7230071483
15.4298 7.05668 11.173 29.7786802003
14.6506 3.79405 10.5399 29.5045545475
15.5354 0.382285 11.5166 32.0112167112
21.0431 2.13703 8.28422 31.4447243587
17.7051 3.83538 10.2873 29.1118653991
22.9767 0.270872 15.154 28.5010639451
13.5213 10.964 7.45205 31.5775042405
23.5364 5.53826 10.8471 29.9679402457
13.6594 8.465 12.7168 32.736444602
20.4721 9.8213 7.1402 33.6397131037
17.6926 9.66351 8.5261 36.5859972207
20.562 10.3454 11.7382 31.7500505034
23.0381 5.56396 4.94028 36.3775037083
20.9961 8.5595 14.1206 29.5175344744
21.499 6.01671 9.16666 32.063349184
13.6722 9.70038 4.06342 30.186172846
19.4947 4.50413 8.34332 31.6419122237
14.8309 2.75694 15.955 30.0748823364
18.8556 4.67034 12.7264 26.7192511609
12.616 0.394642 5.16375 30.3827776033
18.3689 0.79612 10.7969 30.1373190807
16.0865 8.67599 4.91325 32.7453016764
23.2815 9.88355 10.6682 29.7024864881
16.273 5.83328 4.79715 33.4924920543
16.3529 5.79974 13.4834 28.4604240131
22.8017 4.18482 14.9659 30.5671056863
23.0512 7.00126 14.8837 30.571604514
19.9619 6.93778 11.5066 31.0111057981
12.7133 0.47878 15.9329 29.4207662072
23.6211 2.63819 20.2228 29.7234419561
13.9274 3.21013 21.1056 30.8263865211
16.7371 0.791278 24.3981 83.4448910979
23.6203 0.500906 18.4265 28.0928843381
22.4266 0.412216 21.3436 25.7236656021
14.1633 7.72995 17.1885 30.0456442238
13.4538 10.9757 19.2762 27.522342111
19.4068 5.164 21.2289 26.789604817
20.7703 5.63037 18.9251 27.8176581431
18.3517 2.41343 18.714 25.7194541281
15.626 9.60768 21.3634 29.5365691089
21.7237 8.22783 21.6068 26.6964001348
22.8651 4.15109 17.8043 29.242219965
20.7311 8.28828 18.3743 34.5610109248
14.4196 2.46436 23.9381 62.1088635836
13.5732 7.96702 20.0478 28.970070195
16.5484 4.06205 20.2272 26.9267227379
19.5012 2.30859 24.3138 78.8172149526
19.7412 2.30116 21.609 28.5717210558
19.6512 5.21515 24.3026 73.4291986308
20.0992 0.164166 19.6396 26.4992387702
21.0251 1.17561 17.0002 26.6866048095
17.7961 10.6731 17.7106 29.6787301841
23.1669 5.38819 24.5267 85.2941293092
22.6781 10.7239 21.2741 29.1555887378
14.2555 5.1435 23.8059 44.6490900056
16.7337 6.6763 21.3799 32.1937269325
19.023 8.59333 20.9286 28.3895882543
16.7981 6.09736 24.3176 75.1508307275
17.8549 11.279 20.5402 26.2791728735
19.1669 9.44165 23.6036 34.9576741366
15.3805 4.72534 18.0419 27.7772696476
21.4542 8.20695 24.233 71.3352748554
14.4835 10.2992 23.9386 47.882425798
21.9177 0.950383 24.1909 67.5583971862
16.6919 8.81697 24.7272 124.4330253288
24.5398 2.39463 24.3999 99.1439823501
23.3883 10.3677 24.2522 60.1270525694
13.0944 5.265 19.3199 30.8834052527
17.2435 0.757395 21.4568 28.231872733
23.4165 7.92617 17.4999 30.54350458
22.4934 5.49185 21.7302 29.8252599106
14.7643 0.905358 19.9708 29.8591409925
15.3758 10.1886 16.946 27.8523239039
18.6284 4.69459 17.266 29.8808151992
16.5354 1.15842 17.0163 26.5255732736
20.4496 12.3423 20.5959 28.3295520657
23.9533 10.753 16.9923 29.0191605018
19.4075 12.2007 23.3928 37.5072526261
12.6918 0.306111 40.3068 26.0079057969
14.1442 3.99081 42.4336 30.8044774415
15.8989 2.78338 35.9355 70.8488110419
16.7928 4.98838 41.5674 28.1889049959
21.3144 2.88422 36.8622 28.4449786959
18.7457 4.333 35.7957 92.5877608027
23.9751 3.65771 36.074 70.1238047762
19.1652 11.3958 38.8154 26.181802939
19.1221 2.20843 38.9582 28.8015075675
12.8857 10.3621 36.14 55.6324612689
16.3591 6.01743 35.9028 68.1773420769
16.2475 5.48741 38.6878 25.7740721897
13.652 7.39731 36.096 56.8797180665
22.086 9.24155 42.3507 26.004682041
21.6716 7.23703 35.8214 84.4529440114
17.9463 8.80084 35.703 84.7879988779
20.3532 5.71328 37.9316 27.9088377572
24.4234 6.43822 36.0068 56.6206249616
21.7007 12.0823 41.434 28.337042676
19.3475 9.0367 40.9012 30.1154715014
15.8969 10.9007 35.8128 78.6136257364
17.7745 2.7192 43.1048 31.2079168254
24.2639 3.56166 39.1345 28.7120117412
19.4841 4.58296 40.5912 28.5692376228
21.6719 7.5784 39.7833 28.2523621568
17.1592 6.8928 43.523 31.5257934864
22.0157 10.004 35.7995 64.0328837634
15.683 9.20382 39.3045 32.4163760474
22.602 9.97162 38.5926 26.4755369829
21.6981 5.57565 42.1759 28.0738707333
16.6376 11.633 38.5597 28.3485512575
12.6435 10.0718 38.9492 29.1299008663
20.96 1.9963 41.7612 32.5287901441
16.4236 2.75988 38.8911 29.1088728426
22.4542 1.73135 39.0884 28.2015576096
13.5198 5.99841 38.4846 29.1870546334
13.2452 9.00898 42.6555 32.2910380043
18.1817 7.48097 38.6014 28.8096070016
14.7321 1.87123 40.8375 26.7164896443
15.956 9.13378 42.3157 30.8112583058
18.7559 12.098 41.8526 30.6291025889
13.4092 3.90183 36.2458 41.3427239658
19.4759 11.1062 35.944 53.7561579319
24.6907 10.6155 42.8721 26.1685457169
24.3919 7.35246 41.9445 28.0146764843
21.1737 0.597926 35.4189 121.8325564714
23.5206 3.14572 42.2043 30.2457556458
16.6339 0.116673 35.9278 74.1633041204
15.235 1.81966 44.2968 28.6794988712
12.2509 7.12824 44.6562 33.4983085983
23.4583 8.21446 52.9248 32.2251214391
21.1095 5.83309 46.0535 31.7014462364
21.4311 0.456884 53.842 31.5975419293
24.6658 2.55521 50.06 29.4176384607
24.5502 5.15913 55.0115 29.5733776966
24.2898 0.284913 54.0438 29.8758641301
12.3269 10.8798 50.1865 32.7070314401
16.5976 5.94881 45.7803 30.9450696024
20.1898 7.33953 43.5839 30.7011436907
19.7407 9.57464 52.3925 30.1930401657
24.1239 6.96278 48.9123 30.1393251793
16.5477 8.24018 47.1571 29.1640127495
22.0046 11.7331 50.0413 29.1819805271
21.4597 8.1733 47.3331 30.5720230299
18.844 8.30281 48.2245 28.5013127803
15.4732 9.32285 53.0469 28.310143871
16.0346 10.77 46.4357 29.4695344688
21.8866 11.2052 53.1842 30.9964558512
16.9548 2.14931 48.4585 30.1866947812
14.5901 2.52486 47.1024 29.5144113267
19.9667 2.24018 44.7449 30.6370387334
22.9913 2.05047 47.3011 31.7021301259
20.6146 3.71828 49.0009 30.836716129
21.4319 9.66274 45.269 27.4819678572
22.5206 3.5492 44.9744 29.2791393912
18.8461 3.94401 46.9081 30.9649138175
14.8832 7.38773 49.1428 33.8458063649
13.4443 2.2433 50.8003 32.4198467637
16.5803 5.82733 50.9418 33.6266067674
13.0466 0.480394 54.7781 34.0713265692
23.0205 4.62949 50.1716 28.4448083899
20.4924 6.83165 52.0035 30.5921593989
16.8654 11.9455 49.9273 27.2559416675
14.8978 9.87007 50.4504 31.5970421362
18.995 10.442 50.0274 28.1444929189
19.0019 6.15482 49.8373 29.5898225393
23.3133 10.6082 56.2832 29.82058636
13.2193 11.3481 46.1969 32.9611115127
19.1715 11.3605 45.5889 31.6369891186
13.2323 8.32158 54.0491 32.1358715711
23.8185 9.51123 50.3681 30.7964914625
16.9684 2.51356 53.4263 29.4163610545
17.7815 10.7631 53.7205 29.1055941039
16.8175 11.2742 43.6509 27.2146472254
14.075 5.1293 46.0666 30.3671622887
19.1558 2.21036 51.0606 31.2302305297
16.1047 3.10584 50.8198 29.9110893939
15.6569 4.69147 54.7732 33.6847846477
15.8826 0.0243903 54.1468 31.4962705899
16.6848 6.76458 53.6217 30.1830177775
19.8928 2.96169 53.6598 26.2975984386
19.1903 5.62856 54.1123 29.2653914771
18.8585 2.39169 56.4349 30.8618210076
22.3211 4.57778 53.0579 33.7071676756
22.584 12.0782 46.6544 28.8061349911
14.9822 11.903 54.9121 30.0265577804
24.4271 10.3738 45.6767 26.1807445106
24.5249 5.63575 44.0879 27.5200900236
12.6295 5.30849 54.3577 32.170121023
24.1852 0.149205 51.3641 35.8158821564
24.0473 22.0732 4.69137 30.6128691663
15.9345 13.7971 4.44861 29.2827401556
18.8426 13.3029 7.28491 29.1721013682
12.9685 21.4342 7.45371 32.2689837292
21.4166 18.1753 4.47015 29.6436631133
20.5032 22.1686 15.6266 30.2031021635
14.0461 15.6176 7.80096 32.8325136943
23.8446 19.5807 10.1 27.7911200787
20.8205 15.6734 5.53793 32.8661436924
23.0354 19.9749 5.84595 29.2880280913
22.2735 22.9583 9.16216 24.7395805271
14.5133 16.3306 14.6277 28.3126797216
16.431 18.8477 5.63552 28.3592901265
17.4129 21.714 5.28032 28.3722938133
16.0357 21.2692 16.4301 29.4319481578
20.2359 21.8988 5.75178 27.0986471866
19.8219 19.0166 10.3917 32.1436762154
16.5062 17.2101 7.7419 30.2261361524
19.9654 23.7599 10.3245 32.5691863314
21.4836 13.4764 13.9943 28.6469153309
12.442 15.7881 11.6441 31.5170859241
15.5327 18.6235 10.1836 32.6236296857
19.4559 23.2646 13.2453 29.0794831132
21.4478 12.3006 7.67848 31.2211405595
19.5252 14.0723 11.6749 32.2506506624
16.6131 14.0738 11.2894 35.2956748815
18.9436 16.137 7.54377 30.1452175094
14.9173 12.9176 14.3105 29.4256114023
20.2159 16.5039 10.0463 34.5132155223
17.6765 20.211 8.94871 30.7396575643
18.2 12.851 4.69025 28.9504726718
23.5608 18.0382 13.0848 29.4421169743
16.9524 23.3482 7.39628 29.8558413084
12.746 15.6158 5.20651 30.3211868622
21.7706 20.4856 8.56864 28.30836045
15.0408 13.1325 7.11297 32.1852859719
22.4305 14.0817 16.6442 31.0647608357
19.5068 19.4584 6.82582 27.8807383089
12.6366 21.7547 12.7121 34.6514216756
23.0946 16.6997 10.4839 33.3888675115
17.536 12.7603 13.6344 26.8410802039
21.9342 12.6864 10.3665 31.7715142315
22.9472 13.9483 5.93924 31.8313110165
21.9635 16.5439 15.0024 29.3398448247
17.3908 22.8063 10.0888 33.7746970463
23.3437 14.2071 12.2344 32.022667388
15.115 16.2672 11.9459 30.9786965208
15.5653 23.1087 12.225 30.4413753431
14.3589 24.2723 7.94539 34.557037424
19.8759 19.7839 13.1798 31.257295728
17.4964 21.3617 13.9263 30.5309865682
16.891 12.4694 9.18291 36.7516327749
22.7127 20.665 13.3382 31.347119477
15.0408 19.7314 12.8204 30.7885794678
19.369 17.2972 14.3348 37.1138502674
15.271 23.7914 16.5713 28.9137829961
23.2396 20.8538 16.2236 28.9070327582
23.8943 24.0297 7.29505 30.4721921794
24.1602 22.3403 11.3554 29.4158463025
14.439 19.0505 15.4227 32.814604916
12.7513 19.5338 9.3006 29.9129293479
17.2401 15.3421 15.3158 31.8930815008
13.7058 20.0726 5.22525 31.0873187928
23.1626 24.4516 15.0678 29.5895369021
18.443 12.904 16.7075 31.0185065116
12.1448 18.6155 12.2996 28.5278156774
22.2017 18.3001 16.9433 29.5659822353
15.7966 16.5829 4.03147 28.8932446531
12.6149 14.791 21.0299 28.4887525449
16.7646 13.9171 20.2547 26.6621887284
15.8787 15.2462 18.1661 30.7860470138
18.6177 24.1977 24.6043 88.273317859
18.7188 15.979 18.4536 26.32559175
22.7663 23.6143 19.8301 28.0938446595
17.8334 19.5502 19.9046 28.3709206724
13.4004 16.7567 19.4779 26.1151487895
21.2224 14.7553 21.6014 28.9183580329
13.0085 22.3619 19.0283 28.0896409152
19.5431 18.2939 17.2712 31.011340374
18.5265 20.9304 17.7351 28.0921932881
18.8685 23.3746 18.763 30.962791169
15.4646 20.9041 21.2471 29.1714433533
13.8392 13.1106 17.1101 30.6224211505
19.432 20.8534 21.4956 28.6303148819
22.3273 21.1569 20.7677 33.4473119068
20.3035 13.8502 18.3213 29.1814681612
21.4349 24.1823 17.5631 29.6519546421
19.1776 23.5387 21.4332 29.1038294075
14.2997 13.0905 24.3811 104.2869472129
14.465 12.703 21.2187 29.5094457526
12.6741 15.5264 23.8345 43.9387793157
17.1673 14.2818 23.7696 63.6396522742
17.9536 17.3336 24.4171 97.4118457346
21.7508 12.8004 24.6394 110.9519626855
20.493 17.8197 23.3342 30.6313020396
19.9933 17.237 20.4881 31.3975590876
23.262 20.899 23.2835 34.4930845711
15.2773 18.0663 21.5113 27.9359418378
15.0031 17.9932 24.4407 83.5611868777
17.3904 16.0529 21.6492 27.6246593835
15.7269 20.7494 24.4297 68.2299476875
18.4743 21.4818 24.3896 62.7353528918
21.1225 20.1467 24.4622 103.7063788632
14.1593 23.0414 24.5328 75.5200789303
24.0877 23.5577 24.3211 78.7212152843
14.6601 23.5171 21.6305 28.4103366749
14.6098 19.8718 18.7485 31.8511977673
24.1728 19.6806 19.1205 29.1211370857
22.029 15.7586 24.3505 90.2071224047
23.9699 16.4498 18.4382 31.915815582
12.3525 18.9316 21.8576 28.8650088134
23.8389 15.3134 21.2227 31.4453031015
12.7802 16.0238 16.8327 25.9677240698
14.642 15.1696 35.7562 66.752260322
13.2331 22.0567 35.9564 46.6981040899
15.0825 14.2353 38.4521 31.9698733265
22.9652 20.9743 40.1512 31.068794621
21.5516 13.3164 35.8824 60.0204435643
20.0232 18.16 38.1365 28.7428905441
14.9009 17.6536 35.7346 79.3734932062
18.811 20.6136 35.4799 96.5372764507
17.4971 18.2684 36.3174 40.6651167945
18.3113 15.4143 37.0171 27.6073928427
23.6191 16.1137 36.6174 34.7629889162
21.2925 19.2648 35.7076 82.0349147982
14.9954 16.9682 39.5881 30.6338281157
20.6192 16.149 35.7725 87.7225239289
17.1054 17.0112 42.8184 32.4391809648
22.1917 14.3766 42.6626 26.9283636839
20.3169 20.4139 39.7931 29.2403468036
15.9718 22.0549 35.8296 78.1485163129
18.7428 22.7494 38.6975 26.6519866815
18.9293 23.41 36.0061 60.497667405
21.9302 16.1605 38.908 29.4667832353
24.2676 13.6311 35.712 78.0032342936
23.9161 21.084 35.9021 94.3473842712
19.2925 14.5153 39.3281 31.5291512032
14.4768 17.5185 42.0794 28.6202806994
21.9305 23.4306 39.2916 31.7890658754
21.7346 13.0237 38.6895 25.0341895418
19.7392 23.1171 41.5151 27.3547849233
19.2641 14.8414 42.3482 33.2786067866
21.8325 23.1547 36.3573 46.2800569046
23.0688 16.4684 41.3705 30.186744071
17.5182 21.8647 42.7526 27.5330597922
13.2232 18.2208 37.8457 26.3944270597
16.2804 21.3843 38.7493 30.0118498878
14.6928 12.9769 43.1434 35.1541655183
16.9542 18.6467 39.0869 30.6694238765
18.6184 19.472 41.982 32.5354382074
13.127 21.0508 38.7765 28.0657456307
17.3452 13.3552 35.8455 76.9121037208
13.4134 21.2831 42.9068 29.4472091205
15.2236 22.7519 41.1593 29.3916452768
12.3625 19.1769 41.012 30.0222686995
13.4942 12.4808 40.3547 35.7263419993
23.7726 19.0703 42.0796 28.2779071539
12.8598 24.0538 39.6221 29.0527593403
24.0022 16.686 50.9405 29.7691482762
16.6201 13.3043 47.4405 26.4971433688
21.7531 19.4601 53.1963 30.1453297075
21.4373 14.2361 53.6699 30.7917762409
12.6413 20.0112 52.8216 32.9342095466
13.3912 13.8042 50.6521 26.7647052463
13.7123 18.1487 45.9297 27.9568671067
14.7918 18.2097 53.9819 27.3018381883
19.5225 14.6958 55.5304 30.9301657758
21.7118 22.3954 50.2728 29.6166284457
17.3175 16.8535 45.6167 27.2354486399
13.153 16.2808 54.9144 27.8735329155
21.2813 19.4826 43.4324 32.8455729285
21.4495 14.6717 45.4378 28.6301876624
20.3249 17.8622 45.4059 32.477402305
14.5071 22.489 54.4988 33.7046957092
20.524 21.1476 55.6897 25.6227868075
14.2065 19.8255 48.4565 32.1494040454
18.5973 19.2743 55.8224 27.4704256043
17.7231 22.2654 45.449 31.657879082
20.1987 22.9411 46.2673 27.1696573548
19.1758 22.8028 51.3515 31.7695970284
24.1417 23.3618 45.9789 28.2174150554
23.7285 23.7184 43.431 29.0150030494
13.873 22.4972 48.3717 35.8776131743
15.852 14.7034 50.3322 26.9788373822
18.5072 14.1625 45.2165 28.7479663
20.374 15.9499 49.5971 28.2585010673
22.2968 16.4714 47.4258 27.7234951707
13.0389 13.6531 48.0242 30.7174255858
13.0442 18.0516 50.6757 29.4848192825
14.7627 15.5657 46.8406 30.8644892327
17.7806 20.5128 51.5736 35.3527697579
23.3843 13.2729 55.7542 32.51760647
18.9269 18.2074 53.0509 30.4880260146
21.4412 22.2873 43.8284 28.868711983
16.5009 20.4605 54.3194 28.4949659356
22.1221 21.9578 47.8206 28.6076528123
16.7968 19.7805 46.4859 29.4633950659
20.4657 18.8629 50.0698 30.0545215235
19.9651 12.9 48.0927 28.1205449508
23.5868 21.0593 51.7197 28.0955434782
17.3573 18.9924 49.1576 29.7044416475
20.2651 19.6845 47.3965 29.6400432822
23.3216 19.2534 47.5038 27.6074868068
16.632 23.6465 47.8878 34.0678300229
17.1513 13.6688 53.016 29.8644333422
19.3901 13.5312 51.1718 30.2357985165
23.4148 14.203 49.3437 30.672361735
13.8488 15.4746 43.9588 29.7582801727
17.7234 16.1703 48.5408 29.4253302486
15.6002 17.4312 51.4555 31.6249755639
13.4535 13.7344 53.6261 30.5009123185
17.5424 16.0501 54.4255 27.630578023
21.8265 16.5791 52.4187 26.9720175314
23.3363 17.4529 55.0327 35.8496265124
14.0255 24.3852 46.1479 34.6396856174
15.2574 19.814 43.9796 29.4274203658
22.9608 22.3152 54.5818 34.1940581451
18.9584 22.9174 54.1138 29.5113545672
16.8532 23.5782 55.731 30.549617116
12.5183 22.0081 56.1332 31.5949282989
16.2705 27.9803 6.48969 36.857402741
23.924 25.1381 10.5593 26.6691395151
16.0892 24.8724 14.1789 30.6910110399
20.714 34.8036 7.89361 35.7677392359
12.9518 27.5408 12.2314 30.6442144977
22.6707 27.9347 5.8376 35.6069666523
16.6652 26.2094 4.15359 28.6269336275
14.407 32.2232 12.9998 27.755789438
14.2436 29.5793 5.12844 27.0796415407
12.5187 26.6137 4.79153 28.1414266009
18.0441 29.7972 4.46241 34.463120915
20.0818 26.6782 9.14799 36.9205918434
24.3285 28.8101 9.57979 32.2240806467
13.0459 34.9149 14.2446 29.4960370226
18.3299 36.4549 4.89835 34.0098652907
22.1379 29.8506 11.3912 33.3575762689
18.6413 26.0032 14.4991 34.0052090429
15.5773 31.8224 5.23559 27.3766256138
13.0768 33.2496 5.63762 31.1754824152
