18.5969 24.9905 42.3146 29.2060163389
12.5421 27.4388 42.8343 28.0968946436
19.0532 24.4793 35.2404 123.0833865531
23.8228 36.0217 35.9305 68.4204669782
12.7761 30.5544 35.54 75.6591662673
18.9437 24.4976 39.6948 31.2934269637
24.5178 31.5144 35.8688 45.4148734151
12.4717 26.7719 35.9213 55.5285515943
12.534 26.787 40.0367 28.2607975418
24.525 25.5358 49.836 27.3494402796
20.9005 25.13 46.9203 29.9055658559
16.8874 24.7382 47.6349 28.7541401962
22.6174 30.2036 45.1206 31.8298519227
20.1734 30.4087 43.4773 34.1090328888
20.3757 31.3098 54.5797 26.6841136115
17.3574 30.956 47.8659 30.4203328903
16.9335 28.3966 47.7554 29.0592893264
16.8239 26.9643 45.4741 29.6420510631
20.5983 27.7926 45.8139 31.1578963273
23.3049 33.0958 45.0638 34.2166941387
19.7603 36.4259 46.59 29.724781949
12.7186 28.3468 46.6246 31.0097935524
14.5011 34.1224 46.3479 31.7682076132
23.5466 35.882 48.064 36.5289662177
20.7283 34.6486 44.6033 30.8462099444
18.973 26.7835 54.2123 27.3967922075
22.8746 32.2934 55.7693 30.788899594
22.835 28.884 47.5852 27.0164392665
13.0174 32.8605 48.4977 32.7546954784
14.4114 30.0887 54.774 29.5660230323
19.8942 28.0446 48.9856 29.5567379571
14.5701 25.0638 45.1193 27.9170182898
13.9482 27.2841 48.6255 24.9769320913
18.2922 25.7282 49.5971 28.8740504342
12.5682 24.4508 52.848 29.8573496304
22.5211 31.7048 48.2481 32.7463507209
14.5702 28.4785 44.4403 29.5512970562
15.7438 31.8984 49.7502 32.6125245899
17.1936 35.1212 50.0205 30.7425821557
15.2414 35.117 53.5491 29.8494514695
15.0818 25.9174 55.136 30.3285048005
18.5992 32.9171 43.647 28.6819088676
16.7617 31.1656 54.1595 26.6476041297
19.7433 31.5271 49.0053 30.9085331969
21.5552 26.0805 53.071 31.7638430997
22.4629 31.6944 51.2107 28.0244627571
15.3957 25.1631 51.6962 27.7693026859
13.6049 27.5319 52.9652 26.8229523779
15.2989 31.0983 43.4355 33.9361175171
21.107 34.5068 51.1429 27.2794386121
19.5049 34.3811 49.0304 31.1474759361
21.0948 28.8135 54.1947 29.407876197
22.7412 35.8121 43.2114 28.2703405743
24.4206 28.497 43.5167 34.9113658857
19.7723 34.7934 54.5305 34.196449623
14.3414 30.1188 51.6131 28.6850895382
16.0504 27.597 50.3889 26.1860408644
17.4498 28.8805 52.8055 29.300632845
23.6026 36.077 51.123 36.9188615466
16.606 32.4058 45.7268 34.0862433415
22.6069 27.6375 50.5851 28.2956792495
12.5271 34.1198 53.0996 31.3904826447
14.906 35.9891 48.4354 32.7570167928
16.0927 34.8135 43.6348 28.4424899921
16.5885 33.0827 52.1237 28.8530770632
19.8659 29.5935 51.5381 27.9375648635
19.5142 32.4274 52.2815 25.7554922421
23.7425 25.0012 47.1646 30.400944068
24.2692 29.2878 54.9393 28.8380993739
23.3137 24.9662 55.1053 28.5313142477
24.0317 29.5902 52.0787 29.9651850612
21.2014 25.6069 43.3935 30.4204083581
16.4367 28.149 55.9448 26.8307856317
17.8595 36.8747 44.4764 29.3174084768
20.6121 36.7095 52.7301 31.0818522688
14.4724 24.7703 48.8969 25.3755948261
15.7051 34.6046 56.1091 31.1697435578
18.8397 27.9391 43.5665 27.8795432077
22.9808 48.6481 16.7753 32.2309083151
14.279 39.0178 16.1818 29.6457909674
15.0748 47.2959 4.79331 27.6460376825
12.3521 37.3231 14.6842 37.3629735808
15.575 43.7348 6.08763 30.806807
19.3223 36.8169 8.16823 32.3982615093
17.8947 42.2036 5.53091 27.7974007597
24.1119 41.0217 7.72105 29.822820445
22.2693 43.7751 4.94792 31.3626537449
19.6036 44.4587 5.16288 31.3124979917
23.6243 43.6965 7.35267 31.5803809734
15.2826 36.9836 10.0839 29.2021182123
20.6579 40.7863 11.1318 29.4581263122
13.2896 47.1686 16.7662 32.1763648971
19.683 48.2074 4.00466 33.8138218442
23.95 40.0178 10.6326 27.2713124591
17.076 37.39 14.8219 30.5275384774
18.5839 36.8334 10.5652 27.066278826
15.06 42.1357 8.75246 32.4818759232
16.0201 39.2907 8.58426 29.1114551569
17.8538 39.7741 10.874 29.9358354626
17.6965 38.9045 6.29821 27.2542707843
20.1997 43.3468 11.5114 30.8883217718
18.2404 41.5784 8.48934 32.2103293305
19.212 47.4 15.2458 32.8473311997
18.9929 36.8371 4.04805 29.4390632314
21.5248 44.6493 9.20499 30.6160715429
15.4972 42.1982 11.7886 29.5337902904
14.4166 44.8719 11.7376 35.5544956156
17.6054 43.5388 10.4883 29.5524187611
17.4586 46.1072 9.18805 29.2172941184
19.7721 45.9042 7.49711 31.3536405656
21.5463 39.6271 8.24066 32.3021984306
22.321 46.9063 10.4327 32.9451166381
13.4141 37.7544 12.1059 27.9032219065
13.458 47.146 9.87823 29.6676718346
15.0212 41.2934 14.9789 34.8782908276
17.8932 47.533 11.5382 29.4227488538
15.141 46.4064 7.6737 27.0125537202
22.0329 37.4745 4.9217 26.9913620336
20.4013 47.268 12.7002 28.3434761643
15.5796 40.5275 4.32816 30.7938111198
20.4217 39.4739 5.8644 29.0263141106
13.54 42.7715 4.47083 29.4208165198
16.1809 46.2293 13.2589 40.6990709343
16.0623 39.3379 13.0581 30.3285109106
17.8031 42.2916 15.7455 37.5212140922
12.4342 45.7281 7.2018 29.8147974728
13.0188 40.5714 11.5175 31.6345512896
23.7964 42.9698 10.5562 31.0332662175
23.9995 48.7415 8.73331 32.5463442419
20.7231 48.3312 6.5824 31.2402703341
19.3077 44.6181 16.2037 29.4355072551
22.4946 40.1454 15.6284 29.5759320442
20.7403 44.5702 13.8597 31.407313759
21.2554 42.4511 16.8585 29.0355023517
14.1493 38.0697 6.13342 30.1748991975
21.3148 39.2443 13.04 30.4637829004
23.4611 43.7528 14.0099 26.2811643233
20.0454 38.1003 15.4151 30.8051415448
23.5272 37.4343 12.178 33.3484757485
23.4106 48.7574 5.99251 34.1942455342
24.1295 46.7512 14.3288 32.0352041472
24.2357 41.1819 13.7854 28.4108165751
24.3398 43.0774 16.705 24.8244995383
17.5076 46.296 3.85362 32.4310332459
13.3363 45.5477 20.5005 27.8667268594
19.0928 39.5202 19.7418 28.6733949904
16.1711 41.3811 19.3511 30.5819772441
20.3905 43.0388 19.3702 32.0177545232
17.1142 37.7537 20.3937 27.4332812476
17.4248 37.6757 23.3502 35.0409578247
21.4124 39.8888 21.305 29.4457406709
15.3158 46.0854 18.2665 29.8909846135
16.6019 47.3332 21.4353 27.8506599166
14.2956 48.5818 24.084 57.2770825733
20.5202 40.121 23.9852 63.1249574944
24.0871 38.4333 21.9137 27.4171061985
16.6286 44.6696 20.6321 30.97749003
23.1201 47.5834 19.8727 26.7807219256
24.0331 45.6915 17.3593 32.9624652376
13.9776 48.3329 21.3239 28.8950729409
20.447 47.4075 19.7633 29.0127158368
21.3032 44.5758 24.3668 78.9243335229
15.9282 37.0042 17.44 31.7054357572
14.8685 38.8207 19.5251 27.234570888
18.7692 45.3498 18.8011 28.4000380182
13.2574 38.237 23.9836 49.986140545
21.0004 47.6809 24.1082 73.8378821013
16.2595 39.8344 24.3085 97.0368381802
15.7483 43.3863 17.547 29.7924031453
19.2139 40.2089 16.9715 32.4437321263
14.1182 45.3811 23.3857 34.9678970984
14.6491 40.931 21.9818 29.0845120343
18.2111 41.9454 21.1866 28.7700075577
18.0003 41.694 23.83 43.6803761598
14.1748 42.7214 24.2764 100.7878701166
22.3113 42.7725 21.4151 27.8573265783
22.3821 41.8793 24.3196 77.0615169885
24.1422 41.42 19.0626 30.6184418551
18.7296 44.3083 24.2985 88.5025389343
16.5928 46.4719 23.973 70.3087043445
22.8616 45.4611 21.8732 30.1617172592
20.1253 37.079 24.1017 71.0885617887
13.4012 37.4105 21.5489 27.4996720821
21.523 36.7514 21.3688 28.6383519824
12.8827 42.9609 17.4399 29.1591342861
22.9758 36.7857 18.8262 30.3257592463
17.3039 48.3116 18.7152 29.2394205241
24.2829 38.8775 17.4364 30.1802399843
20.1145 48.8591 17.4951 27.9968056671
14.0566 43.023 35.4584 105.8534804865
17.9866 46.8656 36.0442 52.8526353787
22.7488 43.994 35.6875 65.5861683155
14.646 40.453 36.3938 36.1085963837
16.3111 41.728 42.5781 31.0416893526
17.737 40.1073 35.9803 55.2371027438
14.139 40.016 39.0921 28.2589942289
24.0212 41.1229 35.48 90.1130120167
23.8136 37.7822 39.8451 27.381714136
18.4989 42.5928 35.4841 90.7959811936
24.1727 40.2991 38.6833 27.3022662585
15.328 47.1732 35.619 96.091724469
15.7891 45.9202 42.6647 32.9635061034
13.0282 45.8619 35.7288 74.7617573038
15.6104 43.221 39.1675 32.3276519413
16.2074 44.2225 36.3073 33.8386310692
21.2715 41.0738 35.779 56.4468873489
18.3088 41.7616 38.6128 29.7218634939
19.178 44.3299 38.5172 28.6342965427
21.5791 43.4254 41.3972 28.8903911235
19.5688 45.4472 41.32 32.6195898784
13.6156 42.0529 41.2855 28.7993655364
15.2616 46.0206 40.0347 29.7796736668
18.1702 40.3053 41.1285 28.9897827849
20.2456 45.0822 35.6701 72.9590531584
17.717 46.6227 39.0483 30.2277492563
19.8512 41.957 43.0419 29.3451242279
22.6332 47.0788 35.934 65.4049291654
19.3199 38.1075 42.4398 29.1773103108
22.2984 43.7271 38.4189 33.633072369
20.579 47.7492 42.7019 28.6218544704
12.3893 37.0399 38.058 27.2663057278
13.2118 47.2931 38.545 29.3407892057
14.0462 37.7476 35.3783 119.1937328237
21.3531 40.8732 38.535 29.635256882
16.0654 38.6464 40.1171 30.1977039561
24.2143 42.0971 41.0241 27.8385851944
19.8696 38.5723 35.7522 77.6394599585
22.1811 38.2327 42.2457 29.5146273245
23.2465 45.1899 42.8157 31.8653815862
23.2318 48.3043 42.1173 30.5204810088
21.1204 37.9561 38.2192 30.7325976949
24.0207 40.1123 42.9238 31.4968540607
17.8757 44.2235 43.1747 27.8598922352
16.1824 38.6508 45.6008 30.9991085017
22.1926 48.9235 55.3997 31.9738601893
13.7436 42.5135 45.2912 31.8086346781
18.5186 37.592 50.996 28.4862412155
12.8322 43.7304 51.8889 29.0076654141
24.204 41.7433 49.597 34.8860612302
22.9035 45.0495 45.372 25.9944918645
17.3055 45.9524 53.5739 33.4133346996
16.82 42.7006 47.6787 30.299092974
12.4177 41.372 49.6744 30.1394770199
21.0214 37.5579 49.2435 31.7131625854
16.6465 41.3975 45.1889 28.6124191467
17.6878 46.6207 47.6465 30.7534925981
16.5372 38.4069 48.4002 28.9667729278
19.6391 39.7554 44.9333 27.4191965334
24.0995 44.8282 55.5995 28.317660764
21.8774 41.5365 56.3304 29.2046603482
14.8101 44.7916 55.6389 26.5892665625
21.8597 39.1419 53.3935 29.9487391959
18.9513 44.9822 45.5788 29.0959969571
15.7744 48.6892 46.0904 31.4541987865
19.2917 47.57 51.7417 31.223208172
21.5832 46.98 53.3137 29.9590422672
22.4724 45.9341 48.7035 30.1487465855
15.2501 44.9782 47.1729 31.6064780454
14.7291 37.4846 56.0455 29.2625773951
22.3329 48.7268 46.8905 27.915626964
18.9025 39.3971 47.765 28.2535220892
23.9939 47.1726 52.1587 25.4478931778
18.6273 43.5233 52.9464 30.602163163
15.2781 40.9645 49.3229 32.1211066666
19.0229 41.1737 49.7677 27.7393318935
16.7071 40.5405 51.6381 28.4468390789
12.7516 45.8181 53.8784 26.7326110816
20.8536 47.0793 45.2925 29.6066461081
19.3826 43.6264 48.3795 29.7849008905
16.4464 42.6253 54.6835 27.5730875353
20.9845 43.0101 45.6748 33.8472055573
22.9164 44.4222 50.8943 27.2248000874
12.4279 45.2596 49.9515 30.2811543568
22.3174 37.4223 45.9142 28.0838932182
20.0987 44.5956 50.803 28.9919801458
14.8218 46.7079 52.2965 31.5030398713
19.8524 47.2466 48.9571 26.3834505099
14.6602 46.9155 49.3799 29.4359268384
12.8173 43.4364 47.8813 27.9236147402
12.8041 37.2641 49.911 33.3050909486
14.5646 41.7059 53.2759 28.163453863
13.255 38.1901 45.3844 30.3622114061
18.9641 41.1838 55.6942 28.2464817931
16.1832 37.4995 52.7269 30.3846745923
19.4701 40.7847 53.1003 27.475266911
21.2591 44.4861 54.53 30.7502281757
23.6529 39.2281 55.9623 32.4203213066
13.806 39.0592 52.0475 30.5929283349
22.5537 42.3195 53.1378 26.6290072622
17.2191 38.5655 55.5428 30.143300084
21.835 40.5622 50.6225 34.318899497
22.5082 40.1367 45.4311 32.1000045007
13.1206 47.7107 46.959 26.9438009188
16.4969 48.8059 43.3478 32.8215889247
24.4652 47.6734 56.2753 29.3634324529
13.4425 44.6722 43.4667 31.1439644156
28.4755 2.9431 6.37636 32.1634099314
29.9596 2.58459 8.82406 32.1404179427
26.9182 5.14887 7.05978 29.7278313101
34.4415 5.00772 13.2998 33.7940022291
33.3206 11.8935 14.8617 27.5342384203
33.1863 9.86816 9.74797 29.6190209536
32.1316 1.05618 8.17882 28.9183684436
29.0183 0.521984 10.7208 26.9819928773
35.8026 8.20101 8.41507 29.1661916717
35.1132 5.92372 6.98976 34.9264315812
32.2295 6.36793 7.23454 35.539671901
25.6582 10.284 8.09165 28.7482934478
32.8684 10.433 12.446 25.1100936102
30.8715 2.82453 4.53423 33.0680043097
27.3213 2.24517 15.4324 28.5358905614
26.8642 11.5536 4.35054 30.1896167369
30.0315 6.164 16.5292 32.104992148
35.2196 10.0875 6.32874 34.0763013301
26.4301 10.4852 12.0274 29.9635789589
35.091 3.15472 7.37592 34.3380519079
34.9624 0.132899 14.8297 30.901540212
36.5297 12.0151 10.236 31.0591822561
33.4668 7.95301 13.5978 28.190776665
29.3769 0.421704 4.61587 31.1256768453
28.1667 2.57644 12.655 25.9161531545
30.2835 4.20568 12.1046 30.2132819578
32.8309 2.92255 12.4767 34.879936617
34.1385 1.63624 10.208 35.9483782958
34.612 7.3617 11.021 38.939890271
26.6673 6.27279 9.39031 27.8309741229
28.7359 7.68656 9.81253 28.5343096048
30.6816 5.46236 9.50229 36.9817667463
26.3888 6.44266 4.91781 29.5630817063
31.0846 8.63956 8.26744 32.7504786858
34.8286 5.38724 16.0725 32.00137933
26.0909 8.63703 16.6326 30.8302206323
31.8685 8.26537 16.8418 29.9152518457
28.5995 5.11094 3.82721 29.5196275922
30.3068 10.4818 12.8875 28.8061740724
36.2598 2.68863 4.77656 29.2188769516
26.4807 8.41552 13.806 29.7537231973
33.1833 1.78336 5.95445 30.1898168422
25.744 0.948488 12.2551 30.9239250067
24.9246 2.52748 10.2295 27.6619205604
33.7161 10.1563 3.82966 38.0143830458
32.243 0.840936 14.3963 29.8193515626
31.0339 10.6134 15.5211 31.4130674776
29.5812 10.1574 6.11648 30.3860639926
34.7193 8.46052 16.0685 31.7365392556
27.8083 10.6909 9.66987 27.6242411051
26.4517 4.67919 11.8146 28.9205132785
36.0636 11.2706 13.1465 27.8339148628
27.6642 5.65235 14.2821 28.3575429834
26.9274 9.09436 5.76872 34.2133452977
28.9736 7.95448 12.4745 28.0590618086
30.8146 6.44183 13.6671 31.3331844773
24.6403 5.79298 15.9638 28.8216539273
27.1007 0.818232 8.66847 30.7135188554
30.7289 11.935 9.69128 27.9242417206
36.8648 1.68279 9.26063 34.172710863
31.5468 6.60939 4.54738 38.600941379
36.9082 9.03942 11.9608 27.7959781103
26.315 12.2009 14.2761 28.2421042169
29.7514 -0.0960902 13.6564 29.9459581779
35.0656 2.19916 16.8232 32.2971734617
30.9513 9.31236 3.86443 32.2261257935
34.8437 10.2663 21.8988 34.6288574997
28.7682 2.17066 19.9745 28.7811790003
35.8496 6.11461 20.4929 29.4123857741
26.7414 0.853299 18.6969 29.8370913769
35.4256 6.37182 24.0868 68.6812264971
27.2067 5.9794 17.5169 33.6511296465
27.1717 10.9895 17.1076 30.0745531501
27.8481 6.54064 20.3547 30.4888458991
29.739 4.72472 21.2791 27.9956313228
33.339 5.53799 20.3227 30.4740914546
25.3924 5.96157 21.5376 29.7110806725
25.923 7.75699 24.1815 59.1898459499
32.1357 2.36003 17.0448 32.0701001028
35.2084 11.0101 17.0043 25.88345216
27.8509 9.02712 21.2901 28.2656790815
32.5492 5.06301 17.7829 31.2428331037
29.9498 7.35817 24.0192 70.3142307864
33.4782 11.0854 19.2796 32.9493662533
31.4477 9.23722 19.6164 33.2220069378
32.4749 3.60305 22.2022 29.0422103398
26.1221 5.07733 24.6598 117.9892817849
26.6818 3.11477 21.8212 31.6016427603
30.6843 1.03339 21.7679 28.7056437299
29.0278 11.9545 23.3845 30.5628665395
27.8758 1.10007 23.8066 58.8274950647
29.0629 10.5178 19.171 30.520025226
25.1417 9.99463 20.9721 29.8391012044
30.6462 2.6325 24.6722 104.0502467346
33.5813 4.21982 24.699 88.5649520794
35.0031 2.00669 21.2971 30.8686185665
31.5819 12.0062 24.5681 108.0712752099
35.2 2.04812 24.6837 98.6370122262
28.9262 4.84176 23.9412 40.9058264195
24.6197 11.6596 23.5281 32.6751619694
31.2571 7.20118 21.3584 28.7971102816
28.2219 9.38541 23.9767 59.2142887918
33.3244 9.93892 24.177 76.8866360552
33.0051 7.53443 23.9289 47.7514916817
31.9464 0.662156 19.2618 29.4435079942
36.928 8.34417 22.1328 30.2217137129
29.0994 3.37786 17.1846 32.8425530274
24.9436 11.8037 18.6236 32.1890469774
33.244 3.71377 42.3051 29.9227698125
33.2622 9.79751 41.2169 33.8965256799
30.703 10.668 42.8267 28.7140275872
34.5005 7.2237 41.8964 28.3489957461
26.9982 4.29771 38.3997 27.6651275941
24.8578 2.09299 40.9899 27.1459209988
30.7053 5.23744 35.6265 73.0075345692
31.7875 2.5777 35.3741 117.2397925931
36.3591 2.93726 40.4147 27.0064974359
28.0699 4.25714 35.6793 71.9767947283
31.1461 8.10426 35.907 45.0727770623
28.5501 8.83613 35.5237 96.7699979405
34.1234 8.26915 35.4204 94.6413385269
35.7412 5.73566 35.7692 74.3886287547
29.5228 9.17902 40.6493 33.1952299089
26.8657 6.55171 36.0989 48.8010688555
24.8863 9.21372 36.6107 39.7105161184
30.7492 10.1228 38.1907 30.5090446192
31.4454 11.1891 35.45 82.1111175634
25.1496 9.09498 39.3864 32.3337098777
33.2134 10.936 38.5345 27.8260016733
35.4103 11.4898 42.1987 31.5506123281
36.0675 10.3835 35.6322 67.3214500257
27.2349 1.85637 35.8792 65.2384803646
34.4599 3.29896 36.1948 43.2999766389
27.8017 0.839604 39.4444 28.6281073122
30.6403 5.49716 38.4826 32.1555830959
31.4684 1.33437 38.6385 29.9785114429
28.3452 6.97996 38.4372 27.8405557583
33.1705 5.1344 39.7065 31.630178088
26.3293 3.43948 42.6814 28.8267979807
35.8189 9.50607 38.4008 28.7651387573
34.2397 2.4938 38.6985 27.9738731101
29.2937 3.36339 39.7941 30.1421752718
26.7613 7.31628 40.7139 26.3210913653
24.9454 5.55008 40.423 28.1809747038
35.1109 6.72164 38.3809 30.5947048337
33.9248 12.1802 35.8758 59.2383087655
29.6873 6.86289 42.8739 32.4244960197
24.6911 1.91189 35.458 86.4806258845
26.0599 11.7605 41.4887 28.5975650756
29.163 4.05882 42.5915 33.1298193487
27.0147 11.2245 36.0759 58.4741760753
27.7006 11.8103 38.9015 31.1612220942
35.6633 2.7922 42.9765 29.6270550454
26.4165 8.50008 49.6959 25.1630973079
27.5534 12.1348 46.1729 29.628485018
26.8995 2.03297 47.8847 32.2448499967
28.6201 7.04371 54.5169 28.9498803156
34.1662 2.92559 48.4807 28.5687219646
35.9602 10.5215 49.2385 35.1281271176
27.1478 6.07019 47.7056 32.7294194214
25.4992 0.78654 50.2784 28.5561087686
32.3866 6.11521 43.3877 30.2892415439
34.6898 8.22062 44.5502 27.4571237858
25.0046 5.32323 49.0942 29.480993449
35.2984 6.0809 46.2123 28.3330899387
32.8526 4.83015 46.1065 32.6879833826
30.1141 9.09612 45.0423 33.0233850482
35.4582 11.9269 46.9347 28.3517146317
26.353 6.2685 51.893 30.0313342457
32.6169 9.24446 45.5943 26.5579473205
36.3073 10.5847 44.8985 30.7491833074
27.907 0.894284 55.1166 32.5821389245
25.6602 10.0201 47.3361 28.5623922155
25.0019 1.86672 52.9269 29.079175909
29.0895 4.02349 48.5703 29.5775307232
31.4593 5.63439 48.7154 31.2361505843
29.769 5.68843 52.3487 26.0200138897
30.1352 1.84902 47.0806 30.9716862506
27.2212 7.83315 43.2528 28.1130808703
25.4581 10.4368 53.3002 31.5664867536
27.7286 10.7426 51.3877 30.8504349185
25.8461 6.62484 45.276 31.1937173191
29.0557 7.12888 50.4564 26.8488688202
31.3897 8.76834 51.8255 34.459850112
32.3034 8.53307 48.1755 30.5968022057
33.0833 4.99701 50.7291 25.8318864872
36.2036 6.7898 48.4976 28.2934466885
25.9031 7.80776 54.639 30.9128704486
28.5123 9.01096 47.6406 30.2051829951
32.5227 2.2115 45.9462 27.5669929972
34.5126 8.21842 49.9983 28.3921230454
32.1834 4.54642 54.9089 31.2927665561
26.9491 3.80029 52.9358 31.0070866827
26.7203 3.34036 55.7694 30.144966246
29.406 9.55418 53.613 32.2506582029
36.6813 5.1023 53.203 29.430439608
32.6093 2.22032 53.817 29.2088524463
35.8824 4.77494 50.4727 29.6936472575
28.5379 0.279198 50.3444 31.5420756698
36.6153 2.02831 49.1806 28.8074230962
29.1654 11.4846 55.6071 33.6221602381
35.423 10.2689 54.3569 34.5972599509
32.7409 6.73268 52.9225 29.3007127371
29.2851 3.2405 51.2097 28.8510543244
35.3002 4.62181 55.7009 37.2427801791
34.0261 0.289448 43.7612 30.9416163443
37.013 0.248157 47.343 26.9611381531
33.2092 0.628303 49.5676 29.7518254865
30.37 10.2221 49.3616 30.9409423747
35.0431 7.82808 52.6651 33.2714968048
32.951 11.9105 46.6161 26.4650976857
25.4981 2.07434 45.2403 28.7893788839
31.9383 2.67222 51.419 28.7126268899
25.9852 10.2282 44.0467 30.0149083112
35.3585 2.00393 53.8668 28.0182600915
35.7137 0.557039 51.3553 27.7225498971
28.6631 1.86842 44.5211 32.2992416108
35.0728 0.244283 56.4198 29.2529962674
31.2838 1.78103 43.2738 30.2109468523
30.2528 20.9126 16.5249 29.5891229302
31.9752 14.6822 13.9281 32.9304287636
30.9017 18.1261 3.9207 30.4214717646
27.0252 16.3259 4.59823 28.1170064939
32.6192 13.5277 5.76442 30.4703639073
35.2134 23.9891 12.724 28.3678445107
33.0673 22.6692 11.2366 27.7186908047
25.5979 19.8193 13.3869 36.1760950441
34.4001 15.6214 6.41505 31.559833361
29.1299 15.3969 13.7717 33.796638002
26.2639 19.2456 4.35074 26.2160592359
34.9747 15.7022 13.3541 30.4489464122
28.8773 20.7235 4.27899 29.1273374004
33.9858 19.8596 15.4194 29.8620214012
27.3495 13.8002 5.95813 28.9506890413
33.8086 22.5571 15.3384 30.1757192137
27.7907 14.2524 16.1636 32.6959526594
33.209 23.1031 5.52777 33.2169231831
31.9166 20.2734 5.5681 28.0301539406
27.0358 23.5644 14.3822 30.936690535
36.0709 19.6915 6.74625 29.1212981938
35.7208 22.5753 6.76574 32.6960648687
34.5126 19.4612 4.39822 29.2153676852
28.685 23.7374 4.85548 32.4833248325
28.7948 12.8259 12.5153 30.0235246424
28.8901 14.3081 9.75408 29.5721145903
30.0569 15.6875 5.68675 30.1804312812
24.649 21.5509 10.2308 28.7640649676
36.6762 19.8016 13.8713 27.9542497523
34.0692 13.3875 11.9363 28.7591194038
34.1975 12.295 8.11815 27.8915721558
36.5721 20.36 10.8808 29.9770729207
30.9219 16.0399 8.42682 32.593615297
32.0697 18.7571 8.05109 29.5052880992
34.7127 17.7236 8.18998 31.4820988138
26.1201 24.3733 5.92073 24.2102348473
26.6861 22.3181 7.60252 26.770427576
30.8494 23.6913 7.44414 29.2834422336
24.886 23.8488 12.6986 30.4169267397
29.1527 20.9479 7.15479 27.7565626312
31.4038 21.3218 9.27562 29.49115698
26.4691 19.3194 10.7219 27.0551365419
26.634 13.2784 8.66718 28.4401823453
35.6218 22.6751 9.8296 29.7139167288
26.7999 17.4744 7.21482 31.1414388742
27.066 23.2722 10.2015 27.4423068109
32.8218 14.0491 9.64125 33.704830722
29.9089 20.289 13.0984 29.9588713123
25.0436 19.9955 7.07732 27.183161816
28.9192 18.6172 9.02293 30.7115665372
36.621 15.3214 15.4931 27.4000051118
33.8286 18.1809 13.0447 31.0991095002
28.7558 21.108 10.6263 28.1511347557
31.2153 17.8418 13.4701 33.1882446063
27.7419 16.5452 11.5497 33.3689282248
33.6591 19.6425 10.5555 32.6192211907
30.2281 12.6746 7.03128 28.1051747866
27.6535 20.8877 14.6446 30.6349504247
25.2964 17.1086 9.42418 28.327940214
25.6791 14.8136 12.9203 31.5759136314
31.5098 18.4373 16.1798 32.6263174369
31.5139 22.3284 13.6865 29.7751020953
35.1175 16.7054 4.11589 30.6871800508
36.915 13.8602 7.33861 35.4925052513
29.5058 24.2881 13.7649 29.7171569078
26.491 14.2616 20.1909 33.0733136969
29.0458 17.3892 18.6806 32.3956421786
35.7747 24.1626 20.3761 29.2080789326
29.0734 12.9217 20.8691 31.0804984161
35.5725 14.9255 19.5136 27.234917339
33.2337 20.7447 24.7173 114.1419438348
26.4689 20.6566 17.4563 34.8479839106
26.3629 18.8494 21.8745 29.5744606859
31.8243 13.3691 19.3411 31.6198964304
35.9782 19.9137 17.848 28.2662139583
28.0079 16.6378 21.4517 28.3579099041
28.6047 20.0869 18.6408 26.2883931562
34.2264 22.3978 21.5542 27.9817867365
32.0924 22.8131 17.5237 30.9454484967
26.7894 23.7858 17.1339 31.8052590066
27.8643 23.1113 20.1814 32.1062697244
32.5583 14.7568 16.8659 29.9238191482
26.9924 12.9903 24.4861 104.907661174
25.3348 23.2661 21.3645 26.5627977234
36.3912 12.6749 21.1875 29.6422794194
36.155 18.2628 20.2116 28.2056118696
35.1881 13.963 17.0993 26.5255506065
29.9325 23.6949 24.3383 90.3946110283
30.7594 15.2491 21.7183 29.4475206499
26.3473 20.4393 24.2587 69.662799078
33.4651 16.1295 21.0949 30.4266374929
35.5561 18.056 24.5556 87.3960675917
35.001 15.3371 24.102 52.102465132
36.1736 21.0808 23.6458 41.1018618206
28.6127 20.6884 21.2328 29.8076145656
34.0686 19.3159 21.9602 27.1574881766
27.5222 15.7718 24.0291 56.7784475102
29.1851 21.1562 24.2164 70.0566230134
30.5612 16.9129 24.39 98.0793463062
32.3348 14.7446 24.2065 62.309179604
32.0315 16.9264 18.6606 30.9924214367
33.2857 20.8395 19.1405 30.9356337385
36.2213 12.8789 24.3678 91.79110995
31.0925 19.3942 23.6007 31.0200782617
31.3701 19.3685 20.5537 30.8547758417
30.1475 12.8926 17.0413 30.6758218236
32.5331 23.1468 23.5591 29.6113898496
26.8773 16.1063 17.8378 32.5403254841
24.6323 20.7511 20.2295 32.8291123153
24.7439 16.1305 24.4417 61.4312443396
36.8394 23.9169 23.9991 67.3815392771
36.7883 22.5533 18.4838 30.2872266779
25.083 17.8405 16.9864 34.75106776
35.965 14.2776 42.2513 28.0963007586
27.2541 16.7224 35.4938 103.1339061454
29.8508 13.5698 38.3899 29.7792970203
30.3252 15.9944 35.501 75.7765924589
33.5741 18.1777 35.5377 85.405857047
36.2265 15.8216 40.0412 26.9569343544
32.0786 14.6719 41.1802 30.5679169297
29.7034 20.4073 41.8821 32.0429949502
30.8708 18.5195 35.9559 54.7974752761
29.5532 21.4852 36.0465 48.1930761102
34.76 20.6203 35.8428 47.9522088143
32.5743 19.3966 42.4545 30.1784613541
25.4268 22.5449 43.111 30.6944511582
33.184 13.8342 38.8703 27.2417906184
29.0884 14.5153 41.3641 30.2026835476
27.1305 21.5138 35.3419 116.3225054708
26.3955 19.8816 38.9457 29.6222898658
25.661 23.4848 36.2523 32.5564688457
29.1894 20.4455 39.1046 28.0573118178
26.1911 14.2597 42.8382 27.5577932653
34.7406 19.9829 38.6862 27.9010142075
32.5836 22.3732 35.7293 90.7657601452
29.3056 13.2139 35.5701 75.62742154
26.4335 15.7065 40.3011 29.9891856057
28.4217 16.0611 38.0215 28.5323036035
35.9134 13.4083 38.4676 26.4007970827
34.3017 16.9465 38.2662 29.8851805843
32.5274 17.415 40.3909 30.6099558546
25.5218 22.4377 38.9011 32.2646853446
32.3653 21.4889 38.5394 31.5918748838
25.0158 18.061 40.3797 30.7793793513
25.1911 13.9189 38.9952 28.060745045
26.2155 14.0542 36.3866 36.1583811957
25.9073 19.7402 42.5212 31.9680981623
30.3625 18.0438 38.6149 31.7388210203
32.8142 15.014 36.1419 54.4268845106
29.3689 23.4133 38.5333 27.7754345424
26.074 19.0985 36.2832 35.1168814528
35.1045 20.8616 41.4821 27.5837405347
35.754 24.4871 39.415 28.8650829414
35.3655 23.8333 36.7441 29.4062519137
33.4583 23.2108 40.6407 28.7950288049
36.91 18.2789 35.4828 106.1667799888
29.8413 22.9149 42.8314 31.1885692909
27.428 24.2974 42.4559 28.9643295629
27.2995 24.5034 39.7925 29.5633186375
35.9002 23.2241 43.0935 29.6144762269
30.1877 13.8726 45.1369 27.1411443984
27.9923 19.7462 51.2653 32.8568907524
33.7855 15.8173 43.4344 28.4374047557
28.8264 24.3084 47.4747 29.4350923232
25.9045 12.3749 49.3511 34.263184974
36.6385 21.7231 48.4859 29.3344106275
26.1253 18.326 45.9358 30.2960945721
33.7698 23.0601 53.9009 32.8927260789
28.7456 19.8274 46.4037 27.2122495687
31.3241 17.5188 45.8042 28.9145203459
29.4162 16.9306 47.9059 33.2322917746
34.2128 12.6023 52.5811 39.8478394984
28.3358 19.0475 43.7295 28.8035491522
26.0071 23.8133 55.683 25.804180121
25.5899 23.0056 50.7186 33.9350999579
32.6156 12.648 43.8152 29.787666947
30.349 22.1241 45.4228 28.5315281638
32.2744 19.9521 45.2523 28.5399843843
28.3392 21.9534 49.9852 25.0171302852
32.6642 23.5649 43.6884 29.5682039195
35.1591 18.6523 43.5037 25.6338912029
27.8378 13.7437 51.8007 33.5383362008
33.4478 18.8066 53.5021 33.8762356873
29.4825 14.013 47.7209 30.1324257612
33.0483 15.0902 45.9686 28.4653090443
29.5137 16.3911 43.5947 30.7535129021
34.3704 15.7534 48.2593 31.1634839378
31.6744 12.6547 48.8542 33.8905096405
31.237 18.8422 48.9783 31.6669148744
25.9106 17.6405 50.3267 30.4728005956
32.9176 23.4046 51.127 30.487857325
34.136 18.777 49.0864 29.9721216543
25.0346 12.2992 55.1743 29.2648575286
34.9278 19.8181 46.3551 29.5625981235
35.1732 19.7499 51.4326 32.9382957101
33.3201 23.7566 46.4697 30.5140068591
30.6196 21.6194 48.362 28.7100658518
33.7593 21.7242 48.6985 28.2620422233
36.3488 17.2974 46.8019 27.2709995799
26.5411 19.1338 54.2749 26.7007518287
27.2662 16.0143 45.102 26.9712141674
32.5518 20.8961 55.1393 28.7153798408
24.7302 19.3228 48.5681 30.0351698749
30.3786 14.1538 55.956 28.319538785
32.9478 14.5355 50.671 38.8208851093
31.5215 16.2648 52.3648 34.05854773
28.6838 17.4333 55.1541 29.382817635
34.9247 14.8712 54.7875 27.8389564793
36.2335 22.3818 51.218 27.5631796173
27.0018 21.8437 54.0689 27.2505822559
26.7444 21.1972 47.7288 27.7931773426
30.6402 19.2231 52.0948 33.3187983892
29.8346 21.1477 54.2821 30.2796325686
27.2316 15.3403 49.5011 30.3596089921
26.0482 14.426 46.917 27.9150039646
29.3805 15.1215 53.79 32.4206359445
32.581 16.5131 54.8033 26.8295517746
36.7788 12.4521 51.3177 32.3752295744
30.2692 23.2218 52.0163 29.0820191686
33.0535 12.9363 55.7212 32.9989427567
25.8676 14.4189 53.1335 30.4786602458
25.5176 22.7503 45.9322 28.7775192814
36.7316 16.2143 44.3032 25.7979420498
35.7252 22.082 56.2877 28.9793470908
28.5639 12.2788 43.332 26.5443933631
29.7687 26.7312 4.7769 26.9702938989
27.0155 29.6552 10.0727 26.6058499302
26.3568 29.1785 4.86466 26.9960013995
27.8741 35.5021 13.1646 32.1456138915
30.0742 27.4712 7.5993 28.843344092
29.6667 30.4453 9.4572 31.3214280345
34.0564 27.9383 5.33941 26.5777001181
28.9135 28.1733 12.0292 34.4573612836
25.4962 28.2999 12.2705 33.4078459268
34.7377 27.061 9.27326 37.8734171031
32.5211 26.0915 7.78276 28.5714302986
31.9646 30.018 7.36891 31.7356936744
36.703 26.0268 11.3192 29.5162603513
32.1366 33.0458 6.95987 34.907776519
36.833 30.3214 5.90701 36.3098930147
24.6976 35.9133 5.09766 27.772539892
28.4086 25.2837 8.27883 28.4664253074
24.6646 36.4703 9.82537 30.3951902739
29.3535 33.6956 8.03812 33.133340443
29.3494 25.2497 11.2407 32.2743729578
30.6961 32.0044 16.6646 29.5723719127
34.1022 33.7592 13.7036 34.131881048
27.9014 32.8102 12.3726 32.3344033684
28.6222 29.8237 6.58064 26.3700699346
35.3888 31.2466 9.68299 31.9041142617
33.9718 30.2871 11.5821 31.6558462751
28.3351 31.1106 14.624 32.6570776956
35.7934 36.2875 9.11434 28.0521657296
33.5761 27.3248 11.9445 34.2213626581
35.5691 36.3094 12.0906 29.2261850834
27.6749 32.8844 4.31358 29.3090811502
36.4007 29.8036 12.6953 29.6407243424
33.5648 28.7426 15.4551 33.809281765
27.058 32.2744 7.89137 29.7789971723
30.0229 32.8472 10.681 36.0900787876
31.8241 31.8444 12.6778 32.8519236309
34.7005 29.4139 7.64928 28.8532884317
33.3129 31.4815 15.5279 29.1602651194
25.3801 25.593 8.39585 26.388828137
31.3144 29.2162 4.33959 27.9622386116
35.5534 26.738 13.9378 27.9559620798
32.2272 25.7348 4.81134 28.2014676283
30.1206 31.7658 4.76186 29.6430366487
32.1054 25.3433 10.5191 31.5592681953
34.3904 33.701 8.50681 37.4237887347
33.1077 33.8512 4.27004 35.526747818
32.4472 36.1056 14.1159 27.9047157972
25.3953 33.3595 5.99707 27.0978074388
27.5927 28.2637 14.5663 29.4773928478
26.1729 28.1953 8.10825 28.9614493324
30.7393 29.5111 14.1005 29.8667872298
25.1734 29.4873 16.5116 31.9313355485
30.1726 34.796 15.3777 31.5537494373
24.836 26.7561 4.88495 27.9481109721
25.8462 32.2683 10.4261 33.0089447945
29.926 26.5651 15.2972 31.7685538741
36.4255 33.575 6.3011 32.1359027177
28.696 36.4632 7.96561 34.2541144629
33.6987 36.629 5.32156 32.1378789203
26.0744 32.4903 16.2845 30.6112374714
36.2471 26.7305 4.47981 29.7292327956
36.6299 32.4348 13.8729 28.9980262297
35.5538 24.8908 16.0875 32.1341862319
30.6974 30.1491 18.8139 30.5719576579
29.4515 26.5768 24.3109 80.7607977756
34.5432 32.5182 18.0738 27.365502117
32.592 30.38 24.4524 99.8541030822
26.221 36.136 17.1684 28.1546405162
36.2102 31.1861 23.7982 45.3322851337
28.011 34.0068 17.2094 27.781739737
30.7601 28.4285 22.9769 30.7884426278
26.5719 25.9233 22.0511 30.7841748055
26.4734 29.8947 20.1226 29.8063542566
33.4594 27.3953 22.2504 29.4444846267
34.7819 33.4794 24.6411 100.5297405757
33.314 31.9806 22.1674 28.0264790155
28.5221 30.1419 24.5032 78.5745501697
28.7582 34.0118 19.8874 28.9476541198
34.6412 26.1646 18.4555 29.5661998235
26.6943 27.2132 24.4488 68.0820654838
32.0961 25.1036 21.4019 30.7067135595
36.403 30.448 18.9969 31.1749170215
35.0062 28.6526 24.1867 75.6151593165
33.1441 30.6904 19.7606 29.7637940949
32.2639 25.2617 18.6828 27.4070192638
34.9682 28.3685 20.0673 33.1020099598
25.4916 32.1165 18.9334 28.1256908478
32.0775 34.5322 17.9775 31.245860183
28.9387 27.4751 19.2173 28.3416864875
26.1783 34.2092 20.8127 33.0992145724
30.1918 32.5138 21.7219 29.1391450481
29.4143 24.9705 17.5004 28.7608351251
31.559 27.825 17.288 29.9554487425
30.1096 35.3242 23.4755 33.7809505788
26.16 32.9622 23.5826 40.0065809196
32.6809 35.9757 24.3042 73.5260887103
29.2281 30.1652 21.1492 28.3582717648
28.7794 32.8276 24.488 103.1182644433
33.1959 34.5609 21.7634 26.4043494548
34.2486 25.261 24.3755 103.9400054753
30.9442 35.902 20.5082 26.3090577062
25.2894 27.3243 19.8323 27.9608118633
27.089 27.4049 17.2509 29.4731037565
25.0195 30.8797 22.0768 25.4478533314
25.2849 29.7707 24.4501 76.0524702978
34.6778 35.8963 17.999 31.6068623575
29.1476 25.5285 21.1357 27.8407672378
35.6721 34.2385 20.2671 28.2324822027
25.4651 36.6795 19.9224 27.0993748
26.6895 25.9467 35.7733 78.300241674
32.631 27.5062 38.2423 30.885738703
28.6641 30.2115 35.6252 95.7242552967
33.5727 28.4 35.6278 94.1484769945
32.3 24.934 36.6314 39.9796716899
32.8095 33.6085 38.3395 28.5590499695
29.0873 26.6653 41.7579 29.5516689235
36.0372 34.6473 38.4582 31.1647770957
35.3028 26.2463 35.4981 99.05953292
31.8788 34.1771 42.1001 29.5522351715
31.1954 30.4458 36.2256 42.9191700284
35.1929 27.2981 39.413 29.100418643
31.2422 30.0312 38.7801 26.3592757342
34.1851 31.2526 38.7683 28.6615036537
25.7722 29.1835 35.2558 100.8355149073
28.6865 33.0695 36.8049 32.8699714476
34.9199 30.7923 35.8629 57.730475994
27.9384 29.4187 38.1728 27.9318361784
30.1575 31.5356 41.5424 25.0896005778
30.7295 34.4446 35.3876 106.8223879698
28.4545 35.2791 40.5564 28.9177059094
33.0794 32.8524 35.7145 63.7088648669
25.3257 34.1831 42.7907 27.9077570875
34.8588 35.275 35.7867 65.2748032565
26.8006 26.8285 38.2193 29.4466134486
25.7447 33.8822 35.6171 100.2078783035
31.4522 25.2004 39.9566 31.7252304147
36.213 32.6068 40.6518 29.3927141653
34.228 27.1855 42.1577 27.441594335
36.5353 29.8044 40.1657 26.9162536549
35.0039 35.4206 42.6192 29.8318862885
28.7838 28.934 40.742 27.9706625774
26.3596 34.4627 38.146 27.7150917027
26.368 29.8373 41.9906 34.7512436586
33.1798 29.6503 41.1223 30.9115618915
26.1985 32.23 40.1217 26.2311522058
32.0913 26.1227 42.7679 27.5158153477
34.8507 32.7765 43.1896 29.6125214642
34.0962 35.7454 39.9659 28.6344183081
30.1514 33.0832 39.2653 28.2680181865
25.6024 30.5348 38.1859 27.1644232884
32.2028 31.199 43.2055 28.2553240648
29.2114 24.9279 36.2502 71.8427265892
28.1283 33.3975 42.5426 25.9635658011
31.0183 36.4915 40.627 27.1522564504
26.862 25.0837 45.359 29.8014167726
24.7164 33.2439 51.7053 34.3462562012
35.8788 33.2247 56.0713 29.2456600486
27.7214 28.7425 46.7793 28.9998203761
31.5541 27.4766 45.4031 28.5647103442
28.63 30.0655 43.9532 27.3357117276
35.6751 32.9259 52.1262 31.4165999862
34.2435 27.5471 48.2825 30.7779025976
25.3564 26.9256 54.7053 24.3532263393
27.9078 35.6166 56.1898 36.9211319377
26.4236 34.9558 45.3955 31.2628317728
34.2468 28.5323 45.234 29.1295300246
31.0653 30.5574 45.7615 27.2355558804
27.5603 31.8913 45.528 30.5405953729
30.1322 34.6855 44.0937 30.7240070388
29.6412 36.5439 48.7999 32.9886759893
35.3453 25.6598 46.3346 28.3229090146
34.6966 34.0511 46.8607 29.5791040215
33.8553 31.5438 46.2289 27.7638020676
29.8701 33.0265 46.5447 27.269304905
35.9851 24.7839 55.1575 27.7290603357
28.3387 28.4983 52.4651 30.7111353374
32.4316 33.4815 49.9623 29.5074780222
29.1895 27.0369 44.4794 29.5936856106
31.341 25.4495 47.4404 29.0416307192
32.6449 25.955 49.9282 28.6768597121
25.6043 36.3872 55.0993 32.7195174212
31.009 30.4113 54.1032 28.3636419218
34.1765 29.0918 55.3721 30.444439421
26.0354 27.1503 52.1548 26.8208169034
25.2854 29.0445 49.1794 30.0670778557
27.5831 32.6348 51.0006 31.6745471004
30.3589 27.9926 50.5232 26.7760561639
29.7916 29.5648 48.5084 31.3043489017
34.5065 30.2285 48.4553 29.1550513016
33.7446 31.3182 50.9016 29.4336655595
34.7124 27.5034 52.8344 30.7237342539
26.8648 31.4117 48.4221 30.1183905331
29.9622 32.1958 49.0488 30.2347359622
31.7709 34.9715 47.4814 28.9097276638
36.8592 32.6729 45.1791 27.941113689
31.1556 34.6236 52.2522 34.5094455043
28.6324 28.8186 55.7222 26.5219214706
36.1326 26.0067 43.7577 27.2985037091
29.2792 25.4588 50.2983 26.3886815522
32.8738 26.1185 54.6713 31.2770077795
35.9066 25.1501 50.5695 30.6696741978
28.6841 35.1485 51.1381 35.6516875412
36.2535 35.7245 54.9287 31.285224614
30.2971 26.0401 53.433 32.2860082954
34.6417 36.548 45.3058 32.6637492001
31.4873 33.3548 54.7886 34.517055835
26.4457 31.1445 55.1525 25.9187687719
34.0595 31.5734 54.343 29.8798948735
32.5332 29.2774 52.0372 29.6177616835
24.9221 27.2189 46.0273 29.3335311931
35.3032 35.0463 49.7026 30.3961938309
28.5848 31.2726 53.3523 31.9100103527
26.9346 26.6991 48.6845 28.5817829604
27.9913 25.9001 55.3129 26.231420001
27.4046 24.5384 52.5039 27.4280089562
25.0669 33.5592 54.6115 32.9490475543
24.8976 33.5114 47.5256 32.276787925
36.7829 29.9579 45.1447 28.715692772
26.5519 39.4839 15.8208 25.8111855932
25.9981 42.8798 3.69957 26.4875883604
24.6729 46.0086 11.6825 27.0186894819
25.1044 40.7727 5.07077 27.3354825761
33.0243 40.6274 6.05497 29.1096496547
35.1193 43.9432 10.5762 28.7372869374
36.7363 38.8711 10.7337 30.1579881398
28.5359 44.262 9.09721 26.4041604955
27.016 42.641 10.9975 29.9187537797
27.4538 40.1666 13.0717 28.5602376081
33.242 43.4746 8.23891 27.0106026597
31.0614 44.6501 7.32744 31.0115034802
30.8814 42.7532 5.16382 28.6447002746
26.7683 46.5278 5.15399 32.2328574526
31.943 47.3152 15.9302 28.4513802204
36.7527 47.5577 5.50041 28.6647657616
28.2561 47.882 7.18536 28.2954013207
36.647 37.3732 14.9113 31.4853266947
32.0891 48.1888 5.16905 27.0903834492
33.4683 37.4723 8.42492 29.2027181855
28.4988 46.3287 13.2858 26.69265001
34.2324 46.4014 8.77816 28.514405146
34.2085 46.3586 5.72906 30.3174596119
29.7016 39.6024 15.0656 31.6420369627
28.5234 42.1646 6.9172 28.9586344687
29.1577 40.6165 9.24112 31.3687167003
24.6317 38.0947 7.38297 28.6716082765
33.4795 40.2172 8.82968 25.2125468114
27.6708 40.0592 5.44238 30.8995941624
33.6354 39.806 11.8407 30.5199540704
29.1688 43.8596 16.1103 27.204352584
30.6545 38.3767 8.09294 32.9608540165
26.7263 47.4269 11.3713 26.9428176144
26.753 39.442 10.5198 28.1256011234
30.1046 44.5005 11.2235 25.7371465783
30.8682 47.4806 7.75532 26.8758340326
31.3875 41.9406 10.154 29.3925959326
35.7846 39.7456 13.4247 28.966709976
33.134 44.6081 12.3799 26.6946521183
30.6974 47.2683 10.8547 28.3417123731
32.7716 37.0105 11.4753 36.2377120447
35.135 47.2714 12.5324 29.9071725351
33.2776 48.0064 10.7853 27.4594154429
36.0813 41.3364 8.90289 28.1483676759
35.4749 42.9904 6.18295 29.6930462451
26.6619 42.1907 15.7838 25.3690812891
32.2987 41.9346 13.0292 30.857352612
35.1162 40.0048 4.09409 30.9261627374
29.9685 37.5518 12.9919 37.2277378158
26.2242 44.0541 6.40445 28.4747308015
26.2799 43.9025 13.3429 25.1568155552
27.9485 48.5616 16.4066 33.1180213695
26.7651 45.9467 15.7576 27.6343134307
29.3509 42.4907 13.3928 27.8817342197
31.1126 45.3479 14.4173 30.0921022826
26.6617 46.1151 8.54878 30.4786070761
31.5444 38.3987 5.2581 34.8686405962
34.0023 37.4257 15.7413 28.510467577
35.3151 45.0451 14.341 29.8032466048
34.8856 42.3654 14.5228 31.946042831
27.2282 36.9033 10.4282 32.1591402552
35.7636 38.6048 6.23128 27.9807864513
33.7323 40.2474 16.508 32.7188285807
36.7016 46.6723 8.37938 26.9053423647
25.5737 36.7156 14.1873 32.2648814346
27.1876 37.3739 6.0078 30.6564432931
34.0541 45.9233 16.8171 32.1867597759
36.3653 39.9951 24.0966 61.0768994795
31.8963 38.4876 24.0455 57.4681854444
25.4071 38.4223 24.3173 82.4244568484
35.4447 48.2437 23.7344 38.026404041
30.5132 44.917 18.3515 28.0924851761
27.9924 37.0873 24.1007 73.4009991242
30.2547 44.9166 21.6375 25.4299793824
33.71 44.1861 21.1213 26.581249776
35.5759 48.2743 17.9143 31.8138571031
36.4337 44.2451 21.1071 28.5261278791
28.6988 47.1778 21.723 29.2015774737
28.0365 46.8755 24.3168 90.3059130248
25.3547 43.8853 20.7433 28.6478935955
26.2996 47.7287 20.0905 28.726029387
30.2551 47.7587 18.3048 31.9298912824
24.7711 46.0545 23.9428 76.7618753384
33.0197 43.9896 18.6376 27.6539204778
35.9209 43.0642 18.5684 32.3187905547
34.1838 48.445 20.4911 28.2935594584
31.9624 41.233 18.3368 28.5298501807
28.9799 39.506 24.2951 88.3080742977
35.4549 37.3951 24.5229 81.6333545658
28.4472 43.026 19.7251 29.6126279276
33.6367 40.7058 21.2921 27.0575247468
33.7242 40.8958 24.3149 75.0974430195
36.1332 40.2532 18.366 32.0296238628
25.4837 48.6125 22.7564 30.1620518281
34.7049 38.5125 19.882 27.9431026004
31.0867 41.9769 21.1345 24.6424296662
27.4403 40.1712 19.784 27.9242085898
31.7405 38.5322 19.9502 27.47384042
29.2708 41.3455 17.3388 26.3260497619
30.9333 41.9012 24.0124 57.6930043314
29.6641 44.4383 24.2414 90.410311
29.6024 39.7248 21.4662 27.0092888114
35.4276 36.7383 21.7146 27.2992985155
26.7273 44.0447 23.3527 39.474147012
33.2197 46.6501 24.1205 79.8646798164
26.4793 45.164 18.6698 28.0870707219
34.2499 43.7403 24.2171 73.4906831524
32.365 46.5518 21.804 26.8250927157
25.2624 40.7727 21.6043 27.1994934972
36.4314 41.2999 21.5715 28.2063921871
30.7838 37.5364 17.3384 31.1327551622
28.2395 37.0821 21.0462 28.5454787785
28.0287 38.135 17.8763 27.0761691215
30.4017 48.4005 24.1463 66.3823681627
25.1168 41.5471 24.2483 87.3230991237
36.8059 47.1594 21.2758 28.8211950081
25.0892 38.4381 36.0555 55.7465467543
27.3027 40.9595 38.7294 29.7847099167
28.8524 38.4872 38.5464 32.5264142111
25.814 44.1592 42.6329 28.305702589
33.5561 46.9546 36.0204 64.7034316761
27.6797 41.4808 35.7918 69.0993037653
36.136 45.1839 35.8044 95.9566494858
33.548 37.7472 35.8261 71.8195256193
25.7214 43.6858 35.8444 73.6224514538
25.1234 48.0836 35.7989 81.4028844314
30.1256 42.5219 35.9342 64.8482736632
28.1188 38.6411 35.7688 83.6889784646
32.2362 40.6088 36.1513 58.3020032395
25.3129 43.4324 38.4887 27.2019616867
26.5629 45.5599 39.2963 29.7251235211
30.5159 46.6898 38.9926 29.7715326931
30.0338 45.8968 36.2402 70.0466894067
32.7028 44.1585 35.4145 115.8728461074
32.1096 43.1575 41.419 32.2892093557
33.4381 46.4809 38.928 30.1960120604
35.0735 48.6797 38.6729 30.5260280313
36.5747 43.501 40.9866 31.813662316
35.7217 39.9599 36.228 62.7022670991
31.7175 38.0076 38.44 27.1402542874
28.6965 48.8463 37.0563 31.5102060376
32.9728 40.7254 42.1211 34.4064252724
27.6572 42.2495 41.5309 30.6633195778
36.0823 46.4036 42.283 30.9434555439
34.5113 42.7066 36.8135 34.8460764102
29.9352 42.4136 38.995 33.4538299046
32.4597 40.5443 38.9052 27.2389994124
27.1754 46.1976 36.5384 42.7138243247
33.9708 43.519 39.5616 30.397561977
36.2065 48.5044 36.2901 55.0592870702
28.8021 44.6684 40.414 26.0496655179
26.4945 37.2066 38.7973 27.0767196353
34.9999 38.4564 38.5684 27.089037122
28.2674 47.8809 41.095 26.8437192226
35.22 40.3965 40.4843 28.5747926921
33.4053 47.2573 41.8248 27.9131943021
31.1216 38.4562 42.5054 38.0896978091
30.7148 37.2203 35.6635 74.4603671802
25.1772 48.3068 39.8589 31.7003025697
31.5359 48.9793 36.3497 46.0963329905
31.1299 48.8865 41.0736 30.843797743
26.1155 36.9058 41.6793 31.9567471587
32.2672 46.1733 43.97 39.4271065837
30.7993 37.1777 45.1793 32.1806331909
25.2815 46.6488 46.7314 30.5870684303
30.9635 38.9231 48.858 29.0999216002
25.145 42.5821 53.612 30.0613597591
27.4185 43.1748 47.5768 27.8397453855
29.242 42.3096 45.009 35.8604810326
26.4643 43.6987 50.2086 29.6271631242
36.5727 41.8703 55.5102 34.7354394461
33.9594 44.2659 45.4176 31.782583904
28.1581 46.3829 49.7796 30.791095918
31.9504 48.4615 53.8084 31.5974895346
28.0256 45.7412 46.2853 32.6806111666
35.3789 46.5692 54.497 30.6757944263
25.1293 41.0531 46.8925 31.5101540305
34.0034 47.4537 52.2664 27.5139165053
33.088 37.8867 47.1025 26.856208757
34.3083 37.8303 55.0495 33.5550294919
28.7168 45.6613 55.9433 31.0731368568
25.7747 40.5529 51.7735 33.0941857289
25.4394 45.0778 52.8296 25.4307309455
27.4206 39.441 47.8605 35.6447579026
30.1512 41.2355 47.5735 30.5579989174
25.286 46.8501 49.5683 27.298249002
34.4243 37.6173 49.7356 29.8501924979
35.229 44.1558 56.391 27.3760815304
25.4883 37.7539 46.1728 30.4490116397
35.9584 42.1171 52.7206 30.9776028953
28.4083 39.7509 50.9202 28.5769469233
29.3325 42.6378 50.0232 33.9765714083
30.0653 44.6596 51.9391 29.4035210276
32.3447 45.6178 50.8336 31.8790707876
35.273 40.565 44.2354 31.460961113
28.3096 37.0651 46.4242 29.83665757
29.6325 47.8901 47.6765 35.1788874192
28.5759 42.9124 55.8542 31.1641511273
32.0239 47.1638 48.6237 33.0178524198
34.491 46.1779 47.5186 31.5610090581
36.0978 43.4263 43.9866 27.2370957552
31.4999 46.4245 55.8618 30.9211348482
34.3453 48.9422 46.8052 29.6595829599
27.4821 37.5262 52.4933 34.2887908833
31.8668 37.2138 53.4869 31.9417526724
35.8976 46.0264 49.9623 29.3424597698
32.4687 38.9178 51.4495 29.8686170045
32.363 43.8033 55.9581 32.9962194412
33.7084 43.3389 49.4457 30.0241076256
35.5698 38.0138 52.4917 30.7924444695
28.1484 46.1311 53.3229 27.2584021755
30.1575 40.21 52.9691 30.9837497942
31.02 42.6626 53.7111 30.4380658712
33.1643 41.8672 51.812 35.4592328277
29.218 48.5273 52.9712 30.6744693286
34.4812 40.263 46.9519 27.6431951564
26.3518 38.7581 43.5724 30.6600655897
32.765 42.4059 46.9243 34.6954301706
25.2716 43.5384 45.6327 31.9834643958
25.6812 48.3238 54.0806 27.3902082648
29.5635 37.4248 54.5685 30.7736717712
27.6235 45.8646 43.7241 29.3822103142
28.6368 40.1644 43.316 35.6621279529
36.6077 39.0717 48.3936 27.9434258763
36.0679 41.8703 49.5314 28.9940716795
36.7684 44.7005 52.3915 30.4339691473
24.7007 48.6845 44.8281 28.9076778608
27.2099 48.8236 43.3171 31.6534109659
30.2501 44.4239 43.1825 30.5788503504
24.6903 38.18 52.8405 30.3002968195
29.7875 39.9093 56.1019 34.4576550946
37.7555 9.46055 5.27774 33.5556525389
41.26 7.69858 12.7769 29.9019122111
38.9877 2.29588 5.64337 29.7550870756
44.6757 1.45701 9.12113 29.7327178341
38.5124 8.98792 9.74779 29.4969389498
45.4409 10.5238 15.7682 34.4963770453
48.4053 0.911744 11.1673 31.5067045047
40.7101 3.67135 10.1359 26.7052490258
40.4871 4.035 7.47422 32.6115541517
46.776 6.32714 14.4903 28.2295395366
41.9506 7.24806 8.15275 29.3151417915
42.9691 0.816378 6.65078 29.5178284585
37.4731 4.37761 12.9892 36.0854073001
38.1073 11.1499 7.7164 29.2787521098
47.2644 2.43056 8.17166 29.807419121
39.0409 6.60969 8.01637 37.1449967545
37.7269 11.4165 15.5304 27.013646924
42.4579 8.1648 5.5757 28.5066527423
40.6441 11.566 8.94971 30.2864139257
37.5501 6.5501 5.69591 31.7507408598
44.8744 11.4849 5.28682 29.9495396477
41.8967 10.5468 15.6744 29.127589982
43.3384 4.85166 9.20814 25.8974947104
43.8508 3.49483 6.86944 28.7497080325
44.8905 7.21078 9.4755 29.014741073
44.5525 3.32715 11.3537 26.4688824869
46.5819 4.73166 6.38444 32.2999635786
41.9462 5.03017 12.2156 30.2361358213
41.5011 9.04721 10.2359 27.1503628735
39.9953 10.9164 13.7057 32.4253602276
47.8478 8.28645 4.08639 27.6094767242
43.4763 10.581 11.4168 31.1664962503
45.2598 5.98578 12.1077 28.9137719357
46.8823 7.05109 7.73117 29.8411613541
38.9088 3.28348 14.9744 30.4152674856
40.6611 10.3338 4.80144 30.4330002781
38.5822 8.54971 15.952 30.8916230174
38.5329 2.75498 11.056 30.6528162373
44.8914 9.86766 9.08329 25.9745443149
41.9775 1.21631 10.7192 28.5099765204
47.0515 11.5156 9.59296 32.7589116482
44.9012 2.56679 15.5184 26.9879746042
40.8903 6.97489 16.256 31.5924734843
43.354 1.15743 13.6487 30.3128514647
47.3367 3.37657 10.9099 26.8457735809
45.0146 7.96769 4.34303 30.7530929835
43.1825 10.6889 7.36644 28.5259021321
47.0023 3.42038 13.9126 30.0192569283
39.4248 0.19349 11.9045 27.2398001862
47.688 10.6012 11.9064 28.6903253244
38.4 7.2281 13.1723 34.7693258875
37.9126 0.88914 14.2454 31.661469163
41.7871 3.33875 14.7514 30.2305453176
46.94 9.85081 6.42221 29.4186500048
48.9207 5.88731 5.08326 30.5873313075
43.811 5.21158 15.0104 28.0570040386
45.4511 9.0771 12.8296 30.1365188286
43.4148 8.24744 14.8135 26.1202490906
49.0137 1.53819 15.0107 31.2379359228
42.0668 1.15802 3.88961 34.6674329173
41.2081 6.17323 4.202 31.4116264957
49.1253 10.4957 8.31968 30.6641488265
49.1229 6.94292 13.3949 31.8311339771
43.1163 4.01623 4.29522 36.1903269237
38.3995 4.3537 17.4252 28.224288126
41.2515 4.50426 17.8388 28.2409156607
37.8066 1.09956 21.7721 28.0169964278
44.8651 7.69983 17.6396 33.0252895771
37.3749 4.35036 21.552 26.203301079
48.3046 0.178653 21.8942 27.3025805155
39.0535 0.423561 18.3646 29.2164679951
41.1248 9.31208 18.4867 30.225066315
45.9798 2.0284 21.4293 24.9767952005
38.1165 4.72743 24.2085 77.5418985339
47.0737 0.33739 24.3316 80.8215847895
46.1019 10.9734 21.3606 29.0959916414
38.9196 11.7464 22.2799 28.4030585789
46.7318 9.48379 18.588 34.7607053301
38.4052 8.58923 19.5345 28.4360142249
47.2461 7.33584 24.4294 83.8653375541
43.0213 6.18466 19.7531 29.6382293357
41.8934 10.0062 21.1417 28.8629655552
41.7415 1.38403 18.4535 33.683571178
47.9623 7.91128 21.3486 27.6350433555
44.3917 8.97234 20.9225 28.2519375867
38.2467 1.68361 24.4793 78.8806757339
40.8273 7.19602 21.1104 27.6095012133
41.0766 2.20947 21.4662 26.9103283866
