28.595 7.10421 40.4976 29.8423119136
22.79 1.70296 46.7106 28.9024673863
23.4969 15.926 45.8076 30.3348864794
28.3954 5.64835 44.8021 27.626542602
20.1473 1.52301 46.1698 26.4082596892
24.1526 1.26101 44.2881 30.2626673145
24.757 9.02708 45.1567 27.1974251373
21.0454 11.7809 38.9739 29.5205925209
23.8262 6.44239 44.4166 28.43072335
21.2461 1.01321 41.7554 28.6890292616
26.2073 4.90208 40.4298 27.8014008907
29.1928 8.2946 43.1578 28.299830804
29.0304 4.29036 41.5715 27.9714319948
24.1335 10.1935 42.7588 28.3320476079
21.9285 9.49195 46.1059 31.9593295154
23.0909 12.4044 44.6302 30.7710259923
28.2207 11.8052 45.333 30.1465006813
26.5351 16.1727 42.8762 26.9918401813
20.0734 11.8439 45.5686 26.8436057898
25.8927 14.6136 45.1591 28.5951522987
27.2576 1.94805 47.2416 31.8713569941
26.5419 7.71264 46.6391 28.0247118533
26.9406 0.937981 39.1034 26.8553533611
28.7206 10.0324 39.4457 28.2002353158
19.7342 7.78871 45.1843 28.5178082568
29.1507 16.0865 42.9014 28.5455535892
21.6885 15.8139 38.8468 28.2412985572
28.9858 11.7104 52.054 32.8433725371
21.3522 2.48332 53.2052 30.918331252
25.9143 2.97718 52.2101 32.7053641204
26.3901 16.0148 52.5453 27.7077387902
25.8433 12.0264 48.5928 30.7201879854
22.7657 5.8075 56.064 30.7211644423
19.7597 7.92372 52.6281 30.3237935707
25.0417 5.44882 48.1841 29.9186204021
23.7025 7.13769 49.9499 30.7217000102
27.639 13.1786 54.9471 28.0350936575
21.6839 3.43814 50.6418 31.6489156857
25.6164 8.46057 51.5716 29.8185950763
28.8263 6.61472 53.0814 32.1397133622
22.1174 9.15933 48.8353 28.2975161366
22.3802 14.2263 50.1091 31.6310248638
26.4126 13.1995 52.2903 28.3922983101
26.8736 9.39509 48.9841 32.7670378819
21.0427 14.1776 55.2837 32.5089980726
23.2491 11.4096 49.7023 28.5159616076
29.1634 5.18026 50.0744 36.1492865461
25.0518 14.9941 54.7035 28.2657278352
26.4782 14.5171 49.3708 29.611442361
24.2653 0.74911 53.7105 27.7118790775
24.3852 3.23655 50.042 30.9340040089
19.8664 15.6678 49.8556 35.8476430554
28.3443 1.63026 51.3317 30.4145453496
23.1682 2.98388 55.6057 32.2194627352
23.8138 6.39146 53.6897 29.2783603435
26.1261 5.48198 53.3545 28.5494216971
21.5521 6.00715 51.4064 29.6016650314
23.5907 9.18449 54.0542 29.1062554598
27.7567 9.14495 53.0268 28.9235985842
27.2983 10.3329 55.4305 30.6977294249
22.8582 13.8767 53.1058 32.9389286317
20.9496 9.98143 54.2007 32.2225488405
20.4548 12.345 52.2096 30.2602843843
29.1736 14.8884 53.6942 27.0945796322
24.0852 11.4381 52.0251 29.7421303207
27.8658 4.69658 47.5049 32.8432819188
29.4952 10.323 49.3513 30.0880058469
26.6837 5.06518 55.8935 31.7669337677
29.2284 0.787089 48.7767 29.2325836102
24.8823 0.737178 48.6285 28.0098258207
20.1172 12.1887 48.9543 29.4346474274
24.1962 16.0048 49.0284 29.3339025379
19.9415 6.60299 49.2713 26.8183827212
22.3644 19.658 8.96557 28.3799491298
28.7332 24.8606 8.69822 28.966123009
20.0365 25.1133 8.70787 30.795133168
28.3754 24.6564 11.4924 32.7968178239
28.6764 22.5097 7.71633 30.9414199608
27.6832 28.4901 9.35594 28.5301895753
20.5516 24.2679 5.73345 25.7223273899
26.4748 24.7397 3.93977 30.1603272221
25.5923 21.7417 5.22162 25.8554855388
27.0286 30.9177 8.29734 29.7044809856
21.698 25.3083 10.9455 29.3633455982
22.9974 25.2493 5.6641 28.3801666906
20.6756 31.8965 8.72868 26.5734226753
23.0019 22.1497 5.45265 28.6771427494
27.5338 27.1856 4.87143 29.0814413013
25.341 30.8129 5.91664 28.889329474
28.6007 18.6576 5.13816 33.8952704565
29.3355 29.1493 11.8645 33.2697357617
22.755 30.3279 9.31248 30.1227630504
22.7466 30.0407 6.44809 30.4576312095
20.0421 20.7252 11.8024 28.784320906
28.6052 22.8363 4.81466 28.5781404219
21.6509 27.7252 5.9244 32.8393853724
29.1829 16.7557 11.9144 28.3646217833
27.4665 20.2589 10.1842 32.5963713464
24.5894 21.8752 10.4944 29.2875271379
25.0699 19.2306 8.09974 29.9806595331
25.0091 28.5435 10.4031 30.0743278689
21.3648 20.4433 6.61001 27.8495961982
21.5631 22.2986 10.1308 30.2034036286
24.9456 25.1406 7.68338 30.0270458279
25.6782 22.2342 8.05999 28.1796327892
19.9717 18.1148 5.55823 28.642927284
21.6315 28.157 11.0978 29.4019929865
20.4849 17.6486 9.87751 28.2909786811
26.9029 26.6215 7.41301 29.7518359099
24.4184 25.9798 10.0327 29.0549736311
25.6349 19.0784 5.46637 28.6315955836
25.1575 31.7262 10.2373 26.1655841153
25.6925 24.4668 11.7939 32.0425560384
28.6224 30.8563 5.42531 29.5269310154
24.5936 19.8436 12.5065 31.8907235754
23.3537 17.4971 11.4516 27.8122027416
21.0834 31.8681 5.39547 27.3348945588
27.3438 17.1404 8.8469 27.9801797458
20.9813 19.8619 14.332 26.5008753778
26.976 17.0973 15.2029 31.6135500103
21.2899 32.4533 13.6589 31.2314542065
28.7051 30.8079 17.3587 29.9881434931
21.5456 17.4097 18.7158 31.5454510771
24.7646 29.1353 13.318 29.0198635686
27.1152 20.5342 16.1306 29.0908164224
23.5612 21.5387 14.4907 30.1422676108
24.8467 29.5033 21.3107 26.5969086779
26.1058 31.1748 15.7525 32.0268249568
27.1348 18.8138 12.5846 26.0118670958
24.4443 26.8962 17.469 26.931992895
20.094 31.3551 17.0547 26.9087220066
22.9749 26.1183 14.9801 30.9385721368
29.0342 26.7621 15.465 29.5881231881
24.1731 18.4273 19.1556 28.7118459193
23.1643 30.6932 18.8384 31.8669175433
26.0938 27.1108 14.9405 33.5776410338
22.585 30.755 15.7413 34.6149705843
20.1961 29.3356 18.7811 26.7732790405
27.1584 23.2025 16.504 31.8623928793
22.0993 28.4768 13.7565 27.9962184868
20.0486 17.4888 12.786 29.4933166459
22.0738 23.9148 13.82 28.297075452
22.6495 18.4615 16.1173 34.7479962702
25.4002 29.3457 17.8624 27.3456624624
21.5066 26.6946 18.1285 33.6224377858
24.3618 20.6282 17.2729 32.1020134614
29.1575 20.2626 14.0634 32.3411720968
28.6102 19.593 18.1959 30.0426885708
26.592 17.3376 17.9775 30.2884453745
23.5417 23.177 18.3368 33.6159162577
25.7863 24.9092 18.6362 25.9090684013
27.1602 31.2216 12.665 30.4669822086
27.7528 19.788 21.1201 29.8256267894
25.4878 24.25 14.5052 30.8709325817
20.3562 23.8452 18.5323 32.3116406052
24.2062 32.0605 13.0505 29.5313768114
20.2923 22.7691 15.8643 32.4604261932
27.7827 28.9842 19.0912 25.965924527
28.2794 26.311 18.3846 30.2753121752
23.7192 22.7365 21.1228 26.2942954043
24.8756 26.5321 20.9281 31.0964651717
24.7453 20.1504 21.1549 30.7582335964
27.2472 30.8048 21.0848 30.0719516604
21.1867 18.3851 24.4772 83.9124291303
28.2532 19.5624 23.9669 50.0238011848
28.4397 16.8537 21.3902 34.1650592116
23.9976 19.3592 23.9726 41.9672757736
21.0542 23.0042 23.8474 56.5817962114
21.7569 29.9728 21.4336 26.0697767599
25.7298 23.4482 23.9183 49.1179903548
23.321 22.0435 24.3832 91.3162598477
25.9857 32.1167 24.5719 98.7519782856
29.4237 28.6155 21.4429 30.5403289799
22.1239 25.782 24.1101 66.691659596
29.1962 25.7336 21.5782 28.5129488538
24.9436 26.244 24.2075 76.7229390522
24.7745 29.3123 24.129 60.4281915719
24.1686 32.4735 22.1607 28.1704005184
20.1245 27.8706 24.4238 84.4213248407
27.5727 27.4098 23.7878 49.5630496036
21.9336 30.0088 24.2826 65.307725011
28.0388 30.2254 23.9173 49.8374017873
28.3965 22.5715 24.3032 91.7631837915
26.3159 17.6737 24.7541 113.804329545
20.1178 32.127 24.4241 68.2184013402
20.3534 27.5744 21.7203 29.025235895
29.1379 22.2315 21.5471 32.9934958355
26.555 23.9449 21.4709 29.6668242531
20.726 22.2329 21.3295 30.1246903216
21.6283 19.4669 21.6874 31.6328393209
19.8292 32.0613 21.7224 26.3182305161
22.2708 25.3381 21.3378 29.0124299843
23.0771 16.5786 21.5251 29.8575588219
28.1405 31.2462 36.1183 79.0466611361
27.5109 28.5162 36.5639 35.0798507316
28.2988 19.3979 35.9888 59.511807598
21.4428 30.7932 38.3308 31.7684158833
21.8093 32.1975 35.6739 72.847859435
27.4915 31.3055 38.8549 30.6939201134
20.7497 18.9178 36.0109 49.9847548305
24.5176 18.3985 35.7145 73.3410497347
21.3617 21.6213 35.5905 72.7257328743
25.4745 21.0474 38.3335 25.6443384578
23.8295 23.0048 35.693 60.246119658
27.0862 25.404 35.7269 83.7257610671
25.5943 21.0506 35.6523 70.5229165618
24.9864 28.7007 35.6707 75.5553634617
28.1037 22.5325 35.9365 66.9756111295
23.9559 25.8186 35.5724 79.6424345665
25.3287 26.0242 38.3376 26.8243632561
21.0734 25.7498 35.9858 59.0532540687
24.4188 31.2954 35.2493 112.48982023
27.1198 16.913 35.8571 55.1615377893
23.9812 18.3098 38.3149 26.6161538608
23.3866 22.7664 38.494 31.9248484678
20.2426 21.7162 38.2826 31.1594571153
22.0783 26.8371 38.566 31.0127796739
23.8641 29.0269 38.4304 29.7857816071
29.5244 26.7083 36.2468 53.4973011653
27.1816 23.8627 38.5003 26.5130757006
26.8118 16.9101 38.7168 27.3041598419
19.8341 22.757 43.3097 29.5595828988
26.9683 32.491 43.1564 27.3404209522
27.485 31.9746 47.2632 28.4997438765
27.9197 29.8451 43.387 28.74006218
22.1404 19.5524 41.53 30.8278343341
27.5692 19.7938 44.2489 29.3924473864
20.728 32.133 47.3015 27.740454043
26.8639 28.3162 39.4514 27.0614795611
20.173 20.198 43.5167 27.338453402
21.1428 19.0581 38.8056 26.5018354014
26.7061 19.1184 41.7728 28.606826734
24.4656 21.0582 41.5194 27.016982154
20.4605 26.3533 47.3747 28.7646183336
24.013 24.6596 40.4709 26.8642604296
22.4381 26.8515 41.5261 28.5069375967
21.6495 16.4411 42.9988 33.4542208993
29.3275 26.7294 40.0468 28.5292205101
25.4751 19.3464 46.7777 32.0886286148
24.445 30.1983 44.3426 27.2163937376
21.9671 20.2518 45.7466 27.5649202474
26.5573 23.4841 41.4085 31.89480524
23.7122 29.1859 41.409 28.8221521659
20.8818 31.1022 43.1659 31.68300676
26.147 27.9302 42.364 25.7189765041
27.9635 23.3569 46.0498 31.57409468
24.7622 31.9481 41.6667 28.812198148
24.3195 17.3331 41.1752 26.3471478522
27.9413 25.841 42.2621 29.6258968723
23.4851 24.3097 46.793 29.1758639754
24.2542 21.4235 44.4174 29.1791216133
29.2157 17.3015 40.2136 33.048206124
24.0059 18.1064 44.3307 28.0602184657
28.4625 22.2565 43.3932 35.379155929
28.174 29.6161 46.0211 25.8322270656
22.6824 23.4161 42.6274 31.5655595874
25.504 27.0189 44.7697 26.9636980465
23.3496 25.6383 44.3144 27.7096910173
28.1752 17.8913 46.7852 28.799442703
27.9427 25.9838 45.4918 27.0877062208
25.1713 28.8024 47.0453 29.2265509435
20.9591 26.7269 44.9288 29.9802232316
21.9545 29.4893 45.2279 29.1542020071
25.4568 22.4643 46.7626 29.1656934693
21.4125 22.4634 47.1694 30.146719194
27.9646 20.1811 39.1257 30.6489198199
22.4595 19.2148 51.9941 33.3034253795
20.2504 18.2052 53.6295 31.4133714252
29.3982 20.597 55.7523 26.387236431
28.8927 18.5296 49.3816 29.8853467582
24.5546 17.6909 51.0678 30.1005899349
20.7467 23.0387 50.6924 29.0676039221
22.2929 20.662 49.5477 27.2950681493
26.2742 29.2962 56.2126 28.8461102046
26.4983 19.4497 50.3943 30.1712818249
25.2967 21.9556 49.6818 29.0687008284
23.7477 25.0754 55.587 36.1255453912
23.7438 26.6322 48.3505 27.7632144069
27.2093 23.2239 50.9848 28.9989361684
25.8235 25.7817 49.7457 30.954054057
22.3653 29.846 47.8851 26.7705094576
27.4177 30.77 53.9809 29.7043945176
24.5008 31.6492 48.7908 28.474509659
27.6133 28.4063 52.2765 29.8321302903
25.1561 30.7093 51.7127 28.2205026021
19.7806 18.1591 48.0606 33.315089517
28.8244 29.0901 49.822 29.2275861978
27.5482 31.7276 50.2177 29.5400825743
29.1737 25.1397 49.8483 30.6352792405
23.4847 21.1351 53.6582 31.5983878091
24.2025 17.6419 56.2125 29.9775386546
27.8659 27.269 48.23 28.1878530019
22.0482 30.9479 51.4651 26.9550401501
27.4275 19.9062 53.1108 27.3224027245
20.9131 25.8906 50.2857 29.3676950137
23.468 23.0149 51.6175 31.5263536111
25.248 24.7929 52.8331 28.8317714628
26.5938 17.9388 54.4808 28.9110312928
26.1441 21.7004 54.9439 28.8699561426
24.4781 31.7267 55.0076 28.9004321864
22.6268 28.4148 50.5191 27.2200782492
21.5306 21.4298 55.6149 31.2596409395
21.6369 18.5843 56.0317 27.7234587283
27.9189 23.8147 53.82 28.8944647082
24.8477 27.4266 52.1552 27.2453781291
24.1653 28.1057 54.7337 32.013017492
22.2722 29.9878 54.2936 26.5232067381
20.7024 27.3189 52.9231 33.4321820609
29.3698 17.045 55.5644 25.9234519736
20.237 28.8789 56.0339 31.6897105059
22.7054 18.3937 47.8999 28.2562073651
20.5797 39.7832 11.3894 35.6081741117
22.2115 34.1192 6.89616 27.4510858867
28.4941 46.7034 5.4563 27.3730087876
25.1964 45.3918 7.52586 29.4884380286
20.7783 37.1724 10.1253 33.4905699765
27.6214 44.1779 4.39443 31.1276098969
23.1652 37.7192 8.89484 25.8794622198
29.3762 32.8729 8.22649 32.4001614045
26.4474 36.7833 4.80039 31.4553240636
27.2896 42.0363 12.1831 31.5952366155
22.0229 43.2971 6.19614 29.9498700377
23.1683 33.7233 9.54518 27.9765323576
24.1271 46.2086 5.07891 27.9612113964
27.5289 43.8474 7.33207 29.1820693353
26.5635 41.2231 7.87692 27.8580153387
28.9359 38.6851 4.25968 25.6640838867
21.7211 46.0546 6.26565 25.9307498528
27.8598 43.8185 10.2627 29.1876409424
28.8485 37.2514 7.93889 33.9447532891
25.8989 47.4231 9.54263 29.7358867384
26.4063 48.6029 5.59745 29.4721894438
23.7369 42.8762 8.4989 31.6142250797
23.8802 36.7063 6.35259 30.8127716217
21.8385 34.809 11.8107 27.8763719656
24.4617 33.0417 5.20314 30.709398165
26.7846 34.3197 11.2326 28.3755469335
25.0741 35.7028 9.58855 27.9806303911
27.2374 39.9963 10.2735 32.3809832621
24.6499 39.1973 10.8331 29.5403562891
20.0509 48.8578 8.0637 29.8390539033
22.5481 43.5109 10.802 30.0408356811
20.4888 35.8895 5.6194 28.0159375106
23.5143 40.0516 7.53176 28.786418648
22.9561 40.8983 12.1936 31.7261063437
25.6229 40.3794 5.29588 32.8119302598
19.7363 44.1714 10.4155 31.8407522731
29.2645 34.7712 12.3464 26.5687835122
22.3736 46.1321 9.22243 29.9954391183
21.4006 39.7464 6.08294 30.1035698601
26.6403 45.758 11.4416 29.6940793493
27.2988 34.7874 7.70835 31.5769507005
27.0333 34.1141 4.85763 32.0333810606
28.9963 37.5255 10.7547 31.6207454734
23.6341 48.5671 10.3207 29.2442073081
28.9236 40.0112 6.85151 30.7063399511
19.8015 37.6114 7.40311 28.1188696879
19.5947 41.8463 5.93335 29.2655632248
24.4802 36.7091 12.2982 27.1548684802
24.1105 42.4534 4.45559 29.3891431392
24.0235 37.122 15.6736 30.154170698
24.9671 34.3657 20.0607 33.3954632153
19.8896 33.9595 17.9821 30.0731149083
28.5022 47.1215 13.1113 29.8546605585
22.6465 47.5526 12.7354 30.97491954
27.4966 46.1022 19.4103 26.0122681612
25.6984 34.6754 14.0549 31.427388006
26.5943 48.803 14.1872 31.9426472468
27.1558 33.8911 16.4548 29.9306453619
21.7899 36.6726 14.0386 29.946716632
19.8826 40.334 16.3391 28.8920084357
19.7181 43.4878 14.6079 30.742743381
19.8281 37.0949 16.9783 28.1395588298
25.5866 39.0721 14.7543 32.5370453125
23.8496 48.2652 15.0584 32.8848397639
22.35 44.0586 14.7362 29.4690788413
28.1914 39.5383 15.9331 31.5040336157
24.1132 41.6951 14.393 27.9123109522
27.6361 42.0755 17.4101 32.5433413853
24.9153 45.3198 18.1524 27.8617953599
19.8623 34.7075 15.2613 32.1317264951
23.7153 47.5006 19.5152 28.5261706986
29.4646 45.8249 17.2647 31.6084228602
22.35 46.5653 16.9268 30.8998297931
25.3895 45.3578 15.4954 31.7944009256
22.2795 43.3236 21.1171 26.6086904041
29.3678 44.6819 14.579 27.6557722818
26.7298 43.0574 14.7889 28.2330803276
21.9235 33.3155 19.9967 31.0853787559
20.2561 36.4196 19.8789 33.856824779
27.4703 37.3753 13.2214 29.9714052501
25.0117 40.6154 20.7145 29.0782468322
22.8098 39.0431 20.1471 31.3566968599
22.2909 38.7214 17.395 31.5758933606
22.8781 41.5378 16.913 30.2532366255
27.794 37.2719 18.6729 29.3688714988
27.1929 43.2478 20.4665 29.5352999546
25.4333 35.882 17.7806 36.575232085
20.0235 47.5383 13.2902 30.6703952377
27.1827 39.8413 19.384 32.289125563
21.1649 45.1362 19.3019 28.5441845919
24.0761 42.6857 19.0092 27.85122895
19.8364 38.6114 13.769 30.5637184589
29.3187 32.9025 18.9585 33.0654798716
28.7251 32.8982 14.1982 23.6547767523
20.2887 43.1146 17.5399 28.0563003585
27.2875 48.8746 18.7558 33.6266071295
22.8468 36.3244 20.8841 31.3184397885
29.4232 40.3072 21.2788 32.0775002592
28.4179 36.6531 21.2414 31.4260993632
24.0311 45.1008 12.6209 28.6337766739
28.7336 46.5504 23.8444 47.3021986546
22.7193 33.6287 24.1063 67.1569661448
22.7086 36.2142 23.6023 31.4263859744
27.6546 36.9155 23.801 47.7147369444
27.9411 34.1233 24.2762 65.8076615772
21.2221 40.7659 21.5576 31.1746543283
20.5994 37.1598 24.6888 112.7907231134
22.1726 46.624 21.8578 26.2890383992
23.1852 46.7074 24.4225 79.2354123292
25.1246 37.426 24.2252 98.6857093859
19.7553 44.9628 23.5275 33.583090249
24.7526 40.1477 23.8889 46.6899479389
22.231 40.944 24.0735 68.375618133
22.3973 43.8982 24.0656 64.1109912029
28.9833 39.6056 23.9547 48.4418878412
26.2828 42.5355 24.635 108.5532319894
25.3085 46.2931 21.3638 27.1030545093
25.205 43.0719 22.3457 24.8756466712
26.1025 45.6909 24.0673 63.6176029284
28.4699 49.1333 21.5007 29.9541945747
29.298 42.4931 24.5361 92.548605557
27.5197 34.0099 21.1582 31.5278818136
21.2813 39.2506 36.7663 34.7636713621
29.1954 35.4049 38.1991 31.9794600052
26.1623 33.3278 36.1146 49.7593511376
22.5502 41.86 36.0561 80.1545675386
27.1081 35.732 35.8623 84.7072757409
25.3787 37.5701 36.4755 40.7555238731
22.7162 37.0782 35.8949 104.5537158215
20.9776 34.8521 36.1337 53.5048032211
27.2278 39.7604 36.0044 84.0867748581
20.9424 44.174 38.2731 29.4871229864
26.9643 40.0436 38.7812 27.311038762
20.7027 48.7959 36.1755 46.3541531336
25.3505 42.2557 36.0884 68.3964268373
29.5038 38.2368 38.4545 31.0993877439
23.1896 46.693 35.8675 46.7460656373
25.4214 44.9766 35.8244 81.2738054767
21.5388 44.6049 35.5892 88.1154560508
28.1623 46.3481 36.0537 62.7202846076
22.0541 33.4366 38.8406 34.8972814209
25.5925 45.1414 38.7247 31.9782055168
20.6247 36.7829 42.0351 28.6486415483
20.6073 34.1643 41.278 28.3206103107
22.9642 33.7035 42.9063 26.7897088017
22.0753 33.8578 45.5382 29.2376163921
28.3093 37.0986 42.2792 28.2033734812
27.3799 41.8876 43.6383 32.4369700568
24.1414 39.476 42.5676 26.4782365321
22.909 46.1439 46.3518 28.6695537856
24.5231 35.9226 42.7469 28.8162249568
29.5689 36.5844 46.4215 25.917626154
21.9896 42.8152 41.7873 29.8666649362
27.013 39.4299 41.6815 29.1865604121
22.8962 37.8893 40.6651 31.2806112979
24.9864 42.2781 41.7958 31.254682785
25.7903 44.7893 43.112 33.3152524294
29.2374 47.4275 46.8904 29.6569710178
28.1499 39.6855 46.5094 27.6678185934
21.6947 40.6996 43.3015 30.2296278553
26.2885 35.349 40.6334 28.4278647708
20.1528 40.0441 46.5972 29.4946635596
25.289 48.1729 46.1034 29.0989074796
27.8137 46.6321 41.9832 32.9212557506
25.3638 37.7549 39.1693 32.1973930873
26.7186 44.0221 46.1797 28.6918948403
22.075 38.0304 46.4057 28.8006433454
20.7994 48.5766 38.9692 26.6548394959
25.0873 33.159 39.028 33.2263160088
29.019 45.6074 44.8958 32.688807066
26.7289 35.3551 44.5536 29.4483807613
20.4202 36.3684 44.9613 30.2768489526
24.3623 38.0143 44.969 29.7007480004
28.424 45.8369 38.9664 33.4826312541
24.2138 42.2949 46.9178 27.4023069107
26.4127 48.8258 41.5941 31.295813622
25.6334 40.3985 45.5246 26.9796886388
26.9724 35.7827 47.4483 26.8698272972
21.071 39.5025 39.4822 28.804598189
25.218 32.7964 45.5108 27.3147865091
23.8395 46.4024 43.6316 28.7001075858
21.339 45.6372 42.763 31.2872494219
23.7941 48.6592 39.393 29.8224456177
21.8406 42.241 45.7944 27.7909056912
20.9587 44.6646 45.1662 27.1047289028
28.6054 34.073 41.5382 28.9600896216
23.6895 48.6944 42.1819 26.7010854743
25.3849 42.377 38.8825 29.5262559923
23.2287 46.0835 38.8032 31.0507980551
22.4569 41.8832 39.0481 28.2595076362
22.074 36.0027 48.473 29.6191547661
24.1796 40.3048 49.1052 30.7235807975
23.1523 33.3875 50.7425 27.9370071627
28.8327 34.1609 48.9141 28.2596504848
21.8172 48.1188 48.2755 28.012841674
29.5588 43.9135 52.4743 32.6092657178
22.1361 37.0725 51.1646 34.3841992706
21.3009 45.5037 53.4226 30.7491685329
26.0826 38.1586 50.5956 27.4382241544
25.6008 46.1839 52.2831 27.3698636291
27.9667 39.8666 51.1429 27.5853823133
23.1582 45.2494 50.5515 28.3509851099
23.2299 41.2525 51.9922 30.6821613998
28.2429 44.4369 49.717 30.306467732
25.0514 43.2794 51.9894 29.2706574793
20.4593 42.9804 54.8333 29.6095618138
20.4312 35.0868 52.0801 30.9754551791
26.4783 41.663 49.9078 26.6476215283
21.2495 39.2627 55.7391 32.1351401742
20.6469 45.398 49.0526 26.8151750071
27.1473 41.8021 53.66 31.2138746067
24.6607 33.5174 52.9339 27.4062269274
26.4854 48.59 55.1871 35.8419538155
25.4895 37.2519 54.6468 30.1262289041
28.3812 46.4936 52.9651 29.8053321258
24.2044 44.7582 48.2889 27.9462664842
22.5265 34.7901 54.0756 31.2321066162
26.9069 35.1527 53.4495 31.02601724
22.6423 48.1211 51.06 31.2585684841
20.4803 42.9055 48.3764 26.3842596698
29.2094 47.4131 55.4258 27.4854974647
24.2342 34.5065 47.9103 30.8315047397
24.1067 38.4541 52.375 31.2402892394
27.3308 35.6729 50.8295 30.2335281778
22.5751 41.2805 54.8631 31.3890502257
24.2482 46.7446 54.4998 26.8700473821
29.1197 33.4953 54.0142 28.3733345884
27.1362 39.6817 55.2948 28.4493741912
20.8587 41.2516 50.28 29.0618887187
25.8346 48.9075 51.2013 29.8103808741
20.4292 38.8417 49.3494 30.0787699502
21.0267 32.438 54.9778 30.3925850634
25.4244 44.2098 55.3511 29.984383754
25.9716 38.3226 47.8279 27.9416615282
20.0856 33.8386 49.4291 26.7086570154
22.8 36.8728 56.1408 32.3112018781
29.4027 43.116 55.1808 27.1726930736
21.4884 48.7144 53.3794 23.9562857981
20.8712 46.6616 56.1478 28.0435516959
26.7841 46.3773 48.1789 30.8465030373
27.9306 42.0669 47.6081 25.9992527018
33.9904 4.84711 7.80456 28.5718197179
36.3408 3.88056 6.53362 27.6772266302
38.3139 1.01729 6.63508 27.6892901353
38.4187 14.2144 10.8439 34.8857256072
38.8978 9.60612 9.45853 29.2444229417
31.1226 13.296 4.85277 28.6946602008
38.5833 7.32298 5.80196 27.4878782085
37.15 8.76659 7.51241 27.7260135257
29.887 6.16281 7.34464 31.6489639235
33.2772 15.059 4.82328 30.907644925
32.6912 9.10189 6.1136 29.8803371489
31.3886 11.3144 6.76159 25.7792734846
34.7443 5.72642 12.4256 29.3207633103
35.7132 12.3985 7.39783 31.589002571
35.2488 10.01 5.896 31.5670653343
32.2688 3.72473 5.83784 31.1013044035
35.9001 15.0932 6.26252 32.5991393818
33.0993 13.5397 7.67639 29.2619269623
36.6089 11.7538 10.1149 32.403147028
31.3247 3.80695 10.9578 37.0424589213
31.7802 12.0694 10.1077 30.8810174053
34.0491 3.83767 10.3088 31.6287276931
38.5516 12.0207 6.57499 31.0119335495
38.8195 2.75797 10.6386 30.2450330689
36.6513 5.80429 4.39417 31.6783653758
38.5709 10.5952 4.24902 29.3940987876
31.7063 1.0883 5.50473 34.0197574055
37.5557 4.5771 9.16124 26.9864919166
33.3334 7.93827 11.3687 30.5797989399
35.4593 7.1623 8.99016 30.5395932432
32.3653 7.22459 8.0815 28.907031594
36.9612 6.53153 11.16 28.641797707
37.7789 0.855201 9.0747 28.0375062503
31.0027 9.32138 9.57612 29.4176467725
29.7329 9.62972 4.49694 32.3292234496
37.0443 9.47265 11.8953 31.2944474905
34.9458 1.32349 9.14704 31.8660000734
34.3739 12.479 11.4787 29.7112902914
29.5409 13.2367 11.3863 26.4900492609
30.8114 6.33378 12.4456 31.8772066448
38.7745 14.34 5.1796 29.3391860882
35.4832 1.45745 5.87661 31.7018716705
33.4872 15.203 10.8547 26.7122093861
31.8145 16.2121 8.54556 27.0268377707
38.0686 2.98324 3.7794 27.3345768842
30.6022 2.13152 13.1021 30.279174148
38.7178 3.68515 13.393 30.3303747477
33.308 15.0873 13.5236 26.9198582208
36.9517 3.38115 21.3848 31.1886701336
38.132 6.52996 17.0757 32.5190442637
34.5303 7.38459 18.9337 30.258415455
30.6018 14.9271 13.6541 27.4082282175
32.88 1.27166 14.3471 31.3126677461
31.6207 7.87378 15.3917 27.9508127664
31.4251 8.6804 17.9195 30.4984239064
32.6143 5.40703 14.6267 34.7937385707
34.743 13.0303 14.2792 28.6936309427
36.0146 4.00202 14.2367 30.8307258396
36.2542 4.28064 16.8054 32.3646014662
31.0069 12.115 14.3628 28.8954859302
33.0078 12.2706 16.5515 26.0992924827
35.6823 5.97515 21.2631 28.2846817267
33.7537 9.72386 15.9562 27.5989471462
37.1075 10.604 18.0007 31.0231125999
38.2054 12.0417 16.0411 33.8680678465
33.7312 5.1052 17.1372 30.181487132
35.3579 12.59 18.5715 26.9733253977
35.6044 1.27682 13.6232 31.91586676
38.044 6.91746 19.8154 29.6201946535
36.3143 15.1412 18.0233 31.6331615499
30.8264 11.4305 18.2609 26.4304384188
31.2253 9.62474 13.068 27.7569892645
32.9385 2.29287 17.2023 33.2427645555
36.8125 14.4073 15.0577 30.8496330702
30.9823 3.86848 18.8317 35.5699765106
32.8984 14.5002 18.6965 28.919583721
33.2604 11.337 20.1646 27.3183793076
35.8928 2.09595 18.6722 30.8926039482
33.3383 1.63544 19.875 25.9501494692
35.9776 8.60723 16.9228 32.6176046893
31.0564 15.7249 16.8359 32.2389521543
37.7199 9.61672 20.4127 28.2024399286
39.163 15.5752 13.1847 31.4885699629
38.9109 10.3174 13.7086 35.2144924463
32.5206 8.57269 20.8622 27.7688216716
39.0036 15.7771 18.6368 30.4348837008
39.0046 1.47379 20.1249 29.3269236751
34.4263 9.94861 13.2327 30.8271339765
31.3829 5.86229 20.8096 27.0405357651
31.7366 1.50804 23.9048 52.8155190131
29.9731 11.6306 23.6522 35.8425417691
38.3152 6.67008 24.2722 76.6432679927
34.9314 1.91562 24.0133 62.7100192332
30.4421 2.69327 21.5167 30.0802877248
32.2979 10.3669 24.6395 102.6274631881
33.1216 4.418 24.46 109.6919628282
35.4874 6.38465 23.8721 54.6291219078
37.1863 3.62726 24.1567 72.2230939513
34.1171 8.81878 23.2621 32.4303279062
38.6652 12.8192 21.8339 30.6222603959
36.2826 10.8684 24.5442 89.5681598334
38.6614 9.29419 24.1769 51.5446191597
32.5059 16.1357 24.2734 64.3179519873
31.051 5.60071 23.5759 37.1250626079
30.4362 14.4665 24.4667 88.5976175954
33.4759 13.0712 24.463 66.5521394216
36.3458 13.6 24.4189 63.6203127537
30.0468 8.27055 24.2417 68.5436152738
35.3105 16.226 24.1518 58.975391379
32.2944 15.9627 21.2701 29.9757359309
32.1435 13.3142 21.8146 29.5664460251
35.7159 10.7423 21.6554 26.2290660742
33.4472 3.97197 21.5219 27.705771185
35.8083 13.529 21.673 27.7821987914
31.5357 4.38159 38.3418 26.4340068583
35.2356 0.546232 35.3683 108.4889043709
34.517 2.98511 35.8522 50.8138622428
35.2844 14.9619 35.6076 82.5308870018
32.008 4.27402 35.5401 87.2522856718
33.1391 6.97313 35.6405 71.5906896869
32.8678 8.29704 38.4076 27.5250862946
36.957 4.19633 36.1228 50.7051146439
30.3827 12.3378 38.695 26.339514969
35.8321 6.70245 35.8082 73.76017056
29.5237 2.79033 36.5951 35.1967132412
36.3427 11.2358 35.9432 67.5437889818
31.405 9.35375 35.5605 87.8480489449
37.4858 13.4185 35.7155 57.11169321
33.7617 11.1022 36.4823 37.9394307575
37.7764 8.79589 35.9877 60.3142089465
33.1164 13.7949 36.0731 50.7713044447
39.1813 2.10471 35.715 88.0556542898
31.3097 15.8846 36.2612 49.6429436151
30.3964 6.90656 38.3172 27.6201431529
30.6253 12.048 35.8113 64.9400351836
35.5059 6.91884 38.4027 30.5601736298
29.6674 6.23319 35.626 86.8551027221
38.1849 14.1807 38.3293 29.2092081204
37.7618 8.41797 38.7429 26.750724838
34.0029 3.17248 38.5795 27.1214283435
32.7826 0.656486 38.9568 28.3194347707
32.2611 1.96792 44.683 29.8426163994
31.7387 5.07825 41.2102 26.7595728924
30.9166 0.729144 41.1533 29.2303008163
38.1666 6.10188 46.0635 30.4926295857
35.1931 4.81861 40.7725 26.5050533111
38.2093 11.5753 45.2154 28.3164360199
33.845 5.53313 43.5448 28.9093756222
32.9224 7.9374 41.2827 27.6360248841
36.9803 2.6789 43.2742 30.0608994021
37.6344 5.12889 41.8599 29.9248004099
38.6015 10.9875 42.0222 29.9685856925
37.734 7.89459 41.4975 30.496819791
37.7682 0.837044 39.0965 30.0182227821
35.2516 6.03534 46.1177 30.2727610175
30.0123 0.217636 44.9472 29.7890812606
32.8325 13.0092 42.753 27.7358767293
31.2308 8.80003 47.2728 29.3254184742
31.2336 10.6042 41.7629 27.2312444506
38.3432 14.8867 43.9464 29.0677893762
36.1643 3.11475 46.17 32.0374542313
35.685 14.105 43.899 27.9154491231
34.6796 15.8908 42.0183 26.6750862352
35.9682 11.2587 43.3315 25.7949545909
34.7255 12.1618 40.763 30.471622414
31.8554 15.0117 44.4874 29.6122868623
34.5476 0.403086 45.7742 32.9314450638
31.0538 4.58737 44.5837 29.0063844353
38.0041 13.6301 47.0032 27.8016380757
30.9151 15.3286 39.1356 27.155928902
31.8067 7.87698 44.0916 26.820255958
35.2308 8.27628 42.5038 30.3725538936
33.1746 10.353 44.1991 28.4191982674
32.8543 2.61069 42.1219 26.1803612871
35.9542 9.29295 45.8353 30.443728305
35.3084 13.3242 47.0727 27.1907051686
38.8046 8.78165 46.0138 28.8141533704
37.8711 0.315989 43.9584 28.5181860827
35.1584 1.34259 41.3755 29.0163999794
33.2306 11.303 46.8502 28.7924803964
30.1414 13.8403 41.6116 28.222845394
37.2051 3.61203 38.7864 26.9004065894
38.0545 16.0925 41.1283 29.8879250461
37.0677 11.039 39.0186 30.797919378
32.0401 6.19 46.7247 29.017057157
39.3183 0.653296 46.3172 31.9183919836
29.8972 13.7498 46.2308 30.4421954689
32.8186 11.0026 39.3093 27.1244297274
34.1654 14.7478 38.9351 32.881492471
31.6858 4.50624 49.036 28.4408521663
38.9548 2.55113 51.6438 26.0399188299
33.907 0.826496 48.5948 28.5577994217
33.0195 15.9141 51.9953 30.4894756174
38.1723 5.36167 48.7316 29.605112505
35.1417 5.13091 48.9459 27.3108994205
34.7544 9.49268 48.3103 32.7631378457
36.601 15.5343 53.8516 31.6858110602
32.3199 8.38978 52.1806 31.3754962756
34.9249 2.65942 50.1555 26.3971790699
39.0063 14.669 55.008 29.9160917981
33.4516 7.29583 49.4289 27.3369233862
34.0804 10.6734 52.1926 32.5085101633
32.6061 4.823 55.9976 31.9204695516
31.7845 11.6835 55.3925 29.3852769714
31.5446 1.89769 47.7011 32.2008131971
36.2183 9.86743 55.9454 33.3820429244
35.3394 7.35162 55.1394 31.2279747516
32.693 13.107 50.8303 29.3434434842
30.4746 7.61797 50.078 29.9554155314
31.1503 0.380775 55.2828 31.3255138597
36.3876 10.6133 50.6872 34.1508179741
33.7664 4.0801 53.4844 30.896919841
36.3837 3.48031 54.0665 27.4924140326
30.1974 2.26343 53.4848 33.8427074532
31.1699 12.2777 48.5541 28.5841687022
35.4519 13.1028 49.7559 28.226625018
38.2831 5.09029 53.1704 29.9064502263
37.5788 2.47274 48.6016 29.7258239169
36.502 1.42497 52.1979 27.1870331689
32.2647 2.89861 51.3975 29.9386785583
38.6539 8.76729 50.77 29.7290940315
30.8692 8.74948 54.5492 29.3531122387
34.414 6.49279 52.6328 28.9240979354
36.8683 6.52669 51.1947 31.1676949467
34.4639 11.7972 54.6268 35.9726923716
33.9015 15.6014 47.6853 27.8369244175
31.1871 13.1469 53.1781 27.0667234228
36.9065 15.0052 51.1135 28.8529007168
34.0377 14.5718 54.6624 31.3689524124
32.8646 0.0198535 51.895 29.9465406326
36.2859 0.468924 55.7375 27.3504523735
38.9954 13.128 51.3517 30.0238518209
29.9567 14.8467 49.3804 31.495440594
29.7175 4.72795 55.2296 33.7000023604
32.7283 7.44245 56.0757 31.895126675
32.9398 25.5518 9.60123 29.9467155096
34.9668 16.8863 8.05577 29.7602720095
35.1017 19.2472 6.48691 30.4257540781
38.2088 32.08 11.5566 27.645074722
37.7177 16.5738 9.18192 30.9379083893
36.4996 20.6416 8.36736 29.2955445931
30.9101 29.2234 4.97579 31.0590577256
31.3659 18.1034 6.45516 29.5844793716
32.1129 17.4563 3.89229 30.8841133136
37.0721 25.6794 5.93655 26.7885093975
32.9127 22.7563 9.93037 34.4185816961
30.8607 24.1159 4.15913 26.8009681483
36.2716 19.6612 3.93748 30.0874184674
35.589 23.0423 8.90003 30.5195272869
38.5293 19.3221 5.2308 27.1770121818
34.7654 24.1154 6.41785 27.5801297663
30.9118 21.2039 8.6328 33.0904285125
32.4239 25.546 5.80984 28.3999838586
30.2965 29.0354 7.99381 33.9344161684
35.3515 26.5271 8.6381 26.0299305985
37.5661 20.8628 11.6355 30.9014079415
32.5468 20.5394 6.45997 31.2548420262
34.3886 22.7843 4.33054 26.4928301207
29.5391 18.8612 9.21108 27.1744069188
38.8706 21.2621 6.78644 28.1745885437
34.582 29.5493 6.11031 31.631381321
35.5961 30.6472 10.1615 30.1734509882
33.6869 27.476 4.44478 25.5919097896
36.6575 28.5889 7.18303 29.8707664133
38.6002 23.3341 4.63186 29.0853809123
31.5864 17.7918 10.945 30.7047731089
35.3629 19.4168 10.8751 33.1848589686
35.6606 16.5631 11.3547 28.8171568088
33.5112 29.0211 8.64239 32.7889820429
39.1536 22.5061 9.7861 26.109601369
36.9484 25.9797 12.1669 31.3169894787
38.0017 24.952 9.57082 29.3133706898
32.4357 27.6248 11.4031 28.9323733
38.8011 30.6731 7.71969 30.2495347782
30.8123 26.3012 8.09301 29.541890221
38.7085 29.472 4.20346 34.8384980863
31.5018 30.7063 11.8315 28.0133160368
36.7278 28.181 10.6159 26.1425841675
38.339 16.8542 6.46018 29.3133293854
34.2913 30.9539 12.339 27.9861981779
29.7504 26.727 3.80348 28.1851566098
38.8505 19.1414 13.2031 29.0418038286
33.0613 17.6496 14.7963 28.4505146641
35.4676 31.2285 18.1868 32.2307969965
34.297 17.5874 18.3612 27.6824596625
35.1733 18.7031 15.8739 29.4378729914
37.7458 31.6753 16.482 37.8153142974
39.0419 21.5453 18.9123 27.0863228326
33.2908 21.35 16.1745 27.5622934081
36.4112 26.9892 17.5104 29.5292708527
34.3894 23.2262 14.1944 33.7688684367
37.1034 23.2034 13.3556 30.8708814265
31.1031 19.859 15.8943 26.7632140588
34.7406 25.526 15.5384 27.5452498989
29.8934 24.1428 15.6111 28.5585541406
38.3288 19.4778 15.8936 29.2979456171
36.3664 24.4178 19.1051 32.7911775827
30.82 31.3366 14.3072 26.9917573203
37.3872 24.0812 16.1848 30.376761331
39.0422 28.1175 13.1895 30.3868558178
30.3783 21.8479 17.7402 30.020018601
30.9586 25.4578 19.2971 26.8906857173
35.3395 16.4022 20.7389 29.580518676
36.8022 17.0949 14.0511 29.0378905269
37.9877 29.0561 15.6289 31.0206298082
32.3265 28.2076 17.9686 32.8484557727
31.4686 22.7835 20.104 26.6315808644
31.3965 18.0388 18.188 28.2059801413
35.2719 29.2416 14.4235 29.0521159874
34.4181 20.1802 18.8104 27.1325648811
29.7166 22.8391 13.2071 32.5612246552
30.5229 29.217 15.9451 32.3415436311
33.6379 23.4679 18.1649 28.3314737399
36.8137 21.1806 17.3493 29.9504661111
33.8671 30.5644 16.0836 30.0895207832
34.8868 28.6392 19.0224 29.3704864937
32.2476 25.5688 16.5869 30.0341443526
34.5017 27.1643 12.9481 30.7614109531
30.0943 26.4152 12.6139 34.6173148732
33.1604 19.2822 12.6794 29.5223509556
32.3927 21.9874 12.6401 32.137987777
30.9407 18.5358 21.01 26.1538117913
32.2115 28.9755 21.0862 28.0751660975
37.1475 22.3574 21.3074 27.7049798004
33.8651 32.4705 24.1485 65.4755264632
29.7284 25.3114 24.5153 111.6651315285
32.8045 20.2707 21.3282 28.0173657546
35.5867 19.1288 24.3808 82.3783190139
32.9116 26.077 21.4529 30.3820688752
34.3022 23.2416 21.5057 27.3745632256
31.0483 18.6593 24.0364 62.7010075033
38.086 30.652 24.2286 56.6397952462
33.0379 20.3824 24.2602 78.1029616529
38.4312 21.4196 24.1767 73.3984220076
32.262 25.7503 23.9856 59.8550551451
33.8182 23.163 24.1799 78.6017020022
32.7174 28.6553 24.0159 60.0246503673
32.2223 31.7441 21.7969 33.6050509361
38.124 27.6316 24.1486 70.2406665813
36.6585 24.0491 24.172 84.1902269655
30.9185 30.9959 24.4831 91.1195679227
35.3339 28.7334 21.7831 29.7070874114
35.8613 19.978 21.5148 27.4088800085
34.8951 30.0449 24.3088 84.2279745934
38.4334 18.495 24.2169 71.6613512852
37.5081 30.8256 21.6301 34.5341057052
36.8708 26.0236 22.1189 32.1314230517
37.8541 18.1439 21.3262 27.3398756075
36.2296 16.5724 38.7191 27.3797664028
31.0395 18.6769 35.9636 82.7606079292
36.1939 32.4177 35.9624 73.1631134845
32.8005 24.1264 35.5614 107.3561516712
35.8106 17.6741 36.0638 48.069034262
39.3734 19.6119 36.139 42.6703967932
30.8566 21.8372 36.3649 46.8542770222
32.8307 30.2233 36.0555 71.7471646519
30.8546 32.1801 36.5627 38.3519469737
34.716 21.9931 35.7673 75.3356096831
33.7804 19.5399 36.0987 57.8498550499
38.9976 31.2915 37.4555 27.2456590758
38.2465 17.0413 35.2275 113.5449018066
34.5026 26.4328 36.1099 54.0565771779
31.9549 27.7828 35.9376 80.1136591151
37.4985 22.0349 35.8826 67.1743375501
37.2111 27.1632 35.7163 76.2097778839
39.162 27.79 38.1991 27.4950701189
29.7697 24.9367 38.1898 25.3177297084
35.3077 22.0756 38.4497 29.1509303011
35.4311 29.6463 36.1726 52.8279160391
38.8217 24.5433 35.4573 98.751242194
39.0951 24.6952 38.4961 28.2587622498
38.2601 22.0449 38.7093 31.8083028051
32.8086 24.4121 38.6421 28.6448164901
32.4429 17.506 40.6127 33.9361904526
33.658 30.1114 45.7843 29.2436189115
36.4882 17.8683 42.7543 26.6756067503
32.8864 21.4579 40.3408 31.8476918572
30.0729 22.0337 39.1086 31.1248408272
34.689 22.5582 43.9307 26.66688954
38.5962 30.5946 40.7157 30.2041968084
35.096 16.9335 45.6855 27.7687834281
33.868 31.6013 40.3427 31.4666176844
31.1239 26.5946 42.6602 28.6011748703
31.4831 24.2473 46.1815 31.6984363501
37.2907 21.2382 42.5158 30.2427534203
30.6159 29.5637 42.4703 28.2671759073
33.7877 27.2176 42.4969 29.8860100133
34.3218 19.1737 39.0283 28.5772524766
35.1348 23.9714 40.7558 28.1453176469
32.0371 31.2481 43.5904 25.9910063179
38.7149 24.0481 45.4054 29.8159433197
31.1693 16.6616 47.4241 28.8868457668
29.7943 29.6576 39.9425 30.1185113509
34.494 31.8983 47.4815 27.9092202843
30.1501 32.0755 45.7076 30.2179671772
30.4864 26.6301 45.2514 28.8034595732
35.3461 25.084 43.2424 28.1173067636
30.9823 28.9776 46.202 27.8075080922
32.501 20.0767 44.9756 28.6675581646
36.844 31.7627 42.7129 32.824046936
35.1344 28.0044 45.2226 32.3036848556
38.0937 25.6078 43.1078 28.0079897526
37.9534 31.9516 45.2579 30.0025120989
35.1775 19.6687 45.6414 27.3947007818
36.8707 26.1118 39.9116 29.5697465368
31.6385 22.5873 43.9822 31.8835937467
31.3621 23.7173 41.1572 30.2191613015
36.9096 19.42 40.1677 27.6879885127
34.4629 30.005 42.6048 30.3012351083
34.3084 19.8391 42.4584 26.152869458
36.1225 23.2827 46.0547 28.802809412
37.8306 29.1765 45.5969 33.3221036151
34.0075 27.0261 39.3768 29.0706499946
32.8851 17.4548 43.5381 25.0264823771
38.1383 19.7763 44.7782 28.3647687983
38.7872 23.3763 41.6423 26.5148632317
37.6669 16.4971 47.3954 31.0854049614
36.4393 28.9165 38.783 28.7365258074
38.9476 27.9074 41.5443 31.9303430276
29.93 18.3422 44.5745 32.5640091891
35.2856 26.0244 47.4161 32.2324097134
36.3141 32.1718 38.9617 30.6864984928
32.7455 29.503 39.0262 30.742979844
34.4625 19.4265 49.7562 33.0281584548
33.1132 20.5347 52.2041 34.0882503982
30.8296 25.2352 51.7598 29.2144888708
38.6005 26.0779 54.0824 29.1483959592
30.6543 23.3016 53.7442 27.4998916561
31.4342 29.3761 48.9295 30.2769039738
31.5593 31.047 55.4237 33.9290538718
29.7866 23.2765 48.0536 29.9949126252
39.3044 27.0235 49.3601 28.705624775
36.0356 21.2811 48.3004 30.2220275541
38.0071 17.7503 50.442 30.233524083
38.5385 29.5349 48.2251 31.5447580459
34.8874 16.7951 49.863 28.0732177934
36.8367 25.3776 49.6369 29.3722660527
30.2509 29.9791 53.4833 24.9695883514
37.0459 29.4492 52.3171 27.1673370562
38.6036 19.7039 47.7914 31.2292960683
36.5902 22.1032 55.5013 29.7208378113
32.0904 29.9179 51.58 28.4991107554
30.4817 20.8302 49.1281 34.089090748
34.6835 31.2877 51.3548 26.8315618032
36.3981 31.239 49.3068 27.7551856101
32.0173 21.0961 56.3625 30.9228855776
30.0561 21.1919 51.8022 28.9555500777
38.7175 31.2197 51.2925 27.5545984642
36.1997 18.0156 54.2909 32.0765809842
37.2403 22.3071 52.855 27.159149207
34.4355 22.9407 52.7417 31.1566491601
33.4033 25.1238 50.6679 30.2021332905
33.4815 18.2032 53.8014 29.5336742766
37.611 22.851 50.1215 31.5099966935
32.6828 27.3133 54.4503 29.03875008
37.8933 19.4963 52.5438 33.5893138542
33.5981 23.8523 48.0075 35.0309076067
33.5282 24.5635 54.9816 27.0387226523
34.5042 27.9349 52.2979 26.8512002557
33.8371 27.5772 49.4503 35.6567220388
36.2402 25.6965 52.3014 28.5927763405
36.4052 28.966 54.9154 27.9996743625
30.4156 18.8546 53.5052 26.0876396166
32.3408 32.3476 49.2536 27.9306670637
36.0519 26.2787 56.0276 28.3218059799
29.7663 27.1306 53.5224 28.486165761
30.2146 16.8254 51.5516 31.0776081188
30.0892 32.409 51.5399 32.0453312006
34.7215 30.9632 55.656 31.4681583013
32.4476 19.2517 47.7198 31.1610841526
39.4818 31.9643 55.894 29.576876373
30.9879 36.4987 6.08659 30.107111072
31.4621 33.7479 6.20681 36.3651594011
35.0805 44.6997 10.2098 30.2616793328
36.7261 42.2443 4.05436 34.3275812945
34.4309 35.7166 8.80944 30.9365488307
36.9871 32.728 8.19866 29.6174274206
37.0149 36.5256 9.59699 30.5191424923
33.1854 37.5739 6.91968 29.4207704306
32.5504 39.0499 9.08067 30.874787716
36.7615 37.3007 6.31327 31.556579307
38.4619 47.6253 5.23525 31.5095953954
35.0527 39.2536 5.67484 29.3486844736
34.7209 40.576 9.59739 35.4887463434
37.5152 39.3717 9.57092 28.3379581631
31.8209 44.8947 5.91253 30.3361837819
31.1182 41.3065 7.93294 33.3719881369
32.5346 42.2618 5.92175 35.1860326765
35.2807 41.8641 6.70896 31.2728464921
36.0503 44.6714 7.6526 32.9258072052
34.5933 48.6606 11.6595 32.1118307443
34.001 46.4364 6.45962 33.2465168728
33.0071 35.116 11.0638 31.1018584921
38.595 34.2337 10.0928 28.6493240972
38.7495 47.7115 10.1409 28.1483931169
31.5462 47.8421 9.65431 31.619045223
31.7394 37.5658 11.1382 31.171776004
38.5759 43.786 10.5089 30.9131705889
30.0664 45.5091 7.94592 29.419313675
32.4357 45.357 10.7475 28.9521412453
29.9601 48.9482 11.8364 27.2624407867
29.7127 32.942 4.13402 28.0775174218
37.8814 36.076 4.23326 27.146792125
35.504 36.5323 11.9913 30.0924524154
30.7047 43.5753 9.92014 31.4974499683
33.2666 48.7196 7.5184 30.0460318168
35.1996 42.5083 11.8146 31.2888480986
30.7152 33.1346 10.6072 35.1774860607
37.8071 33.4429 5.48322 32.8548266249
37.9453 39.7362 12.3573 29.1557341392
34.2719 33.2162 7.19675 35.536444008
35.7404 46.8681 4.26914 31.3028912736
38.4439 45.6038 8.43023 27.7697073948
35.0775 33.3538 4.50246 32.2386353469
38.7724 41.6502 8.46781 33.2582173581
36.5906 46.6691 11.4474 30.6453890553
39.4487 38.6262 6.49967 31.7232357447
39.1837 43.5281 4.79678 31.7398772426
29.6915 48.556 7.32332 31.5980510088
30.6115 41.0328 3.89292 32.6148911011
34.0279 43.0972 21.1218 27.3969740967
33.6013 36.2366 15.0603 29.8816024627
37.734 35.3584 13.5692 31.0830952263
29.9535 36.8122 14.3831 29.1328593028
37.2778 48.798 14.9871 29.6557735506
36.6179 43.7926 15.1559 29.0004936287
37.1308 48.8079 17.6949 29.3588165519
38.0909 42.3228 13.2262 30.6629260382
36.6768 36.3143 15.9151 31.2216330079
34.6044 36.2885 17.97 34.7605529573
38.7309 45.7546 19.6979 29.5455914323
32.3336 40.4603 17.1876 29.539883673
38.3373 34.7293 19.7437 33.2220010371
30.0839 42.2995 12.698 34.8906643694
37.695 37.0863 19.0993 30.0278316573
32.1916 44.6225 13.4111 28.3249125151
33.5634 41.7888 13.9373 28.4026862815
33.9712 33.6249 13.4438 30.58897857
34.8285 41.3807 16.5305 27.476385571
32.3746 47.8413 18.3444 32.0270198816
32.8063 38.1835 13.7809 27.1288107983
32.0932 45.0193 18.7966 25.6653249264
31.0279 40.4817 14.7642 28.5326584101
35.1239 46.9225 17.7507 32.555524858
37.8693 46.358 14.0979 30.4001400171
32.1952 39.4571 20.7748 31.039046443
31.6907 33.7189 20.2315 29.7652099012
36.4463 39.2786 15.6619 28.755042131
32.5101 33.2468 15.9646 30.4650504217
33.2119 43.9604 16.1575 25.1594793696
36.764 32.6072 13.8349 31.5405182738
36.0627 33.1001 20.8987 32.5817397973
32.181 47.7586 13.2421 27.0012088188
35.0577 44.0109 18.5456 27.5540815204
32.3417 37.8338 18.4551 30.6765919488
33.7216 33.7387 18.7348 31.5075149206
31.7358 42.2247 19.5323 29.848927889
37.2148 40.3739 18.8418 30.7678064571
30.7423 48.0933 15.8696 29.9409133349
30.2823 42.9775 16.5906 27.0020062097
34.6343 46.0422 15.1302 31.7013523515
29.8896 37.5307 17.1997 28.7461154995
37.8216 43.1215 17.6407 26.6501638643
38.8929 40.9219 15.7061 26.7566500375
29.9348 34.5145 16.3602 28.7685636571
35.2722 39.1963 13.1924 26.9612813614
37.7887 43.2345 21.234 28.071002069
31.4448 36.2948 21.2062 33.7349691357
29.8317 45.9866 21.1562 27.6715453644
30.7674 33.917 24.7088 102.8080405711
32.2254 36.4159 23.8544 38.2307300636
35.9836 34.2645 23.317 36.9336751227
37.6034 38.5301 24.1818 70.7049364437
38.8132 43.151 23.9957 51.7940304159
33.6609 40.5593 24.3402 69.035173067
34.3488 38.9663 22.3436 31.6029816104
35.1239 36.9501 24.2855 86.7000384106
36.6343 41.2167 24.18 63.9864285049
31.5102 48.6224 21.1985 27.3475717637
32.1881 47.8776 24.3574 77.2877634959
33.0659 45.8921 21.6339 26.0749455974
33.8026 43.293 24.0008 50.2891577339
36.3023 44.7387 24.4902 89.3125853942
38.3097 47.9933 24.1503 73.2105243288
31.42 44.8116 24.1106 62.5685717892
34.666 48.8001 21.9577 27.9396701081
38.0643 38.6572 21.4326 32.8940100984
29.6667 43.2078 21.9663 28.6977499053
34.7622 47.2111 24.3436 72.8994948983
38.3068 33.4318 24.6844 118.8316231257
31.4654 38.8825 24.8739 120.8001891386
36.2451 41.1453 21.49 25.2016724184
35.9057 45.6695 21.4737 26.4705678293
37.3544 48.0288 21.3905 29.2512079285
31.8493 34.4722 35.5364 108.7979890467
38.3653 44.2067 38.5319 29.6380822999
33.6904 40.0114 36.4197 50.7223529086
39.2452 42.9836 36.0065 56.8615332172
30.5285 44.7901 35.9424 75.5005187325
34.725 35.0305 36.0719 60.156163023
35.6862 43.1951 38.4642 27.1738617388
30.1219 36.5026 35.6229 80.1152855819
30.9335 39.018 35.9279 72.392477998
36.9993 36.778 35.6931 101.9216866174
33.2583 46.1898 35.6636 94.8800342561
37.5722 48.9587 36.4193 33.3713732015
29.6047 49.0163 35.7741 91.332874258
29.6744 48.36 38.5998 27.0168939034
36.8188 39.551 35.8465 75.705360552
33.0313 42.4129 36.3201 52.0925807793
36.1391 42.3862 35.7506 90.5860485479
35.846 45.5049 36.6551 32.5210361157
38.6399 46.0769 35.6358 98.2951948576
32.6619 48.9494 36.0115 48.8889130079
34.2642 35.7557 38.6608 32.6979255536
34.0668 38.6904 38.7668 30.8565383287
38.957 33.4723 35.5914 93.212371891
29.9359 42.9987 38.5111 33.8268357426
32.0993 46.5982 38.3412 27.8551695693
29.9374 41.6215 36.0291 75.4810312356
32.7754 33.8442 43.0343 26.7902260758
38.1123 40.3939 44.572 28.637617304
31.2243 37.0078 40.9776 27.5075334968
36.2753 47.0551 38.9246 30.2384430321
38.6421 37.6416 43.7633 28.7101550416
32.8723 39.8401 43.1457 27.0783551289
39.3875 44.0191 43.6051 27.7835685523
37.0447 37.9718 40.7997 30.0571198241
31.9732 39.4351 40.1622 28.9034097993
35.2778 48.12 43.2705 29.9789213712
33.002 39.5906 45.8846 31.8807619619
32.5722 42.609 41.5328 31.261270148
36.62 35.0636 40.218 30.1511789617
35.5024 42.1405 41.1597 28.1001720339
35.6552 39.2539 42.8933 32.0177635251
34.4938 37.238 46.357 27.6374086958
37.8546 46.4422 42.9315 29.6960690489
30.5316 47.5004 42.7547 30.7556274902
31.6701 34.1495 47.2415 25.9766716231
32.5223 45.5874 42.1272 30.3741377877
32.3171 34.6299 40.2028 29.224482765
35.6757 34.4479 42.4622 30.2267721785
33.9177 47.2667 40.316 28.3278191559
29.6265 41.1359 40.5916 33.5029731597
33.3663 44.5907 47.3526 30.8627394764
38.6348 46.6869 40.2263 27.320534757
36.9343 34.1384 46.5915 25.7423731179
33.8711 45.6187 44.2879 31.9180518817
33.8541 34.3976 45.9037 28.0338117336
36.4076 36.254 44.3035 27.2968042268
30.3204 41.1491 43.7143 29.876831134
32.853 43.7663 38.8982 28.895723588
32.5249 36.8826 43.3535 30.1361617554
30.0531 34.6959 44.107 28.2471004203
38.2604 42.0251 42.099 27.1855069745
29.9312 38.176 44.3943 27.5314604123
36.3346 42.6047 45.1668 30.2358951539
35.866 44.0642 42.8855 28.7700684125
30.1241 32.8506 39.2626 28.6068484239
31.3697 43.8655 45.1211 33.1099229711
37.2698 45.0984 45.9657 27.4138180339
37.3774 37.5148 47.5205 29.9764720084
34.2316 42.0766 46.971 30.9384996651
30.9562 41.6113 47.1036 27.1396355772
39.1794 43.3015 47.5609 28.0293357497
36.5919 39.9163 38.9138 29.3045372828
34.2103 34.3224 50.5562 31.0020891138
35.5511 32.7718 53.3002 28.7405340634
33.4876 36.3801 48.7249 28.7811834406
36.5953 48.6125 47.7686 28.0511914509
38.8418 39.2775 51.0622 28.7113958865
33.6781 48.5803 54.6399 33.1565487141
33.7702 38.1301 56.0196 27.0166210107
35.3726 38.4182 49.4268 31.5879734682
36.8918 34.0192 49.2717 28.290396303
35.7833 37.5514 52.3027 32.3037242845
37.487 48.2291 50.7032 29.5164541737
31.2551 35.6025 53.7217 34.1887312024
37.6251 44.5694 49.6641 28.8649406609
38.1857 36.6028 50.1697 28.375157015
34.4245 39.4672 53.7004 31.0674863023
33.9664 41.9036 51.751 29.4415938837
35.2096 41.0875 49.5209 31.1225031784
36.4217 42.3064 53.3974 30.0367268499
36.326 45.8504 51.7865 29.1901496086
33.6097 44.735 51.7993 31.6552091429
37.747 41.5437 49.6983 28.2293505314
30.1801 39.8416 49.2616 31.371219806
30.9895 37.3226 48.517 29.5424912422
31.1294 43.8632 48.9109 29.9607816192
35.088 35.9153 55.881 29.3036128881
39.3917 40.2754 53.9534 28.4978619608
38.2457 45.9433 53.7279 30.9002253161
29.9918 36.5542 51.34 34.522255715
34.1418 35.1513 53.4369 31.1722699577
38.207 33.1262 53.3753 32.0827464848
38.4659 48.9827 54.166 25.0449632304
39.0813 43.0071 52.5997 26.7172160559
33.0859 46.9557 49.9121 30.1571861075
33.321 45.7339 54.3035 32.5864623052
31.3043 41.6785 51.2847 31.9086094443
31.6032 40.1214 53.9839 32.6629136298
35.8894 44.5501 54.9875 31.0731167614
31.1318 37.1803 56.0116 29.1162429976
38.1635 37.1892 54.2953 29.5344695047
30.4201 46.7959 49.4527 29.5654174679
30.2038 48.3725 51.9968 29.0790395512
31.168 45.2464 55.8993 31.2595711942
29.5375 38.627 53.4746 29.9395820317
36.8965 39.6946 55.1517 29.2648655223
35.8494 45.9948 48.2045 28.2444276051
39.0831 39.8164 47.4311 31.9832695523
46.9621 0.173457 6.41981 32.2762644688
42.0048 1.21156 4.1467 27.208852606
48.375 15.9047 10.814 34.6628882306
42.7374 10.8993 5.73961 29.5976185744
40.3584 7.18294 10.0582 28.8755726209
46.4732 4.89504 11.8348 27.1394989474
47.1305 15.8972 8.13205 32.8628321992
39.624 5.33517 7.61505 29.1457844945
42.1008 7.00022 6.83951 27.2347041058
42.876 16.2386 10.1736 34.5072655483
42.0446 4.89219 3.98398 29.4785340918
45.2318 9.535 6.14209 30.9674196925
42.8825 8.66387 8.96488 28.4426206033
