13.4496 22.4 49.2965 28.5087483801
15.7976 24.4354 54.5084 31.3370823659
13.2993 29.1064 50.149 32.7639753915
11.6493 27.699 48.2861 30.4843240373
10.14 18.3081 56.1641 31.7058648486
19.6133 19.4101 50.2134 26.2552955129
12.7334 31.632 55.5376 28.9533210559
12.5716 32.4567 47.9622 28.7113114151
15.3634 32.5889 48.3003 31.9633319063
19.0815 42.7972 4.77084 29.0646702161
12.751 34.4951 5.27011 29.040342152
15.3615 33.9722 6.04373 28.0619081219
11.5887 33.6724 11.4127 27.3045909696
17.7155 37.869 4.83564 34.7354365009
19.0355 37.5229 11.851 29.8867947652
11.4039 36.8815 6.01765 29.5196740756
17.2234 46.1841 5.08429 28.4193107566
15.6728 44.2504 7.08466 27.0999055326
10.1525 40.2502 9.05971 29.3923510815
11.5176 42.6683 11.1683 29.198943192
13.4182 44.8637 5.30473 27.4907145065
12.6471 42.3127 5.92504 27.0716358671
19.699 34.2556 4.85553 34.1490007769
10.742 46.7202 7.64233 30.2317158707
14.6555 46.2596 9.42367 30.7081205406
17.3167 40.3683 8.35122 27.9671064561
16.7614 41.9423 6.12794 28.9607831798
19.1913 42.5159 10.3575 28.1834947472
14.2811 38.6499 4.43246 28.9193172433
10.2176 44.332 6.42748 28.0057250441
17.8057 44.8827 9.20275 30.232775886
12.3684 47.1825 10.2711 34.0394624828
17.6489 48.4659 9.07348 29.2431158225
16.1263 47.8072 6.92874 34.1425571136
10.4584 40.8623 4.48044 29.7140907768
12.8552 34.8911 9.26979 28.7917060877
17.1107 33.7795 9.02215 29.0215501609
18.6748 37.783 8.7201 30.4522252643
12.6955 41.3868 8.3158 29.8505570782
14.8212 41.3303 4.36128 29.5629206508
12.1384 37.105 8.59739 27.07264033
14.1664 38.9466 9.18983 29.7261120619
15.7649 38.4151 6.89606 27.7321320616
16.3669 37.1685 11.0952 31.0274898059
15.3703 35.8963 8.35854 27.541508088
12.7844 49.2029 12.2029 28.3301992923
14.6508 43.0379 9.75356 29.7783571187
16.4007 41.3495 10.605 28.6508874453
12.5966 47.3704 5.51133 26.5560019496
19.8177 44.6054 6.88394 34.7571819709
10.9175 45.1727 12.1249 29.4719709682
16.3093 47.2818 11.2235 27.8661378792
14.8484 39.4989 12.1476 31.568193096
11.5494 38.5641 3.97808 29.1778705637
15.2117 35.066 12.5667 34.5912974061
18.4579 45.4367 12.0984 31.768225136
17.0301 34.2255 3.7109 33.2083800562
10.5436 36.4591 14.9792 29.6574193578
15.8542 33.5874 15.2596 32.0374559626
18.4108 47.8055 18.2312 26.6527780892
18.6522 32.9733 13.4294 32.3287900012
17.7975 35.1708 18.9326 31.20496277
14.2068 38.0058 21.1533 29.988270147
12.5446 39.0062 13.7196 34.1260525898
16.3217 40.5946 14.437 29.1302502158
15.9766 38.8099 16.626 31.1500465159
15.4581 48.3453 13.6524 26.508376056
11.8207 45.4562 18.4407 26.3305609429
12.6333 42.7429 19.6694 29.3375924728
13.9147 42.2736 14.9265 28.4220668028
17.1279 46.9887 15.7624 29.1423640808
18.9371 48.5223 13.3538 27.8641303712
17.6856 43.2494 13.8864 29.6764267627
16.7713 44.1808 16.278 31.2647020582
13.5197 35.7466 17.6021 30.4992109822
10.7099 47.9839 18.1955 26.8753703349
18.662 37.9352 20.3057 29.8356855772
13.272 46.5264 14.235 27.1893591895
11.8094 33.2936 17.2039 30.320320885
9.9618 38.3419 12.6718 28.7280090404
11.6274 47.9268 20.9115 28.9794896696
10.2647 43.8209 16.659 28.5037382245
12.8145 38.093 16.493 27.9621422935
16.2784 35.9662 16.6741 36.0818361125
11.4416 41.4851 15.4119 27.5715884854
11.9431 40.5225 17.8852 25.1615299729
16.5521 41.6024 20.3371 28.4073833558
14.4323 35.4906 20.1735 28.9739661882
14.6333 40.1073 18.6831 32.1443842936
18.4972 39.4566 18.0279 31.7330944967
14.7387 45.6559 18.731 29.9361665812
18.808 39.5482 13.7917 29.8836225611
12.6384 34.7539 13.3636 31.2221350712
13.6444 44.7379 16.2187 27.4045081857
10.3897 45.965 14.6775 27.6418939557
15.5848 48.257 18.3668 29.5678738126
12.6203 48.3994 16.2094 29.0166220024
10.7146 37.1182 19.8717 30.9765435137
18.2931 42.6619 18.4375 31.215932605
9.82036 38.0381 17.3805 27.7768025564
10.2251 32.6083 19.9667 29.7694974016
16.0664 33.6118 20.9706 27.7737644872
11.8169 34.8484 20.9091 29.4014166718
13.7204 43.662 12.6888 33.1386812634
11.6127 39.6042 20.9205 30.2155073711
14.2357 48.6055 21.2726 27.54964884
14.8846 43.7394 20.9316 29.2626384566
18.3645 47.3822 20.8269 27.809964817
15.9468 46.3954 21.8089 28.3022099412
14.2408 38.2079 23.8203 56.6229787644
10.6753 45.3824 21.6075 29.3895764102
16.9072 34.347 23.5256 36.0026522895
19.1487 42.0921 21.7848 29.1895077453
19.3129 35.5861 23.9451 67.3922190158
17.8355 42.5453 24.5678 94.0789281717
18.5998 47.2335 24.0112 47.2259282205
11.4672 39.3332 23.7785 59.0446230343
15.7269 41.0122 23.9085 67.7268120776
10.7039 42.4211 21.5203 27.5504519672
16.8747 38.9424 22.0719 27.900279663
10.5786 42.0343 24.2689 82.0495364333
11.1919 44.9949 24.4298 81.7034518202
13.9168 43.545 23.6127 47.1045481226
16.694 45.2287 24.4265 83.5968925142
14.3189 35.6307 24.4398 120.5899536864
13.8168 46.5175 24.2584 70.4855709347
18.6313 38.1676 24.1949 83.9786444131
11.6028 34.8699 23.6588 48.4874314294
14.7708 35.5314 36.0756 41.6425494614
18.3426 46.5938 38.2917 29.5852086943
12.0853 35.8284 35.7915 91.3104838781
18.6756 36.5981 36.1357 40.8036780475
10.7 38.5841 36.0732 64.1680845239
12.1031 47.8414 35.354 105.9436617251
11.9891 35.5983 38.675 25.1100797153
11.9596 41.1243 36.1985 51.6538300011
14.5513 40.0467 36.0616 59.1418220358
16.0293 37.6769 35.5764 102.4249293944
16.2832 33.1745 35.6339 80.5186197205
14.9876 47.8574 38.9211 27.3176435812
10.3105 43.218 35.5988 86.6444020921
12.6098 45.0765 35.7328 66.6631817949
17.6139 46.2895 35.5716 96.6610881501
16.8284 41.8858 35.4966 104.8080489376
15.035 47.4868 36.1544 42.2626274561
11.7296 45.2228 38.1325 27.3132931403
11.4273 33.1819 36.1887 66.3111349948
15.4726 44.3282 35.9724 52.5744227352
18.0315 41.6004 38.191 29.9470522111
10.3194 37.9099 38.5945 27.1253621311
19.7328 44.0239 38.4922 33.7806139776
13.1288 32.76 38.6069 27.921429765
19.1189 33.9391 35.5493 100.4790875686
15.5113 42.9535 38.7001 27.5909241216
15.3633 34.8722 38.685 27.3488644748
17.1806 46.9666 42.3615 28.6990269854
16.6804 33.3282 41.3763 29.6841680027
18.8363 34.4063 43.5946 27.9287253172
17.7989 32.7187 38.7292 28.318247632
14.0757 35.2361 46.2234 29.1580042312
12.5698 47.2956 39.6901 27.7902850726
13.8662 36.1042 40.7671 26.1843152748
13.0927 37.5606 45.2598 30.9206816273
17.9009 40.4141 42.6211 30.1549361017
13.6894 40.2943 42.7973 29.6260276764
17.4839 46.0788 46.7221 31.0080427336
12.5352 34.1022 42.374 29.2048268804
12.8679 43.3775 39.9604 28.4949470702
11.921 42.7435 42.7069 27.5535564277
18.3608 48.7095 46.8741 34.0489563953
15.7817 41.7856 41.6448 29.2393988825
15.1256 44.7018 45.8003 33.4664705041
15.603 44.2978 42.8909 32.7893364382
15.5759 41.7467 46.1625 31.8161427406
11.9848 44.587 44.9163 25.5895822561
19.3482 45.3785 44.4715 34.4207211435
12.9398 45.6515 42.0869 27.9220202213
17.143 38.9746 40.3076 28.9697646878
12.0133 33.5352 45.0381 27.8461216435
13.3993 47.189 45.2436 28.4729902525
10.1226 46.5321 43.5644 29.8651971194
9.93651 35.6329 42.0383 28.586496988
16.4215 36.3258 41.7896 28.8176075342
19.398 35.8655 41.3251 26.5396906442
18.2632 41.9546 46.8937 26.9441852946
11.4133 38.8256 47.4803 29.3080833126
14.9949 39.4836 44.8147 29.4899294357
17.6571 38.4286 44.6322 29.2276058809
19.2868 42.3619 44.266 34.9747180382
15.0915 40.0054 38.8792 29.2634278882
10.8665 41.5646 45.6645 29.425426182
15.7945 48.1402 44.428 29.1829267434
11.5506 37.7668 42.9496 28.1965757004
13.3594 48.7535 42.3511 26.9483466001
11.4758 41.0209 38.8688 27.4205280277
16.5467 35.9438 44.7719 32.3695673304
12.9416 38.5836 40.2341 28.7314793895
16.2759 45.5407 39.8201 31.077766172
10.0688 39.8932 43.2249 26.885386762
18.1869 36.0244 38.8487 27.3516729769
19.7188 34.5759 47.6995 29.461905897
10.9722 35.0352 48.6158 28.8077801242
11.3689 45.6287 47.6956 28.4376648454
10.0699 41.6488 49.3677 28.6570336
18.406 44.9172 49.1682 27.8211693536
10.077 48.152 53.1394 27.7942111423
13.5217 35.9378 48.8219 24.8090473417
14.2133 38.567 49.3399 31.063169935
11.1332 48.5046 50.0465 29.3402552673
16.6808 36.3591 51.8711 33.8655093945
15.2449 41.6934 52.6777 30.4763053365
10.563 43.7469 51.6962 30.728173553
14.7617 48.2409 49.8834 31.5093297426
11.7319 36.7123 51.3556 29.5521301213
10.3342 38.75 50.0034 26.6067593268
12.5328 45.0053 50.2207 29.5927439045
15.1654 45.1727 55.851 26.7801502064
11.1294 47.6987 55.8638 28.1025905686
12.9809 47.3249 51.9277 30.1214488541
13.4283 34.9909 55.1213 29.3593080002
16.9789 46.4341 53.0677 29.2962217672
16.167 45.812 50.3653 30.3265263456
19.4637 36.1746 51.3204 30.2553506256
19.3248 46.7944 51.3853 29.0489983133
18.0354 42.467 52.7945 28.0475491662
13.6695 47.1654 54.5792 32.6831517727
15.0692 34.5278 50.7028 30.5512841633
17.9097 44.248 55.1928 29.0991946259
13.7945 33.1412 52.7835 31.1619918908
15.9423 38.4284 53.5921 29.7403346987
14.229 42.7039 54.9966 30.9966689358
12.6888 37.4189 54.098 29.733710241
13.4028 39.3353 52.0557 29.0387290365
14.8663 43.1976 50.5204 29.9160122392
11.006 41.0277 52.5475 29.4900188014
11.3029 42.6211 54.858 32.6854868102
18.6068 39.183 47.406 32.0368990039
14.2036 41.5116 48.5984 31.0010019512
18.7325 48.1788 54.8083 27.9201121467
11.985 42.892 47.7476 25.8937603812
10.2296 35.1182 55.5313 31.0016854495
18.2092 39.9938 53.772 31.8877614861
17.8296 42.3488 49.7061 30.9786972046
15.6713 36.8401 55.7231 27.5729945635
16.8872 37.5863 49.367 33.8359296503
10.0843 45.0632 56.1316 31.4466531999
19.3048 40.1146 56.4438 34.8628582467
12.4448 48.5104 47.6874 28.1548961685
16.9405 35.206 47.757 31.4725074027
26.6089 13.7084 12.1704 28.1440377965
23.0159 14.457 6.38429 28.0873129215
27.3772 1.53772 9.31572 34.2315236563
20.4123 7.99132 11.6218 26.801408186
21.2676 2.2657 8.63149 28.2750861377
24.7834 7.53748 4.75334 30.4779302527
24.1504 16.3198 8.95063 27.7655747292
25.9397 3.11278 5.41442 34.8376770867
25.8745 5.68084 6.78907 31.533718166
23.435 9.5052 6.21418 31.3188787187
21.1542 9.42345 9.30915 29.8546688952
27.0227 14.5561 7.7301 27.2023179451
27.9452 6.8241 4.81915 31.1578876167
28.7736 9.96044 5.18256 28.3038026386
27.716 9.2615 7.75914 29.0994999425
22.0604 11.7989 5.03067 30.2727630849
28.8499 14.6466 10.1413 26.9082304615
28.3211 6.25147 10.8424 32.1419596493
21.0813 5.2105 4.33598 31.2775195798
20.9881 0.767827 6.27635 31.9306542052
22.9697 1.03377 10.6311 26.5464042581
25.1276 13.7136 9.71313 28.6658605304
26.1831 15.6997 4.68082 31.1196083762
20.1711 14.9085 9.40662 30.3009012348
23.9793 1.0906 6.08519 32.7850115332
25.6881 7.07382 11.8048 29.1100883618
21.8357 7.6985 7.78989 28.4342837646
23.3646 6.71569 10.1829 29.5698877994
25.3708 13.0078 6.15563 24.1171041684
25.6824 9.48536 10.5198 31.9220245461
29.4159 3.67241 9.20082 29.7926135778
22.7908 12.4663 10.2784 29.0782408939
21.824 14.3473 11.8537 32.3735359697
28.3872 12.7322 5.32008 32.7257335494
29.1922 11.6978 11.3023 28.45563731
28.1533 6.61508 8.13981 27.9174302148
21.0423 4.67745 10.8696 28.8094855428
24.0256 4.75511 8.63898 29.5550710174
27.781 1.67426 3.86411 30.8349439313
25.2956 10.7924 7.72355 30.9136011676
24.9607 2.9914 10.6543 32.9503808724
28.4007 1.38127 11.9389 32.3250436866
23.0697 9.81253 11.9345 30.1867198839
21.1353 12.6409 7.97642 28.4950585702
21.4575 4.84348 7.14784 30.0917089562
20.0547 2.55877 4.22064 29.31305478
26.3746 9.56291 3.7528 29.2365763512
21.5558 0.957666 20.1456 31.6960585156
29.0514 0.628873 15.9299 30.1252727905
24.6579 15.5034 17.4791 28.9653495754
20.9435 4.32812 13.3967 27.8227015574
26.4925 0.0468608 14.0339 28.0389073871
20.9954 11.3209 15.0748 29.6714194881
26.9251 5.3488 14.5779 26.1147719329
22.2422 14.8532 16.5082 29.5452168463
28.8171 4.14055 13.0709 27.7296017384
21.0436 3.13207 18.3781 29.2132747701
25.4691 12.8534 18.0022 29.937896995
21.9957 8.58209 14.3726 29.8774176855
28.9146 14.5375 13.8415 31.2503568924
20.2383 13.7794 14.1251 29.3358928425
21.289 1.46036 13.0809 28.8807100039
24.1889 6.59693 14.2172 27.2203552193
25.9774 8.29128 15.8507 29.350560944
23.2273 10.8199 20.6737 27.7409728568
28.9889 7.5625 14.4522 27.9157573118
24.9245 11.9104 13.1654 30.6136230643
23.5062 12.2189 15.7675 30.164456793
25.6867 1.19681 18.9698 27.8864478234
21.2019 6.43877 16.7093 27.0573975596
28.737 2.14735 18.3239 27.742215175
19.6405 15.6514 17.9565 31.6594418909
23.2638 4.47517 16.9944 26.9233051675
23.3292 4.23008 14.334 25.359551532
26.5591 8.277 19.9735 32.2195253717
29.5176 10.9267 19.9926 30.5684120501
28.0979 7.518 17.6168 28.1511228986
25.5058 3.98527 18.553 30.794932591
24.1427 10.1703 17.866 28.617418282
21.313 12.4385 19.6831 29.8762704533
28.4426 12.0062 17.56 31.5647735959
22.0986 1.43185 15.913 28.5915802788
26.6116 10.8878 15.5916 28.5427967846
21.5072 8.97046 18.1568 27.671882662
24.638 0.557673 16.2071 30.0803642842
23.8854 6.96961 18.6935 30.2577265756
27.7457 4.87447 17.2663 30.0246010954
21.7008 15.0771 20.3713 28.2067885258
25.7196 3.05365 13.4002 31.104989679
26.0226 16.5214 12.9046 28.8271583151
27.3557 10.0543 12.9065 30.5891197068
28.831 16.2681 17.1828 30.290180012
19.6334 10.9366 17.6858 30.2577819028
28.0879 16.378 19.982 32.2790904616
25.5198 12.4768 20.6966 29.0600352786
19.6447 9.14232 20.5616 26.4158842107
23.5596 6.12872 21.2963 27.8193703621
25.6213 15.1921 21.0367 29.8801503837
29.5902 2.16886 21.2212 27.1196997541
28.0862 6.51222 21.3703 29.2585050534
21.4279 4.70114 24.0216 42.1867705558
23.6287 0.767488 24.1334 58.4785522962
27.1601 10.5812 21.6508 28.7030363263
26.1965 1.92143 24.6001 90.2171987499
23.6699 9.294 24.5969 93.1098424252
23.7891 6.2015 24.5258 83.5001851691
27.94 16.4758 24.3592 103.3239453795
26.2171 4.85202 24.4657 73.0493935412
28.5725 6.61822 24.3154 71.0460099125
26.6066 8.80673 24.1625 61.1131698234
21.2717 2.19322 24.346 74.815496705
20.4689 10.7015 24.5709 121.1541508685
22.2268 8.22699 22.2361 30.3070365957
23.1454 11.7572 23.3543 31.4959173066
25.7897 12.5748 24.2297 84.498681703
21.7657 14.2292 23.0537 27.0789446693
25.8939 4.42821 21.6194 31.4113869371
28.2345 -0.181094 24.3989 79.3461940269
25.3359 15.3283 23.7863 40.2617323598
28.5094 11.3011 24.258 71.160093543
21.3439 4.31461 21.0025 32.5114501985
26.8545 1.82259 21.9329 25.5600058593
23.9749 0.343697 21.2164 29.9226009522
23.174 2.08303 35.5996 79.4859405811
21.816 3.83779 38.1951 30.0169115282
28.4657 -0.0868635 35.7139 73.9527008314
26.7447 16.0383 38.3947 28.6887554094
26.069 2.05778 35.8618 59.2867559286
20.9631 12.3086 36.6214 36.3144342481
21.696 4.14701 35.4553 85.1678587486
23.0626 6.81337 35.8007 73.7851084818
21.6235 9.38094 36.1975 48.9695270041
28.237 15.2409 35.5453 83.8481049948
27.2244 4.77187 36.054 55.9766678256
25.5921 7.65052 35.8309 67.9380246019
24.3529 14.2338 38.3813 26.5565599265
24.5738 10.4869 36.1642 51.1339780995
28.3364 9.33859 38.6913 27.4866037225
29.0146 7.07054 36.2196 45.7590709479
27.6501 9.80309 35.6677 85.8281902093
24.3884 13.1846 35.8015 79.2789405774
27.2762 12.9644 35.9525 48.4615533334
21.7085 14.8053 35.5863 100.8705248808
29.2598 2.71067 35.3495 105.5726566566
26.072 1.84503 38.5403 29.9197943039
25.5051 6.98568 38.6 28.5698860496
26.0884 10.6997 38.7614 27.3734146652
28.4598 12.314 42.0512 33.2800423899
23.4697 2.94392 41.9506 32.0111512586
23.7636 15.9608 46.0951 30.2490036857
28.8812 3.10952 44.8017 28.4545709297
28.1534 6.11942 46.1861 32.6741485538
27.9952 3.67135 41.2673 25.9058577737
20.3633 5.04057 44.854 30.8617380522
21.5276 12.7334 44.7423 32.1740245491
21.7215 5.83474 41.7174 26.8027220969
22.3064 5.6888 46.8641 31.8410665966
22.2969 12.544 38.9262 30.3658896332
25.516 8.14931 41.265 26.8572392655
21.0907 2.15755 47.5288 29.3070552454
24.2004 10.9748 42.4214 31.6574685419
21.237 8.4286 39.077 28.4176711687
28.8789 14.7089 45.4764 32.8429524086
26.7327 9.83868 43.7111 32.8166934688
25.8108 13.4988 41.1364 27.6950454296
20.6223 14.2673 40.6305 33.6147117236
29.0957 5.316 43.0911 28.6931885161
22.8383 15.974 42.1513 31.8139172357
24.1482 0.206809 42.9878 36.834993834
26.056 8.24072 45.9752 34.196206198
21.3593 0.704381 43.2515 36.075366538
27.5772 13.1979 38.7416 24.737972428
26.5512 12.6607 44.1972 31.3023954995
26.1531 2.69452 45.1927 34.4434109939
28.1821 7.76326 41.3021 29.149778087
25.6734 4.29786 42.8645 30.9504357793
23.9127 3.3223 46.8989 36.1624007048
23.5066 10.1135 39.7485 28.6503759038
23.4171 7.67996 45.5464 30.3980548253
20.6885 8.21261 42.2936 26.8664276048
23.8881 13.9805 43.8596 29.1265159142
24.3222 6.6003 43.0538 30.9698363882
21.8993 9.9942 44.021 32.5532038365
23.4712 1.88377 39.2891 29.8875178079
21.1279 9.30348 46.5117 29.7853118655
22.2897 13.6997 47.2806 29.4829239148
27.7554 0.846495 41.0898 28.2357666205
26.9098 0.128789 44.3065 33.1833009646
27.0507 16.5873 44.2924 30.5934745892
26.241 16.1914 41.6275 30.6611443736
20.4461 3.40926 42.5682 30.8787933539
27.3472 12.7698 47.2516 31.3132372879
27.0845 4.66713 38.7957 30.5665293262
22.8213 6.33253 38.878 28.8102235955
24.9114 1.05489 49.51 36.6815801196
27.4473 14.9391 52.4182 35.8161350612
20.006 3.56719 54.042 28.576461454
26.2573 8.41792 53.8303 30.0386119329
26.2167 2.21837 52.9408 29.593084665
22.5378 4.43528 51.1388 28.8430521092
22.7947 1.43326 55.5078 31.6944721888
27.4802 0.215934 50.9307 29.3590328647
26.1359 6.88107 50.8229 31.7627290292
21.3036 6.72896 49.6195 28.8929312812
23.6304 10.0668 49.5357 34.855780872
21.579 11.3419 48.2246 29.1125894523
20.5412 2.65313 50.177 27.1769119041
26.3206 10.1312 47.9601 32.4769791283
23.1914 13.1672 52.4385 30.596767663
24.9929 12.4632 50.1329 30.0731016955
25.2247 14.5312 48.0775 33.0208384603
22.1605 15.5725 50.9911 28.5766899395
19.5731 10.8401 54.0975 30.1322872544
25.0801 15.51 50.756 28.7189815732
24.6596 3.80034 55.6225 31.3562637632
28.2064 2.66407 49.7523 33.2822674449
24.8975 11.9112 56.1602 37.7509326878
27.6881 5.30818 48.7497 30.4482567194
23.2222 15.2088 54.2397 34.6035001982
24.9926 3.97983 49.3156 30.6223716745
25.0124 4.80547 52.5929 29.8643383889
28.2194 3.34847 54.2516 28.2633481578
27.8592 12.6212 50.6252 30.1985627503
21.5575 6.17268 53.3211 25.9294742283
23.4312 7.76907 51.0871 29.2287339854
23.4644 8.76443 53.8291 31.9278866825
27.6934 9.30628 50.2203 28.0820374348
22.7369 11.0965 54.5726 31.3632981756
27.8217 6.18175 54.6303 31.2868968944
22.3991 0.775124 51.6114 28.8334162513
20.5565 1.08113 53.7956 26.3112378504
28.0757 10.3695 52.5564 36.3538497482
28.1495 16.0688 54.8999 32.1253937707
23.2408 6.01849 55.4559 27.6799305747
20.4717 15.6439 55.6703 32.45521738
20.4759 12.596 52.1248 29.8882826471
24.3226 -0.00193955 53.8321 29.1629704013
26.488 17.4001 8.17892 27.1962861205
22.3091 23.0351 7.42803 28.0314825842
24.6205 31.4619 6.05679 27.9532920193
22.3498 30.5952 4.31126 30.25844987
25.1571 30.6818 8.58167 29.4576910471
26.0889 21.959 5.25775 26.3532540805
21.6865 19.4666 6.5913 28.0168058623
28.575 23.7105 4.80767 29.1632874555
27.301 29.0955 8.1696 30.164551023
26.4324 22.3188 8.65942 27.5254920061
23.6291 25.6144 5.70617 28.6964265099
25.5537 21.7723 11.6937 27.1689423142
20.2256 21.1889 8.58871 33.3469227121
28.5084 24.7154 8.61701 28.1101940714
24.3588 24.6615 8.28924 26.4364429923
25.6554 19.622 7.03541 26.6779542421
23.1681 28.9984 7.8923 28.80850111
22.0516 26.8598 9.20673 27.4843151079
27.5167 17.5724 10.9042 28.5578618278
26.7333 25.2014 6.43423 26.203870968
28.118 17.4265 5.47916 29.7457010543
20.7783 27.6855 11.8618 26.2629677505
22.4588 31.5328 11.2408 31.4539967504
20.8023 26.4522 6.16541 27.2518402613
29.4096 30.7865 7.18418 26.4191262944
28.1361 20.319 11.2656 28.7147873648
23.4601 16.7353 11.6491 29.3048337139
27.0335 30.7938 11.2357 31.0897409159
24.1672 28.4825 5.14947 27.6551518972
23.1518 16.3987 4.34026 27.8870071444
23.3093 23.564 10.6804 29.2013617055
23.6893 20.7891 9.00836 29.5731542012
24.0384 19.1309 4.73146 26.9940247998
23.0193 21.9832 4.87374 30.5032271836
20.0363 29.1254 5.86556 27.9409385062
26.6176 27.9347 11.0685 26.2691547224
26.503 25.2139 10.5228 29.4226003673
19.8489 32.0359 6.66589 29.0136009114
20.1889 24.8605 8.31288 28.6155972489
21.1436 30.8598 8.72639 27.7475716428
23.826 27.6503 11.6174 28.7644006765
26.8955 27.5863 5.59331 29.2639843356
21.6517 16.8021 7.89868 26.8821292345
29.4367 27.5499 10.1144 27.2307082335
27.2651 31.6284 5.10217 30.9375488184
20.3029 24.4073 11.1339 27.7612724893
22.0369 18.8455 10.1611 26.303647646
28.7708 20.4038 8.06122 30.9239697938
27.701 19.7792 4.14345 24.9268290476
19.9328 25.6202 3.71795 34.5252794793
23.2895 18.8083 17.076 30.7723957262
26.3262 16.8068 15.5355 29.2211622088
20.6062 18.0698 14.4219 28.3972250055
22.0215 21.175 21.3174 30.597564707
25.6085 19.5777 15.7975 30.2742627764
25.9749 25.1007 15.0044 29.1763615997
20.8439 22.1744 14.6745 30.8789426142
22.8231 24.499 16.3266 31.7610888319
22.1755 21.5709 17.0176 35.5540778571
20.2716 28.9119 18.4774 31.6221748776
23.0395 16.847 14.8263 28.4608838987
26.3849 23.5303 17.4244 32.9386679722
28.4387 24.5014 20.9894 25.193174004
21.271 25.067 13.9248 27.1267833174
23.7627 25.3184 12.9555 28.8020052529
27.5536 31.3159 18.5418 25.8479404985
23.7825 27.344 16.2867 28.4018456749
28.1722 25.6044 18.4102 30.0599387255
23.9577 31.4337 16.9533 31.4201942044
21.2728 30.0342 15.9 27.9708986227
24.3257 19.9417 19.9334 29.1914703809
20.4848 30.6608 13.0851 28.9340741779
27.4863 30.1719 16.1444 32.5748930014
27.3798 21.4488 19.7059 26.6365237482
28.6461 22.1199 16.0935 27.0106838519
27.7012 19.779 17.585 28.0904744821
25.0552 31.3538 19.5828 26.5915751787
28.7142 20.1559 14.1561 28.253335165
19.8993 26.4174 17.3763 29.1277643758
27.5323 27.4174 13.9151 34.8391463845
20.6404 22.8629 19.2975 33.0470900009
20.6018 27.5475 14.9105 23.9919066592
25.5561 23.8008 20.3368 32.3811604936
26.5979 27.4606 17.0229 28.2786300519
21.7441 25.4439 19.022 31.883532349
23.2746 28.5407 18.7427 27.4813499921
23.3369 29.1523 14.0448 27.5014583325
25.8747 30.3567 13.7097 28.7555934139
26.0357 28.3807 19.7641 29.1606399222
24.2937 20.1251 13.3557 35.1849972003
21.5139 20.0881 13.0076 26.6974444086
26.6888 18.4737 21.0015 28.8287976442
27.1549 23.372 13.0244 29.388802237
23.8856 17.0959 19.7935 27.5368767573
22.3809 27.1519 21.3439 27.912118658
22.3045 21.7521 24.3199 65.8333348679
22.6845 18.011 22.3462 26.4240067566
24.2022 19.5097 23.9744 66.923296861
26.9798 19.1199 23.8534 54.3994003494
20.3249 19.5908 24.5041 83.7325619336
23.8018 32.5587 24.6924 111.7086643039
22.0666 26.056 23.8228 34.716057996
23.905 24.3542 24.5004 103.8533939338
28.5747 24.4518 23.6133 37.6542948529
21.7257 28.6156 24.7213 124.2369052836
24.3128 29.867 24.1704 50.6463518349
26.5918 26.1764 24.2459 86.7707187465
26.7856 28.9882 24.1635 72.1385648214
20.7769 31.5518 22.338 30.7326527621
25.0012 21.6544 21.947 30.2962493785
20.4015 23.9349 24.2165 63.1298288246
22.658 16.0946 24.5638 111.6076007932
28.4982 28.6225 21.8164 29.3405620956
28.5595 21.6583 24.2013 114.1746869189
20.2239 19.1828 21.5948 31.3920577391
23.4155 30.3469 21.5088 33.1271163615
29.4678 20.4374 21.5202 29.1264660692
25.4391 26.2372 21.4311 30.876092745
22.3231 19.6989 36.3844 37.8451269391
28.1113 24.1531 38.1302 26.3501983167
25.2031 24.3748 35.7037 73.3358001286
22.7791 16.6608 38.7473 29.4312419964
25.9412 17.4796 35.7078 84.3370223491
25.3753 23.2934 38.4819 31.6535995496
28.349 31.7397 35.8185 81.5504287039
19.6295 27.2795 38.3831 27.9675880548
23.1691 22.4709 35.6478 81.3018551323
25.562 20.5538 36.164 48.7096792264
21.1782 24.6934 35.7209 74.2948987478
23.4147 26.4369 35.9467 58.3561070517
24.9632 28.7241 35.689 87.3015512299
27.6245 22.2795 35.8005 74.847466836
26.8577 31.6061 38.3643 27.429267556
27.7713 26.1951 36.1503 63.83635379
27.0299 29.052 37.4107 27.6258306548
20.6019 31.4612 36.0378 51.1490270377
23.331 30.9204 35.6219 97.6352030853
23.2497 30.1368 38.5217 27.6863209936
28.4617 18.944 36.097 50.3516556905
23.0545 17.105 35.8792 67.6228318127
22.4765 24.2348 38.506 28.2022641899
22.4725 27.4365 38.4044 27.8206002124
19.8219 20.53 35.6586 97.5216177426
20.9545 31.3126 39.1553 28.6758232627
29.3986 17.0495 38.2766 26.8783265007
21.7929 22.1682 42.7981 28.773506135
22.0462 19.7809 39.3007 31.4822688788
29.7747 28.9441 45.0818 28.8199919631
21.1473 22.3152 40.0442 31.7400437098
24.7539 22.5165 43.0714 27.7012184321
24.3578 24.689 40.9463 31.0710523366
21.1041 24.9254 43.8731 31.8101036238
28.8561 18.4926 44.9252 26.228324287
22.7582 32.0851 42.4248 27.9171496376
22.7961 24.6087 47.4434 33.7661304432
20.7981 29.5083 41.3539 30.2423298292
21.6782 25.7877 41.2171 27.852872403
26.8907 20.7924 44.8742 27.1528095004
26.3803 28.606 45.5545 34.1232250867
26.7276 24.9762 43.2096 31.7573707972
27.0654 25.7578 46.2181 30.3953575865
27.9511 30.9709 43.7438 26.6059807184
24.8299 31.0535 40.7243 27.5435159584
25.907 18.098 46.2872 30.8311764317
22.4982 27.9357 43.1793 34.5176955315
19.9976 31.8301 43.4266 31.3489332114
27.6676 29.4677 41.5508 26.8462451461
25.1099 27.6092 39.8372 28.6661964435
25.0161 28.6437 42.3677 27.6072107189
23.8714 19.8345 44.4491 30.2920290706
21.8239 19.0483 42.8135 27.5306342732
26.7939 20.5283 38.8254 31.697382344
24.7919 21.0984 47.1149 28.2456217393
27.6698 26.6993 39.4842 26.4317791364
20.2226 16.9086 43.9986 29.783526648
21.9512 20.5587 47.1176 29.2197300506
21.2894 16.7309 47.1467 27.7526891309
28.7292 21.1972 47.5674 32.1940139004
26.1867 20.3834 41.9904 29.117411126
21.9165 26.8596 45.7868 29.7914675184
25.153 23.6991 45.8317 32.4661180142
28.1367 22.7102 42.3121 31.6392809112
29.1967 32.4339 40.0208 29.893448031
24.1346 18.4866 40.8941 30.0555215719
27.9282 18.3374 40.4136 28.7643033858
25.2285 31.2796 44.2053 29.5004004239
22.9552 31.472 46.0056 30.2768418842
28.7299 26.9567 41.9256 27.3163253414
19.8723 16.3917 39.1304 27.9213566076
21.993 17.5202 53.0751 25.5856221468
22.3511 20.1263 52.9477 29.4936815841
21.064 18.4641 56.0211 25.89869194
20.7628 22.8299 48.2244 31.6049014552
27.6293 19.9637 52.2847 26.4301199635
27.2019 17.7953 50.5675 29.0180139272
20.992 21.8597 50.8055 30.0267183273
25.1581 20.2352 53.5509 27.510140742
24.2786 18.6249 50.7364 29.9963959087
20.5469 24.4688 51.9146 33.8154373129
23.3819 32.306 54.7812 30.1658030237
25.4033 30.4836 55.6723 26.6192287353
23.3636 25.2299 51.6963 37.9974046589
25.448 23.3342 52.3168 31.7258194986
27.0332 25.7328 49.0937 30.2764653564
24.2928 31.7188 49.0586 30.6149321345
20.4575 29.2313 50.2918 36.3057418477
29.1681 21.9885 51.2908 29.3327625839
28.6873 31.3328 51.3077 30.022774656
27.3472 28.8111 49.5866 28.6446797206
28.1599 22.0458 54.7109 25.9210233936
21.5416 32.0827 50.8983 29.6983714262
25.8841 18.2931 55.376 29.9466090768
27.555 27.6995 55.6934 25.6231334868
25.0917 21.4525 49.9863 32.2902436813
23.1565 30.6231 52.642 32.0500509013
29.2738 18.5851 53.9142 27.3801989832
27.3532 32.0584 53.8656 31.8298500446
25.0854 29.0959 47.8745 30.1275287455
27.2398 22.7223 49.1536 29.0576174354
28.0116 24.5485 52.2802 29.9979701435
21.9782 18.5979 49.2617 28.5096227557
24.0136 26.4659 49.005 37.0095132596
25.7686 30.6692 51.3231 31.598166929
21.4431 21.362 55.4864 30.9737691513
23.7319 26.8537 54.1775 34.8607744516
21.6689 28.8971 54.582 34.6540649771
26.0046 28.5505 53.7184 29.7641081664
25.1733 25.4181 56.0854 28.9545060435
20.0908 23.4468 54.6319 34.0066835148
25.492 22.7243 55.3837 28.0648627149
28.4908 25.2268 54.9115 27.7109851747
28.3245 27.448 51.8679 29.9275966843
28.1865 18.6055 48.2547 30.4578500366
21.9285 29.2351 47.3781 30.2533256259
21.9195 43.9517 11.2817 32.416796976
20.2603 37.222 6.05038 29.2928880726
21.3744 46.6607 12.1051 29.9161598944
24.4069 34.3672 6.55317 35.0001197018
25.0639 46.26 6.80126 28.4146756005
24.4441 33.5223 11.8768 29.101650021
21.6241 39.6183 5.33382 28.3729419899
22.6063 37.8112 8.2401 30.5187415612
23.2228 36.6193 5.27433 28.8742681068
25.5534 45.4602 11.2838 29.2068820126
27.7017 46.5747 7.16066 31.4038585091
28.743 38.7607 6.26182 32.2482444916
21.2862 41.77 7.01963 28.4401525441
27.9181 46.4097 4.43305 30.2918642903
20.4421 40.3147 9.25715 28.6150345121
28.3314 43.7166 4.23162 29.4802529407
27.0202 41.1548 5.49666 27.9803184958
23.8578 45.3407 9.36725 27.9717564775
22.1378 47.5815 9.55055 29.4070064938
19.8749 47.628 7.87603 29.7132554132
19.5412 34.7271 8.04432 31.8046484434
25.0052 38.8175 4.21454 28.6979095918
25.0139 43.5042 6.04533 31.1609785896
27.0284 36.9272 7.79483 27.3962019538
23.5239 37.7555 10.9963 32.5239710347
21.3603 33.8816 10.1858 31.5943710703
29.1865 37.3887 11.9778 30.5262228965
27.3441 34.7121 6.23854 30.10875757
23.7313 35.0429 9.08435 29.1325998435
19.9943 47.1141 4.73579 32.363334838
29.1461 44.5834 8.42608 27.1518095033
26.567 35.38 10.0152 30.5524502944
25.0358 38.6497 7.11881 28.4466875598
21.3589 39.2998 11.6551 29.4605378213
23.6226 42.6686 8.27444 32.4750915864
22.643 43.1471 4.36301 30.8677037308
28.1815 44.7577 10.8198 32.8924278291
25.9816 40.9956 11.6941 35.1150016189
24.4812 47.6153 4.54333 30.0955239952
25.8448 40.9318 8.75688 32.902894106
28.3647 41.9878 8.15727 28.3452075693
28.6423 42.0903 11.4873 31.3849604093
29.5238 48.686 8.13037 32.5492269903
25.005 48.726 8.3889 32.4283690606
27.7044 32.9402 8.83198 35.0330773331
24.5905 47.9945 11.9257 29.2830301475
26.7123 46.9108 17.2068 28.3539684018
27.026 35.7758 19.5156 27.9146735704
22.7287 35.3288 12.6248 27.460354433
28.877 38.8165 14.2029 29.903848164
23.2768 35.4325 15.2272 29.3098681505
23.4798 42.5145 20.8374 25.2349690058
28.0872 34.1819 17.6338 28.7247836349
28.3679 39.0543 18.1097 29.1625224674
23.2947 45.4877 15.8565 27.2793621595
28.9459 41.4949 14.7671 26.9326469904
22.2176 39.4505 17.4684 30.2535629709
20.9059 36.0218 15.5852 31.5218140994
24.7806 37.5979 16.2259 30.0489676947
19.5039 44.8477 20.0322 31.5906155175
23.7305 37.3872 19.0698 30.4039701076
20.2241 46.9391 15.442 28.0200605496
20.0496 44.0627 15.6529 30.5529302753
22.2771 40.0064 14.2973 31.1725803037
21.5054 44.5006 18.1998 26.7456894005
27.4372 44.4263 18.1231 28.4214855077
26.8778 42.5509 16.046 30.952605662
21.3476 48.5402 17.8426 27.3590316294
23.8429 47.2068 18.3236 27.5038289784
20.3608 34.1223 17.854 31.3384835133
27.7129 46.5112 14.407 28.7579408784
27.7342 34.4575 14.8594 30.1637740161
23.1948 47.7672 14.1705 27.1265840376
27.4066 37.0326 16.0207 28.4190629753
24.4139 34.7488 19.8804 27.6583492342
27.8354 48.3951 19.4838 26.5698279425
22.7048 42.7244 15.1282 27.8992783531
20.0164 35.3592 12.8916 30.6570372166
26.8102 36.2889 12.6119 29.1136848931
21.3075 41.7097 19.1058 28.4435083423
24.4322 43.183 12.524 29.1373744497
24.3995 41.8258 17.3127 28.4073756133
25.5892 39.6511 18.8269 27.6873476407
25.7439 44.3891 14.4412 28.2676488707
24.4146 44.2011 18.8744 25.3021085495
20.1397 38.5093 15.8973 28.5889949676
25.3952 38.6587 13.4079 32.8696977887
25.278 33.0233 14.5944 31.6267915629
20.1763 41.9438 13.0704 26.7016815369
22.9879 33.714 17.9153 32.0895146195
26.6476 44.1272 21.2661 26.5388631296
27.9684 37.9834 21.1706 27.7483370466
19.8514 35.6271 21.2951 30.1472986594
20.6069 40.0925 24.4216 77.686951607
21.3135 33.5301 23.9395 56.5927021641
26.4789 33.3648 21.3976 29.7272471734
20.4681 39.8157 21.5138 27.5976059992
23.1498 39.0169 24.1857 67.005498286
24.4656 36.1109 24.3202 87.5912443374
25.7444 39.8549 24.1145 68.0904970305
21.086 42.8965 24.1985 61.1134377349
27.5195 42.2022 24.2053 94.4554854204
27.1493 47.8304 21.9671 28.3681089227
23.6861 42.188 23.8 48.6896223197
26.9006 37.425 23.8572 57.4114691894
27.1053 41.5096 21.5532 26.7886141422
24.926 40.2126 21.1284 24.3563362364
28.7445 34.9966 24.2966 76.2938083093
23.5852 46.7037 24.3575 93.3872229692
20.9265 45.7319 24.2993 77.5211595121
25.3828 44.4962 23.9251 66.8617324633
29.1139 45.4247 21.9161 31.5439255536
26.2911 33.9695 23.9929 50.4875524349
22.0099 44.767 21.7151 30.8511997084
22.737 35.3914 22.1485 29.3275416606
22.8121 38.0408 21.6453 27.8407179364
29.0737 32.5431 21.4267 28.924455609
29.5554 35.912 21.6582 25.6361475746
24.5609 46.5879 21.2911 27.6953950299
20.0266 41.606 35.9753 63.1434086488
27.0963 45.1758 36.2073 54.0940227821
27.1677 34.3286 36.0144 77.5634091955
22.3384 34.7369 36.612 42.144593968
22.0877 48.4647 35.933 58.306591175
22.6825 37.4218 36.1186 69.6870094633
28.2788 48.4609 38.7177 29.7848631688
25.3622 47.521 35.8691 71.0744912862
26.9043 37.7512 38.5394 29.2444833843
27.3465 37.1006 35.95 80.0078074585
25.4666 39.1586 35.8138 89.7768852912
22.8578 45.8184 35.6609 80.8116199279
23.0808 40.8527 36.261 48.5257883446
29.2675 41.9844 35.6466 100.4729426244
20.4124 38.6994 35.723 88.7227840834
22.376 48.4422 38.7672 28.6534055955
24.6444 43.1695 35.7881 90.7397176569
26.9073 41.5792 36.7335 28.656975006
24.6213 33.1544 36.3892 49.4912891988
19.7701 39.3148 38.705 31.2788055835
23.9303 45.0693 38.4415 27.6974277507
25.7504 47.2889 38.5857 25.8577907395
20.2042 44.6929 35.9605 63.150351518
22.3855 40.2844 39.0121 29.8019159317
19.7332 48.8193 39.4383 31.0481423489
21.895 34.6383 41.5675 26.9788454672
21.9493 45.6936 42.2206 29.5399358581
22.1755 45.829 46.3958 30.4179485521
23.3015 35.9261 43.5385 28.1196521971
20.4865 38.5362 41.6552 30.9010867025
23.5948 44.6473 44.4092 27.6150751565
26.2551 45.2142 45.1921 31.3982607657
25.0965 33.985 42.9095 27.9315594826
22.805 41.3897 41.4142 31.1937832412
23.501 38.1828 41.7071 31.1662222091
28.8163 33.1869 42.5797 29.3793444907
25.2868 42.807 41.4274 28.3217694894
23.7158 35.1234 39.419 32.7780055799
25.4944 45.4928 42.1573 27.8199067734
27.3407 35.1571 44.8123 31.2929670982
27.6986 37.112 42.7581 31.9286972892
23.6604 47.2871 40.7611 25.5109384024
27.8562 43.3636 46.5344 30.8353676957
26.1968 33.8908 40.2304 26.5620952262
27.6086 46.9813 41.5591 29.3326048195
20.7774 38.1512 45.7019 33.2366727574
20.8655 35.4839 44.997 27.0436675217
29.6717 45.1425 42.5921 31.7916842909
26.1028 38.9683 42.7785 31.0952101356
27.9068 47.3318 46.203 31.1518250219
22.7173 34.1192 46.5894 29.9145631746
28.134 41.2904 44.5049 31.9553786168
23.9114 38.0126 38.7173 29.6809982034
21.1209 40.3205 44.0204 29.2141882587
24.9503 35.8291 46.103 30.5740717953
27.4787 41.471 41.8336 28.0329567799
25.7176 40.3107 45.3451 33.2769393419
27.8732 35.7865 40.3627 27.7991119967
23.466 42.0493 44.7113 29.2801002394
21.8212 43.9985 40.093 33.372354115
25.2975 38.4001 47.235 32.4083321215
19.8551 47.4861 41.9876 31.1826901683
22.7619 41.8995 47.3285 28.2883654305
20.5807 43.6759 47.1936 27.1015592336
28.7356 32.6394 46.5696 31.1129644622
20.4381 34.2192 38.4779 27.6520153352
21.2821 48.7449 46.3882 33.838084315
27.6 40.2944 39.1229 30.8305482384
25.952 43.2946 38.8791 26.6059800753
28.1261 45.0142 39.2462 28.8883642064
26.626 48.3696 55.7027 26.6377364918
23.3444 34.3681 49.9957 33.8833547369
25.3628 35.6356 51.6924 33.0741303789
27.8081 34.036 56.1145 28.1217365524
28.8611 36.6075 54.7837 31.435250831
27.631 38.4132 56.2883 29.760538232
23.3666 38.3893 49.3118 34.8512327538
21.3708 39.9437 48.5042 28.0955447065
27.6389 37.9418 48.4754 34.5833667451
27.7457 35.7352 50.4496 32.5668586781
21.2327 36.2777 49.3929 30.7927151968
21.6253 44.4863 50.0582 30.2929908243
28.263 44.9684 52.8911 33.2201431906
26.2886 40.5614 52.1729 32.8540137712
24.7049 38.2939 52.1115 33.2383103226
23.7655 46.228 53.7818 32.9922979848
24.6476 42.6388 51.7865 28.988573679
24.3117 43.2554 48.9574 29.9622367192
26.888 42.6448 48.9956 29.7187014918
22.8346 48.0596 48.781 32.8588694917
26.519 33.8102 47.9661 33.8812931404
28.1357 40.2028 49.7498 30.6854691644
20.2512 38.5441 52.3711 34.1838207484
22.0929 47.0166 51.3503 29.5484613648
21.4805 34.1814 55.159 33.3338332566
27.3719 47.072 49.0939 35.3484166437
20.2033 45.6957 54.2451 27.8093644441
20.2618 41.0267 50.8183 30.1344647952
25.6511 42.6804 55.5739 26.8174280193
22.6776 38.4534 53.8005 30.3632459515
25.4302 34.7853 54.3437 34.4530905409
20.0047 33.8031 52.8233 36.1736164482
23.1343 36.2264 55.2638 30.5359533448
28.1998 44.8974 50.2191 31.8324175817
22.681 41.4487 53.2111 30.9562064259
20.8474 43.366 52.5093 29.3076435039
28.4369 47.8042 53.4992 32.40302646
27.5165 40.7159 54.7721 30.0504841425
22.4209 45.7431 56.1525 30.2662682616
25.6189 44.1899 53.5563 29.5528644512
28.7981 33.515 49.5149 29.7621170766
23.4145 40.7736 55.9432 26.1932417037
24.8662 46.0209 47.8057 34.0500061927
29.6943 10.7572 8.93751 30.221649699
31.3965 1.70846 12.7343 25.162820573
32.5147 15.1528 10.7298 27.5681868998
34.0255 11.9125 12.2244 26.4640108082
38.8778 0.154627 10.1729 29.8454382054
37.933 13.9888 6.63104 29.0981890236
36.5697 3.36039 8.48071 29.4217895014
34.9305 4.09717 6.12676 31.7832636046
32.2472 9.70526 9.20358 31.212331794
34.0297 0.135352 4.06441 29.7505457434
39.6777 3.3973 7.42484 31.229150896
38.4585 5.78283 8.81852 27.8024205656
36.9967 11.3614 4.48808 28.1227580237
35.5889 8.63804 10.8983 32.6581590514
38.0197 7.59081 6.69186 28.6402346213
34.3992 14.5149 3.7973 28.3608400817
36.566 11.4058 10.7513 29.492646331
35.7951 9.91914 6.72937 28.0948834393
35.2267 15.0189 6.71794 30.3570219846
33.464 11.3359 7.37967 28.3173307004
31.2184 15.5687 8.16777 27.141333148
32.1792 13.6754 5.58713 26.3868278196
32.9203 0.168564 6.73101 26.976959756
32.8591 5.4639 10.9123 28.4884838818
38.8403 15.8866 8.26837 29.1197966556
39.2859 9.83566 7.8138 30.8938081068
30.5776 3.75306 6.67476 29.4200582272
34.3305 13.1949 9.33379 29.4249230312
32.9236 2.94134 7.55801 29.7752896183
36.9646 14.7967 10.1645 27.982088866
37.2792 11.6291 8.136 27.6644021616
35.5189 6.24069 9.30413 27.2693697727
31.5611 3.12456 10.3414 28.9535271505
37.5704 0.671607 7.88953 28.9929136709
35.7725 4.11543 11.4648 26.823322282
34.8013 7.05766 6.40056 28.7562842168
32.498 6.95943 8.29095 31.5924981046
30.452 6.25427 6.64672 27.4671683054
38.3414 2.65742 4.80891 30.5494663575
35.6554 2.39944 4.42836 29.8701658535
32.0081 10.8515 4.9409 30.9122650768
31.7428 9.8102 12.0083 28.3543482764
30.8891 7.165 12.0591 31.0294437887
38.1888 7.24037 11.6035 32.7278151096
30.0883 0.930449 5.48925 29.1538541173
35.0377 1.2762 11.3353 30.5487815145
29.9192 13.0516 7.54636 27.4071282882
37.8963 13.268 12.5894 29.1480021502
31.7066 6.46098 3.95337 30.5468634434
36.979 7.09276 3.99427 27.7810551736
30.495 2.68521 14.8771 25.5218216077
35.3799 14.1038 19.2667 30.9166731698
36.806 9.13002 18.3337 31.808447011
37.3165 1.2601 13.0041 27.598654784
33.1788 8.22681 20.5389 28.4876689116
30.1205 13.742 16.3682 29.8669229221
31.305 6.63019 17.2809 27.028611992
35.6577 12.8829 16.2063 29.1679136804
29.8964 10.1197 15.6394 29.0133045459
35.3006 13.9914 13.7326 31.4844920471
32.2651 14.2655 18.1557 28.0918418172
31.9192 11.6209 14.802 30.5194447694
38.9438 13.1499 16.6114 32.6955627752
34.298 9.10029 13.3195 30.9607187278
38.7446 9.06285 14.4664 31.2100195983
37.95 0.167478 15.5793 26.9769503092
38.1887 4.65344 12.8093 29.9457443193
37.0303 6.4597 21.2449 29.1130721915
34.087 4.74022 13.4807 27.8852846203
36.5154 10.8589 14.0563 30.898278777
35.6225 0.120661 19.9991 24.7647035244
30.7251 4.48641 18.6871 27.3858362213
31.0599 13.3943 12.3087 29.1154540733
33.4187 0.918939 18.4705 26.5956024897
33.0461 3.01321 16.0196 27.9309855208
36.5254 15.6516 16.2706 30.7899100818
38.8613 4.00351 18.1663 28.2680172448
31.1843 5.56244 14.8881 29.1139487474
37.9592 6.43433 14.9447 27.4573729329
34.3716 6.56888 17.3399 27.3603384389
36.1427 3.23721 15.0691 29.5826067515
33.8008 9.1855 17.8816 29.923973821
33.3723 11.8906 17.2982 29.902882008
33.2975 3.93791 19.1332 25.2412531538
37.0499 6.37374 18.4213 29.0827606955
35.965 3.20811 18.1416 28.5776886464
34.5805 0.793948 15.4503 25.950221609
35.2481 6.85844 14.8439 29.5442227452
31.3316 13.2128 20.462 32.6641791647
36.908 9.4801 20.8069 27.1074765542
30.7867 9.22389 17.9977 26.2431681951
30.5885 5.25302 21.3783 28.0399483056
36.2979 3.26811 21.0975 28.1785874799
34.1903 5.69937 24.058 39.8232443677
30.0507 2.57138 23.991 55.9525313947
33.5744 2.75974 24.2526 67.5448917259
31.2676 5.2057 24.1961 58.30812888
32.7095 7.8768 24.6634 95.3953934559
37.7005 8.91606 23.7953 38.3449953191
33.8387 12.8832 21.735 28.7769205814
36.9741 6.02669 24.5317 100.6712164887
36.2163 2.86466 24.1974 55.6020929193
38.7167 11.1962 21.3546 24.87197526
31.1465 12.6627 24.5954 90.507789897
38.7336 2.16769 22.2225 26.5467097107
34.1001 12.4885 24.5428 80.4790642126
36.809 13.7679 24.1648 51.6269499205
35.0335 9.74811 24.4675 75.0621678379
31.7863 0.102165 24.4147 80.5761927896
30.4163 8.55809 21.3034 28.9732993257
30.5424 15.3753 24.3602 81.0030774631
36.0107 16.4253 24.6449 98.4661850409
30.3204 9.00312 23.9766 44.722486247
38.7078 11.7573 24.3273 76.3088096106
30.3578 15.7244 21.3911 31.2874592235
34.4248 10.1905 21.874 30.6997846327
36.4108 0.0297559 24.4526 77.2096914619
31.3934 0.245993 21.5257 30.2656213363
33.1924 15.8519 21.3199 28.7293634388
38.5944 16.4055 22.0438 27.4728775141
37.3036 13.4373 21.2069 30.5414673896
33.8538 5.81224 21.5025 27.4743261033
33.3826 2.06959 21.4593 28.0021647057
38.8011 10.853 36.2421 48.9152074972
34.5148 1.92548 38.6843 32.2604521879
37.5501 13.3378 36.1407 55.3970870973
35.4343 1.94944 35.8402 84.9867594424
35.6659 16.3154 35.5838 82.6157153182
38.1462 3.22229 35.2804 109.803439525
31.1211 14.0086 35.7096 71.3730270812
33.8469 13.8331 35.9587 57.4442644256
34.0815 4.55892 35.7694 70.0065419243
37.9145 14.5389 38.7127 34.0724598692
35.2361 11.1429 35.7353 90.2393753439
37.7772 5.70688 36.0697 46.239818531
30.7956 5.14127 35.5796 87.7699473917
32.5974 9.80337 36.0381 70.6895439352
38.2968 0.429146 36.5419 35.0372570051
35.9199 10.2777 38.28 31.9850085033
34.9819 7.17774 35.675 92.6055777685
32.4594 7.38738 37.1086 29.2038166573
36.0047 4.9274 38.2139 28.3270275923
30.9821 1.38355 37.6848 32.9336813728
33.5813 13.959 38.924 30.9111472541
30.1486 11.3788 35.9131 61.1562445882
29.8833 11.5948 38.6876 26.9573704239
30.568 14.4659 38.8901 30.0218944765
32.3228 4.07762 37.9035 29.5006934585
35.3018 7.42802 39.5243 31.9310220432
35.2598 5.32966 46.9034 28.5554325006
38.9945 4.84453 44.7825 29.5798163628
38.6596 1.8242 46.5298 26.8480460173
30.6797 4.24784 40.4 27.9660965241
34.8669 2.73155 41.2433 28.5127643125
37.1426 1.14988 42.1093 26.9893532363
29.963 9.61335 42.8857 33.0515238631
29.5309 6.54891 39.0131 26.8788257936
30.1838 0.877068 43.6449 30.0000275709
37.6132 8.26995 41.3232 35.5791576116
35.4145 5.38355 41.6635 27.9619424964
34.7152 0.2787 46.8342 25.7208838599
34.1443 15.5977 42.0161 31.6180869811
31.8816 10.5044 40.52 28.6946251889
32.4148 11.3991 43.1392 32.8863538603
35.5049 11.4568 42.7157 32.4704701299
39.3292 7.82454 46.3941 29.9292774424
36.6915 8.04244 46.9276 29.0088374445
37.7974 4.13747 40.1485 30.4848173423
38.1851 14.0501 43.8789 28.5707577549
34.43 11.5215 40.2388 31.3016139693
32.3628 14.5705 45.9356 34.1843731785
30.4959 7.33845 46.5857 33.8319175538
34.9028 15.1326 46.1032 28.8263751599
36.27 9.24962 44.0625 27.4195859733
30.7067 13.7287 43.4682 31.594440277
36.997 2.76188 44.3582 28.4030641659
32.6144 2.7052 43.071 29.6025770815
34.4621 9.99025 47.2309 35.655638447
32.313 7.97112 40.0929 32.5879518108
38.1058 11.207 44.9284 31.5379901722
34.3104 2.93431 45.2755 29.4593316584
38.4621 0.725701 39.3653 31.4244811966
33.5338 9.17419 44.7672 34.7034367133
31.281 15.779 41.5554 34.2230711812
35.6128 13.9354 43.8832 28.2529278695
32.5881 5.45833 42.1979 30.9148171142
36.5727 6.15159 44.1777 30.9210790484
31.23 7.41456 43.8052 29.8798629383
39.307 6.44049 40.3239 30.5688806804
35.7459 15.5529 39.693 26.7450673509
36.7226 11.4157 47.2966 26.6515883007
30.6621 1.06978 40.4944 29.6613160996
30.179 2.39005 47.1956 35.5908833638
38.6575 10.0937 39.0275 30.7837223308
32.7094 0.811594 53.0641 27.1170677577
33.7184 2.90286 51.6102 27.1484680434
33.4414 9.6265 52.5119 32.0670418963
30.7434 9.02789 56.0648 29.9135877775
38.6849 11.1288 49.0822 31.4734123218
34.0677 8.43868 49.5851 26.5530251389
30.3722 14.0979 55.8573 32.1036218533
32.7996 2.68583 47.5835 29.4651563886
32.6214 4.8636 49.4989 27.9880475134
37.0275 4.53806 48.7328 28.1232433294
35.0539 12.7457 51.6562 30.0827477809
36.2249 10.0955 50.6165 28.3639138111
31.0585 8.63824 50.4972 31.009022191
29.4596 15.9323 50.9042 29.328216579
38.6086 15.507 48.6225 29.3827368787
38.2571 10.285 52.9162 32.5366108643
30.3129 0.485869 51.7893 30.2811168894
31.0958 13.4736 50.7487 33.629360559
33.782 12.4405 54.1256 28.0222347597
30.5763 9.48014 53.1724 25.909200103
32.8777 6.71534 47.7077 28.6242590627
36.0995 13.9357 48.0918 29.7627762292
36.7291 13.9486 55.2206 28.0008078355
37.6712 12.8021 52.5307 31.847403877
30.3586 12.5327 48.0612 39.1647518134
29.9643 5.82369 50.373 30.7440936475
33.5095 0.670511 49.6838 27.5696622801
36.441 2.13738 52.4718 28.3522904897
35.3649 3.35129 54.7054 29.9956436706
34.6593 16.0988 52.2718 33.0968980171
33.6675 14.2409 49.6857 36.93398027
34.1899 6.92975 53.0043 29.5269229419
32.9122 4.60941 53.7847 26.7387780407
38.4121 3.84071 51.2386 34.0817688805
36.7005 5.95529 54.1909 29.6079187233
30.445 6.40231 53.5676 29.3877533942
37.7356 7.64212 50.8093 29.8573987296
32.499 15.7348 54.3014 26.0932972087
39.0441 2.53029 54.3257 30.3529184845
30.1744 3.46083 52.0649 29.2549310868
35.136 6.0156 50.3335 26.8007968136
36.8887 1.54737 48.4763 29.9967874798
31.1263 12.2922 53.5784 32.6775364
38.3747 9.30817 55.6197 32.2257001563
31.7054 1.11995 55.6717 26.6566256982
39.3164 5.04004 55.9325 26.6013650132
29.7376 9.90953 48.3204 35.3063834859
34.2503 8.01809 56.0986 29.653856397
39.2829 6.52025 52.8869 29.7303718505
30.9924 3.68153 55.8692 31.0560022604
34.4897 10.5311 56.2337 28.6596476269
39.0598 13.5885 56.5644 30.319188419
35.908 29.911 9.21347 29.9736888131
31.0144 26.4834 7.86131 30.3846319442
30.3187 18.0979 9.38227 28.6027911031
29.628 22.6177 10.0431 27.4933678781
29.9217 21.3587 5.57838 28.5941841764
34.4629 16.984 8.98043 26.3712445574
34.0835 24.3637 11.6091 32.6862649284
31.4629 24.1178 6.11903 31.8847563515
37.0097 25.4866 11.9565 31.4655720881
32.6501 20.6493 5.58451 28.7097225469
37.2647 18.0618 4.26563 31.8241571157
36.1697 26.9848 5.78483 33.7197645666
37.8721 19.5009 11.7728 25.9272556095
37.9612 32.081 10.7188 28.8623259078
31.2868 26.1556 11.9432 32.1335329427
36.0889 22.2422 6.55852 27.863489066
30.8817 16.4221 5.36478 30.0962327396
33.5559 27.3583 4.82106 33.507128268
36.9202 32.4664 6.08683 29.4229953403
29.8582 30.811 11.8803 33.344596906
36.1839 24.2458 4.59121 30.669700285
30.7973 29.7552 9.59479 25.310144894
32.5419 19.533 10.5973 28.3759495061
32.4259 31.2902 6.43885 33.6302405276
38.9658 24.1862 5.78501 28.8991800588
30.9796 28.6911 5.90463 31.4080546938
33.0954 26.2143 9.59634 27.9262606996
37.2937 18.49 8.91947 31.5247360892
35.73 22.2929 10.6769 27.5285763608
38.1731 20.0102 6.57816 32.2822418851
34.8897 20.0333 8.9682 27.8680930113
32.7647 18.3428 7.20859 27.0960915917
34.7827 31.9188 8.07404 29.0123833159
37.5566 23.1608 8.79011 28.3816576413
33.6344 22.6845 7.50841 30.6597542821
32.4497 22.3675 10.1585 28.496468303
33.2432 28.8707 10.4918 32.2475457281
37.9194 25.8258 9.37467 28.2914616067
35.508 27.1055 8.50455 33.2361525205
34.6818 17.3848 5.34397 30.3786416404
33.1472 24.8483 4.03936 26.5530797233
35.6645 30.8374 11.8336 29.9390694036
38.0578 29.0082 5.13527 30.1373697191
38.5787 30.2508 7.64683 27.7997945441
38.1786 16.7616 11.9995 27.9705407844
30.0791 16.5652 11.9098 27.7911760181
32.4049 32.4454 9.54719 31.3409378046
35.0093 16.3591 11.8686 28.4752592124
39.4892 16.438 4.07532 29.3087121473
39.2412 21.6704 10.8581 30.4392114928
36.1996 29.6535 17.9372 27.6737110658
30.0288 28.5845 15.479 27.3040175595
37.2561 31.7156 16.1261 31.6393423504
31.1186 21.3163 13.0016 29.8360596811
33.214 23.553 17.5276 32.3766341569
30.7011 24.1705 15.5587 33.1055091306
30.942 21.469 17.5524 27.4068617922
32.3375 18.0185 14.8675 31.8497758241
36.0636 20.1731 13.6024 29.0471696082
36.1773 16.6385 20.2496 29.6594347673
30.4255 22.7288 20.2897 29.3226550001
29.5429 30.3512 19.9232 28.9738066786
30.3851 26.4894 17.0656 30.8653030755
31.6216 32.4526 13.1264 30.7030175071
31.3217 30.4179 17.0225 28.5123654282
38.0736 25.4732 17.8377 39.0813480824
34.2284 29.1468 14.1739 31.0171397379
38.9453 20.7168 18.3171 29.2837019882
31.4436 28.634 13.3281 29.0757604937
30.3757 18.696 17.8418 27.183742519
37.0893 26.9954 14.1009 33.0023379897
33.5329 16.6087 17.0012 33.8627388613
33.1606 20.2672 16.4832 28.8670457248
31.0801 18.4961 20.4236 30.4372658009
37.4452 27.8449 19.3545 25.9769280035
34.22 18.2146 19.2461 27.3633280001
29.5532 17.7213 14.7249 26.9015518608
38.0703 19.3652 15.412 30.8800268979
