32.1436 9.51629 36.8092 28.0997444969
34.1118 10.8515 35.3759 116.6743019843
30.0082 11.0466 35.9565 66.2516727903
36.7136 9.11785 36.0042 64.1519487306
38.1446 11.8363 35.6446 92.3684810595
36.8279 12.0062 38.1696 29.5753950264
33.4916 13.4576 36.2617 35.0522228257
30.8071 14.1546 35.8689 85.8435825346
37.8465 14.6863 36.1365 43.5337287703
35.3303 15.5499 35.3184 101.5589877301
31.6718 1.03136 42.1822 28.2283328279
33.1352 3.42535 42.6957 27.9615144809
35.6889 2.14061 42.71 30.1446005366
37.3842 2.64811 40.2552 29.9963716049
31.2879 5.08781 40.7665 27.7296731704
30.4839 6.97427 42.476 30.1110201372
38.0373 5.57115 39.1309 29.647042858
34.7672 6.70225 42.4459 33.7717049422
37.7338 6.51438 42.0786 34.0347958547
34.9929 4.47597 40.3941 27.1053843338
32.5364 10.1329 39.3199 28.5260966995
30.3958 12.0645 41.1731 26.9382850057
30.1683 9.17161 40.9161 27.4577083037
38.9544 8.43409 40.2766 28.244912297
34.682 9.08585 40.7964 30.9083042446
35.2196 11.4818 42.6067 33.4230017349
38.5336 11.013 42.0605 32.962114578
36.6843 9.1222 38.8477 29.0327004552
33.4543 13.836 41.699 29.0974929346
34.2038 12.6238 38.9789 30.9952179615
31.8718 16.3314 41.9475 28.7621795711
31.4137 14.2094 38.837 30.0059106872
36.3404 14.6238 41.3706 29.0662989612
37.602 15.3726 38.8728 30.3048299302
38.8149 12.9089 40.1047 28.0786218583
33.2625 0.243903 44.4544 26.8381201776
34.109 2.10129 46.6308 29.6012982212
29.7902 3.6476 43.935 30.6322585748
39.0043 3.18229 44.5339 29.9622393328
36.8654 1.58098 45.1275 28.1650662708
30.4381 4.57481 46.31 34.3232262715
32.9703 4.29274 45.4838 30.9271772826
33.8765 6.74981 45.0614 30.2766610076
38.5561 5.75548 44.5285 34.7675600933
36.6829 6.57038 46.3343 33.4523332012
33.1295 8.45979 47.4218 31.574720533
31.6389 8.67338 44.5057 33.1055487401
32.2026 11.6379 43.5369 33.5109797789
29.5485 9.63311 46.1174 32.1740890799
37.2895 9.05313 46.9479 30.9665123396
35.2914 10.6182 47.0138 33.6633509131
37.0747 11.7174 44.6649 30.8666661846
33.6794 13.9794 45.0249 33.5829609839
30.0918 13.6902 44.2939 31.4902963674
31.9611 16.1227 44.5789 29.2788407952
37.9878 14.6585 46.9259 28.7907515154
36.998 14.4861 44.422 27.8966527691
32.7702 2.22904 49.1668 32.5264140587
30.3067 2.3818 48.227 32.0521059095
36.8918 2.06893 48.3485 30.8863673369
33.0765 4.67008 50.4519 35.4810139678
34.3624 6.92747 49.2936 32.6366518683
37.5766 4.69381 51.357 25.4858806518
39.3299 6.80854 51.0577 30.0987369148
36.5007 4.91123 48.6227 35.7741802529
33.1572 10.7066 50.4515 28.9537933553
30.9956 9.85452 48.4335 28.0372783272
30.3217 11.8551 51.6943 26.5541283688
35.5129 9.25314 50.6352 29.7471220329
37.4477 12.219 50.7761 27.2917780886
38.1869 9.32788 49.7824 31.7746271738
32.1949 14.8844 50.8803 29.5449891647
30.9096 12.6675 48.7965 31.0667056586
33.1345 14.3784 47.827 30.2802505771
38.9271 14.2442 49.4432 28.2880736827
35.0424 12.3338 48.9725 28.6591002272
34.944 15.8688 51.5288 26.4618498176
35.8925 15.2748 48.8887 33.0412775496
30.154 1.26551 55.3153 29.6230406789
33.9414 0.312201 54.099 28.6197257523
31.2784 3.7203 54.6263 33.0196353824
34.0938 2.90192 54.7093 33.3446695254
36.6818 1.73015 52.8668 32.7019562484
37.189 2.71592 55.6627 31.8735059984
30.8246 4.96441 52.2616 32.7576370441
31.2243 8.04804 52.2361 34.6276688668
35.1958 4.58325 52.5576 32.5586149864
38.4559 4.75505 54.1274 28.855158019
37.7277 7.60442 55.018 27.8848542904
35.9316 7.43693 52.987 31.8090598344
30.6843 9.81737 55.7491 31.3147370676
32.2545 10.4846 53.4653 26.5119014586
34.3253 8.85102 54.7089 33.8353107956
39.3202 11.4201 52.5877 27.9281759823
35.8079 11.1885 55.1098 28.0858075691
38.2765 10.4813 55.1112 26.4227036867
30.2245 13.1413 54.3314 29.3464949296
33.12 13.5613 53.4748 29.3882368355
32.9845 16.1436 54.6729 31.6246706851
35.8062 12.6932 52.9191 28.7672768328
37.2387 15.1478 53.2167 28.1266752941
31.494 17.1374 7.40937 31.5845493131
33.3641 16.5449 4.50536 26.6479174186
31.6456 18.8042 4.91565 27.5284682933
34.2032 18.0295 7.46794 28.8027159379
34.4779 19.815 5.08061 28.7624087718
37.4356 19.1379 5.16519 29.7711440168
36.0734 16.3981 4.52495 29.3738124526
38.4675 16.8877 7.25249 29.9724606725
32.9735 21.8903 6.30587 29.2462383588
30.4785 20.6586 7.45836 29.8078327358
31.7851 23.3431 4.22027 34.7668860444
35.0657 23.963 7.19763 29.6806744582
38.7841 20.6337 7.19495 33.3497727272
36.2599 22.5783 3.93738 31.1233166783
32.5601 27.1579 6.23258 32.1993533195
30.6122 25.4749 5.7545 31.9771149813
37.8499 27.5291 5.99862 32.1453299125
38.8771 24.8927 7.25388 30.9644835902
36.3472 25.0678 5.26333 30.395364185
33.4057 29.1881 4.38084 31.2337743825
30.6365 29.4659 6.94075 29.1760129723
31.7114 31.7689 5.39805 27.6098746948
36.0779 29.6205 5.34611 28.9315072183
35.58 31.6982 7.07467 27.4779898834
37.9335 31.1577 3.89133 31.2043847685
33.1421 18.7253 11.5913 29.2404390941
31.0582 17.4133 10.4462 30.4523674132
34.5047 19.6339 9.73201 27.299438965
37.107 20.3847 10.2632 28.061608104
37.7443 17.5984 10.9755 29.5295178093
30.2666 23.5413 10.4045 30.5580897739
32.3901 24.4824 11.8259 27.0668511513
33.2077 21.747 9.1568 28.2018287586
29.6425 20.5716 10.1026 27.7984189332
31.956 21.3218 12.0879 26.2893245845
34.5814 23.8887 10.411 27.9328869625
37.4116 22.6233 8.54281 29.5172383206
38.8976 24.4442 10.2884 30.2494422895
34.0484 26.1697 8.74273 31.8274827308
31.9673 27.0174 10.5928 30.9499025666
37.1509 25.9585 12.0349 30.5260089652
35.7791 27.7796 10.4311 30.6375268158
31.2612 29.8592 12.0514 29.0613030419
33.1585 30.4707 8.33038 31.358776965
33.7645 29.8491 10.8563 27.3635234592
37.0264 29.0533 8.47258 32.3123603316
35.8619 31.7928 10.3399 27.4010356157
37.9652 30.8105 12.1734 26.9708517197
32.2818 17.4196 15.4869 32.1554080768
37.8346 19.6062 15.1827 27.7810106721
35.3701 18.4915 15.1226 30.0902466307
39.0613 17.3776 13.4752 30.0689356829
33.2111 20.4373 14.578 29.7644071706
31.7232 23.8968 16.3772 30.0031568591
29.9631 20.5738 14.1945 34.8100891291
38.3171 24.4718 16.5812 29.5553061028
34.9282 22.0263 12.9017 30.1902145169
38.8459 23.5805 13.8635 30.316232158
37.5793 21.1273 12.8684 28.30938454
30.7716 27.6364 13.7872 29.7530625707
32.6856 25.5688 14.3743 34.8710449542
35.5581 24.6181 13.8973 31.5610580353
36.1816 26.0339 16.1613 32.895111207
39.1445 28.155 12.7373 31.6105980256
31.0631 31.906 13.7774 31.5059557979
32.7424 31.6676 16.0594 29.9409162985
30.9405 29.2063 16.1342 29.7015151885
36.5956 28.757 15.6829 31.1161885338
35.4777 30.1021 13.2894 33.5085779905
35.0149 32.392 14.8842 27.1771673514
31.6721 17.4924 18.1172 28.6217770008
30.9924 20.3253 19.0663 31.8987433124
39.2069 18.6115 17.7571 31.6277281571
38.1868 17.5883 20.3599 30.2888791775
34.519 18.5526 17.8372 31.0787516609
32.7924 21.515 17.4966 29.4338284117
33.8623 23.1481 19.1801 28.4125479053
37.4144 22.9561 20.852 24.8003826497
37.8251 21.6783 17.3354 32.9769127209
35.6835 20.9277 18.9825 28.423800427
31.7183 27.9639 18.5134 29.4822038261
30.6352 25.4948 18.5161 31.0447940259
33.8738 25.6412 17.9969 30.8521732768
38.0335 26.9286 21.0629 29.0025624017
35.4664 26.6048 20.6827 30.2358192632
38.9515 24.8968 19.7503 28.253013757
30.3894 29.3319 20.6904 29.1345710753
34.0945 29.5011 17.0067 33.3549148059
38.4909 30.6462 17.5843 29.1059847667
34.4925 28.8558 19.7307 28.1874913233
36.1855 32.6468 20.5149 27.1772498533
37.1201 30.1035 19.9481 31.6218151668
32.0533 16.7658 24.3758 67.5504764811
31.22 19.8771 24.1886 50.7064234377
32.286 16.8086 21.5211 29.5409836236
34.2014 19.3216 24.6842 82.1214383983
30.9267 19.1002 21.5072 26.7012231827
37.7005 20.1537 23.9818 40.6021965934
36.4195 17.7265 24.4265 65.0023930222
35.3475 17.4368 21.9141 28.1080618802
38.1298 20.4062 21.3192 25.5024439093
31.0357 22.5095 24.2287 69.7156313281
32.3579 21.883 21.6182 29.9547546141
35.8305 22.0629 24.6928 101.067116402
35.0818 20.4912 21.9197 28.2157569016
38.2619 23.3984 23.4167 31.8985884014
35.1132 24.0211 21.671 26.4318789216
34.4493 24.6245 24.2659 75.6607655123
30.7177 27.9422 24.4234 95.5907934599
31.8606 25.3432 23.8465 46.458481728
30.6467 24.7862 21.4732 32.1515293671
35.3477 27.2726 23.7928 46.4402732457
38.3362 26.1322 23.893 64.6346009989
33.1597 28.9496 23.6922 39.3920499603
30.1452 30.5133 23.5608 41.897030598
32.7319 30.222 21.3555 27.0459168593
33.3101 31.854 24.1819 78.2036283262
39.0999 29.518 23.9322 41.6657157736
35.6942 32.5812 23.3413 36.3435701421
36.4472 29.8894 24.4757 116.1812771077
32.1909 19.3021 35.6376 59.2108772651
31.2942 17.1263 38.1283 31.9346976212
32.7436 20.3808 38.3879 28.9842213916
32.6903 16.6493 35.5151 79.3710363461
29.6247 19.7799 38.2948 32.3803403118
35.9371 18.2046 35.8781 47.4975191338
38.6885 19.0584 36.1205 52.4031035845
39.0102 17.7713 38.6463 25.2258630299
31.949 22.957 36.4415 34.6802253432
34.6735 20.4993 35.3188 98.4228467683
39.0817 22.465 38.7474 28.4149995823
36.4475 22.7039 35.9268 65.1932943128
38.9873 22.2085 35.9653 58.8760022443
35.412 21.734 38.4596 28.7355174364
32.7702 25.2262 35.3407 126.6979805706
31.6296 27.1428 36.5633 29.6912109324
36.7143 27.9008 36.5063 43.3760123203
35.2738 25.2393 36.4439 42.3153652991
32.6192 31.5645 35.7356 85.2632536013
33.9801 28.6483 36.0254 70.5347241655
32.9288 30.1294 38.4773 29.6749016224
30.1363 30.1615 35.9048 67.7049938152
37.3577 31.2937 38.5044 27.1377581246
37.394 30.5663 35.8473 82.5510813772
34.8852 32.4757 38.2696 29.5521183538
33.0851 18.2792 40.3285 29.4613348443
33.1678 19.9905 42.4661 31.1744104194
37.472 20.121 39.4721 26.4597870206
36.0341 20.3886 42.2487 30.4696196448
35.3916 18.3131 38.8714 31.8424817742
36.8861 17.19 41.7729 29.513463945
32.3682 22.876 41.9051 28.0480620885
32.6577 23.7129 39.2594 28.5814306398
29.6123 23.2582 42.4143 29.7063308293
35.7201 23.3391 41.7576 31.7769016232
33.6886 25.821 42.2012 30.6637454325
31.1404 26.344 39.3031 26.3781000629
30.5686 25.9289 41.9878 28.0303186044
33.9315 27.8236 39.9856 31.1434356663
36.9322 27.6674 39.1656 28.056222606
35.5935 24.9077 39.1152 26.5039068351
38.3477 24.8698 39.8605 29.3653653649
37.8327 27.9224 43.1461 30.1873352868
33.1806 32.6677 43.1216 30.1357536723
34.284 29.9447 42.0659 31.4877686093
30.2085 32.5939 42.2234 33.3800741364
30.4679 30.6091 38.8361 30.5722875066
37.1293 29.8758 40.9456 26.5173381015
29.9926 18.9441 46.954 27.2347604088
33.7905 18.5678 44.9829 32.6523496941
30.5469 19.4313 44.1419 31.2508636864
36.3086 17.6677 44.5505 32.1822463451
39.1651 17.3668 46.2333 33.2807562253
34.753 20.3762 46.8672 30.4800032639
31.76 21.4796 47.5707 31.8599532504
33.0521 23.7959 44.655 28.9238522017
30.6816 22.2896 45.007 29.2951155981
37.0981 24.0639 44.2465 30.0242492011
35.1804 23.0816 46.1466 29.9496707988
37.384 20.6723 44.6725 28.3023812491
33.9921 28.4971 44.3625 29.1483256767
32.1147 26.4472 44.8862 28.7298592541
36.9933 27.7971 47.6185 29.7483714722
36.446 26.7745 45.0494 30.1153718909
30.9305 30.1135 43.6521 35.0624633829
34.2023 32.4777 46.1373 29.4646115505
35.1934 29.7849 46.4894 26.9824623028
37.8528 30.352 44.8612 27.4050242912
38.3509 31.721 47.2861 27.7741291113
29.9063 19.8183 49.7686 27.4080016511
31.9498 17.9582 50.5351 25.2371630561
33.8833 19.8169 49.7059 29.3925528234
31.2301 16.7636 47.9726 29.4267669887
38.5565 16.3894 51.1199 29.1531414828
36.189 18.3641 50.1736 27.5637601985
37.473 19.351 47.7275 31.6963423761
30.0234 22.4082 50.577 29.5200179138
32.9975 21.9565 51.6658 33.1111774498
30.8259 24.0683 48.3968 35.2037962358
38.5912 22.0344 47.9292 32.3444467534
37.3723 24.0249 49.7111 28.2312181993
35.9439 21.7036 51.3901 31.6105293299
32.15 26.8704 50.6053 29.8752228298
32.7119 26.2383 47.8214 32.1387513039
34.2811 28.3181 52.014 29.2177891644
35.1041 25.3997 51.4256 34.1925869398
35.5423 25.1761 48.0233 32.0923974879
38.8333 28.1402 50.9773 29.0290907888
33.0316 31.5475 51.6147 33.4877400124
33.2449 29.1611 48.4602 33.0741349726
30.9936 31.0338 48.4633 30.0746223154
29.6583 29.1637 50.1521 35.9556766765
36.8144 32.0774 49.6035 30.696286002
36.2876 29.1391 50.0472 30.8672607563
33.6404 18.0088 52.7258 26.623340305
30.1105 19.3167 52.6842 26.9115478324
30.5365 17.4325 55.3602 32.2779471466
37.539 17.1985 55.0993 28.1774305179
35.2639 20.1788 54.9996 29.0754028229
36.7204 19.2425 52.7452 25.1170830621
39.0564 19.8704 55.761 27.6790138547
30.3172 21.0536 56.0203 31.4299675088
32.4522 20.5587 54.0603 29.8930108765
38.8685 22.9056 55.8786 29.2298182826
39.1089 23.1408 52.4627 28.0534119611
35.2802 23.0778 53.9641 27.1749517976
39.0699 20.4572 53.1489 29.0610581567
32.8987 24.7342 54.7554 30.9961159816
30.9902 26.9943 54.7241 27.9518727971
30.9023 24.992 52.1413 33.9263207076
38.3878 27.4539 53.8335 30.0912474175
36.0412 28.3196 54.6185 28.9478579123
34.6552 26.5051 56.1213 30.864176326
37.2776 24.9391 53.2687 27.8179559056
30.3776 30.7492 52.5706 28.6174769455
32.5038 29.1751 54.2216 28.1124952984
31.1697 32.1196 55.4011 28.6403001879
33.597 32.6738 54.272 29.5085138648
36.1516 31.239 54.0995 31.3955901692
37.9398 32.0389 52.1879 33.6302391325
33.3395 36.7144 5.84157 35.118222393
33.7974 33.6037 5.6733 32.6447353022
39.0779 35.7957 3.95757 27.9467550768
36.9549 36.4533 7.8876 32.5011710589
38.0547 33.681 5.29586 27.288265419
31.0529 38.314 6.10372 32.2417227638
36.815 38.8336 5.92457 29.851197217
38.6362 39.599 3.90812 31.4439489119
35.0786 37.9961 4.05561 29.777346924
31.3062 41.0695 6.10407 30.9919772317
33.8179 41.9877 5.10953 31.7888093203
29.7022 41.8564 4.00678 30.979389421
33.2468 44.4853 3.88334 34.8082447339
37.7936 42.6443 6.8816 30.4245529306
35.4135 41.1379 6.80274 28.5039019444
37.9307 44.6293 3.9149 33.7769626085
32.3756 47.8396 6.7581 29.5763788044
31.4382 46.8002 4.3612 28.8279186551
35.2061 48.4003 5.6992 27.3213238154
37.4552 45.965 6.28919 27.7390654453
35.0882 46.1445 7.83958 30.2036690738
38.1145 48.5823 5.5491 26.6923433274
32.63 33.4946 8.49431 32.9367555156
34.3832 34.1455 10.517 27.3843531464
31.317 35.5941 10.4923 28.2000870522
37.409 33.7666 8.11001 30.2970683709
35.4065 36.563 10.268 29.3244530954
38.9178 33.8959 10.6921 30.1194314234
33.4585 37.267 8.61335 29.425697661
29.8035 38.0416 8.54203 36.6553623628
31.678 38.0598 11.7059 30.5308984123
33.9284 40.3307 8.99057 29.0069547835
31.0037 40.309 10.0399 31.6340396178
37.316 40.004 11.0416 27.331120584
34.6166 39.0719 11.3589 26.9722012466
39.1999 38.1126 8.50501 30.2488222593
39.1559 38.2392 12.4245 28.5228817365
32.8842 42.9792 12.1823 29.2169547189
31.0693 42.7352 8.20303 33.4023164299
30.2413 41.8904 12.3172 27.4040456707
33.4957 43.9476 8.80572 30.6738259695
38.372 43.5992 10.6407 27.5907714016
35.7704 42.5688 10.0878 28.3400866577
38.8899 40.9693 8.89994 28.5329523643
33.1412 48.387 9.74451 28.0690777971
32.0217 45.4197 10.7836 26.6684816271
30.3946 46.573 8.56881 29.6874331182
36.1064 47.2464 9.97718 27.0222294412
36.6206 45.8339 12.2754 27.6308596326
39.2763 45.1554 8.23532 28.5608823043
38.8504 47.281 10.0675 27.8164447629
32.8557 36.6216 16.6286 31.8199329095
30.2012 36.1181 15.3 26.5162883884
33.7965 34.5019 13.367 30.5007415943
31.0233 34.7766 13.0707 29.1416566817
37.3612 32.7909 16.0107 28.0494009515
37.9111 35.5961 16.4641 28.3389059017
37.1574 34.0942 12.6376 25.8726207938
37.5874 36.3554 13.7199 28.3520337288
31.6731 40.4374 14.4548 28.4250781201
34.794 36.9704 14.6717 29.7005275115
38.884 39.9026 15.3032 29.0477225964
34.4619 39.6742 14.2912 28.6017156785
31.9526 43.2419 14.958 26.9181341159
35.4899 42.0262 13.0113 26.4364301236
38.1778 41.5628 13.0905 26.7686145416
36.2179 44.3532 14.9339 29.3405335714
37.5643 42.367 16.4131 27.5371988755
33.9528 48.9461 15.8623 29.3862281132
33.5579 45.559 14.93 28.4236354319
33.7652 46.7524 12.569 28.0090078539
29.5666 46.4968 15.4598 32.507888574
36.6684 46.2577 16.8146 27.7235094434
37.7836 47.8791 13.3905 27.8934860827
36.8022 48.8206 15.8985 31.8565842907
32.5978 33.9662 17.9296 32.2278482696
29.6876 33.9203 19.2263 32.3071320972
33.4214 32.8168 20.6842 30.2778545278
36.3575 36.3949 19.5782 24.6103672179
35.5521 34.1654 18.1349 30.4975246539
38.7156 34.0911 21.1977 33.1821282627
30.3778 40.3057 16.9091 28.6244772599
29.8862 37.511 19.8071 28.5783646988
32.6129 40.3509 18.4593 27.146678011
32.7454 37.5938 19.2279 26.3392106771
36.6027 38.3688 17.0809 31.926462317
35.1496 40.7064 17.0059 29.6631665702
38.9052 36.8015 20.0079 30.0677084798
35.1532 38.9652 19.7271 26.6628867187
32.9855 43.2904 17.6975 29.924397409
31.8305 41.4277 21.1831 28.9538170486
30.8695 44.3528 18.6189 30.7641007402
37.3487 42.9433 19.1547 30.3828602415
39.3173 41.406 20.9267 30.1228503586
32.3474 46.9162 17.4291 30.9003194552
34.2341 45.6988 21.087 29.4097264578
31.4449 48.9789 20.0221 30.4767455666
38.6625 45.2556 18.3794 28.2568917865
34.4565 45.7402 18.4766 27.2816100768
34.7094 48.8866 19.8851 28.9162834027
31.3459 34.011 24.2865 78.43674162
31.3614 35.2467 21.5721 28.8877411434
35.607 35.4304 24.1724 84.2641471536
34.6138 35.5621 21.4993 27.8369602394
29.9775 39.6999 24.0377 68.000776852
34.1107 37.6139 24.5272 98.9185108682
30.4558 36.9772 24.3264 77.3198579396
32.7656 37.8706 22.3413 27.6922909609
34.2946 40.836 21.9206 26.2854977326
35.9333 39.6782 24.1765 67.9687425045
37.936 36.9213 23.5569 40.1670525389
37.439 39.211 21.7182 30.3159144917
31.1664 42.3798 24.0702 60.721998936
33.8895 42.3528 24.4259 95.9673877544
30.7 44.0815 21.5018 27.7869267097
29.5612 44.7776 24.3773 97.6783339857
38.6316 44.1551 21.721 25.5347137639
39.0398 41.0463 24.174 57.7729570434
35.7237 44.1899 24.1656 56.2171739607
38.3828 44.1868 24.4231 72.6598445652
35.656 43.3317 21.5223 29.5301080044
31.632 46.8167 21.8101 29.1283906103
32.7818 47.7521 24.2195 72.3680139361
29.8472 47.2842 24.0922 57.7193996386
37.6208 48.9618 24.4739 85.0220348657
38.5612 46.9625 21.687 26.2812500186
35.4788 47.121 24.1885 60.9619098473
36.1155 47.8985 21.8793 24.1704246249
30.5755 33.9425 36.2171 45.564952651
31.6609 35.422 38.6979 32.9227305584
38.4314 34.2724 38.5248 31.1484371457
35.525 32.8335 35.6781 83.6539245471
38.3516 35.812 35.8201 80.5422510089
35.0137 35.6013 35.7833 77.1203261243
35.7438 35.5795 38.4939 28.2022134065
32.3844 36.7806 36.0486 51.7214656835
31.5265 39.4289 35.744 75.1304177896
34.2122 40.1829 35.8454 68.8257237142
33.7741 39.7218 38.7049 31.238130162
36.5131 38.1774 36.2111 41.6528880243
38.4429 40.1839 35.414 105.8049159054
30.2747 41.922 36.1719 56.7569608919
30.9396 44.6164 36.1858 54.7787966658
33.617 44.92 35.5962 77.834302857
35.1706 42.6334 38.3926 30.3895729329
35.2139 42.8211 35.6176 73.8380752492
37.9449 42.6802 35.7616 59.9234302046
38.0158 42.6433 38.7011 28.0001262586
34.6537 47.4113 35.4167 102.9386144762
34.6661 45.5499 38.1804 27.6567255822
37.2121 47.8846 36.0126 52.6066738212
38.9331 45.3704 35.781 92.7173591928
34.8553 48.3865 38.7217 28.9152103892
37.5908 45.6034 38.3011 26.0977006647
34.0875 35.4618 40.7376 30.6930766377
30.0137 33.2321 39.3841 30.179052911
37.9175 34.7488 41.3897 32.198334273
35.365 32.7545 41.2381 27.3914196244
33.2907 39.4437 42.1758 32.032039361
29.737 39.9792 42.9227 29.0823690899
30.3896 37.0505 40.9027 30.7024691411
30.9596 39.2562 38.8496 30.3277784535
36.4059 38.598 39.1177 30.39335017
38.5297 40.0979 39.9097 31.1071488118
35.5735 37.7323 41.6451 31.6803434659
29.9027 43.7551 42.7986 27.6082445122
33.6208 42.2165 40.9017 26.4482130671
33.1358 44.8876 40.3202 29.6538579852
30.6849 44.7136 39.0085 28.9073742161
31.0251 41.596 40.9174 27.5777523517
35.994 42.6528 42.6673 30.0475596608
37.732 44.252 41.1744 28.4562781249
30.5938 46.678 43.2155 31.3905904677
33.4485 46.9687 42.2879 26.8549615949
32.0112 49.0149 39.6769 29.0368754083
29.9081 47.3293 38.9682 28.2669336093
37.4604 47.1269 42.2136 28.5933266364
35.3955 48.6899 41.4718 27.3017005543
39.1608 47.3303 39.7034 29.5052825717
34.0155 35.1851 43.7233 31.8022871429
30.1435 34.8284 44.0492 27.7952830039
31.5317 33.7926 46.7902 26.5267357604
32.5304 36.4221 45.9378 29.691686263
36.3215 34.0131 45.6025 28.5100439977
37.4153 32.7116 43.4594 28.5501390849
38.8583 34.3903 47.1919 27.960504489
31.0129 37.6146 43.4738 25.5408715274
31.0379 40.0419 45.9442 27.3877334952
37.6471 38.5644 43.7303 29.0543152708
37.253 37.0321 45.9986 29.9848938848
34.9182 37.3336 47.4536 32.503928009
31.3704 44.8973 46.3742 30.040870081
32.6249 43.3836 44.2357 27.8995037874
33.5747 40.8824 44.8511 29.8325842669
33.8889 44.8324 47.587 28.0590479725
29.6007 42.4505 45.205 28.0391646166
38.0732 42.32 46.3946 30.7557438501
36.4854 41.0169 44.6541 28.7917249406
36.5737 44.6102 46.9788 28.640645417
34.5879 41.9292 47.4755 29.5645561282
31.5724 47.7867 46.125 29.0167211741
34.8047 45.0894 44.1155 27.2051382845
35.2341 47.5423 45.3967 26.4282223766
37.9017 45.4424 44.5582 27.2635922617
38.3612 48.2243 45.2722 27.8379844825
31.2627 33.6043 49.705 26.8666389257
31.551 36.5208 48.8658 29.4285937787
30.2141 36.3153 51.7715 29.9881388936
33.6805 35.7507 50.7022 27.9859060795
34.3623 33.0763 49.0145 29.5456131443
36.1697 35.6446 49.4468 30.1283180505
38.7758 36.511 50.3809 28.1853787832
29.8859 38.7989 48.4549 29.6674063831
31.7867 38.8674 51.1725 28.9268011372
34.6648 38.5567 51.6299 33.6427439323
35.7189 39.5974 48.9274 29.3911812346
38.3928 38.2495 48.2335 29.1336535774
39.1914 38.846 51.9373 30.5327764682
30.334 43.3911 48.7976 25.5662087965
32.9636 43.7938 51.7931 32.3321604189
33.8358 41.3852 50.5758 26.7799325173
30.3249 43.4445 51.6272 27.4533472538
31.8393 41.1923 48.5011 28.9175015472
38.4314 40.9105 50.3707 29.8577673917
36.3356 41.9963 51.3154 36.2699336394
29.9133 46.3928 49.3695 28.6275700206
33.9099 47.7806 47.7266 25.766301288
32.8197 46.0981 49.967 29.1969830217
32.5807 48.9252 51.1644 34.3185833637
36.3015 48.3942 49.0726 27.7715614959
37.9502 45.1543 51.0626 31.193605209
37.8022 46.4602 48.7344 28.887757119
35.4832 48.1273 51.5625 26.1301525628
29.8096 34.7875 56.0867 32.4402112173
31.5733 36.3335 54.2626 35.7284529403
34.2702 35.357 53.5116 32.9066827477
35.8107 33.612 56.2455 30.5662525846
37.98 34.8135 52.8733 36.7539899482
36.5466 36.3519 55.247 25.9797738038
33.7108 40.2399 55.7303 31.6334039994
31.1399 40.4826 54.6491 29.2380703475
30.1548 40.7469 52.2051 28.3701870176
30.3623 38.2475 56.1879 32.590107348
37.7911 38.6252 54.4149 27.4532557233
35.7334 40.2298 54.0136 38.553094148
31.5936 43.7249 54.6716 32.5474601006
30.2101 48.0022 52.1105 29.5876379705
31.5574 48.0937 54.6393 31.3743539895
35.5571 45.5495 52.4422 33.2674452462
38.4355 48.8143 55.2594 31.474567483
35.7181 47.942 55.777 28.9577947405
38.3425 48.0434 52.4048 29.4654710689
35.6919 45.2641 55.3672 35.2528420412
44.1916 2.64712 4.80845 30.8106396859
39.5977 2.21435 4.6462 29.3477640189
42.0439 1.15398 5.60925 30.9329186109
48.9657 2.4121 6.21465 28.1147669121
46.1453 0.642066 4.93704 29.5606869945
42.9422 6.70632 5.99522 29.1881090408
40.0038 6.09777 6.17955 29.4599540624
44.8438 4.32325 6.77591 30.1504262508
46.6128 6.10396 5.58847 32.3966736954
39.8948 8.42808 4.32707 29.0394411282
43.3132 8.32154 7.97923 29.0009791761
41.3123 10.5108 7.32747 29.0096492513
43.6599 8.21729 3.99876 24.3017007842
43.3218 10.6392 5.30651 27.9408058363
46.2911 9.00341 4.18352 27.8647976481
47.7251 8.72265 6.76359 29.2480745843
47.1282 11.7353 4.07709 31.1041253376
42.1955 14.7533 6.47753 32.1879108932
39.81 15.246 5.41044 30.5786056969
46.572 15.5414 5.68333 29.8568109242
45.006 13.089 5.48228 28.8203050905
49.172 15.4318 4.54898 28.4889701626
40.8375 0.306776 10.637 27.7133222734
42.1656 1.90221 8.40217 29.6423173846
44.5569 1.21534 9.67177 30.5715171776
45.4776 2.07595 12.2113 30.8911126275
47.008 2.99289 8.36023 30.6098301192
48.2206 2.48764 11.2867 28.4552778345
40.3251 5.93003 8.9389 28.039756098
42.8823 4.43945 9.1692 29.8779848917
42.1843 7.67589 10.3219 28.489832577
43.9532 4.34167 11.4757 30.9639504478
48.7417 4.86741 10.0003 29.8821322016
48.8553 7.77852 9.18862 31.7513860296
46.3837 5.85982 11.1626 31.5969060975
40.4359 10.1257 10.3962 30.4476131201
45.6958 9.5388 8.13189 29.4605365288
46.229 8.54689 10.7493 29.0389658156
48.0321 10.8691 11.2538 31.4021708762
42.0868 12.7877 8.51924 31.7217936193
39.6996 16.2969 9.49372 29.7999160473
42.6782 15.8492 12.0603 32.7711471619
41.0726 13.8328 10.9371 28.7588952838
46.0738 12.6167 10.5929 27.0527568549
44.819 12.2823 8.36691 30.405108187
45.7334 15.373 11.2678 32.8953198376
48.8374 12.6856 8.88559 32.7769988266
47.1275 15.0411 8.337 29.006804902
43.3944 3.60679 16.1037 28.5586751437
42.0837 0.981875 14.8186 30.4127634645
40.6121 2.96883 14.2231 31.4283975749
44.7742 1.19421 14.6164 30.8567769494
49.1183 3.09125 14.0479 30.8778383775
40.0305 7.68136 14.3373 30.2934042963
43.587 6.10899 14.9589 29.2813100705
41.8326 5.75156 13.0991 30.4983869706
47.5872 4.90678 15.513 32.8428151984
46.2455 6.38163 13.803 33.3357331967
49.0279 7.05773 16.7412 34.4138519347
41.0732 11.8541 16.7178 29.8353082541
41.4924 11.6764 12.695 29.0916505334
42.0403 9.61556 14.8695 26.461584302
43.6078 8.44865 12.5941 28.791467766
46.2801 9.51649 13.8343 33.0646626117
47.5833 9.49524 16.6341 33.1639918024
44.5208 10.4271 16.2039 29.3756242932
44.4518 11.8952 12.7346 31.7605020177
40.4971 15.4289 14.9372 27.2185745981
43.1229 15.7333 14.7696 27.0347515672
39.7129 13.007 14.3411 27.6405062731
44.6999 13.388 15.0035 28.1307025087
47.3324 14.2142 16.1761 30.7899398987
46.8357 15.5861 13.9122 27.4126415426
42.0714 2.58741 19.2468 28.3062427803
41.9837 0.0763309 17.7568 30.5222027135
40.0107 1.17316 20.53 29.1050389963
44.7391 0.605441 18.9491 30.2587110548
47.0271 1.03569 17.0853 28.1894768634
45.8732 3.60131 17.42 28.993183271
47.7151 0.118696 19.8351 31.9071972619
44.6254 3.24611 20.6185 28.4472566408
41.3932 4.9279 17.759 28.4961328111
42.2477 7.67999 17.0778 30.1603969892
40.2912 5.6421 20.2248 32.6014263557
46.0977 5.76487 19.2191 34.9251377935
48.8768 6.36647 19.1907 28.938741059
40.4717 9.63528 18.6999 28.7750082473
43.9975 9.36156 18.6246 25.7945222649
48.3328 11.0042 20.0774 28.432779001
44.4396 12.1956 19.6408 31.4075100575
46.4008 8.84329 19.159 26.3398942254
39.7236 15.9073 17.6766 29.8507404686
43.2437 13.4553 17.3737 29.0657025795
42.7024 16.0119 18.1787 34.0511195097
43.4097 16.0248 20.977 31.788077371
39.4152 14.3341 21.1401 31.0358126798
48.789 15.6035 18.3513 31.6113433598
46.9467 13.1947 18.9692 30.8589549016
41.8155 2.34218 24.1554 86.3450586756
40.1572 0.572303 23.0466 28.966665358
47.8223 2.6722 21.2611 34.955593309
44.4946 2.33773 23.3101 32.5414821745
46.3506 3.96173 24.6182 112.3607484293
48.5735 2.33759 24.021 44.2890330438
39.6963 7.11759 24.2901 66.4714729761
40.537 7.95578 21.8038 25.4649862059
41.6792 5.62577 24.597 93.6183063178
43.8601 7.43273 24.3845 63.9373778066
42.1379 4.47339 21.9009 27.6452249274
44.2854 6.45831 21.8798 29.8869418304
46.5757 6.92484 24.425 77.2311498738
40.3109 11.0073 24.1396 64.720819744
42.9673 10.0612 24.3272 68.530814119
42.9451 8.77829 21.2894 28.4239289101
41.0556 11.4175 21.5535 27.7831283303
47.1789 11.1945 23.3018 30.6691074891
44.7467 12.0403 24.4207 105.8802070895
46.8882 8.7391 21.9898 28.1590061386
40.0106 13.7471 24.0088 52.7817653541
42.3512 15.1897 24.096 55.7838952204
43.2923 12.9831 22.1238 29.235735582
47.1792 13.777 21.7542 29.2612745623
42.2132 3.51972 35.8142 77.5453178808
40.9194 1.09085 35.994 74.2899062481
46.6132 1.5658 36.1374 41.3698790925
45.1144 3.75452 35.6096 78.9000359639
42.2138 6.11811 38.3654 27.4958659255
40.9606 6.28633 35.6975 93.2070785458
48.9312 7.00541 35.9308 66.1431889176
46.145 6.09852 35.5954 90.0314189017
48.5135 6.97286 38.635 27.7451893255
44.4848 4.66749 38.3581 26.1049341187
41.7906 8.807 36.0524 58.124454976
40.6983 11.5431 36.014 47.1096226189
44.4993 8.45836 36.0707 53.7748880592
48.1915 11.369 35.3722 106.2100787906
45.3549 10.9377 35.8671 51.7628043514
45.6215 12.2452 38.3315 30.0760156575
41.919 15.3182 37.5112 29.2087493405
44.0941 15.248 35.5519 89.3755730885
43.1039 12.357 35.3453 105.2868959484
41.0461 12.9148 38.5319 29.9164727545
48.467 14.144 35.6554 86.6295272599
46.1652 14.8388 37.2073 31.0341421946
41.7679 3.01678 40.6627 28.0861151775
39.7097 1.79621 42.1865 28.7829197768
40.5691 1.13762 38.9939 30.483451606
44.4997 2.17561 39.9884 32.5448503137
45.134 3.51873 42.3808 29.6264974342
46.6884 0.825942 38.9269 33.8758463274
40.7114 5.53786 40.4952 27.7008275735
42.3002 7.36841 41.8307 25.6526766014
47.4018 4.65259 39.35 29.3278621424
48.4603 5.51491 41.8115 28.5147306937
44.8895 5.89701 41.1169 26.0233937684
45.3918 8.04089 42.9324 28.5852595525
45.2635 7.63991 38.8414 29.9226141146
43.8791 9.57601 40.2392 26.4654000786
42.8069 11.0806 43.0338 31.6835006618
40.6157 9.47077 43.1822 30.5936041259
41.4312 8.86313 38.9914 31.9265571717
46.733 10.3091 41.5706 27.8594346162
48.6316 8.57177 41.6697 26.6849548619
47.9731 11.6843 39.6767 28.8401978376
43.341 12.34 39.8617 30.5593130692
44.0744 14.0687 42.05 28.9396680753
39.5066 14.5938 42.6546 31.0937667819
46.3936 12.75 42.8855 30.3385228384
47.4832 15.1623 41.506 29.8068922625
42.4949 3.29371 43.5813 29.9425430343
41.5223 1.22698 45.033 31.0976125221
39.5979 1.59022 47.3291 26.7107709196
47.1223 2.42823 46.6617 32.0134794735
45.2154 0.13457 47.2286 34.8081285729
47.5587 1.49778 43.6366 40.6594053086
41.7547 5.8136 44.1393 29.7931056213
42.0379 7.88205 46.1027 29.8588326013
43.7549 4.88559 46.4319 31.4162443531
48.9757 7.5311 45.5985 29.7047184095
45.8991 4.37153 44.8801 28.1064658458
47.2551 6.34341 44.116 26.2194882011
39.7554 10.1079 46.0932 28.7921854289
43.9794 9.31513 45.0225 32.6101082634
45.8407 10.7376 46.7702 31.5393181838
43.4051 15.0759 45.8128 32.6040504999
40.1752 12.7603 46.1737 30.8982684098
41.7801 13.7066 43.8451 30.5548097325
48.3191 15.4103 46.3177 28.6814889925
47.0062 12.8679 45.5382 33.0783986793
40.6496 0.417556 51.8407 29.836177787
43.4517 1.33184 49.3692 33.6855125079
41.9617 3.20774 48.1251 31.723649264
39.5968 2.4882 50.2651 29.47160956
44.3687 2.25934 51.7374 29.4559040427
48.4466 2.90948 49.3594 31.8769277697
41.1545 5.5419 49.6852 31.371708434
42.659 7.57646 48.7491 27.0747539156
43.3516 4.98011 51.6547 31.5954021574
45.2091 6.64658 48.0284 31.9195780607
46.7223 5.35503 49.924 31.1258235613
41.0327 9.94771 48.5553 29.7723447774
42.135 10.5092 51.3103 27.9980743199
44.3306 9.65511 50.0212 28.0641727606
44.4515 12.1945 48.6013 27.9543276407
48.6021 11.6968 50.2397 33.1493805654
47.1034 9.22456 50.7454 27.7865470079
47.405 8.88399 47.7816 27.8895093415
41.4681 16.2981 50.2698 28.5730202917
42.0279 13.4597 51.1602 28.8390576851
41.9344 12.8219 48.4263 27.8602143614
44.9967 13.4292 51.4907 31.5118324719
47.8942 14.406 49.8216 31.3861357407
45.519 14.7931 47.6881 29.6747734135
43.1264 3.71342 54.9939 28.3300550891
42.8863 1.42986 53.5739 32.8991964649
40.8167 4.00619 52.4686 29.4247471608
47.112 3.48522 54.4248 30.4748077649
47.2426 2.59623 52.1017 29.7555087943
48.5261 0.222041 52.0844 28.3546275772
48.0915 1.3927 56.1936 31.4827084404
41.698 7.13138 55.168 27.7364015213
40.6644 4.4293 56.1568 30.432013015
47.7499 7.24297 55.2166 26.0314517883
45.4804 5.53392 55.6446 26.7383170205
44.5281 6.8778 53.305 28.6255619231
46.8647 6.99311 52.117 26.1780214825
43.2138 9.58418 53.8146 28.0806806947
42.5856 11.9047 55.7657 33.2595024289
40.1023 8.59338 53.231 29.6260389063
48.2288 10.1609 54.2052 30.2939748312
45.6339 10.6865 52.8643 29.5733450543
43.0224 14.5627 56.2362 28.5926851829
39.9871 14.0198 53.3592 30.2773053239
40.1717 16.274 55.6403 31.9014746466
39.774 12.7139 55.922 26.9340238274
44.6406 14.983 54.2099 30.0520995828
46.8229 13.3104 54.2734 29.8707314862
48.6449 16.2329 52.0292 32.2059727887
44.0257 16.9769 6.42859 32.2208606151
42.3154 19.4655 7.15513 34.6226553299
44.208 18.1176 3.74761 28.1851122339
48.5918 19.9417 7.50727 30.0218726308
40.3296 22.5344 5.17327 29.6398891399
42.1387 20.7357 4.5553 29.4683584179
45.612 20.5742 4.02709 31.8232040571
47.1523 24.4222 6.75592 30.6747228335
46.781 21.5479 6.41685 33.2754222044
40.4612 27.6508 4.98743 31.1755062205
44.2022 24.8474 4.40155 31.6772930604
41.5693 24.9726 6.04106 30.1750063159
48.4333 24.9342 4.25353 31.6097562371
44.3469 27.6211 7.80037 31.8036449113
48.156 28.3491 4.7013 29.8258254216
45.9844 26.8075 5.63643 27.8112267409
42.8746 30.3063 5.0548 27.0493091209
41.965 28.7676 7.08514 27.6770353407
40.9544 31.9742 4.272 29.3645852775
44.7026 31.4538 6.54524 31.0432925779
47.7404 30.6157 6.41371 32.5945484159
42.7844 18.6481 10.6566 29.7360687246
40.5019 19.0903 9.23159 26.5324774856
44.8748 17.2512 9.37849 30.1051165002
46.8532 19.1016 9.50025 30.6278812499
49.0563 16.9017 8.29496 29.232273708
40.3525 21.0414 11.2552 30.4647575281
44.1865 20.7514 12.1615 29.035983535
41.5135 23.5527 10.7727 29.2901245958
44.4582 22.62 9.95351 30.5052431393
44.6947 20.7617 8.09532 32.4562877946
47.2424 23.1837 11.8015 33.0860439587
42.6839 24.926 8.55406 30.6380309238
40.6729 26.7311 9.2325 26.3357072182
41.9906 26.8288 11.7112 27.1962497091
48.9327 25.3677 11.4088 32.6049947631
44.5958 27.252 11.2493 29.1644288081
45.7821 25.1656 9.53791 31.8174227692
40.8666 31.6498 11.2513 27.4841157102
39.5774 29.1246 9.67912 28.7839172374
41.1375 31.2072 8.5576 28.1049420519
43.6752 31.6716 8.8358 26.8698732561
45.2146 29.7529 10.0111 31.4772500173
47.4188 31.3137 10.5226 31.2772678735
41.2493 19.5156 13.8549 30.4360899219
43.5925 18.4606 14.9973 29.9788816026
46.4827 18.0019 14.6844 32.2319121598
46.9272 19.8002 12.6836 31.1099564386
43.5897 21.8468 16.7244 28.107891995
43.5698 22.7094 14.0684 27.3173906962
40.7746 22.0316 14.9341 27.4380795254
49.0769 21.4101 13.2702 31.3663830539
46.1808 24.0095 14.2888 35.7931342602
42.0937 24.8454 13.4627 28.9964500333
42.5734 26.1361 15.855 31.5792841814
46.6191 26.5652 13.0504 37.5655573723
42.2729 29.42 13.3385 28.8935472893
39.4067 28.8579 15.5149 28.6005061034
43.5671 28.6833 15.8048 28.7366770547
41.5938 31.2798 15.4888 27.6062046428
47.0071 31.5272 16.0984 28.7425662945
48.3074 30.8384 13.0673 29.5878086804
46.1028 28.8563 14.7506 28.5785575315
44.925 30.4392 12.6031 27.5570029075
41.3034 19.8117 18.8671 28.7332944206
43.5954 18.8814 17.703 28.8049225243
47.856 17.8884 17.0366 34.0981872322
46.0783 19.3178 18.8403 31.1003117763
49.2162 20.3661 20.1596 26.3571719597
40.753 22.3582 17.8751 27.1331466791
41.4627 23.8997 20.3103 28.535632334
43.4772 24.3622 17.9631 30.5974993554
48.5667 24.3986 19.5739 28.3571945192
45.1806 22.6247 21.1691 32.4412731934
47.6896 23.6501 16.8915 33.4249982364
45.7469 22.0753 18.2363 29.1309364791
47.9421 22.3796 21.2258 24.9021293999
43.9263 27.4045 21.1341 29.9350280688
41.4763 27.89 19.5361 31.2502911896
40.2565 26.774 17.1784 31.4293743224
46.7187 27.6124 17.2604 32.0348942993
45.8042 25.8619 19.1206 29.3843924208
40.5797 32.1284 18.5514 29.2563407573
42.6475 30.2259 18.4089 29.265184949
43.8231 31.305 21.1818 28.4003909856
40.8972 32.1185 21.1203 30.4406581349
39.593 29.4635 21.1608 28.4062190889
47.6161 31.9367 19.2835 31.7951314728
45.4778 29.9321 18.2559 29.697112387
41.588 19.4272 24.0339 37.6685875069
39.9225 17.3323 24.6616 102.8624997591
40.5218 16.6485 21.9675 27.1470037613
42.4749 18.9662 21.6547 26.8937868301
44.3687 19.6914 24.5483 88.2933566528
44.6029 16.947 24.5393 115.4309816867
45.879 16.4432 22.2424 35.1026904039
45.1127 19.8861 21.615 26.6000441361
47.9179 18.8049 21.9026 29.9040798895
42.6715 23.6556 24.2896 84.7511991657
40.6431 22.0187 24.4539 90.6741939832
40.5712 21.4413 21.4477 27.868752421
47.1431 20.8272 24.0617 61.6625744209
45.3676 22.9386 23.9651 50.3530138029
42.1067 25.5755 22.4457 31.0303613494
40.8208 27.255 24.3182 100.542807762
47.0187 25.3229 24.1607 91.8563872903
47.2804 26.8565 21.4661 28.3196593313
45.8904 28.3732 24.1314 77.3481163765
43.2195 29.0324 23.5586 41.3709692895
40.6235 31.828 24.4657 110.3468326324
43.4478 31.9451 24.0861 59.6031296913
48.7381 30.5988 22.1397 27.2130800255
46.3619 31.2871 24.3454 84.0370293589
46.1017 29.4627 21.351 26.0432163157
41.4365 19.9476 35.8605 70.6966835191
43.8606 18.2225 35.7343 78.6173954265
40.1592 16.523 35.8943 81.3377605875
41.3444 19.4977 38.695 27.5379300302
46.5221 19.2523 36.0669 73.1533050481
48.3863 17.0383 36.1327 60.4862889666
44.3146 18.7884 38.7724 31.8893766133
40.7486 24.4643 35.6266 90.35737861
43.1396 22.4965 36.0326 50.7183097548
42.1687 22.6249 38.7469 27.0412985432
47.1029 21.1994 38.0035 29.962095114
45.763 22.5558 35.6949 101.6636130194
43.6374 25.6906 35.629 80.1645401132
39.6078 26.8604 36.0959 67.0838927758
42.3582 28.2592 35.8049 77.1817426313
43.7231 25.2111 38.5892 29.267591925
46.4787 25.1893 35.8754 69.2071232326
47.0179 28.4559 35.8904 91.4617444585
47.6884 27.4458 38.6456 27.5228307582
46.5811 24.9023 38.5967 26.2005361528
40.3608 30.4121 35.9283 63.9488497682
42.1671 32.373 38.7629 28.9382643457
40.1363 30.2708 38.4974 28.0787413684
44.4424 32.5977 36.1001 68.3238897044
44.6639 29.9041 36.3553 46.3388343401
48.8788 30.1195 36.4607 39.3595826729
41.985 16.6319 39.8302 31.1473628115
39.8496 17.191 41.8386 31.8749571611
48.983 17.0356 42.8769 29.6884580604
44.4155 16.6132 41.4473 31.2221412413
46.656 16.755 39.4667 31.0688593082
48.7212 18.6693 38.8578 28.2447000127
40.2878 20.7677 41.1755 34.8202171389
39.7201 24.3683 42.1129 29.7704847789
42.4505 23.8623 41.4495 31.065337877
46.0344 22.3154 41.9127 31.4469194303
44.68 21.4074 39.4426 32.6851951356
48.5272 23.9661 40.7949 35.3837864019
41.71 28.524 41.6819 30.6305907692
40.0296 27.1351 38.867 30.8249439082
42.7766 27.8401 39.025 27.244171361
44.9808 24.9376 42.1088 31.4764613695
45.4944 27.4654 40.6016 27.9352206823
46.9755 28.1852 42.9844 28.0088814102
49.201 26.5111 42.2203 30.1975983203
39.7452 30.5659 41.7485 28.0927463049
44.0162 29.4519 42.9757 29.7613447028
49.2021 30.3557 42.7573 27.580827492
46.474 30.7482 40.863 27.763184076
48.8846 30.4628 39.2868 27.1635258269
44.3199 30.4664 39.0438 29.6851187478
43.9828 17.399 43.9893 34.7699661003
39.9359 19.3048 44.0867 30.3310841476
42.5625 19.4808 45.2274 32.6701685941
41.5484 16.3476 47.5259 28.350238041
46.7566 17.8163 44.4692 33.9253843425
47.6603 18.1626 47.4473 29.6323094775
41.8045 22.1331 43.4988 31.3124775913
39.5691 22.8437 45.2653 30.8660835699
48.8064 20.5572 46.3699 28.6335898183
47.4637 20.5745 43.4005 30.585939112
44.4799 21.581 44.3842 34.3313656015
45.0359 23.5512 46.2249 34.4932419696
40.1522 26.9047 43.3338 29.0035699066
41.4716 26.8544 45.7156 29.6509321264
43.8142 28.0156 45.3289 28.4983919355
40.8049 24.8098 47.1906 31.1790053919
45.5068 25.9017 44.7303 33.0019009877
47.7657 27.723 46.1227 32.3959064389
49.1037 25.3548 46.5775 32.4576773028
43.5102 32.0322 43.9775 30.7281095571
40.842 32.5048 43.6587 26.0133089483
40.7031 30.0179 45.2544 31.5734851592
48.2416 30.7196 45.3958 34.1650171643
40.7277 20.3735 48.9676 31.7019808274
44.0676 16.7296 51.5531 28.6452062836
40.2354 19.0559 51.2149 29.2516766309
42.7653 18.6519 47.9266 32.0593713074
45.1426 17.5226 48.9586 30.8320778408
46.6056 20.0563 49.9423 32.5236045324
49.1235 19.448 51.6823 32.9751926959
42.5938 22.3234 49.9029 32.7195951915
43.3753 24.2552 48.0006 30.9430266091
41.4732 24.1856 51.8011 30.8388382224
48.7097 23.9812 48.854 36.053563008
47.1074 22.0019 48.0198 34.9843553987
44.4559 21.1243 51.4647 30.9279382051
39.6781 25.5395 49.8974 28.022093305
43.137 28.0536 49.9177 28.9956521435
40.0975 27.8222 48.1055 28.7213648988
47.0872 28.3745 48.7262 30.008664329
44.6797 25.8463 49.9245 31.5776381785
47.4924 26.0407 50.3806 30.8350353362
40.2789 30.8906 51.2215 28.2890777069
40.7161 30.7089 48.5542 30.0633583952
43.5629 31.6282 47.938 31.0605704384
48.6866 30.2877 50.0102 30.1911543502
44.8063 32.1122 50.4083 30.7898052429
44.6738 29.6296 51.7135 29.1289634353
44.659 29.0861 47.6503 31.0208001417
42.7697 18.9761 52.3987 33.1889699303
41.8496 18.6672 55.1781 32.1664592488
46.1929 16.7651 55.8134 26.8036323972
48.6462 18.3021 55.6957 29.6428096198
46.5461 17.8764 52.5853 29.1892432502
47.1038 20.3206 54.2988 29.5733091886
43.8801 22.4811 56.0328 33.5965742861
45.0589 22.8808 53.3204 32.4140122846
47.8771 23.818 54.3822 32.1660087381
41.6392 27.2486 52.2414 27.7544826942
40.3841 25.0993 54.6419 32.9829489982
43.1904 26.181 55.1053 28.625666791
46.9895 28.2977 52.3521 27.3993429793
44.4783 28.4315 56.1329 29.6242536485
44.7212 25.5105 52.7789 28.4848492436
46.7703 26.8091 54.8702 27.3012191021
49.1386 25.8421 52.7586 32.8635022403
41.6739 29.8397 53.4461 31.2257022744
40.0469 29.4386 55.6936 29.6261528345
44.4624 30.3568 54.4271 30.6180575495
48.231 32.162 54.741 35.5291747912
49.1021 30.2058 52.8536 29.8232558357
41.7486 35.7912 6.77368 27.6737653949
43.5939 35.702 4.67474 26.033071039
40.614 33.1639 6.74086 31.4111385625
45.5529 33.8015 5.18305 33.3562493552
49.0682 36.5105 4.97391 32.5167642954
48.246 34.0419 6.08747 31.5322122891
40.1224 37.5692 5.75371 25.8505171387
42.411 39.3075 5.49097 29.526380544
47.1617 40.2116 4.47594 32.5854454155
44.6349 40.1734 3.86749 27.0967018334
44.489 37.6633 6.66707 32.3752958758
47.2562 38.0496 6.44 31.7017523614
39.5323 42.3527 4.68345 33.6911038503
41.9912 41.982 6.19955 31.9474224268
44.5639 42.9495 4.95678 32.2898554157
44.9781 44.4504 7.38484 31.8585261016
49.186 44.0885 6.3687 31.0768977568
42.1097 47.5506 4.55329 31.1208711795
40.2165 48.1795 7.44002 26.7943542386
42.1032 45.8339 6.79796 33.5219324347
47.2875 45.9489 6.62101 27.7863921006
46.9158 49.0039 7.42438 28.8756074277
47.2804 46.007 3.6702 30.385600955
44.2281 34.2361 9.99319 30.3604924037
40.2949 36.3691 10.5243 27.8921213951
42.6793 36.3351 9.19018 26.5220799172
43.0724 33.0598 12.2177 26.798676708
47.2051 34.3455 10.234 30.1695202025
42.4772 39.3199 10.4482 31.5598301802
45.1997 39.605 10.5492 31.7306404182
48.4639 39.113 8.77649 32.6885825304
45.7754 37.093 9.34058 33.542816627
41.4984 41.6203 8.79735 31.5394243074
42.0238 44.2261 10.5099 29.1832900428
47.4918 41.3569 10.4725 28.8366190591
44.6026 42.7449 9.89345 33.498976562
47.0741 44.6964 9.69225 27.6981482814
48.8897 43.0645 8.79587 28.3978280109
42.4585 46.7523 9.63274 28.7371348064
48.924 47.4006 8.64921 28.3080017843
48.6037 47.5409 11.64 27.6619240266
45.1191 47.4111 8.95806 28.6307261068
45.8282 47.6879 11.5932 32.2211740134
42.9176 33.6527 15.3048 29.2948546791
40.6349 35.2222 14.5719 29.6093644265
39.4472 32.6974 14.0157 26.6818089198
42.4967 36.1566 12.5627 31.1326859309
48.3498 35.1096 12.5536 29.2149718302
45.766 33.8188 16.1698 33.6039654539
45.8926 33.4113 12.9382 28.5209299339
46.4242 36.2449 14.4224 30.9283494418
41.6416 39.5918 13.0548 29.8091995687
43.2207 39.3408 15.4448 38.2253290596
44.7857 38.1616 13.1391 30.751883134
46.4763 40.6523 14.1905 28.3848833424
48.83 40.1076 12.9858 32.5819032362
47.5892 37.7201 16.2407 29.2162467009
47.4861 40.3694 16.7553 36.9171205932
41.201 42.0174 14.5289 27.042531743
43.92 42.0292 15.11 29.8749811623
43.7081 43.9126 12.9112 29.816658593
40.1708 44.069 12.8057 29.484027583
48.8713 44.4106 13.3899 31.7706115459
46.3501 43.1941 12.7397 30.8413681094
42.131 47.8553 12.8656 29.0032981728
41.0184 46.3429 16.6856 33.3383399422
40.0294 46.5836 13.9104 29.9799738172
46.1496 47.6892 15.7073 30.0537164431
48.4741 46.2004 15.7639 32.9200032813
44.314 46.4399 13.8184 30.5482786338
40.3889 36.5316 17.2956 27.7263876012
43.4742 35.9865 19.7579 33.891511005
42.1565 34.6951 17.7714 32.52782643
46.0231 36.1864 18.0908 36.6434597544
44.8068 33.9258 21.1875 32.2267795441
40.9586 39.1411 16.9249 30.2908151544
43.0522 39.8778 21.2097 32.1328569943
41.5648 37.4966 21.0215 31.4936677623
47.6691 36.9583 20.2407 31.3302470882
40.2681 43.1903 17.1813 29.6481433319
42.9692 42.5654 19.7126 28.5339806303
44.1695 43.626 17.5398 33.292644514
40.8773 41.1162 18.8467 28.6159743617
45.1628 44.2425 21.0719 29.3026728531
48.6885 44.616 17.9895 33.0881641811
46.9577 41.812 21.1652 30.3879062771
46.6896 42.5853 18.6104 32.6991318893
40.505 47.556 19.4856 25.3626599018
43.9823 46.4723 17.1172 29.3907059386
42.3229 46.5653 21.2097 29.5910432675
44.5958 46.9876 19.8426 28.6130916945
47.5985 46.2642 20.2775 29.1666389615
41.7739 36.2006 23.6176 47.0668869553
43.9998 34.4389 23.801 48.373129031
39.7572 34.5159 23.8286 61.6264191996
48.2321 33.4784 24.0067 58.6270763242
46.4772 35.4059 24.5532 116.4047608268
47.7083 34.1636 21.3452 28.9810602832
42.5516 40.078 23.9237 41.4010472912
40.4705 38.5685 24.501 107.5060346751
47.5691 37.7335 23.2031 33.2620501571
45.316 39.5416 24.2568 85.2898968892
45.6468 39.1754 21.2484 35.5224020017
41.499 42.5794 24.5038 84.6219756478
41.6668 43.8827 21.5924 29.2499036724
46.6576 41.9885 24.5793 97.3965200203
45.6 44.4836 23.9931 56.5124078043
49.1479 42.6577 24.257 61.1441719178
43.0008 44.9867 24.4072 79.2371696062
39.4643 46.472 24.3238 70.7370962272
42.5158 47.6037 23.9591 50.5128207257
44.8019 48.7022 24.1821 82.4001774893
46.8523 47.0009 22.9882 30.8548424697
48.5121 48.631 24.3818 95.0631088786
43.9921 35.7503 35.9279 63.7541845304
41.4717 32.9518 35.8409 79.5727520218
41.1173 36.0228 35.6124 83.4629009421
43.3609 35.2166 38.7316 25.8779211344
48.6365 33.1085 38.6485 25.99241776
46.7205 35.1018 35.9 70.5011372207
45.8556 33.3726 38.5041 27.7072376711
48.8927 33.1116 35.825 87.0133974373
47.6398 36.3294 38.6862 26.3572369725
40.9224 38.9162 35.9315 52.9740236647
43.0864 40.5975 35.9098 74.1468424949
40.6308 39.0492 38.7029 28.5901807511
44.8639 38.2413 36.3441 43.2269801526
47.5367 38.8889 35.7218 84.8308413982
48.3747 39.2594 38.6289 31.6588535816
42.4772 42.0163 38.66 32.5479181835
43.3808 43.3411 35.5409 106.6046560147
45.0747 43.2063 38.5442 38.7603107416
48.1274 41.6669 35.5922 81.6003325677
46.1695 43.7641 35.8726 62.5543123817
48.7633 42.0833 38.4005 32.3584994051
41.5841 45.23 36.5453 37.7887664798
42.6726 47.8323 36.4143 46.2286824417
45.2753 48.2799 35.2482 139.8101175792
46.8415 46.2546 36.2161 36.2876978176
43.1647 34.9644 41.8437 27.6059664747
40.725 36.2924 39.2142 29.0365046332
40.6894 33.5164 40.8351 27.3196760998
46.1243 32.971 42.6014 32.0798848267
45.8758 35.2102 40.994 26.4687708165
41.4743 37.2029 41.5911 26.3993544002
42.3165 40.1423 43.1092 28.4002572839
43.0244 39.3985 40.1075 29.2824133174
39.3948 40.4575 42.5357 31.2975042759
44.8429 37.7342 39.1497 27.133005701
44.8085 38.7885 43.2179 28.441080186
46.4999 39.3025 41.0399 31.4937292895
48.0921 37.2024 41.7933 26.4849786244
42.8112 42.8429 42.6172 30.2894606701
40.6834 44.4694 41.6684 28.0757356645
40.7744 44.2238 38.9735 30.2178757597
45.3208 43.6463 41.2639 34.1266303019
47.9246 42.5803 41.1457 29.6295833681
42.0672 46.995 41.5773 34.6350150618
42.8978 48.6371 39.1404 35.8648394707
40.2175 48.3002 43.1434 28.8351908565
46.6691 47.1244 38.8387 32.9354535021
46.1668 46.2984 41.7391 37.765287577
44.2187 36.2493 44.0298 28.2146376738
40.5393 34.6479 45.2998 29.326061114
42.8996 35.5027 46.3665 26.2627242962
39.6528 36.6172 43.327 29.1760670132
47.7264 33.1018 47.0883 27.1641693254
44.8653 33.3055 45.9273 28.8976626462
47.2931 36.4609 44.4064 26.8111309026
46.6931 35.8934 47.4124 28.2749419973
41.4352 38.7155 45.3457 34.074444166
40.2863 40.2204 47.3238 32.307115759
48.2401 38.9316 44.7378 27.7196722672
45.9097 39.9204 45.5352 33.3646553612
39.3893 43.1902 43.8139 25.2644217434
40.9996 43.6633 46.0293 33.2005966887
43.6737 43.7354 45.0441 32.8078745129
46.022 42.6487 45.8675 34.065046149
48.4076 43.6523 44.9988 33.7851544535
49.1692 41.4483 43.2416 34.59567268
44.0076 46.4228 43.8121 38.3596324944
43.2519 47.9277 45.9568 32.8804314486
41.4923 46.1564 47.009 29.7141946841
48.2234 48.317 45.131 34.1947461939
48.561 45.9277 43.4191 31.8684915292
42.0689 33.2389 50.9013 30.4993187946
40.9168 35.2026 49.3383 32.2133377178
44.1859 34.8797 48.9853 27.5190479913
45.7513 35.8977 51.1587 29.8778824838
47.5023 32.7369 49.6139 28.7945953811
48.3215 34.8576 51.6378 30.5770139006
41.9972 40.2186 49.9321 29.5604785194
42.3764 37.7504 48.1281 30.1150499805
48.7776 37.4425 48.7388 30.3058876831
46.6167 38.4996 50.3309 34.9746254344
45.2264 38.2893 47.8769 31.3364405381
40.4901 42.8575 50.1273 33.532021023
42.6403 44.6876 49.2244 32.9022559373
44.9613 43.1996 48.6026 34.3586759879
44.6853 40.9524 50.2476 33.503169167
47.1823 44.4125 49.372 38.8684656937
42.9389 45.7478 51.969 29.7443932367
41.8779 47.8726 50.2396 29.7335047119
40.0852 48.0606 48.2519 27.1130032059
46.7062 47.3555 49.0162 38.0916759559
46.5429 47.4486 51.9006 31.4933435909
48.8999 48.9692 48.8688 30.0686376343
43.9615 36.5998 52.9869 32.2574879756
