6.36959 20.0878 15.455 26.1163330098
9.57966 17.4056 14.6965 27.6013496199
6.10929 17.6776 12.5893 27.6683712799
8.85361 19.3381 12.994 31.3979814516
4.59009 21.9389 13.416 26.4649666873
2.04446 22.6166 13.3299 29.2063903235
1.02991 23.6484 15.9971 31.4814877248
8.31499 21.8413 15.2801 26.8369491263
5.85468 23.6168 15.3322 26.6226077818
8.42584 22.6606 12.5559 28.3885447947
1.35319 27.5305 16.4638 31.7472388137
4.3865 26.5195 15.4868 31.6029169088
1.08225 27.1652 13.2269 27.8759150621
3.18183 25.4098 13.2513 27.8302058179
9.75028 26.2792 16.782 32.9143299413
7.30202 27.1902 15.1504 29.0152566734
7.23056 25.0838 13.2456 28.7049898546
1.03581 32.6694 16.0463 31.6045985417
4.3952 31.1427 14.338 28.9622007818
2.98845 29.17 12.7103 30.4735517196
7.46463 29.8193 14.4882 36.38282572
3.69916 18.8994 17.8784 28.7585571131
3.34721 19.0342 20.6369 28.9187041617
0.463083 18.4135 21.2209 32.5559552992
2.93761 16.4615 17.1572 29.4105076648
6.46889 18.3814 17.555 28.0974292952
8.41099 18.4953 19.8475 26.103210455
9.29981 19.2146 16.9512 28.0894524951
6.19419 19.803 21.079 27.7713740583
6.79751 16.4126 21.1864 29.2836043002
4.31624 21.8421 17.0838 31.7343012072
5.65633 22.2196 19.5225 29.5831677411
8.23743 23.3623 20.4866 29.9184107968
8.37053 23.9496 17.5236 31.7802312285
9.58755 20.9723 20.7598 29.6647535247
0.908925 28.2932 21.1483 27.4937665602
0.354403 26.3549 18.7665 26.3548341483
1.98843 25.1528 20.9653 26.7633640616
3.21198 24.7423 17.9674 32.9383582317
5.89917 25.4419 18.6362 27.6496238664
6.62697 28.0616 18.1926 29.6476139437
9.231 28.5221 18.7622 30.6448401377
1.97941 30.5703 17.4592 33.2830831343
4.74206 30.1562 16.8549 31.2325377327
2.08863 30.6321 20.2514 29.3548703841
0.54062 32.5435 21.1659 30.9709149732
5.75524 31.7926 19.0179 33.5154512091
6.60066 28.7022 21.0103 26.7735271008
4.14049 16.6226 21.3539 27.1059010068
3.05315 18.407 24.4759 92.5366540113
6.81414 20.1869 23.6722 34.5693730586
6.10173 17.7539 24.5178 96.2776194422
9.76529 17.9403 24.1217 76.0152122923
4.88113 21.7896 24.6232 107.8029065741
2.92955 21.1109 22.8153 27.5084936909
4.24443 23.2286 21.6247 28.8692984226
0.875103 22.3513 24.2213 74.3661609259
9.52812 20.7689 23.774 61.561992972
2.23728 25.0065 23.8693 46.5226820691
3.81802 27.5453 21.8031 29.232752653
3.58824 27.6564 24.4924 88.5661312214
6.17339 25.8038 21.3066 27.0410237177
9.43187 27.7407 24.2579 63.3347824962
5.02878 24.5301 24.2768 68.9651982564
8.08657 25.2022 23.8623 53.4027509246
6.68281 28.5364 24.2433 65.7226175463
9.6877 27.4095 21.2656 27.5153444398
0.11823 32.011 23.8816 44.9997924168
3.6931 30.4124 24.0492 52.3031131514
0.869574 29.3406 24.0019 56.8511020883
4.31634 30.6586 21.4442 24.7468636953
8.8582 30.5167 22.2714 28.7571828651
6.2369 31.4793 24.4501 83.1021224094
2.40743 19.3277 36.0127 52.3690114764
0.994204 17.0144 35.7883 70.098073087
1.08271 16.7198 38.6202 29.1702653088
5.33799 18.926 35.7853 73.1912478877
8.19175 17.4611 35.7411 80.6164589734
6.21825 16.7463 38.2367 29.1765020411
1.18549 24.2733 36.3118 37.8449772771
4.16535 23.872 35.6868 78.9702495904
0.880735 21.558 35.4754 112.1292991707
4.66727 24.1501 38.5378 31.7785463643
6.18997 21.815 36.0053 65.9034475915
7.93534 24.2426 36.823 30.858072125
2.52766 26.9274 37.4833 30.2793432866
4.69271 26.6337 35.4547 92.8631338239
7.57456 26.505 35.4538 100.739277189
1.06961 32.3018 38.7287 32.419459306
2.5983 29.8808 35.998 63.5689643247
2.39679 32.6556 36.027 65.9454840776
6.59964 32.2695 35.81 95.9628625499
5.52619 29.493 36.1444 51.7010002835
8.99211 28.7595 36.1852 39.9471791045
6.62721 32.3407 38.766 30.0171094603
3.70422 16.8578 43.0987 28.6616310282
1.99358 18.9557 42.1146 34.1384768117
2.18421 19.1739 39.1301 30.369752294
5.11926 19.247 39.0742 32.767597169
6.17071 18.1233 43.0094 27.9298554447
7.65817 17.3614 40.8527 28.7326215362
1.78836 23.3306 39.0528 36.0510826896
5.46614 20.6437 41.8565 29.5560717582
7.24156 22.1929 43.0529 30.20885719
8.09281 22.6229 40.519 30.0566205092
6.1841 21.904 38.8484 29.4784411067
0.867136 27.4711 42.7149 25.7819092965
4.70993 25.2599 42.8305 31.6303861283
0.911221 25.202 41.334 29.8106783387
0.329768 28.5544 40.3824 32.7374959657
5.28282 26.76 40.3999 34.5511314623
7.81755 25.3762 39.4258 33.339457
9.75948 27.1531 40.0713 30.8673928067
2.62922 31.517 41.4862 31.2785908259
4.72457 29.3557 41.7622 28.0961909597
2.69846 29.2749 39.0326 28.4591939399
8.56074 29.3115 39.0299 31.6273959613
8.7346 32.0154 40.5417 27.1856531519
5.64275 29.7514 39.0872 28.3113420784
2.91244 16.7234 45.731 32.6572314617
0.199047 16.415 45.2639 31.6081696034
7.34487 18.0169 45.3448 30.1348816822
6.63395 20.2857 47.3587 28.0515551776
9.80426 16.4997 46.1253 34.0831245971
3.51367 20.9125 43.4245 34.407271654
2.40042 23.5972 43.2938 33.5552367424
4.11973 21.3568 46.4258 35.1567570473
5.34867 24.088 46.6335 29.4106719535
8.67824 20.5706 44.8633 32.1910364033
6.79478 24.5033 44.3639 33.7826659145
9.68447 21.6423 47.3177 30.5878626077
3.30396 27.5909 43.7654 28.913334976
1.60958 24.8042 45.7933 29.1832929163
3.80447 26.2195 46.2114 27.5345702181
0.141887 28.5754 46.6944 29.1975602713
8.04697 27.0787 43.9292 33.7216952164
9.45984 27.8213 46.1265 31.2277310981
0.555007 31.9838 43.5159 31.1488393319
2.64066 29.4607 46.736 27.4533520285
5.38725 29.5138 45.6213 29.2347856385
7.57399 29.0173 47.5177 29.7435076919
6.84291 29.6041 43.555 30.46621446
7.67147 32.3507 43.413 26.1471608595
5.14657 32.4008 45.1282 29.5489285219
1.36722 20.1103 49.4114 33.6473639759
3.69348 18.6513 48.1016 29.8824283305
5.84528 19.2574 50.2076 33.5362357525
7.7687 17.0675 49.8124 31.5670651725
8.33713 20.2208 49.876 27.6444649249
5.97142 16.974 47.8101 29.0401826208
1.30349 23.4468 50.333 29.1121963467
4.22624 23.5127 51.0888 36.0886441581
1.84239 22.7694 47.7271 32.226588968
7.59255 23.1389 48.3332 32.2620421318
8.94203 22.067 51.9989 27.8559968687
3.29127 27.6595 48.7035 27.4779110628
0.835042 26.1564 49.7003 29.7855000125
7.29267 26.8227 51.8204 27.8095785496
8.73553 24.7589 50.204 27.803964316
5.46578 25.6479 49.3811 31.5643635293
1.12332 31.2885 51.8009 29.1289054331
3.0915 29.4952 51.0218 26.2181448151
2.28472 31.3838 48.5146 28.7570062915
4.6789 32.5943 49.5213 29.7001066234
6.06785 28.8508 49.881 29.2727376825
5.96864 31.1107 51.3312 25.9346715482
8.64314 32.2029 50.4637 26.9214131746
8.55635 31.6568 47.7615 25.7904022656
2.77865 16.6871 52.2914 31.8469636925
4.40011 19.7074 52.8796 32.2253506379
0.606846 17.2808 55.6827 29.9940238903
1.45969 19.632 52.2154 27.6339231672
2.06681 19.9321 55.3708 28.2080243108
5.00861 17.4076 54.4865 36.5513577956
9.77478 17.762 54.5643 31.5330238602
2.54663 24.3812 54.2871 29.8552433363
0.85262 22.5013 53.3923 28.0940891095
3.66772 22.5511 56.2102 28.6992933378
9.72122 20.4532 54.1492 29.8494348106
6.0289 21.9342 52.7634 32.8276306304
6.10284 23.4674 55.3113 28.2551102481
8.27033 21.7499 56.3006 35.9888776278
1.64192 26.6493 55.5988 28.1630087288
4.55973 26.0217 52.6162 27.7954850554
1.86427 27.1089 52.2913 28.4567969802
6.15305 27.6418 54.5812 30.7239304841
8.2546 24.8086 53.5119 29.0145876944
4.44121 31.8988 53.689 26.8619450967
1.99061 29.2559 55.2198 29.9019550007
4.01471 29.102 53.6689 24.7965940575
8.52596 31.7025 53.6619 29.2300747353
9.23028 29.4282 52.0868 28.2497599612
6.88008 30.182 55.468 29.2289170611
3.30185 35.1021 5.95401 30.7105004338
4.28528 32.8795 7.08823 27.309998922
0.329006 35.59 5.14395 31.2581042897
9.29215 35.9269 5.50845 28.7232861398
7.739 34.0413 6.99386 29.8479015156
2.88864 38.809 6.86109 27.1853879996
3.52098 40.8049 5.09988 28.5261807129
3.82668 37.3423 4.17605 28.3996256044
0.291776 38.0965 6.99634 28.9129446474
9.42006 39.5699 6.11069 29.8331893113
5.94377 39.0559 4.67241 27.8330804193
7.03442 39.2045 7.62517 33.927628401
7.34446 36.7807 3.8976 30.6902874701
2.51582 44.0219 5.18715 26.8353388221
0.62242 42.28 6.51378 29.1615996866
4.38782 42.9489 6.98392 26.8859101614
6.46248 43.8273 5.21448 30.478883049
8.23595 43.7597 7.56121 29.9191301913
7.06396 41.5358 4.1152 28.6781161435
0.124997 47.106 7.49508 30.2816346393
4.75397 47.2991 4.98524 31.4269450501
2.58175 46.3599 6.64884 28.7134893059
6.99661 47.965 6.82616 27.7320962158
8.75675 46.1625 6.43087 25.9552921105
3.69323 36.4271 8.48664 28.6824892088
3.64587 34.4489 11.6264 29.0078216932
1.30001 36.3559 9.98733 28.6650693166
0.888055 33.4415 10.7702 27.9069560331
5.32867 33.8097 9.59803 27.5192248172
9.24481 33.079 9.02982 35.0458601429
7.58084 36.4268 10.8989 32.2532298226
6.46924 36.1576 8.29724 29.5213695538
8.20212 33.779 11.6055 28.8088517069
4.41209 40.5133 8.78947 28.0901182647
3.47931 40.3176 11.2801 28.8636053082
0.820343 38.9992 12.2297 29.4058693622
0.143061 39.2278 9.49671 24.8381484382
3.75432 37.3701 11.9111 28.9677650729
9.57015 40.158 11.1497 31.4253434508
1.53754 41.4397 8.84914 26.6223190105
1.12928 42.675 11.0954 26.3460420638
6.54346 43.7989 9.34215 26.2982969338
7.08917 41.2611 10.0724 29.5571356977
1.85745 45.2044 10.5477 31.0065496637
4.09041 45.1902 8.83481 28.4593235871
0.511122 47.2775 10.3494 26.8701153569
7.51905 46.5125 10.603 28.7587824827
5.38038 47.4359 9.0752 27.8439038927
0.596085 36.2071 12.798 30.6925837587
2.85379 36.6087 14.7752 31.7174265449
3.11023 33.8542 14.6523 27.6471493019
6.61989 34.3684 15.8635 28.5089049823
5.9381 33.0807 13.3135 27.9539372646
9.11981 33.4459 16.2428 29.8619204452
6.54742 36.9261 15.2429 29.1961058669
8.66157 39.4401 14.1029 26.9426988275
6.32346 40.3225 15.9038 33.9617931936
6.28364 38.3626 12.6033 30.3669457587
3.41963 41.9714 15.0186 33.6072860303
1.07876 42.8346 13.7537 27.4806032435
8.66676 44.5539 14.2719 33.2057851963
6.30369 44.2086 12.4636 33.3642310375
9.81679 42.0983 13.8333 29.1919148563
5.57951 41.6446 12.4672 30.7628240009
3.16901 48.8347 16.3903 32.8111553158
0.782726 48.3792 12.9845 29.5582057743
2.25873 46.0509 13.2848 30.4512596017
2.33718 45.8678 16.064 27.1198575521
5.2661 46.8572 12.9681 29.8035700357
6.39885 47.012 15.4889 29.8114189111
8.7914 48.3898 14.1991 31.576508554
4.38985 35.9649 18.9093 31.2426690761
4.45083 33.5542 17.3219 30.943722584
8.59876 33.4499 19.0388 30.544909307
8.01615 36.3118 19.4919 29.9896409669
5.92121 36.4246 21.2273 28.2957032287
1.67648 36.9056 19.7284 30.0060989353
0.817939 37.1854 16.895 29.4395429291
3.4871 40.6015 17.4322 27.548349808
4.60922 38.0671 16.897 30.7288273393
0.527345 40.1917 17.0207 28.7501328133
2.38124 39.1101 21.235 28.273638889
8.60468 37.1902 17.096 28.6871657384
4.06405 43.9051 16.9736 29.597639387
0.544422 43.176 17.6361 27.6007855978
3.07089 43.4695 19.3369 25.090194447
1.35603 41.4443 20.6584 31.1469352804
8.81639 44.109 18.8213 31.8565763455
6.85554 44.8693 17.0424 31.2603362482
5.29185 41.1181 19.7025 29.4985116875
8.04104 41.4135 18.291 31.8755057549
5.34245 43.6817 21.1242 26.8066049501
2.02083 45.922 20.3173 31.5563229906
1.27686 47.4746 18.0762 29.8296375092
6.46951 46.1542 19.774 27.9559199599
5.94624 48.432 17.8728 32.8868538673
2.59457 36.0286 24.0399 46.2607311525
4.56501 33.8952 24.5569 87.2716827267
0.392392 34.7141 24.6166 109.7385427786
2.1876 34.9604 21.6098 29.6722836566
4.78222 33.5157 21.9625 27.36979589
6.41276 36.1611 24.4079 92.1269987294
8.94377 35.5131 23.6214 36.7191673625
7.60708 33.0703 22.3674 30.4174508293
2.05694 38.6078 24.0068 62.2404654483
4.1708 40.4473 24.4016 97.7776231423
6.44804 39.0991 24.0802 46.6543943763
9.51059 38.7288 24.2552 75.1978573796
5.38521 39.0733 21.4415 28.5271314267
8.29573 40.409 21.2604 29.2774312479
4.26209 43.2819 23.6004 34.8428665956
1.58021 43.8734 24.0736 63.9163526238
8.02006 43.6948 21.5769 27.8903523074
7.8478 41.5104 24.276 55.583822949
7.02028 44.0571 24.5524 86.004283551
4.5112 46.2538 24.0925 61.1519585051
1.80387 46.9701 24.5076 99.0115290176
4.27134 46.977 21.3828 28.9082767045
9.4522 45.8011 24.5617 98.6366537264
8.81616 46.7936 21.4362 27.9101818561
7.14701 47.4981 23.8914 54.6564577901
4.58689 34.2214 36.4126 38.1986367029
0.0959268 34.1459 35.681 97.0371947457
0.673007 36.7391 36.2877 37.131560037
6.33124 36.5344 36.8485 40.3032723421
9.47476 33.6886 36.0014 65.7845679036
3.07581 39.6832 38.7384 32.3393294339
3.34667 36.8294 35.6537 112.9610179655
9.03159 36.8138 36.4349 55.973208627
7.60941 40.5493 35.4935 103.2970269657
6.43533 40.5173 38.4511 30.4733279173
5.0131 39.0989 36.2587 39.1523302415
0.72408 41.1687 38.3963 29.9053399669
0.112294 40.9065 35.5894 71.8683605392
3.29276 41.4203 35.6636 95.1129335422
4.90873 43.5246 36.4203 40.0234469145
0.693402 44.0303 35.9082 75.6064689852
8.81019 43.1512 35.5686 71.7519375662
8.93092 42.3291 38.1901 31.1763615373
2.98217 45.6236 36.4983 44.7496501715
2.62542 48.5329 35.7398 104.193087164
7.88042 47.0492 38.162 29.4676508668
5.78373 48.0394 36.3887 47.9881582664
6.91107 45.2466 35.7463 89.5936130765
9.71231 47.0246 35.9666 66.9067405232
0.40864 36.1453 39.1609 34.2778847259
4.76519 34.5428 39.0772 28.4640494625
2.45388 34.4964 40.5589 29.4760750231
0.531341 36.4077 42.6545 29.7436801784
7.02342 34.9016 41.1748 28.058160966
5.1388 33.0681 42.1879 27.0185800757
0.852034 39.9754 42.5275 31.4996724713
4.76675 37.1311 42.6395 27.364986294
3.5091 39.3791 41.5988 32.4726091069
8.07284 38.6712 40.0746 31.5723078623
5.74838 37.4053 39.8769 28.8686182484
8.37216 39.2456 42.8241 30.0346899428
4.05891 41.7108 43.1302 32.3968978318
0.691688 43.0311 41.7615 34.5537851705
1.22705 44.0235 39.0351 26.9404640991
4.27087 42.3139 38.9662 29.5118088126
9.25366 44.3715 40.2147 31.3336087088
5.51195 43.6389 41.159 34.9628169803
8.82105 42.4876 42.5995 33.3538667863
3.07537 45.0307 41.5343 31.0290202573
1.28332 48.9337 38.9258 29.4905912508
3.07204 46.7247 39.4082 30.8080375648
0.0981507 48.9891 41.4346 34.4815624726
6.92917 46.1036 40.5913 29.7003550296
8.05481 47.3908 42.9719 30.5621494739
5.0812 48.2344 40.4625 32.0029668043
3.21095 35.175 43.253 28.1691627488
2.32236 33.0525 45.7979 29.3419619419
6.43633 33.0415 47.3684 28.2578279184
7.73676 35.3419 43.9801 29.0505325227
3.29111 37.0228 46.0901 31.9456377338
0.438135 37.1481 45.3533 28.7733794193
2.36195 39.85 46.7868 29.8546738797
5.81438 38.6301 47.2377 32.7493560276
6.49102 37.5263 44.5197 30.1515832417
3.12277 42.3483 45.7893 30.793173558
7.03417 42.9495 46.1443 30.1672769107
6.6164 41.1956 43.9837 31.8491306605
9.5398 42.5878 45.3669 31.103341426
1.82826 44.9587 45.6921 28.2038232736
2.75664 46.6469 43.9048 31.3842721924
4.03157 48.587 46.9071 30.5449392754
1.1109 48.7817 44.1685 32.0987816723
7.86716 45.6822 45.2813 36.3379995115
5.03391 48.1043 44.2278 33.3853855421
8.55234 47.7006 47.4938 28.9176358788
2.77253 35.6467 50.9725 28.598548015
0.658762 35.0945 49.2594 27.6892672948
3.35495 34.9655 47.9173 27.8616224875
6.25774 35.7924 48.0497 28.2952852557
8.73297 35.2196 50.7349 28.1387756035
5.79177 35.6045 50.797 27.9093734752
2.52289 38.5518 51.1635 30.300646326
4.71974 40.7879 48.4177 29.5176075878
4.24822 40.4766 51.194 27.9996477823
0.685033 39.3149 49.1419 32.583450206
7.28997 39.2312 49.8852 30.0813269899
8.93727 36.9945 48.301 31.6539911098
3.91308 44.933 50.3396 31.2235711725
4.7521 43.7369 47.6639 33.2343697157
0.083449 42.0936 49.2639 30.7728393321
2.23666 42.7526 51.1232 29.2233365015
6.43038 44.5614 51.3671 29.6939460611
7.46508 43.2686 49.1576 30.1729954306
9.40726 41.7017 49.8751 28.7645810997
2.67452 48.786 50.407 26.8804872684
1.96024 46.4316 51.6484 31.0580194348
2.47158 46.4401 47.6948 29.6664097141
8.64181 46.2059 49.7503 32.0556279596
6.92118 47.4363 51.8178 36.8977246966
4.19695 36.5071 53.6047 28.9261526804
2.32099 33.6947 53.2299 33.5638473677
1.25069 33.2179 55.8169 33.1518150673
6.76608 34.0583 53.3503 30.110143804
7.95326 36.6922 53.6152 27.9564718595
5.25616 34.9318 56.0523 30.5787911776
2.22007 38.473 54.7626 34.8950921676
6.03987 38.284 52.3102 25.5348919513
8.80082 40.7341 52.5078 30.656933457
6.11036 40.6713 54.0066 30.726544865
4.32326 42.6952 53.2926 26.6337381569
3.60601 44.6906 55.2028 29.7139623911
0.180104 44.2316 55.8366 32.0279889992
0.625212 42.5768 53.5544 29.4931522528
2.59848 41.1557 55.1975 31.7561059368
9.60382 40.8764 56.0973 30.4342955854
7.59188 43.6657 54.0105 32.5222655826
2.11375 47.2167 54.2737 35.2287762803
6.01013 45.5813 55.4721 29.3336042723
7.27326 47.9211 54.5258 36.6890372565
12.6191 3.24566 3.91093 31.656431259
13.9958 1.76303 6.03522 28.9680592615
16.334 3.22433 5.68193 27.6755177533
18.332 0.414209 4.20693 28.2754505451
13.7508 5.50159 7.97988 35.0588540062
14.7611 5.58302 5.09943 32.0910443225
10.1382 7.24204 5.09018 33.4455885581
12.3812 6.2602 3.69144 32.1595309683
18.5022 5.15175 5.99767 28.729745347
16.368 6.30608 7.88283 28.9612463066
18.5697 7.07907 4.10738 31.2569903877
10.4174 9.50191 6.53937 30.916152084
12.1329 12.1163 6.17494 28.7335983933
13.8314 10.4236 7.71728 30.6645714224
16.1765 8.99166 7.20924 26.968194062
16.3653 11.9389 6.26856 34.1089927805
15.8951 8.51484 4.58587 34.4974981893
19.4659 11.2699 6.09233 30.5817543966
10.1415 13.6845 4.58295 26.9255173813
12.7486 14.4015 7.7486 35.3972737376
14.2471 12.4484 4.43488 30.3162669214
18.189 13.8279 7.06796 30.7224014268
18.955 15.7687 5.05302 32.1344319864
10.8018 0.451339 8.63726 30.2907360236
12.6515 2.76835 8.58548 30.9261705158
14.4751 1.2097 10.1092 28.4809321519
16.7518 1.97927 8.3858 31.7375085504
18.7663 2.63141 10.1015 28.5641340668
11.0595 4.64473 10.1176 30.0417747517
12.9151 7.92094 8.89852 30.3875858674
13.657 7.32732 11.8375 32.6654002357
16.7009 7.11771 10.7376 34.9478406648
17.2432 4.33757 11.8355 34.3357529666
10.4025 8.5617 9.1371 31.9607164417
11.837 9.69357 11.9604 32.982840306
19.0138 11.2155 10.3096 33.9872501741
18.5766 9.6337 8.07456 29.4080727601
18.485 9.08143 11.9275 32.9394626193
14.1052 12.451 9.49368 33.3512517093
10.0409 13.1054 11.9415 30.458275731
10.4311 16.031 11.2375 30.2418767407
12.5516 12.3905 11.57 32.1841075071
17.35 15.1832 9.29096 29.2405035376
16.7559 12.8481 10.6955 35.1053374096
10.6533 1.67266 13.3525 32.7981987247
13.1069 3.2512 13.807 30.7102354605
10.2267 1.40233 16.2725 32.2965629621
15.2221 1.19896 15.5948 35.4500135928
17.8308 2.18747 16.3755 34.3711219227
17.0941 0.00571726 13.1767 33.9179307961
15.3377 2.34159 12.51 31.7839311175
10.5361 6.52179 14.4651 31.9878297082
13.902 4.1549 16.2352 34.380935688
11.9594 5.44086 12.6399 29.8683851995
16.5228 6.32692 15.4043 31.8357298569
15.3332 8.05818 14.0175 31.8611000829
18.7397 4.36367 14.5129 31.0461032643
10.8241 9.43435 14.4139 32.738025608
13.3581 9.02529 16.1537 29.2558905491
14.1872 11.5778 16.3793 30.6107745807
17.3246 10.007 14.3843 28.50650089
13.9786 13.2967 13.7483 33.1056003946
12.4428 15.1551 15.4548 29.347380194
9.96232 14.0983 14.6264 28.356357012
19.1057 13.0913 16.6535 28.060092241
16.7589 12.7133 13.525 34.0845659254
17.4908 14.9645 15.1068 28.6142158502
12.2903 3.69152 20.3038 30.3207601027
11.3938 3.62319 17.5994 33.8515873294
14.9926 3.19186 20.2216 30.5958673282
17.9387 2.5712 19.2139 33.9405028842
9.87811 5.99304 17.063 31.95700892
14.5044 7.89488 18.4747 25.8151854012
11.6189 7.44913 18.7603 27.705165033
12.2332 6.44394 21.1114 26.9347811026
19.2617 7.68881 17.235 29.9699530261
18.4038 5.41401 18.7523 27.5081809885
15.6821 5.44937 18.0358 27.0142202881
10.8222 10.2024 17.7654 32.614100891
13.006 11.5977 18.8159 28.8754311689
11.8094 9.96601 20.9865 25.7950431013
14.5954 9.20067 20.9511 26.5290041831
16.8839 10.6907 20.0752 28.4012485352
16.6786 9.22651 17.1284 27.4786531219
12.9377 14.5198 18.1418 29.2170727532
11.813 15.3864 20.8664 34.650371824
15.6908 14.5557 18.75 27.334696331
16.658 12.2914 17.7488 26.1120717974
11.1826 1.54463 24.1297 72.3632402614
13.2311 3.24551 24.3844 88.9330566718
14.1751 0.510199 21.3727 27.8554054649
10.6855 1.55587 21.4772 28.973560121
14.8899 0.557607 24.0703 65.9545489679
15.6954 3.56526 22.9405 28.1038666443
17.9225 1.46936 24.1723 75.2322766852
18.1524 1.02726 21.3113 28.5235997047
11.8284 6.22344 24.2135 69.6677962761
14.5531 6.39026 24.2901 80.0482054589
18.6493 7.67859 24.3042 104.4523973296
18.2679 6.76637 21.3743 28.6014809817
17.7818 5.05446 24.052 64.0815294292
15.4681 6.31721 21.3795 28.0466385934
14.1112 9.24438 23.9386 51.0983452928
11.2771 9.48774 24.1828 73.6704969953
19.1055 9.83064 21.8032 30.3709968302
15.5074 11.5767 24.4096 101.6572002925
14.7399 15.7859 24.3038 72.6923284185
11.1457 12.3744 24.0462 46.7345342806
14.6926 15.0384 21.4343 27.7353464882
13.6441 13.5903 24.4922 83.6941529333
10.76 12.6668 21.4274 32.2408521159
19.2174 15.7914 22.9315 31.5827949284
18.4985 12.2645 23.3952 45.3424257071
15.4025 12.3474 21.8194 27.635740678
17.8318 13.9475 21.3186 28.0698053386
12.0353 2.54963 35.898 71.1728087265
13.6379 0.347092 38.6659 28.3309694767
13.9989 0.625664 35.7882 79.635610232
11.7641 3.26586 38.5269 28.1470330966
18.5429 0.987718 38.5265 28.2598537719
16.2979 3.37781 38.467 26.8539093004
19.2618 0.943047 35.5528 89.8589154344
16.6151 2.0289 35.749 62.6592496545
10.8079 7.94069 37.9198 29.4694508052
13.548 7.09326 37.9139 29.8007597959
13.2269 5.08596 35.7384 79.3644619087
18.4318 5.96665 36.394 37.3156893265
15.8101 4.54063 35.558 96.0753901144
11.3275 10.5722 38.1303 28.1975817495
11.828 11.7643 35.6192 71.1255814912
13.131 9.055 35.5845 91.096240763
18.8598 11.9592 35.9653 68.4713556463
15.7754 9.8008 35.5856 83.1160907174
18.1125 8.78324 36.123 61.8646823051
19.3724 9.23683 38.547 29.9902614211
15.5444 8.87127 38.6177 31.4699008429
15.3567 12.1119 38.4518 33.0348223708
10.0163 15.3549 35.8282 62.7374913874
13.0246 14.2711 35.5327 74.146713942
13.4893 14.2263 38.4344 27.4662378786
17.96 13.3227 38.4801 29.2821480959
17.2299 15.0306 35.8577 73.1302582951
15.111 16.2367 38.5782 28.1978959024
15.5826 12.7501 35.636 68.4884449402
13.6788 1.61999 41.2383 25.127723922
11.0532 0.799873 41.8286 30.3263128876
10.1281 0.749211 38.8999 29.2386960099
16.5415 1.33542 40.386 27.2571519656
17.2414 3.51082 42.3925 29.5747511274
11.2846 5.51979 42.9815 26.299594194
13.7951 4.19069 42.2643 30.6517093237
14.13 4.67775 39.4554 32.2318376345
11.7109 8.15323 42.3641 30.3988092778
16.2395 5.91832 42.9456 30.2826272391
18.3139 5.13421 38.9411 31.2968235841
17.4716 7.75912 40.0921 32.0221825191
13.09 9.84688 40.2685 33.8838518483
18.0471 8.65623 42.6346 29.7554193335
11.109 12.7071 42.1917 26.3430911778
13.4264 12.5907 41.0129 30.4129655799
10.4727 15.2826 41.5194 31.8371880421
10.6924 15.0638 38.8365 29.1093757833
15.4769 14.4371 42.0691 33.0870867797
18.4019 13.9871 42.634 35.2917434523
17.662 15.7158 39.9369 32.5573668937
10.113 0.810652 46.1806 29.3434826503
12.5825 2.19324 45.4331 30.9488337404
17.6717 2.34456 44.8768 25.568566382
15.3006 1.17257 45.6257 27.4968523218
12.0387 4.86891 45.6475 28.0324107254
14.1658 7.72626 44.1619 31.6379205782
14.7136 5.44292 45.7526 30.0407144663
19.161 6.52988 44.3536 30.1166879827
17.7297 4.69504 46.1009 26.2517384145
14.0517 8.44452 47.2232 29.9317721039
10.5568 10.0425 44.3105 31.5011452099
12.3475 10.9545 46.9222 32.9719168356
16.6596 9.74217 47.1472 29.6639158999
19.2386 9.14404 46.0932 30.2638429013
18.2514 11.8398 44.781 29.0836623184
15.8706 9.89143 44.2738 33.3092995429
12.4419 15.4866 45.661 32.0480901467
12.2565 12.8269 44.6916 29.0577040529
14.4174 16.0558 47.4994 30.91478009
16.2458 14.059 46.3591 29.6190970484
14.9986 12.6956 44.2766 28.7288239854
18.5313 15.1687 45.272 32.0905603515
12.6982 2.97968 49.0357 31.1833427216
10.3334 1.7007 50.2404 34.0430070873
17.6935 2.89137 48.4522 30.2071377403
15.2047 1.54703 48.829 30.0627628642
16.6779 3.25035 51.4498 31.4624546118
12.8845 4.6473 51.2433 29.0758991479
11.6924 5.62205 48.3556 29.8735531653
12.3892 7.93719 49.4639 30.2440566501
14.8542 6.5528 50.5469 28.601960538
16.0914 6.64118 48.0445 29.7810467455
18.9983 5.0995 49.7771 29.7914933999
18.8839 7.93062 48.8329 28.0659132662
11.2692 9.87048 51.8347 27.229369319
10.4961 10.3867 48.9223 26.7517766952
18.352 8.6475 51.6898 27.5083080089
19.2007 11.2848 51.2875 29.4919388962
15.6463 12.0584 48.3499 34.4406784924
12.7695 12.4927 49.6781 31.8996818252
10.1515 13.8784 51.3999 29.1087782453
13.4381 15.25 49.8367 30.6569206844
15.5458 15.0113 51.6454 30.6612231735
18.1286 12.7919 49.4561 33.4816271211
18.0302 15.3688 50.8001 30.4507158871
13.9333 2.13412 52.3179 26.5568441035
10.1758 3.62303 53.1737 34.5172169792
11.1706 1.09597 54.9391 26.8457569016
14.4733 1.92168 54.8321 29.6790771729
11.7373 0.523989 52.3053 31.2796679624
18.3952 1.86211 53.3228 29.0780182031
16.9959 2.51449 55.6644 26.0181695397
13.653 7.99436 52.5999 29.1126042616
11.7622 5.96181 53.5895 30.1083613172
17.2942 6.0855 52.1125 30.852929351
17.8113 5.22094 54.8606 33.2189015266
13.5685 11.7141 52.4099 29.495067302
12.9795 9.0229 55.267 32.7789507613
10.8402 11.2717 55.8521 27.2700647519
15.5513 10.5233 55.3212 29.351999378
15.9044 9.63356 52.6089 34.352294229
14.4433 15.013 56.0144 30.412870977
11.7054 15.3656 55.6343 26.7941388803
11.3685 13.0364 53.8956 28.3748377007
18.102 12.5547 53.713 31.0530883712
19.0249 15.0733 53.8427 26.9110635002
15.3712 13.0981 53.9244 27.0811792841
10.315 18.4916 7.76402 33.5899679167
11.3223 17.7361 4.60216 30.5625777834
13.8628 16.5603 5.69536 34.0488874235
12.7594 20.2775 3.73409 29.957754946
15.6036 18.6464 6.65172 29.5746357142
15.6706 20.1413 3.89912 29.1356019909
17.6331 17.8751 4.32102 27.3833821735
17.7919 20.2685 7.90915 28.9810722195
19.5159 19.6492 5.85457 28.1480132728
9.869 22.7257 6.39195 31.5008686311
13.5447 23.7162 4.71101 30.0603628428
14.1505 21.3743 7.79461 26.0099511661
11.8752 20.6987 6.35439 30.7346876166
15.5856 22.4167 5.69148 26.4964462557
17.9042 24.0132 5.95428 31.9823646971
13.1834 27.2923 7.77901 31.223369818
12.0652 24.9007 6.74338 27.589343104
17.2218 26.5065 6.42599 31.9967695165
16.0979 28.4463 4.16094 30.1889273111
18.9644 28.4481 6.55046 29.6994826557
13.9881 31.259 8.06182 35.7978724353
14.1545 29.1409 6.09746 32.093926359
11.8883 28.8291 4.6963 31.8004049073
18.4575 30.1883 4.76843 33.4157614071
9.91806 20.2113 10.2311 29.2553036328
14.3953 19.5334 9.89316 27.5641575404
12.271 19.457 11.5959 29.0349386051
12.0518 16.7476 9.21867 31.3798287353
16.3417 17.6516 11.4759 29.7262899145
19.1117 16.9924 9.63733 28.6153757321
18.3631 19.7675 10.4256 28.1006190328
14.9592 16.7189 8.7122 30.4880436147
12.8388 23.576 8.99958 29.0386591034
10.4648 23.2958 10.3601 26.7065734347
13.5125 22.0237 12.3742 28.5861260162
17.2469 23.1191 8.5555 26.1109078401
15.3891 24.322 9.87168 27.1526294906
15.9064 21.5817 11.2662 26.3790908618
19.6026 24.1347 9.59038 32.2798897708
10.9185 28.5161 9.20331 28.1451428053
10.2264 25.9227 10.2418 28.7483551856
14.2458 28.0205 12.4172 33.0223221132
15.8549 26.7425 8.68719 31.4100378246
12.8483 30.2687 10.4974 29.9233779797
16.2473 31.5439 9.57102 31.1838287042
17.1161 28.8869 10.1637 31.6154015984
11.9747 17.5006 13.3182 28.8289794961
15.0149 18.3218 15.6553 29.3224885676
14.8126 16.4396 13.5174 32.8555345472
18.7042 20.1023 16.7693 29.4533796878
17.536 19.2814 14.1106 31.1424854087
18.8257 16.5346 13.3436 29.5239424626
13.6747 20.8341 15.0551 32.1025666727
11.0135 23.003 16.0783 29.8473844009
11.2325 23.8378 13.351 29.875188383
14.9999 22.8349 16.5378 31.2011638926
17.7073 21.9741 13.1782 30.7597292199
16.7099 24.0823 14.843 29.3841594471
12.4277 26.3516 13.8808 28.9419557033
9.87037 26.7301 12.8572 28.8467879596
12.5105 27.2627 16.5025 28.1807912559
15.9298 26.9267 15.2158 31.0206677058
14.8963 24.9206 12.4809 33.3606462058
19.1431 25.1522 14.027 29.9521328957
14.5482 29.9235 14.7251 29.4688130911
12.4517 31.0822 13.027 28.9282414661
10.0807 31.135 15.0034 30.6825434849
17.0556 31.0531 14.0149 28.0224507314
17.4708 28.63 12.9206 29.1445468429
10.3963 16.8433 18.238 27.3242194665
11.8502 20.333 17.2142 28.9236747072
13.0186 17.7109 17.5842 27.3073885995
19.2594 17.73 18.7272 26.3417744891
14.8847 18.7401 19.2506 28.7198437413
17.2572 20.1511 19.1098 26.7772410182
16.9548 16.675 17.5209 29.3954472675
16.8198 17.1654 20.8656 28.6805283369
12.2109 21.225 19.9311 32.5669453108
12.792 24.1258 20.3571 31.2237340293
16.8061 22.7394 18.5501 31.9777108197
19.6635 24.0234 18.8026 30.6105685489
15.6481 23.4189 21.0912 30.6697157797
13.0745 24.5184 17.4967 31.5440554399
13.6826 27.0958 19.6474 30.0565213916
15.6598 26.2554 21.2339 28.7634428599
17.8846 27.3214 17.1935 30.6554118431
17.9127 27.3402 20.152 29.3683755312
13.8026 31.8374 18.259 29.6905353613
14.7431 29.0856 17.9101 27.6035121375
12.1666 28.8733 21.1193 29.7988657471
11.558 30.0673 17.2896 30.80207334
10.4148 31.1952 19.8427 29.0278442929
18.9731 29.8183 17.2062 27.411277986
16.5708 30.496 19.2074 26.3312969356
14.6092 20.3729 24.1856 72.8561618957
12.9182 17.9265 24.3792 94.5053522373
10.9963 18.042 21.5965 29.0875652884
13.6103 19.4845 21.6272 32.2221441799
18.4112 20.1745 21.6505 29.0907108936
17.1937 17.2919 23.9385 74.1777048443
17.4989 20.3463 24.2953 83.1700685818
10.5523 23.6229 24.2954 95.215216555
17.4006 23.3221 24.439 83.5028284597
14.7918 23.0679 24.1068 57.9551055493
18.4476 23.0031 21.7094 28.6987106121
12.7055 25.2307 24.344 79.8817059458
12.0856 27.9409 24.0713 45.4248107611
10.3374 24.7731 21.5552 28.9280907054
17.9914 26.2015 24.1666 63.8043664945
15.2923 26.9149 23.904 46.2318599697
14.7206 30.6265 21.4985 30.395418761
10.502 30.6866 24.708 96.5636356456
13.2416 30.7682 24.759 93.3960079718
17.4167 29.579 21.7494 28.3737348321
18.0423 30.8212 24.6103 114.0678901156
15.56 29.5584 24.3806 59.8800001148
12.851 20.1604 37.1188 29.8486241985
10.7676 17.9011 38.5861 27.8671615027
9.95746 19.6427 36.3477 44.4143219636
12.3852 17.3398 35.9243 72.5492417831
16.5451 19.402 35.9868 63.2124788759
15.1192 16.7644 35.9197 60.2223383594
12.4494 23.5603 35.8606 66.2031202315
12.5762 22.6465 38.711 27.4654732503
9.87461 22.3087 35.6446 106.4137533599
19.1507 20.5496 35.8106 64.9913187985
15.4024 22.5112 38.2546 28.2132372035
14.798 21.6011 35.6957 85.0482677236
16.2209 24.1822 35.6634 86.6267568085
14.3864 26.2183 36.2152 43.4384982367
10.83 26.2426 35.9945 71.8996108607
11.9428 26.4299 38.4997 30.2583044471
19.0736 26.1596 38.5811 32.1792954269
17.8942 28.3187 35.9417 53.2008170294
18.7455 25.7252 35.8517 71.9989454908
16.1294 25.5338 38.6341 28.4705917451
10.4792 31.8736 38.2613 28.7201180736
14.0208 28.649 38.5095 28.6687310518
13.1901 31.4843 35.6021 70.9998799499
10.6208 30.8204 35.3519 106.4621380488
15.0756 28.8383 35.561 92.3168596104
19.1347 30.898 35.7161 76.4837019139
15.4443 31.3983 38.7488 26.1420205672
17.1835 28.6628 38.6642 26.528901427
16.3204 31.5069 35.9306 45.1591336805
19.054 31.1082 38.5598 26.6662623766
12.2942 17.5128 41.974 29.6582384616
9.89909 19.0041 40.9948 29.3597538103
13.7415 18.341 39.776 31.729949321
19.6845 17.946 41.2615 37.3964960142
16.2923 20.0207 38.8859 31.4541960456
14.6276 21.1712 41.1902 30.8888291626
11.2349 24.2583 42.8553 37.4327401594
11.94 21.6278 41.9003 27.3964596783
10.203 21.306 39.5267 29.8158557461
15.8331 23.8378 41.1723 29.5721242942
18.6455 22.6429 41.8461 29.4970197565
18.7189 20.5463 40.1507 31.7461340639
14.0565 27.3692 40.9008 29.0959902028
13.0689 24.6681 40.7718 27.8882097195
10.7528 27.5243 42.7563 29.6740968443
16.7858 27.2044 41.3285 30.7325312465
17.7391 25.2339 43.0413 28.0282634489
10.9917 30.7164 42.7011 29.58104824
12.4976 30.7534 40.2054 31.7952395507
16.7651 32.0817 40.9767 28.3070677446
18.0113 29.7998 42.1599 29.2276388119
13.1425 19.542 46.3418 33.3949404741
14.2565 16.3605 43.7982 29.9621494103
11.3364 19.6484 43.7673 32.4038241798
15.5958 18.4571 44.6329 33.6276631651
18.1914 19.1827 43.8944 34.0973967824
12.9604 23.6549 44.7295 29.6614578393
12.1458 23.0477 47.1771 28.3260521956
14.7714 21.4123 44.2973 30.008757757
18.478 21.628 44.5956 33.156675904
16.4376 22.933 46.0926 29.5132387677
13.2265 28.1323 43.7306 29.62058755
14.0763 26.2037 45.3473 29.0141585319
19.4477 28.2425 46.8487 31.6579296744
16.7491 25.5628 45.5081 29.0954786262
19.3505 25.424 47.0126 29.8149989121
13.9175 31.0036 44.3991 27.6479344148
13.6607 28.9249 47.1878 29.2616302621
11.0477 29.8419 45.7388 26.8717205982
13.5768 32.5876 46.409 28.186624231
16.7739 30.5533 44.4595 32.4758125014
16.4941 28.8215 46.9827 31.9281749291
10.1787 18.3708 48.4327 32.0989742785
11.1921 16.3514 50.6072 33.1441217934
16.573 19.5718 51.6678 35.145834899
17.9184 17.8172 49.7022 36.3570823114
15.6339 18.6239 47.9906 40.092671852
11.6161 20.5324 50.416 31.5628341773
11.1898 23.2423 50.0987 26.0326679268
14.149 21.5406 50.6247 30.8847411097
14.5114 21.7224 48.1013 28.6444532626
17.1232 23.8197 48.7732 40.9642020186
13.197 24.6737 51.2715 26.5419288492
10.419 26.1704 48.5007 34.0032921409
13.0928 27.7037 51.711 29.7463796942
13.1014 25.7786 47.8493 28.404690235
15.2939 25.6096 49.7055 33.1280539843
16.8176 27.9995 50.3774 27.8820245202
19.2528 27.122 50.8945 30.3545124805
19.6201 24.624 49.8875 33.5824716176
11.3579 31.8602 51.2864 29.2051976857
12.8264 29.7482 49.7119 25.1999805353
10.2308 29.1519 49.2909 28.0022150667
11.5702 31.9238 48.07 25.1125183453
15.1135 31.3827 50.5649 29.716683477
17.4312 30.4299 49.3956 28.1163651623
19.6859 30.7386 50.4156 29.7988488371
12.1294 17.3097 53.2421 30.0471172872
12.2445 20.002 53.2379 27.0933895412
15.0381 17.53 52.9292 31.4191336179
19.5325 20.166 52.4313 36.8497236353
16.6316 16.4152 54.7886 30.3911834241
11.5357 22.6672 55.1683 28.2676412267
14.0777 23.3728 53.5102 32.9793162859
15.8004 24.3433 55.4898 32.5876287422
17.7647 22.3367 55.4965 35.7756933538
15.3524 20.8106 53.8884 29.8797356237
11.1583 25.4414 53.5533 28.7063689049
11.8086 26.2071 56.0762 33.9451815759
11.1868 28.2156 53.2859 29.8909978538
16.7474 26.8574 54.7696 35.653168886
15.619 28.3256 52.7398 31.0417537389
19.4082 27.2244 53.7519 35.7754477799
11.3046 32.504 54.0904 33.8296272341
12.5265 29.8689 55.1265 33.3123992532
16.3347 31.3221 53.076 27.9425582405
19.0432 31.3069 52.9968 32.6486135931
15.3452 30.7582 55.5221 29.2513028384
13.168 34.1319 5.22458 33.4873511677
13.2184 34.2665 8.01352 34.8723743611
10.6797 33.6277 4.17878 33.0999957844
17.8697 32.869 5.65058 35.2222293802
15.4615 33.1593 4.00304 31.0613241269
13.8549 37.3028 7.59392 27.2208041324
14.5035 39.8311 3.90172 29.9049380881
11.1373 37.4112 7.1148 30.7361926111
13.5367 36.9464 4.73684 28.7831175921
14.7978 39.8999 6.9772 34.7306965201
17.2247 38.2574 7.53107 31.0718726512
19.4867 38.0342 6.1719 30.5677987512
10.3971 42.1007 6.7946 36.6043029736
11.4464 42.964 4.03678 29.8865670904
14.2093 42.483 4.22846 30.5706476091
18.3928 44.1709 4.56951 32.8050888748
18.4172 41.3725 5.5203 28.3862748313
15.6452 44.3562 5.65191 31.176722092
14.5097 48.3963 7.74226 27.5270302413
13.1149 48.7586 4.1787 29.8951493584
10.8344 46.817 7.82781 30.060880026
13.0755 46.4363 5.77278 31.1527778573
10.5817 45.4993 4.53323 30.4951371232
16.4932 46.9248 4.87494 29.7606141635
17.3221 48.3784 7.58866 27.4581344087
11.8783 33.2388 10.2285 31.1571781708
11.8352 36.1931 11.616 29.5957379801
16.6584 35.8645 8.90337 32.0160219567
18.6387 36.1559 10.9528 28.6823987162
17.9494 33.3519 8.49243 30.8070188759
15.7494 35.1374 11.9118 28.6906895772
17.1619 32.864 11.6357 29.4463384101
14.1473 37.1624 10.441 30.4086521556
9.98588 37.5513 9.71582 33.6335810593
17.6575 39.7041 9.88978 26.6484419012
15.4255 39.4994 11.1796 27.6615900826
10.8047 43.3392 11.5367 31.0969880487
14.455 41.6162 9.30664 31.84250196
13.6173 43.5869 11.2885 28.6685017605
11.3023 41.5237 9.55256 35.8328730115
16.2103 44.0198 8.56101 29.7151438237
17.9588 41.8985 8.1652 28.4872692028
11.6875 48.7873 11.4671 32.4439121935
13.8231 45.4698 8.9794 31.0536731533
10.4436 46.3158 10.5911 28.9568260705
14.3277 47.4 10.7256 29.0701002576
16.6873 46.6312 11.8963 31.2670230573
17.6731 46.3375 9.37394 30.3436903399
13.4487 33.9795 13.269 32.3323742751
10.3398 33.6241 13.3474 29.9480992978
14.7428 33.1177 15.5885 31.2281726954
10.5076 35.7261 16.0572 30.4257575659
17.5982 33.8089 15.1908 27.066198602
10.8685 37.6037 13.8098 29.7178044578
12.8201 38.9633 14.4831 31.8985447322
15.8817 38.3024 15.6771 31.9217939321
17.0562 37.3758 13.029 31.3212943156
17.443 40.4626 16.2522 27.9970846379
19.1451 36.8308 15.1259 29.8785361025
14.2349 41.3571 13.3886 29.4835109672
11.9402 41.9393 15.3463 30.5503012343
12.86 44.3372 16.7446 32.2806435313
17.9745 43.8837 12.8413 32.4787917792
14.9244 44.7014 13.4628 29.9671214907
15.4727 42.7785 15.8585 28.5494292493
17.1751 41.1979 13.0406 31.6743853338
19.5012 44.2826 15.3339 33.1633201375
10.4717 46.2238 13.3995 28.6568259667
14.0831 48.0346 16.6022 32.1326498166
13.0429 46.1986 14.6514 33.8108685671
18.6246 46.6418 16.841 33.6593351171
19.2251 48.8955 15.3854 35.8393373938
13.4659 35.6633 17.129 31.633404488
12.9357 35.569 19.8728 29.5438018047
12.7493 32.8352 20.6955 27.1515798178
10.2758 34.9239 20.9335 28.9545668234
16.4087 33.4441 19.3151 27.9642182659
18.6647 33.027 17.5522 27.3846779342
16.3382 35.6854 17.0823 28.0952444877
15.409 35.444 21.2365 27.0194347428
18.7597 33.022 21.0213 28.9277915331
14.2098 40.7712 17.6306 33.3269293184
9.96773 39.9343 17.0165 28.9312706381
11.3306 39.6269 19.7627 29.2717446148
12.5517 38.4262 17.2169 28.391028208
18.6731 37.1465 17.9925 27.8735526426
18.9004 39.8863 18.4645 29.6413346463
16.9735 37.5152 20.5602 31.8824798754
13.7174 41.2141 20.4178 29.6778693554
12.2416 44.4649 21.1159 30.8223951697
16.1059 43.947 18.4846 29.8821355888
18.4902 43.6073 19.8355 27.79673082
14.9615 44.0166 20.9922 31.1789559876
18.1726 41.0728 21.1014 28.6996789277
11.3127 45.677 18.3511 31.3130494278
12.7914 48.5458 19.1107 31.8590490026
10.2025 48.3168 18.1865 32.0025873834
16.0574 46.6387 17.889 32.8632312253
16.3104 47.7513 20.6177 32.688830998
13.3756 33.1927 23.4248 32.3952206491
11.5447 34.8479 24.5223 107.9511683495
18.3246 33.5346 23.721 44.5000101629
15.9316 34.9358 23.836 64.0574766429
9.9465 37.8139 21.5806 28.4164843836
12.8489 37.6131 24.242 58.2806934199
12.6608 40.2385 24.4054 72.0090941296
13.462 37.9458 21.5284 28.673716013
15.6717 37.7962 24.3272 75.2660238079
18.6754 38.6548 24.4317 73.4704975814
19.5112 37.3791 21.4874 27.9620743757
15.652 39.8684 21.8675 26.3255728579
12.1372 44.5812 24.0577 59.1020004461
10.5701 42.2967 24.4144 70.5586235071
11.0173 41.8585 21.7268 28.8341979252
18.4025 41.4044 24.4139 69.4287476324
15.4221 41.0145 24.4186 77.7697620135
15.0281 44.0908 23.8948 57.0856240596
17.8978 44.1317 24.1942 64.2987774237
11.3919 47.3929 21.6099 26.7794349386
12.5206 47.8624 23.9644 64.8728192545
18.7901 47.6607 24.2663 77.5953347422
16.0774 46.9593 23.7275 49.7309531359
18.1521 45.5801 21.6879 25.58832592
12.159 35.1044 35.7683 96.493267773
13.1379 33.1664 37.9684 27.5621365671
11.0148 35.644 38.4265 28.6750875119
16.5408 34.2922 35.5349 118.0039538625
17.6134 33.8421 38.3345 28.013202318
14.9697 36.3556 36.2357 51.9830965326
14.292 39.0484 36.2549 64.5039750647
10.0548 39.4003 36.0023 66.8553358692
16.9595 39.8507 36.2246 57.7235256421
19.5397 38.774 35.7823 88.5647519677
14.0071 43.5401 36.4913 40.6539543937
12.2405 41.1771 35.9953 73.0402374311
11.2565 44.5048 35.6654 81.2091307796
11.2655 41.1815 38.7687 25.3334436905
18.5396 44.7097 35.7199 82.572268838
18.1864 43.946 38.5036 26.7236662479
16.6749 42.6048 35.9401 85.1136547502
11.6547 47.4505 38.1248 27.9216296584
13.4927 46.535 35.9141 82.0281634555
15.626 47.4988 37.7705 28.015701908
17.8781 47.528 35.7761 79.5528963353
18.902 47.1712 38.5118 27.3683016297
11.5726 33.6766 43.1546 25.5209432992
13.7373 35.1357 40.2268 26.7776598492
10.0108 34.6363 40.9005 30.474232668
14.0051 32.744 41.8564 27.0928432708
15.9495 36.1899 39.082 30.7940872497
18.7142 34.246 41.4818 28.6394598403
10.6004 38.5957 38.8775 25.8553042066
12.4486 37.4507 41.0483 26.8619997133
14.0428 38.3287 42.9045 26.8386750401
10.8625 40.7109 41.5904 29.26837845
13.9876 38.7862 38.9184 28.2691166509
16.354 38.0705 41.3189 28.3449814756
18.7819 37.1879 40.7262 28.1629819272
13.2067 43.3753 39.665 28.1077961345
13.654 41.3724 42.4625 29.7596876252
15.4381 44.9131 39.0928 28.3564892669
15.1265 41.0863 39.9525 28.5864250444
17.104 41.2143 42.3087 27.1145421884
17.6734 44.6358 41.3568 26.8229882443
19.4321 42.7787 42.5287 26.0932800065
15.1986 43.8582 43.1168 26.8799165755
17.8517 41.014 38.8771 30.753116169
10.7776 46.9639 42.5579 29.1663842294
14.1208 46.1552 41.9979 29.3240026872
11.6964 45.5205 40.1648 28.9089173515
14.2414 48.9446 43.2013 27.0787056263
16.5314 47.5676 41.007 27.019784244
19.5439 46.799 41.43 32.9351092649
13.279 35.4578 45.942 33.6391591092
9.92663 32.7439 45.2741 26.0060919533
14.409 35.4807 43.3472 28.3267981066
10.2563 35.992 43.9115 27.9000760344
10.6222 35.1107 46.785 29.6898928905
18.1246 32.8765 45.3972 28.7860098525
17.1243 34.6237 43.6633 31.0516359287
19.345 34.618 47.468 30.3227884275
10.9916 38.8207 43.9748 32.3682890708
11.5074 40.7045 46.0958 33.6371925574
17.6585 37.4436 44.7988 33.272015728
15.9858 39.8709 44.4051 26.6685058435
16.3678 39.2444 47.4972 32.8530482417
14.0119 42.0456 45.5032 32.5698859972
17.9527 41.7591 45.7016 29.8156219126
17.419 44.3056 44.8393 32.2316704931
14.4147 45.9009 45.1674 27.3239132021
10.7678 45.3302 45.0361 32.765102503
12.3494 47.9155 45.1059 25.8876665227
16.4624 47.5793 45.6184 27.331312387
17.6805 45.7774 47.3985 27.9633647069
18.1441 48.4081 43.5977 32.6836761074
14.6929 34.1919 50.2504 27.7070311416
11.7418 34.6221 49.7569 28.0382989019
17.8134 34.8481 50.0178 31.3963609258
16.1741 33.0435 47.7186 33.2991818834
10.2812 38.1272 51.8747 27.8247080774
13.4687 36.8066 48.5069 32.5233557203
12.3205 39.0036 49.9952 32.7861288716
10.2207 39.6875 48.2324 31.7972322492
16.1853 36.9341 49.1482 29.0194942776
16.4393 40.7963 51.315 28.9323509212
19.1588 39.014 48.3026 30.8065693037
16.3597 38.1173 51.58 33.8461849365
13.5876 41.334 50.9704 30.9304279694
13.6029 43.099 48.2752 30.4020021704
11.5963 43.6449 50.5708 30.5790311583
18.1511 43.3507 50.072 27.7100071429
16.2192 41.9109 48.4319 29.7393916144
11.3499 48.1592 48.8396 26.9669737221
11.8432 46.7888 51.2174 28.9757527544
13.7676 48.3919 47.6894 27.2887295085
10.8239 45.1644 47.9908 31.5204397588
14.7398 45.6192 48.1794 29.4011612347
17.3613 45.4154 51.8926 28.5917303405
14.9197 46.1298 51.1112 29.360102424
15.6526 48.9513 51.2644 32.9808222405
19.1725 47.2401 51.0241 30.1310776268
19.2501 47.6795 48.2025 30.4939214135
14.0496 35.6458 52.5009 30.6525171437
10.2373 35.9906 55.1736 28.6075472057
11.1719 35.4107 52.6495 27.0349644338
15.8292 34.1106 53.9358 28.8090472147
18.6036 33.8664 53.333 31.1515532245
15.5415 36.4395 55.5569 31.3591593389
18.3137 34.5088 56.0535 30.0603224696
12.0254 39.0894 53.8116 26.3587307055
14.5001 38.2636 54.0164 28.1673970423
11.3986 38.305 56.2511 28.2426776709
19.4006 39.1847 52.1773 32.0795987958
18.7905 37.4082 56.3197 30.3310022558
17.6208 39.7895 56.1287 33.4492345853
12.7013 41.837 53.6189 27.436649798
10.4064 43.1272 53.6573 26.2752997755
18.8874 44.0585 54.2485 33.6356734708
17.0659 41.9603 53.8392 30.7134910673
14.9787 43.2631 54.3972 29.1827212618
11.428 45.66 53.7453 30.4895267732
14.237 45.7519 53.7009 31.3521977877
10.1557 47.5448 55.3709 28.5668049428
17.5359 48.4531 53.3824 25.7895599019
15.3015 47.9897 55.4285 28.9092264583
19.009 46.9459 55.4797 30.5488699692
23.8115 0.313801 6.19465 30.261124238
20.9117 3.67373 6.56103 32.889093805
20.6447 2.03997 4.0766 30.7322020172
26.1612 1.86462 5.59235 27.7095617197
25.7318 3.4626 7.86186 39.5474788511
28.7211 4.03976 7.3827 28.5122938406
22.879 5.61018 5.73519 34.8124731939
22.0657 7.91934 6.8773 31.9565156108
19.7686 7.09735 7.91508 29.5286387975
25.6052 4.90233 5.28868 30.8353363862
27.7288 6.49753 5.85776 29.9438333681
22.4198 11.0838 6.1644 29.0726412736
21.5249 8.7718 3.98503 26.0578865445
27.8597 10.5183 4.42287 28.4371597243
26.8619 8.95411 6.97112 35.2165454593
23.389 12.7802 4.21187 25.9357988637
21.2836 13.8613 7.14054 28.3073387817
23.7376 14.8011 6.25982 26.7864411974
27.6698 12.8935 6.21085 28.6833765629
25.7375 13.4874 7.9828 31.2385807967
27.5958 14.8321 4.13163 31.7673506403
21.2543 1.68203 8.42333 28.2993327054
22.1279 3.60799 10.915 32.2554856208
24.1933 0.690153 9.28068 27.9110112391
24.4703 2.33288 11.9193 29.6938741776
19.7258 0.833966 11.9638 31.187536901
27.2237 1.0291 9.18472 28.0625809851
28.8546 3.85043 10.0556 28.1101893787
27.2225 1.27179 11.9195 26.3302442614
19.9687 5.39326 10.1116 31.7979900794
23.5441 5.85824 12.4043 31.1762910473
20.8509 7.41589 12.12 34.506855321
28.3433 6.53053 10.8537 30.0977111728
25.5411 7.39162 10.8636 36.2463955458
24.3329 8.79568 8.46257 36.0857664244
22.9438 11.1916 11.978 34.208801798
23.5162 11.4803 8.52752 30.2118373064
25.4562 10.1318 11.3028 31.2684692288
27.8345 11.4004 10.673 34.2179077356
28.8496 9.45824 8.92553 31.835213755
20.8283 15.1403 11.4849 30.8544606968
22.4392 16.1551 9.16138 28.8848235205
21.4861 12.775 10.0388 30.3971839575
27.9944 14.2583 9.84752 29.466888811
26.7101 16.312 11.6956 28.0703104108
25.0711 15.9504 9.36312 31.6550710399
21.0709 3.0107 13.5617 28.2134250535
22.1442 0.721371 15.0102 31.6339621726
28.3396 2.119 14.7753 27.952402051
25.2696 3.92994 14.1868 30.9153036114
22.5882 4.74188 15.477 28.5318502873
23.7244 7.62983 14.7579 27.5854449847
20.5531 6.44105 14.8923 29.5509893461
27.6906 4.67488 13.0726 28.4800227556
28.2856 7.59958 13.5574 30.8283190276
19.8023 10.5564 15.7586 31.3537859798
21.9225 9.60463 13.9672 31.3221671321
23.812 11.8259 16.7063 32.6419622703
26.0115 9.03412 14.1947 33.3212780049
29.1526 11.9993 15.2616 32.9876937571
23.9134 13.0199 14.1012 33.018139959
22.3444 14.9551 13.6448 29.9074609386
20.6675 15.4267 15.5954 28.2055083312
28.8433 14.3621 14.1822 26.9717681559
25.864 14.8769 14.0702 31.4775325734
28.7431 16.1022 16.2187 29.9526648136
22.424 2.47947 17.4384 31.5072974112
22.5357 0.0984713 19.3762 29.8563050027
24.992 2.73752 18.55 29.7541267873
28.6792 3.99444 17.5829 29.833882059
26.7859 0.873419 17.2198 33.380498989
24.5087 7.22593 17.3849 30.2923049321
20.8519 4.24386 19.3607 30.4169247156
23.2549 6.04133 19.6621 29.3477084414
29.277 7.55697 17.6315 30.9295206927
28.0043 4.28872 20.2811 26.5471595171
25.8791 4.84676 16.9795 30.9679748565
25.2556 4.3801 20.8912 26.6371860903
20.5535 8.29892 19.6966 29.6190771995
21.4838 10.562 18.0619 29.7606516931
23.4172 8.9037 20.6887 28.359246263
22.4364 11.737 20.8624 28.7812134847
26.6899 11.7267 17.0172 32.9920598886
26.9467 8.82069 17.0439 28.3263479621
25.8971 9.36679 19.6237 30.4282605822
27.358 11.8231 19.8243 36.6335712701
23.7606 14.009 18.3515 29.3804088993
19.8838 12.4549 19.4202 28.0189747036
21.0417 14.924 18.5278 27.41377309
25.79 15.6809 17.1353 30.489542367
25.0526 12.7539 20.9081 27.9803174591
23.8611 2.75504 24.2981 95.5512409285
20.1455 3.43607 23.9751 60.31458643
21.8331 0.880394 24.0188 56.9425693239
20.896 1.51 21.4572 30.3966143938
29.0212 2.73651 24.4154 79.1130835221
25.4986 1.60283 22.2684 29.3939094356
28.334 2.13076 21.7927 28.2558552831
20.7943 5.21321 21.9274 27.460736748
23.7101 5.17278 23.0252 28.893601393
21.4375 6.99374 24.333 104.2673104881
29.5 6.35937 21.4944 26.5331379696
27.9045 5.44895 24.5003 96.0911489097
25.5398 7.03492 24.0286 60.1175559551
26.6605 7.09837 21.4801 31.5463593062
21.5046 11.474 23.2029 40.4807242504
23.0888 9.12114 23.5061 39.9980998413
29.4836 11.0074 21.3181 33.3940661532
28.5307 10.0074 23.8801 41.1016782137
25.7347 10.0618 24.3746 106.8885160379
20.8288 14.1003 24.4146 118.7452534361
23.4921 14.4249 24.6183 113.0016959771
27.7566 14.5137 23.9146 65.4550517407
25.4656 12.7233 23.6649 36.7162358764
26.0433 15.4857 21.3725 29.6461953867
21.8246 2.66712 35.9505 52.9051611442
22.6691 3.55861 38.6315 32.5043141799
27.5511 3.29069 36.3486 34.8497741473
24.7418 3.16188 35.6741 79.7209693345
28.8127 1.05126 35.5371 90.5837932181
24.982 0.371251 36.0316 45.4817015694
27.7746 2.21644 38.7014 29.9375466559
25.8516 0.206595 38.7704 31.9340447465
20.771 5.41995 35.567 103.3940134616
22.3951 7.55098 36.0394 57.7348622287
21.734 7.96113 38.7286 29.6552214779
26.6108 7.94737 36.1426 45.4480459443
24.6685 5.95408 35.6665 85.1245147184
25.9802 6.84041 38.7908 32.5412127576
28.9199 5.66074 36.0011 71.7468950266
28.947 6.30981 38.7931 29.3043873433
21.7804 11.642 35.743 83.7013929447
22.6888 10.9477 38.4791 29.6525626771
24.5956 9.74243 35.9943 61.439681282
28.6589 10.0299 35.663 87.4687151069
28.4813 10.5884 38.7115 28.2074083718
