27.5552 8.90659 45.5467 29.6523836849
26.5426 15.234 40.8115 26.8726428948
26.8412 15.2163 45.3088 29.6228397045
27.563 10.9975 48.0199 30.463549032
28.2422 3.65112 45.7941 28.8391059442
23.6226 6.004 44.2901 28.6694569635
24.9974 7.10938 46.3734 29.6749638149
20.3177 3.4278 45.9526 30.3432836547
29.4327 3.28087 41.3552 30.0329725533
29.1613 14.3683 40.5329 26.3819120327
23.426 10.7813 45.2613 25.9048757979
23.5301 0.618525 44.487 27.8962005959
28.7878 6.86795 43.6887 28.4427639634
26.7928 12.2723 42.3423 28.0619997767
24.6443 0.91545 40.2156 29.4481435841
25.4731 10.0084 43.8972 29.756964096
27.345 1.07234 45.5889 28.3201657272
21.5492 7.83654 39.8034 28.7372415788
21.1254 0.391793 43.0411 30.3846603155
25.168 12.7278 47.0931 28.9203073949
24.7257 15.7613 38.939 27.8172506113
28.559 0.869937 39.1538 26.4645850297
22.7993 2.4537 50.0981 28.8220665053
26.3313 1.07582 48.211 28.0946207791
21.1027 1.47359 53.3213 25.4280675371
19.7647 14.6327 49.1868 25.3411913696
21.8047 8.40028 49.1238 30.9876252043
25.1578 3.1909 53.9744 29.7088878533
26.8193 3.73613 51.7709 31.6277568497
23.3582 0.426304 51.8555 30.1829437672
28.5467 14.7425 49.5935 30.270899463
21.6013 4.81276 51.6298 29.4733154609
28.6518 6.53431 48.7106 31.1815734609
24.5592 5.2082 50.5522 31.4953105094
25.7213 6.65201 52.7248 29.6518480003
23.9231 13.092 49.8822 29.7270606575
21.743 12.4605 51.9753 32.8705455316
21.6256 9.30787 51.6905 34.7684444292
25.6782 9.63865 50.2416 29.7575284299
24.0782 9.06745 52.3299 34.555618402
25.715 15.3255 50.1959 28.1516433045
20.3365 1.47922 55.9702 26.8916824839
24.5362 3.2371 47.9102 26.9178990921
21.2366 1.47664 47.9945 30.8910955928
21.9585 13.7959 54.6501 30.593780002
27.9518 1.44454 50.4809 27.7748946372
25.5896 16.4545 53.0948 28.4255894279
27.0266 14.7277 54.6273 32.4508673399
22.4643 4.1818 54.2047 32.0693214597
26.6479 4.66278 55.8902 33.5619264464
20.4919 10.5165 47.9238 33.8119818208
26.1407 7.38535 55.4846 32.5539158923
20.4041 5.70546 55.3236 30.6462970245
23.9678 11.5578 54.4899 34.6498937966
22.1636 15.7211 50.6174 30.3841350403
25.3696 0.304569 54.0728 31.1460952912
20.1304 7.34457 53.0442 34.0073961654
27.6086 7.78319 50.9192 27.3537999715
26.3621 12.1987 53.5181 33.7623614686
26.7865 12.3345 50.8315 27.8644886698
22.6267 6.05787 47.8963 31.482604894
29.2027 5.20418 52.4134 27.2824357221
29.5596 4.73319 55.1164 32.9388787584
29.107 11.2754 54.619 35.4403993095
21.7312 12.9949 47.7989 31.00821622
23.993 9.62517 47.6942 29.5850467371
28.3723 8.74502 55.9985 34.2943737417
22.5352 19.6376 3.66361 28.6889673956
26.4312 19.065 6.29635 29.6375876836
27.9952 31.7693 11.5696 27.6673806884
28.1865 17.1014 10.8789 30.5642501009
28.1554 18.5901 8.41961 28.7968012906
22.8761 26.9555 10.1236 28.3159875584
21.7419 17.243 6.75515 26.3907011081
28.8408 22.2588 7.23727 28.3333440133
28.7822 26.2187 6.76808 25.2048816774
22.0098 21.7609 12.0932 29.2817921073
22.8175 21.9927 7.47269 28.0251831756
23.5898 25.0083 12.4309 33.9567418574
24.6485 31.5094 7.96226 29.4446095613
21.2825 19.2919 8.7102 31.98530523
24.5939 27.0146 5.67435 26.5395123985
22.6573 25.9123 7.14379 29.816369966
28.3918 32.1259 5.61373 27.7640279754
23.7328 17.5419 9.62828 31.8691361577
28.8743 25.7226 9.59119 27.445433433
25.451 29.0908 7.31658 28.4837757136
23.5807 31.9286 4.16635 32.7485790563
26.0656 30.6627 4.07972 32.6330314015
20.972 29.247 9.65928 28.8116720634
25.635 27.9211 9.79481 33.341614154
27.6927 21.4292 4.97465 25.7469746011
20.5696 22.9264 9.72171 28.6558102167
20.4015 18.1132 11.0765 29.9580341706
28.1459 28.9725 6.30449 32.1613298545
23.4256 21.9336 4.84659 29.2479597426
24.4159 22.4903 11.1332 28.8463931385
25.035 20.4847 8.53 31.0900521945
22.2931 29.9046 5.64868 33.2990622521
24.5459 24.2013 8.37122 30.325458756
20.4842 20.2929 6.03162 25.4857208022
24.7345 19.4408 11.9115 25.9756242952
25.5938 31.2683 10.9901 30.1533165703
26.3926 24.8963 6.34842 27.2602020248
21.8231 31.529 8.66753 26.4793243156
27.6082 23.4779 9.30776 28.3851925135
25.1571 17.9816 3.56904 29.460408738
23.509 29.454 11.8695 28.5641837539
25.7538 23.1014 4.46484 26.2341529819
27.3932 20.6128 10.3026 26.53607235
20.3682 24.6671 5.81736 30.0330368867
20.5291 16.6694 4.10219 25.6105373879
27.582 27.0845 11.7062 30.5461579586
24.5417 16.9332 6.92767 31.537627976
20.3316 25.6252 10.5333 28.390189793
29.0067 23.2094 12.0413 29.3410171037
28.9825 32.4861 8.68887 31.1405162402
22.6279 32.5146 11.0588 31.1476144173
21.8658 27.2663 3.93087 27.5104990783
19.2888 22.1858 3.95505 26.8714134273
21.1335 17.9124 16.0366 28.1702769932
23.2317 17.499 14.0868 28.1543077903
20.1063 32.4721 14.6601 31.520049022
27.7684 19.8927 15.1631 31.1652714525
25.1281 16.7036 17.4644 31.5539379645
26.679 21.7101 13.1591 30.6667012093
21.1552 24.2474 13.2858 30.9676050041
21.5522 22.3198 20.5692 31.1396724059
23.6134 20.2415 14.1818 32.1689695236
23.5985 25.425 21.3021 31.4799934752
27.4099 27.0453 19.4882 33.2716300444
26.818 18.2013 12.9596 28.4780233904
29.2145 17.7016 19.4519 28.2169535062
21.7792 24.7128 15.9716 34.5821911413
27.3198 29.1496 17.6092 28.9385375026
25.3077 25.1783 18.9929 35.5219002008
24.8692 27.3604 13.3777 30.0419882128
25.4927 30.0108 19.4088 26.2651943484
22.7082 29.4131 19.9151 28.8133969791
24.4277 32.1076 17.9274 26.0739013489
29.1255 28.5984 15.0453 28.4557490039
23.2475 20.6407 18.2211 32.4173423455
22.4967 17.7934 18.343 30.4237561655
29.1246 31.8816 20.8055 27.102170114
26.6127 19.0507 18.0733 30.8211956388
22.4436 29.0196 17.0447 29.9718059974
24.2614 31.4112 15.1256 28.9073338446
24.7262 28.4956 15.9897 28.8003702048
21.5093 31.88 18.1611 30.025484806
28.8919 31.2779 18.1654 25.4930999759
20.989 22.2976 17.3274 31.259661044
25.392 20.4263 20.5587 28.9226729223
28.7966 23.4495 17.7299 30.2649812055
25.3665 20.9239 16.4558 30.2970523316
24.5613 25.6016 15.9472 30.7175891936
20.8781 24.9242 21.3001 32.0563387788
29.1953 22.4845 20.4014 30.5688869348
26.6069 23.7296 16.0148 31.4583152524
27.618 26.2023 14.3748 30.4055445294
20.4452 26.7924 17.1015 34.6407167439
21.8123 30.0936 14.2578 33.4839571513
27.0427 32.1104 14.495 30.201686907
19.8296 28.9686 20.5375 29.5474282699
22.4585 17.7085 21.2054 27.7960797439
26.4841 23.2066 20.5225 31.8476137897
22.9908 20.3379 22.2199 28.7303085449
28.3492 19.6946 21.1238 26.6372413848
26.9538 18.5955 24.0361 74.646518617
24.5144 19.2371 24.3488 84.8489125845
24.3523 22.2338 24.6795 116.2348896161
25.735 17.6188 21.2564 26.1875745032
27.5633 27.6113 22.5282 28.9239550601
28.1837 21.0141 23.8529 60.2276531074
21.5108 22.2494 24.0387 61.5719997927
20.7177 24.8123 24.0268 47.9393975584
26.8614 23.5542 23.3467 35.4941661674
28.9237 25.4475 23.9366 82.9947289382
23.5464 31.8588 24.3087 86.8748810451
20.6853 32.424 23.9638 50.7233349958
21.026 27.6459 24.6734 113.9276092382
26.5037 31.6681 21.4162 28.9236218786
25.7479 27.0 24.6902 118.9406534892
27.2377 30.062 23.9125 67.8057509312
23.1721 31.8645 21.4668 28.3746454375
23.7501 25.0238 23.8851 38.9003547321
23.3226 29.0048 24.2333 55.4440406682
24.4759 28.0748 21.7761 28.7828958374
23.9192 16.458 23.8733 48.0299572209
19.615 17.5269 21.4796 30.4589913494
20.0739 32.0145 20.7672 28.601395135
25.6185 18.0735 38.1189 25.2123443692
28.7965 28.643 35.8105 81.7938750901
21.6351 32.188 35.8024 75.0187805752
28.1468 21.8952 36.18 57.5825774847
27.2951 16.4633 35.708 81.5361189976
28.3705 24.4186 37.2556 28.0518319582
21.9347 20.3538 36.0794 53.9241044175
20.6176 22.8785 35.8376 79.7216014399
20.2966 18.2408 35.4806 89.5494600131
25.2975 22.4935 35.9888 66.7219097126
25.1857 19.6408 35.6715 97.9184652597
25.898 27.1791 35.7233 78.6154590327
24.4573 29.4581 35.7322 68.6899983469
20.8062 26.017 35.914 63.4377834437
25.9994 32.0403 35.6508 80.900079139
21.5642 28.8729 35.7663 71.734288555
24.0819 24.9538 35.8739 75.6978479334
22.2366 31.8733 38.5024 30.5134493406
22.6632 25.7428 38.4289 29.5285818285
28.2641 18.0898 38.338 25.8113669839
27.5786 32.1664 38.296 29.3111677115
28.9228 19.0225 35.8482 74.0411115912
24.6252 30.1449 38.3243 29.4111191894
20.7916 29.512 38.7626 30.117272569
28.7026 28.1469 38.4013 28.2148022527
26.852 26.4221 38.1861 28.1122791688
24.0095 18.8584 45.288 29.5741124689
22.2814 16.7861 39.7729 28.6380208914
24.5352 28.3669 42.1742 30.8829656548
22.0273 16.435 45.1777 28.6454840862
27.3507 17.7478 41.325 30.7672168617
26.0864 28.4776 46.5955 33.9492887782
21.3298 26.7387 44.6728 29.8651909464
21.1195 20.9757 41.7119 35.5316796091
23.5577 17.019 42.4916 29.7027413602
21.605 23.6602 42.8777 29.2742052251
25.2331 22.5874 38.8255 33.5355283173
28.1349 30.3922 45.003 31.8450869265
20.603 24.7904 40.0403 32.4962495892
28.5524 20.4186 45.5683 33.6313238578
26.8622 22.1587 41.6848 32.2179576933
28.0076 31.5569 42.3563 31.651577784
23.2337 28.2309 39.5113 28.7026140708
23.8488 22.658 44.5529 35.0345007277
27.5969 28.3094 42.2862 30.3550179438
26.9335 29.8576 39.8188 29.1964454136
21.5627 29.6966 41.9244 31.5104871416
23.7186 25.7387 43.2635 29.9838361675
27.3014 24.9882 42.0533 30.646154247
19.8271 20.1695 43.9305 26.5361617656
20.9936 32.6268 42.2943 33.4890273167
22.8371 20.7207 46.6492 29.5046590707
20.345 19.7888 46.7394 28.3724384202
26.5162 18.0685 46.3353 30.1055414746
21.5855 29.3623 44.9927 26.8774773446
24.7752 24.8919 40.0932 31.6489989974
29.242 17.2565 45.5342 30.4815121405
24.6669 32.3576 44.8114 30.2369671245
21.8908 19.8715 39.0516 30.6292981258
25.9143 20.7593 44.052 30.7995266197
28.318 23.1059 47.3879 33.5772745504
25.1692 19.0031 41.9498 26.6277340892
20.5068 24.7943 46.8309 30.5773157024
26.3918 26.4796 44.5019 28.1236661088
19.4069 23.0255 44.6046 28.5187394744
24.2322 29.7968 44.6133 29.0683543445
28.914 24.8804 45.2524 30.7747358309
20.6361 17.1375 47.4114 28.4405169034
29.699 17.2364 42.6945 30.4634864727
24.4462 19.7509 39.6119 26.8404996708
24.7163 24.8973 46.4801 29.5061744034
28.2058 21.0474 39.2233 30.3881157028
26.0949 23.8909 48.6607 29.5622554833
24.7555 18.9912 51.4902 27.1999229689
22.1064 19.8845 50.2159 30.6235618218
22.5574 24.2801 48.9877 29.6426593068
26.5352 21.6172 51.2992 31.3051023962
24.2583 21.8146 49.1229 33.6892416495
22.1609 29.2387 47.5976 31.5433165835
23.3859 27.2776 53.9148 31.9319743193
26.7653 24.5097 52.0464 32.6905684181
22.8562 31.9064 48.3288 32.7385825757
19.6807 28.6895 48.6594 30.1009976545
24.1525 27.0181 47.8672 30.4495643501
29.4289 31.6938 50.2133 32.2125623376
23.2045 32.8567 54.2837 29.2269552804
27.7652 18.3232 52.9471 31.7813149673
24.9541 26.2668 50.5828 29.4292637991
25.7677 31.1588 47.9679 29.3486271872
27.9685 19.3463 56.1674 28.711480486
23.3914 20.364 53.8236 28.4750181248
24.6074 28.8366 51.7962 33.1388051663
29.3449 24.9208 51.158 28.0160314401
21.8661 17.7777 52.7353 27.0241672839
26.4128 20.8597 54.0414 29.5711892086
28.8438 19.7242 50.2755 28.5529920589
20.5266 21.6897 54.3225 29.4614361957
27.4415 32.0273 54.494 28.7187619524
23.0108 25.0989 52.1232 30.3778034795
25.3781 26.4302 56.0103 27.7831901287
23.1804 17.3863 48.7927 26.9227823211
23.6373 23.1239 54.0326 29.3657322929
29.3073 28.8573 51.9478 30.7562184214
28.8379 27.1219 49.8092 38.0209802751
22.5268 30.616 52.786 32.4997813152
26.6688 30.8131 50.597 31.377546077
20.8458 32.0616 51.3243 28.6140753467
29.0731 22.8788 55.5679 29.8998172209
21.1161 28.986 54.7573 35.1046330213
26.911 29.4206 53.444 30.9782458067
19.7528 19.0119 55.672 29.3359671594
26.583 18.0966 49.158 31.4158670739
26.3588 24.0591 54.8806 27.4293052865
20.58 22.1104 48.8561 29.6090732042
20.2493 25.7763 51.7202 32.6829035245
27.2477 28.1753 55.9073 29.8578379252
22.2972 24.3343 56.2602 33.1791414487
23.3392 16.3622 54.4728 27.0560907155
28.3279 44.2825 10.9745 30.6925303416
21.2215 36.221 9.38095 30.2960963402
24.1076 41.6177 12.1707 34.9158307244
20.8888 37.2108 12.0786 27.7601304269
24.2192 38.3916 6.92675 32.699534931
27.1542 34.5447 5.75802 27.0548409566
26.7871 38.8704 5.97109 34.917715277
20.649 41.2513 4.01965 30.6545861492
26.2018 46.1276 11.2852 32.6935337582
28.2551 36.7309 6.6976 31.1370568228
28.4913 48.2751 11.0232 29.4324067962
21.0049 35.2089 3.98008 34.2050599773
22.1952 33.4969 6.25203 31.1497057552
23.3672 41.2225 7.83547 31.2840022001
24.9742 42.7046 5.6889 31.2756083297
22.0675 38.7096 5.01423 30.2643773036
23.0759 44.9162 8.18959 33.2940158342
20.5009 45.577 7.01169 32.8518866888
29.2351 46.6714 7.98893 30.8023006387
28.8288 43.7448 7.81414 32.9205516031
25.1096 45.5165 6.25738 32.1383795028
23.792 36.4078 8.7428 28.2587353712
23.4806 47.4661 5.44826 33.6025484377
28.7399 43.5057 5.04937 31.7304779165
26.5558 33.9815 9.21277 24.7836229195
24.958 34.62 11.3258 26.1586721806
20.2246 33.9976 11.8393 29.081506891
25.7182 37.3946 10.2443 27.7404222043
27.157 45.9272 4.3985 28.4323257389
20.6915 40.2204 7.08995 29.2688336428
28.0391 36.2506 9.6055 29.4656675032
22.4494 48.6646 11.4986 28.0034448721
27.0428 41.176 7.66301 38.4139541151
28.0694 41.1463 11.007 34.7622287615
21.556 45.2832 4.1974 30.6535699474
25.2338 40.3575 9.78642 31.5946821547
20.5643 41.7258 9.53983 32.4289228117
22.6805 43.1973 10.3957 30.1214172282
24.7369 34.338 7.15101 28.859974864
24.3613 47.1116 9.52509 31.2952264034
20.0781 33.8425 8.84635 28.8646733632
28.9843 35.9681 12.538 29.6322959552
24.1133 48.0385 16.1353 36.9351376819
22.6143 34.8428 17.4676 24.4394095484
22.7275 43.1039 19.2475 30.4798805091
24.9486 48.0284 13.1061 29.0790468486
22.6437 39.1747 13.1946 33.8742297287
26.1958 45.0077 17.9302 29.1767807047
22.4732 33.5564 15.1842 26.6640468074
29.4119 34.8423 18.0985 30.0598961807
26.2601 36.2762 15.8258 31.149037152
23.3636 45.4215 17.0114 25.2418924385
29.1247 37.5307 16.8021 27.7983062136
27.0087 33.3392 17.2527 29.064987623
22.3146 39.4894 17.1759 29.8889825784
26.7608 42.5531 13.1416 28.5301273028
24.5783 40.8612 18.4305 32.4082284363
26.7796 34.4981 13.2716 28.3862236546
27.542 48.6153 13.6055 29.5546676252
20.724 43.3465 14.9277 33.2011978061
19.9429 43.1647 18.6633 28.4548785637
23.4487 44.8728 14.4779 30.9647443909
27.7773 43.2855 19.2241 27.371624367
20.3068 39.9899 18.832 27.8213312829
27.8715 46.9192 16.0706 30.9324485869
26.6219 45.1175 14.2271 31.5617926513
21.4299 36.7152 19.0109 27.6916276355
21.4482 44.7585 12.4146 32.6269637577
20.9168 40.5872 15.0993 31.6618706985
20.5375 45.487 17.0363 37.2081614995
25.1147 35.0168 18.8041 25.5680402112
28.4716 40.9175 14.6983 34.4402736284
25.2844 37.6688 12.8951 31.0918930296
23.3706 45.9125 20.0568 28.5626499898
23.4544 37.0012 15.8252 29.9466413503
27.8756 39.0525 18.666 28.9032376063
25.1338 37.8953 18.5492 27.4549344705
26.3153 48.4618 18.2041 27.4721141579
23.804 37.5411 21.0176 26.9399383402
25.3812 42.7884 16.0473 34.34228616
27.97 38.1435 14.0207 29.1295467031
25.0803 48.1057 20.66 27.1664468637
28.5576 46.9341 19.8721 30.6185173837
22.7147 35.6713 13.2711 27.6038822063
27.7085 41.4123 17.3697 29.0265678006
21.1941 47.1772 21.028 31.6008409136
20.3832 47.1694 12.4332 31.8535522121
26.8156 37.5433 21.4412 27.5032789319
26.7397 46.1629 21.494 27.5916201384
19.9688 42.3523 24.3862 89.4966564532
21.712 38.1386 24.0999 76.4586401451
26.941 42.6495 21.6916 29.4537991837
20.5008 35.0028 24.1432 79.5649029949
23.5911 35.6502 23.9797 52.9672357936
24.5698 44.077 21.8933 28.2237840508
27.0486 36.7996 24.1912 70.9521841287
21.184 38.96 21.5486 26.8434029361
27.0759 40.1332 24.3221 88.2611834409
22.873 42.4151 24.3149 77.5821005979
21.1065 46.2207 23.9239 55.9788843249
28.8712 42.8509 23.7967 60.4611350934
23.5478 45.0314 24.444 86.9610610762
24.5231 38.557 24.5431 90.7147078596
25.7307 46.9041 24.4785 91.221280525
28.9685 34.2216 23.7488 48.7426452152
23.0829 34.7533 21.2154 26.2721335712
25.7185 33.9484 24.0142 66.2722764205
20.2909 42.069 21.6017 28.1323174569
28.6366 46.7941 23.9723 56.3443235431
29.6421 38.9877 23.8616 46.2408939451
23.2792 41.3281 21.9256 26.7454275955
25.859 40.2443 22.0006 26.1503040979
20.2717 35.0173 21.309 28.0600682152
26.5451 34.7887 21.224 26.6798336907
23.8022 35.1354 38.5902 30.034907339
21.8729 39.5504 38.1983 29.4207177999
23.3997 36.4401 35.4875 103.4829655378
21.4275 47.5401 36.0234 51.0617246292
20.5763 36.9968 38.5239 30.5106426913
28.0907 33.9351 35.5551 100.3171151522
19.8989 45.0849 35.6258 87.9702590605
20.2197 36.3954 35.748 79.0119025956
29.3282 40.6916 35.5421 85.7918536988
25.8826 38.3107 35.6002 83.7541208913
28.2432 36.5875 35.9747 55.5004677821
23.914 33.7586 36.0436 45.434089045
22.9239 47.8694 38.5815 30.3730522751
24.4806 42.8389 35.2873 115.8596068065
25.967 45.2047 36.0241 55.7575389514
21.8174 42.7931 35.7165 66.5151007063
26.43 40.8291 35.8791 48.2689999636
28.975 45.4071 36.2557 54.5664453491
20.5024 40.3567 36.0195 83.915932359
24.2616 47.2055 35.612 93.2346011948
28.3433 35.819 38.9455 31.5721470795
29.3534 40.6649 38.3391 29.08664256
24.2282 38.0297 38.0132 30.3617903897
26.4465 40.2103 38.5155 32.0760581721
22.8894 42.845 38.5347 31.237746495
20.2559 45.3072 38.5693 28.4502608216
22.3649 37.1366 42.3376 33.1672418762
28.2297 42.9324 39.866 34.2692023184
22.886 48.6042 46.8756 29.131352724
26.6791 39.8309 44.984 31.0886046881
20.0763 33.1576 47.0854 32.6486421192
23.5573 34.6954 41.9514 31.3472365692
21.2767 34.1084 39.7797 29.54763282
26.9976 46.8874 45.5747 29.2924755152
22.1656 33.5821 44.8244 32.5882063302
27.5631 34.764 44.5031 32.080862072
19.9306 43.2754 45.3647 32.934578976
29.3565 39.3078 46.2133 31.1474739544
25.9288 33.4699 42.6412 30.3749440925
22.8772 45.4688 40.0601 30.2432570859
26.2058 38.81 42.4305 36.4262057389
20.1795 48.1723 39.4586 28.732943977
26.2742 34.1766 39.6751 33.8331963592
23.0389 45.7275 42.8493 32.5842428064
20.7944 41.3221 40.3013 29.6473688487
26.2121 42.6107 44.7411 30.0082079446
25.094 47.2461 43.6859 38.8408845161
25.0492 41.9617 40.2972 30.016680507
22.0386 41.6989 46.6349 28.6001606107
26.2802 43.098 47.4944 31.5845197208
25.9722 37.975 47.5875 27.0875640914
25.5887 44.905 39.0237 34.4636599307
23.2775 44.0614 46.0576 29.2920109216
21.5102 46.1505 46.5146 28.0133300054
28.7046 43.2859 43.708 34.4974997455
20.5422 39.7194 44.6747 28.4234356442
21.121 37.6877 46.4939 29.8359150352
27.3883 32.8747 46.5481 27.1130684766
24.0315 39.2933 40.8212 28.0603327329
22.3428 40.8568 42.7393 32.8630685673
25.957 36.7554 44.9155 32.0069739077
20.349 46.8691 43.8963 28.4080434899
23.0304 36.3628 45.0333 30.2784933106
24.025 42.9476 43.0471 32.4424113116
29.1922 45.8368 44.0466 31.1857846029
25.4302 45.4186 47.3908 28.4256967474
28.5644 37.6004 41.4729 33.594251203
24.69 40.43 47.362 32.804338707
26.3086 48.1126 38.6812 30.3237217761
29.3236 47.304 41.3504 32.3838419443
28.4902 45.869 38.9835 28.1193813808
24.5579 33.6262 49.5247 29.0291264552
21.9533 34.9002 50.4813 30.755411477
28.2698 47.6033 48.187 29.6934213866
26.5946 44.7588 54.5116 31.0391073051
26.2882 37.8575 53.5192 32.8147323606
23.7964 39.5015 52.7321 27.1684544364
20.8553 34.2183 54.4153 31.2987385575
21.998 41.6999 53.6851 29.3560851188
21.8322 46.7775 51.2887 30.659993825
27.0866 34.8807 51.827 32.5368631682
20.7566 39.0129 49.1172 31.1120137203
24.433 45.5785 50.2309 30.1537215322
23.7856 36.2951 48.0934 32.118961391
26.5485 41.0308 53.2848 30.7499205979
28.3346 40.4431 50.5696 29.4918295879
20.3583 45.9861 49.0746 29.3144292721
21.2263 41.998 49.1989 28.6237945704
23.962 45.1126 54.8054 30.7793398325
29.0855 43.4619 48.1696 28.6092829106
25.0741 40.6123 50.3681 33.5144337745
20.931 47.7698 54.1093 28.0759352761
26.4053 42.5484 56.2847 27.3648630769
28.6814 42.7646 52.821 27.7764815927
28.9121 45.1543 50.5952 29.8386231381
27.0605 35.012 48.8382 35.9088432064
26.6106 45.7086 51.8088 31.8499813106
27.5121 48.479 52.1609 28.6086280037
23.0595 43.1071 50.9184 32.9455630115
25.4665 32.9312 52.5977 28.8623987872
23.3094 47.7363 55.4917 28.3678502545
27.3813 48.4534 56.2688 33.6575889067
26.0701 34.5326 56.1689 29.4134595752
22.1418 36.3821 52.946 29.5214173081
24.2977 36.1948 55.0735 32.9390346851
27.715 35.2508 54.5272 27.6709877948
22.9472 38.15 50.2529 31.5363782855
23.6202 39.1347 55.6942 32.0401142707
24.3389 48.2926 49.232 29.6662176569
21.5346 44.5641 52.8306 28.3973503549
28.3033 38.338 48.7361 30.9565072258
29.3623 41.9224 55.4487 28.8471722105
29.2682 39.1839 55.6274 32.030695695
20.2041 38.1956 53.5185 28.1362186559
26.6646 39.439 55.8671 27.5464036743
29.3308 48.207 53.9246 28.2063082481
22.9179 43.0322 56.2714 28.7559427473
30.132 9.40763 9.14201 28.3687332733
32.6119 3.06542 7.86998 27.1336491289
29.703 13.0967 11.3823 28.379431146
36.0625 0.86054 5.7695 29.3964279655
38.1735 11.336 8.56951 34.2784713153
32.6079 14.3232 5.36836 28.6807382285
38.6458 9.8641 4.38046 33.673646932
33.6895 5.81796 7.84415 30.6341421263
31.3464 15.1968 9.23291 30.3082878287
38.816 3.76865 7.57966 28.8640742149
35.1971 8.87096 6.53668 36.4496081847
30.7975 6.49982 9.86709 29.5552248805
38.1977 7.03886 3.73063 27.0365586432
34.0063 7.26875 11.3549 27.7854577405
30.3774 7.29918 6.6594 35.8045981897
34.82 13.2408 5.97212 30.5157561653
30.1966 13.1618 4.35972 34.3595778568
33.7714 4.99245 4.75792 30.7580780702
38.0268 9.19931 6.91728 30.288039505
35.9243 6.18317 5.82998 28.1265506596
39.0016 1.83001 5.67425 33.3220943079
33.5672 12.3008 8.49609 33.1252596615
35.5808 10.6993 4.46867 30.9514535123
30.2278 2.4677 4.24124 29.7607183684
35.03 4.92069 10.2291 29.7152262856
38.7473 4.76638 11.8294 32.1666039576
31.5527 1.51461 9.94288 32.1976785707
34.5708 2.59621 3.96809 29.3088148425
35.4389 2.30009 8.21547 30.5600765353
37.9512 2.37801 9.98408 30.2608496232
37.14 5.91299 8.32835 30.9058200421
35.0358 10.0025 9.13387 28.8806917666
35.5124 16.0091 10.6648 29.8057599899
34.5989 13.4386 10.9085 30.710601464
32.552 1.32652 5.60931 31.7024257616
30.604 12.0771 8.91411 29.2030017445
35.628 0.124056 11.797 27.7381334852
32.6431 9.39327 10.2456 28.2476218013
38.0948 14.1541 8.5635 30.8741528716
36.3034 15.8173 4.70966 29.6457479675
35.7028 15.8746 7.82516 26.416812118
35.5426 2.78192 12.043 28.4786521913
36.55 9.20659 11.5097 33.3378838547
31.1488 4.49609 5.93213 26.1295540085
33.0443 16.2606 7.25267 27.5341343315
31.8527 5.33484 12.4498 29.5681249956
39.5393 8.30052 14.5475 30.5233801487
38.6746 3.44789 16.146 26.5591800272
38.5453 0.442088 14.3634 30.7089884002
37.6864 2.24901 20.8158 27.9550425168
39.0246 9.22883 19.0569 28.2609789875
36.0407 2.78003 14.886 28.0633598515
32.3971 10.5808 12.772 31.8175107915
32.9511 6.48814 14.6543 27.7313643091
37.5545 9.82444 16.6864 28.0745584303
32.3051 1.52962 17.7661 33.4400314824
30.7279 10.4364 19.4245 29.648091102
36.2885 15.4666 17.6524 28.1138884714
31.3697 1.76097 14.94 30.5382649783
36.3996 16.0216 20.3096 32.0704971035
37.5108 14.5872 13.9371 29.1407279879
34.7675 14.2263 14.531 28.2310136377
32.6912 10.1062 17.2786 33.6127165619
31.4263 15.6376 16.746 33.8378486675
32.6573 13.395 12.9184 30.2541444568
35.1913 10.3262 14.6645 29.9432683471
38.6839 14.4333 16.8057 25.973230449
33.6398 3.61616 15.6422 29.01826771
32.5645 6.00195 17.5943 37.9377879069
33.4386 14.5592 18.3671 28.1418775193
35.3912 7.46739 13.8992 29.2872403712
30.3662 2.04111 19.502 34.5809903793
37.6485 11.4281 20.7629 27.0013638131
37.9468 5.88455 14.3139 30.1874089937
30.1216 6.95434 18.7967 32.951760309
36.6816 6.9989 16.8526 29.6059651156
37.9537 0.983905 17.3071 29.9519473512
35.2472 2.99148 18.1753 31.0842026302
37.4254 4.91532 18.3598 28.4063284919
31.8784 8.94357 14.9126 27.6909340469
32.1793 13.019 20.169 28.952203201
34.3244 7.92804 18.3204 30.3855012603
37.0344 12.1186 18.105 30.5375732415
34.5221 12.2526 16.9774 30.6935506523
30.5462 14.9236 13.994 32.6288729558
32.6495 2.69233 12.6228 31.0473247297
39.5158 12.1728 13.2622 27.5654156167
36.5753 11.8694 12.686 30.6763192514
35.5818 0.194448 16.3606 28.3807337799
34.3934 8.8087 20.9306 27.8591880199
35.5239 6.32265 20.9994 34.5775099045
34.6714 3.26237 21.1948 26.4957878672
31.5103 2.97598 23.9298 69.0128441229
29.9272 12.5301 23.6855 38.6147172691
30.2873 8.06005 24.8747 134.7177654144
33.3278 0.267602 24.4079 100.75012579
37.4648 13.1503 24.3188 88.8561034381
32.6434 9.60643 24.5779 78.2802977968
29.295 5.28061 24.1787 67.6194098538
34.4871 3.09948 24.0202 66.46452031
37.246 2.54753 23.6309 41.7038036691
30.815 15.6366 21.4454 27.8150226745
35.4059 5.76368 23.996 69.2222206529
35.1064 8.54235 24.3181 78.8533712895
31.961 8.95331 21.9756 29.6837747693
34.4522 0.514179 21.5404 32.3540978947
29.7383 0.56885 23.6841 57.8374793934
37.4579 8.8849 21.853 27.1489929263
32.7731 12.4663 24.2084 71.9875366989
34.706 14.7438 24.2194 82.2258857332
37.3204 10.3889 24.1035 52.4611049998
36.0077 13.5521 21.9796 29.0711967804
31.885 15.679 24.0235 70.1874882225
38.2863 5.44155 24.0394 82.1808132875
31.872 3.61415 21.3164 34.2772076672
34.0285 11.6998 21.6084 29.8925024539
30.4353 6.41799 21.7503 33.4868074719
35.2145 2.24189 38.585 30.2990680308
32.2968 13.9721 38.8779 33.6299755618
35.9226 7.75331 36.4538 42.4895134897
34.6555 4.94046 35.9848 55.9552657103
29.7641 7.86438 36.4088 37.4638076403
32.2146 13.0284 36.3291 38.8479902207
37.2736 1.99522 36.1033 63.6922488994
31.9049 6.10994 35.4578 116.9997378576
33.2834 8.50242 37.1036 34.5719703579
35.7661 10.8855 38.5308 34.3688000672
37.6068 4.80298 35.8622 82.000726725
30.6894 3.56381 35.8301 72.5360015974
36.1007 14.1214 35.388 85.3929036951
34.6007 15.3802 37.5136 27.528697943
30.4635 10.8617 35.8215 83.2470445039
34.7436 11.7882 35.6113 88.4067784452
38.3899 12.6489 35.419 89.2183462896
37.1167 9.9334 35.7998 72.167428106
34.7089 1.97208 35.7059 85.4655616326
30.9309 4.29092 38.5218 26.9395116966
38.348 15.7962 36.0184 55.2227248665
38.9932 -0.0689204 36.2147 69.5314211796
32.553 16.0146 35.755 80.5978306802
30.5676 9.74534 38.5742 31.4137712814
33.7728 4.70511 38.5952 28.3930411763
29.7059 14.7691 36.0192 56.6995756493
37.3935 14.6403 38.758 31.7360754906
37.1794 5.37106 38.651 28.4612468794
30.1883 15.8136 38.7038 27.4612480213
34.4492 13.8835 47.1899 32.132300537
30.8217 7.43313 41.7857 28.0725977155
33.2806 5.49409 42.555 29.6324166858
35.6459 12.519 44.8671 27.8729821664
30.3091 10.4416 44.6332 30.128497463
35.6129 4.50691 41.0337 30.1215451445
38.1322 12.1032 39.9226 27.1652049027
37.0276 6.97864 42.0005 28.5032092131
39.2269 9.46293 39.9113 26.9838406558
36.616 7.97765 39.3504 26.2827564344
30.8038 14.8563 42.8087 28.6215214406
30.8714 10.4454 41.6633 27.32591267
32.7951 8.63617 43.8444 28.089548453
36.6607 9.70347 42.926 29.0651808461
37.0508 8.03296 46.79 30.7656829798
29.6859 8.45299 47.1898 25.3246095372
33.5521 13.9703 43.3103 29.9869974733
34.8914 6.40346 44.3963 26.3781785411
35.7656 15.7878 45.1551 28.777428143
34.9731 16.1285 42.2564 32.5127186518
37.6798 12.4712 42.3186 30.7540856922
34.2536 9.9112 40.9513 30.5548984121
32.7166 0.591045 41.4102 30.6719529417
38.2707 11.6219 45.8229 29.9822908441
32.5569 12.3641 41.2061 31.692860451
38.6399 4.04437 43.2888 29.5186552094
31.8628 3.18112 42.8623 31.8055219577
33.3432 7.69329 39.6482 27.616053578
33.8928 6.07702 47.0848 27.9534624661
31.0483 4.0831 45.9497 28.8900991786
39.417 9.02896 46.153 27.3225949
35.7004 1.76144 44.7151 31.8582605935
31.0812 6.99903 45.5644 28.0903095931
32.8634 1.72674 45.1373 30.6873783111
35.4332 1.39913 41.8257 32.8423029773
31.6039 14.3927 45.9227 31.0401290726
36.4307 4.2533 45.0713 29.4115865892
38.6013 15.6882 46.0659 34.5400588642
32.6334 11.2602 46.1035 30.8210255651
35.1404 9.79411 45.4229 29.3886740627
31.3717 1.35252 39.2613 29.3818866575
37.8887 0.16474 41.3649 31.7465021654
30.0742 6.68712 39.2307 26.8697716476
37.152 15.7995 53.0198 26.7733534681
30.5901 1.55871 54.3761 29.6716957638
38.695 8.81285 52.6994 28.4396904871
29.0462 9.46264 52.3214 30.6704916294
37.6267 0.392464 54.0874 30.424756166
32.8978 4.23254 51.6593 31.0523598022
35.4682 5.57378 52.4485 33.2782602354
35.0918 0.362538 49.9561 30.8450957473
34.4552 2.00188 52.2161 32.2500567621
36.9557 2.99549 53.1022 28.6347604488
33.6536 7.762 51.4133 28.5371121393
33.5265 8.29579 48.813 32.7600016298
30.1655 4.16718 48.5769 29.9052658486
36.2235 13.2075 49.5472 29.6243464174
36.8589 15.7593 50.3222 31.2088073168
37.1772 10.8772 50.5908 31.1017885142
38.7456 13.2807 52.5059 31.7444004499
32.4491 11.7062 52.1543 30.3997633485
29.9337 14.8878 53.4421 33.7960405902
31.5369 10.1608 48.409 33.9748578424
30.7412 14.0361 51.0227 29.0890849659
34.751 10.0495 52.1786 29.4704659569
37.7114 6.78828 51.0999 29.9841578385
29.7349 11.2581 50.3297 29.0088926013
34.9375 13.5081 55.9485 27.6939157907
33.1844 1.20029 54.724 33.2056078752
36.6742 9.41756 54.5324 27.3069717052
34.5428 15.6156 53.7091 29.0966760732
38.8297 4.90704 49.2989 27.4595708952
30.5016 2.99805 52.2398 27.5417292385
33.53 1.62929 47.9839 31.2097037802
35.2311 6.75948 55.4175 30.1119826899
37.9371 0.040472 49.68 29.3482938015
31.8521 12.6548 54.7401 30.1601497837
36.762 4.12086 55.6682 29.4375265192
36.4032 8.52992 49.5434 29.3749586983
33.6805 10.3631 55.1779 33.2874481312
31.084 7.30492 52.5981 33.9562567288
32.7006 7.83121 55.1483 33.3346749469
37.3434 12.2513 54.8661 29.7189064199
34.1565 13.7339 51.5551 32.476857769
32.7744 4.11684 48.9882 29.9012650204
36.3925 5.35133 47.6538 31.14120779
38.645 13.5647 47.9445 30.8528038649
30.5054 1.1764 49.4352 28.1001264319
38.2524 15.2668 55.6615 28.3303828331
34.6188 16.3092 48.5935 28.6102966931
30.5695 6.97461 56.4707 31.6390335561
38.082 2.55689 48.2192 33.321399737
31.2748 23.9304 6.42238 27.6956069252
29.4697 29.2151 11.9214 29.5814731555
30.1974 29.6192 8.59098 30.4376511822
36.6056 18.5079 7.9747 29.5232349229
30.3855 20.2405 8.39699 28.7296684845
35.1211 23.703 4.36074 26.6695630182
32.8265 21.6881 5.29735 31.65879607
35.1234 28.557 9.70883 30.6152629734
36.8413 22.3653 6.05651 33.7681331057
29.5271 25.3411 4.32697 28.5750319676
33.8089 18.0317 10.1756 27.3240903284
39.3568 26.5043 5.27335 28.6824562881
35.2499 19.9886 6.16215 28.4349831006
38.9418 23.9742 12.2651 26.5189091884
33.1288 29.7205 4.99551 34.2941387986
33.3271 26.8418 5.74356 30.1508983352
36.3516 26.2624 3.16254 27.1772676532
38.4292 26.4914 10.4388 32.1820985256
30.7179 19.3818 5.55848 32.2504369117
31.1115 31.2396 6.473 30.5575562539
35.5528 30.7077 4.9504 28.2871805643
39.2933 22.5263 4.45527 30.9829694166
33.0241 18.9479 7.53311 26.7690559547
33.0405 21.0817 10.0852 29.6098834946
30.5099 20.9796 11.4713 32.7006794521
37.3196 22.6838 10.3406 28.4296872121
38.3763 29.0045 4.59413 27.8360195665
36.7694 19.8004 10.5669 31.0306302088
31.3854 25.7516 10.4987 27.8723581225
30.9355 16.7162 11.772 30.5631109007
36.1145 26.1203 6.35643 30.8440532838
35.4829 24.0866 8.11597 30.2975565918
35.7064 25.9604 10.2742 27.7797750797
32.7708 23.7934 8.9182 31.5267334039
31.5153 26.8183 7.41754 28.0334091119
36.9462 28.8936 7.38668 36.1868450732
38.501 32.6501 10.0319 31.4408393114
33.9571 31.0364 10.3915 30.5977706948
31.0463 17.3196 3.72154 27.1604320453
39.6347 27.8549 8.28616 33.0351051074
32.2105 28.2688 10.0674 27.3386473256
34.8444 22.466 11.7032 29.0643222975
37.144 28.818 11.8483 30.5704570465
36.0302 18.6446 3.96393 31.5661415461
38.7111 32.2932 5.14009 30.0813074191
31.3244 32.4611 10.2888 28.5688273901
34.7227 25.0847 18.0959 32.7777825412
33.5267 16.6421 20.3712 30.6789232528
35.6922 19.752 18.0967 29.0354718644
32.0265 28.9785 13.0675 29.5237978848
33.5089 32.5063 19.4469 32.5476681032
29.7533 31.1729 14.668 26.60819275
31.1891 18.3427 17.652 32.985950087
34.8177 20.8576 13.7549 30.2527482352
33.889 27.2665 15.8815 31.6875537387
32.0545 26.1259 13.2252 30.2912173327
39.2782 26.9273 18.04 28.5745433231
38.1372 24.1611 21.1062 28.3903010867
37.003 24.6793 14.1796 28.6488522409
36.7794 27.5922 14.2283 29.7730991854
33.7159 29.7862 15.6327 28.3501736934
31.3417 28.9529 18.5302 29.2931767176
34.0984 29.5981 19.0026 25.0073645706
37.5962 29.5892 16.3847 28.0552379131
32.1247 24.6573 20.2163 26.3089259609
33.4461 18.7288 12.9451 28.2755457833
29.8534 24.4676 14.0438 27.7517897294
38.9306 22.8489 18.3673 29.3372381506
37.3668 20.8368 19.9426 30.7025846346
36.6029 17.9806 16.3242 27.478796071
30.85 22.9688 16.001 31.1002193575
35.8038 31.4042 17.5796 27.4233687062
30.7472 19.1475 13.3441 32.0326066369
32.9073 22.8581 17.7002 29.8906281833
36.8016 23.7559 16.6128 31.7043904312
35.0505 21.6283 16.4158 31.0544149352
32.6727 21.5889 20.3393 26.9996110623
37.9806 18.3132 21.1123 33.6316137159
30.1214 25.8061 18.6455 31.1446352959
33.1427 19.1357 19.1878 28.4527434358
35.359 24.6801 21.4094 27.3397103281
37.1411 19.7612 13.9187 27.7721369335
37.0479 31.2508 13.9608 29.3235458845
36.3184 27.8294 18.7023 32.0384213906
30.2371 20.4209 16.0074 32.400221256
37.3577 17.0977 12.6232 28.5792946512
34.1662 31.3141 13.123 28.2034933527
34.5995 16.8747 14.6614 33.0914855869
31.1543 31.5153 16.8739 27.3514954781
30.8944 26.9807 16.2377 28.6398994969
30.4359 29.3786 21.1716 29.2296147921
34.8072 25.1266 12.7298 31.6482998302
34.8065 20.8198 23.7122 42.5531269399
35.4066 17.5876 23.2543 37.1735001615
32.4373 18.4122 24.1241 87.4621625472
30.9855 20.9141 24.182 86.3174539486
33.0192 23.0187 24.1564 83.4428981047
33.3332 26.8289 21.3674 29.9309367528
30.3002 28.1976 23.8457 62.267016268
34.8449 25.1431 24.1925 71.918931618
29.7632 31.2923 23.894 60.3717089334
37.3593 20.7531 24.4972 114.751520389
37.6389 24.5187 24.0792 67.1763468095
37.9637 18.0976 23.9852 64.6189442307
35.7799 28.8684 24.3548 74.3669127275
33.3013 27.7035 24.2726 80.4672833377
33.1117 30.1217 21.5773 27.2454187741
32.5783 31.0179 24.1191 60.4771276734
38.5931 28.3937 24.1799 87.162053949
38.9802 21.881 22.6518 37.440805654
31.2473 19.177 21.6791 29.3003195893
30.6447 23.78 22.4329 30.4535154771
36.9116 31.3202 21.4736 30.9887801912
35.657 31.589 24.2025 69.095950025
35.0259 21.9851 21.2655 28.2320523367
35.8505 28.535 21.6481 25.8111688611
38.7545 28.2903 21.3229 28.6463109632
37.4291 32.2226 35.9727 64.786798375
32.4614 24.6974 38.4654 29.6139588546
31.8102 18.9011 35.9862 62.342103515
37.4625 29.2782 38.4675 33.986018105
34.18 18.8622 38.5006 28.331841376
38.3247 18.3335 39.1528 28.4742158941
29.8715 25.9856 35.8082 88.218940752
30.9006 21.6751 35.9729 72.447654264
34.8132 18.0987 35.7842 82.9354828536
34.5112 32.4469 35.752 99.5889940484
36.6762 29.5768 35.8065 101.2339099654
32.5654 21.8424 38.5088 31.5939839317
37.8783 18.5684 36.3076 47.3941994844
36.3605 25.3251 36.1151 55.976663152
36.393 21.1981 35.8103 97.9186343122
31.0498 30.5706 36.033 76.1771084695
32.343 24.4352 35.694 87.343210579
35.288 21.6045 38.5516 32.308179334
33.8449 29.6045 36.5232 39.6075898741
33.963 26.7131 35.5861 103.8282564153
30.6249 30.8938 38.6459 31.2588269456
39.2214 24.889 35.3986 142.615276899
38.9948 22.0702 35.9279 53.1063050472
32.6842 29.4543 40.1479 35.8403109259
35.5921 18.1445 46.8174 27.8668635166
35.7437 16.9909 39.5845 28.2747583313
37.7074 20.8723 40.2317 33.9188799081
35.9629 27.2673 44.9167 30.3558180418
30.3242 26.872 43.5093 30.3821259455
38.8245 28.5134 45.4857 29.5474945362
36.6229 22.2685 44.3944 32.5587170028
30.5937 21.4736 41.0083 33.4448168624
30.7839 29.4303 44.7468 31.1297727182
32.7643 26.9037 44.8721 27.0572869028
36.3543 20.1828 42.4745 32.9299001683
31.2224 25.1631 46.628 27.0490135171
36.2909 24.944 43.1627 34.6214966688
38.2212 26.4129 41.7063 33.7320739049
33.6547 25.2796 42.8353 34.123255036
37.6733 30.7853 46.5854 27.2054975249
33.367 18.7985 45.5498 30.4469483976
38.169 28.906 42.9015 27.1532294214
32.9773 30.1042 43.0377 30.4805036838
38.0296 16.5537 42.8285 29.3826794649
31.8553 16.8778 46.9546 26.9460899208
32.2844 26.6005 40.7133 34.4274690699
35.9571 30.3847 42.1941 29.6020494112
35.1904 30.2068 45.4591 26.4818609969
29.5053 22.3305 43.7825 34.4993288875
29.9172 23.6032 39.4262 27.7559440197
31.6827 18.9686 41.8156 34.4450423308
33.6064 32.5443 45.9329 28.2884792408
37.3715 26.4175 39.1644 32.2787686966
34.2155 18.623 42.9959 30.0923545638
34.1436 21.5069 45.7036 28.8619005706
38.5606 19.2123 43.6742 28.6057420013
35.3132 30.2758 39.5704 29.7021609511
32.1278 30.4873 47.0133 24.6750223808
38.3411 18.5399 46.6214 29.4145596622
32.5346 23.346 44.3966 36.176953839
29.4096 26.2995 40.5617 27.8997749933
35.2034 25.7517 47.1464 31.4470903052
34.2856 28.6097 47.7798 27.0705492319
37.87 21.7741 47.547 30.6426074154
31.5606 18.4525 39.0537 30.3884803028
35.3114 24.5555 38.7326 36.3827970489
38.882 28.8149 49.7406 32.9105164899
32.71 19.3376 49.0609 28.6735551623
30.4688 20.5837 54.5672 26.2852012892
30.4446 21.4085 51.9998 28.835708344
31.6889 30.0029 55.4557 28.9086914141
33.9612 23.138 53.3563 24.2175079814
35.1811 20.9749 48.2264 28.3411272509
35.4452 22.1238 50.6692 24.1014746328
30.5758 23.1331 49.2159 28.6094457642
30.9414 26.88 53.248 27.9027876273
33.5355 16.585 56.4567 28.6072168454
37.1952 24.2634 50.6299 26.8386832292
34.9626 28.5386 50.9482 28.3420322563
33.1095 31.204 49.6683 25.5877648839
38.206 18.4604 52.3938 29.9492542808
38.539 28.7855 53.2133 31.2733547847
37.1306 26.9058 51.1487 33.419462689
32.9014 21.3481 55.2157 26.7335580341
33.6608 28.3483 53.6579 28.6188209061
30.5754 17.5541 53.9856 27.6633107644
32.5826 25.0822 56.6572 28.2617251693
32.2614 16.3188 50.487 28.1180001042
30.1464 27.5705 55.7796 31.3529375348
35.6968 31.9763 50.8263 31.0985832282
29.8936 31.9851 47.5125 30.1615878358
38.642 19.211 55.1598 28.2291403621
33.1845 20.4254 51.522 27.8323680006
31.8661 30.5791 51.6852 29.4336026174
33.123 24.071 50.639 28.7570655238
36.3345 20.5326 52.8517 27.0748244158
29.8024 31.9125 56.0402 29.4997855735
31.2319 27.536 48.3696 33.5217962055
36.5761 30.032 48.9316 27.8859148738
34.4105 25.6399 54.3383 27.6734048709
31.0149 23.8875 53.5824 28.1025735427
32.5804 26.7094 50.6476 29.6107612973
29.8622 17.2886 48.9481 28.5244383393
38.4749 20.8677 50.4442 30.7804851949
36.3972 22.1475 55.1335 25.4517522073
37.157 24.1873 53.6286 26.929732917
32.8828 17.7451 52.6253 28.0234244581
34.4381 19.2754 54.6421 27.4777051128
37.7752 31.6483 53.1219 33.2366246578
36.5341 28.9641 55.3229 28.6910928651
34.9263 31.2064 53.9502 27.5684486641
30.4191 20.3461 48.0868 30.4898333626
38.9666 24.9909 55.7161 33.0731224157
37.6471 24.714 47.9781 33.5899996634
33.5176 23.7305 47.6309 28.440744614
32.0709 41.3382 11.8197 27.2879571161
30.8534 37.2033 9.67279 31.7758076448
29.7833 46.8932 5.14412 32.0768689989
38.1447 38.4509 4.83153 28.754465197
32.2681 33.725 6.91283 30.066433895
35.7371 32.8727 9.39129 31.2838665214
37.6543 35.26 5.19554 27.5099197856
35.5834 37.0338 4.69822 27.2847803231
31.7966 38.3641 7.24577 34.0899112793
31.2551 43.0413 9.23347 32.3448863903
29.9431 39.2522 11.9395 29.7862458713
37.4937 40.6817 6.46321 27.4210471402
31.5888 47.7505 9.40893 29.1649247435
38.1417 35.6516 8.17679 28.4568324056
38.9246 40.5978 10.0342 28.1550943805
35.9565 41.3309 4.40457 30.0433005174
35.2466 45.2999 8.97965 35.2058172643
33.2624 41.6 4.86479 32.4625795333
33.907 34.9445 4.66841 30.2876593193
30.3652 35.5854 5.36807 29.8991588155
32.6199 47.6971 6.56374 30.9555037801
31.0667 44.7859 3.9547 29.1777880163
36.1643 45.4635 11.7087 35.1459836714
35.531 47.3312 6.29759 30.5863740119
37.4262 45.1675 5.37147 28.7817665291
32.4302 34.8504 9.33482 31.2921590257
31.3761 38.166 4.25139 35.6819209175
36.3395 39.0665 8.73945 25.150169875
33.4594 44.3935 5.31075 29.3123922828
38.1468 47.8299 12.144 31.8817549014
32.6 40.9745 7.50329 34.8888224687
35.3162 35.4387 9.54247 26.3320157574
34.5961 37.3887 7.33377 31.8225624125
33.0884 38.628 11.3616 30.1635164339
38.7384 44.0654 7.29417 33.6532590204
34.472 40.7865 9.52103 26.6946811026
32.7359 44.9296 8.01558 29.8863665045
38.6344 47.8657 5.0035 30.3245982583
35.3931 33.1799 6.4932 31.4598740671
36.3477 42.7217 8.61009 29.7985568907
37.234 37.5231 10.7832 28.4866922784
34.5238 48.6882 9.26543 33.3560739161
30.6752 44.1051 12.3825 33.6988374484
37.3071 42.6745 11.4306 29.889442112
38.6981 34.8573 11.2544 27.2390356427
30.6138 46.9214 12.0079 31.4431055543
33.3728 33.6839 13.7582 27.6904245175
34.9742 35.7453 12.65 31.1915087648
36.8733 35.3699 15.8861 28.6343592246
35.3567 37.6843 15.2053 28.0189802812
35.9006 39.1176 12.8584 28.32832121
37.4455 48.4455 20.7912 30.9401278485
31.9594 34.2502 17.3061 26.8257819977
31.0957 35.7489 14.9777 31.2912964365
32.6159 47.5191 17.7773 34.3117351245
34.6084 45.4718 14.1116 31.8195716361
34.4125 35.1112 20.3543 28.6481746771
30.5671 46.5464 16.1124 32.2781385595
31.4809 39.064 17.3077 29.4378168054
33.7895 42.1584 15.0318 28.4116913953
31.6828 40.377 14.57 28.9628652831
38.4935 42.7645 18.424 27.781289492
37.5047 33.949 13.6238 28.081956949
34.4469 48.2226 13.9632 30.3635305304
36.5137 44.2802 15.5806 30.4860447708
32.7875 37.8155 14.1431 28.4140564971
30.3328 44.4823 19.5998 29.2061062597
31.5765 48.0226 14.1983 28.6232239356
38.1544 35.5665 18.5212 25.7301038067
34.6834 33.3485 16.0563 29.1641689965
38.1318 46.0439 17.1524 30.8687562942
36.1858 37.094 19.6879 29.5288389366
32.5063 43.6272 17.6137 30.2524184153
32.3774 36.618 18.9906 31.6231629676
32.039 44.3737 14.8391 29.9369902432
31.9748 41.1874 21.338 30.1868455105
34.567 38.8358 17.8658 34.5725131505
34.3512 41.7782 19.106 29.5299693258
36.0282 47.2818 18.5134 29.1601485406
30.6505 41.377 18.7375 29.6587425509
34.6212 45.1976 19.1949 31.6956512207
36.2783 41.8653 16.9155 27.3610724417
36.7417 33.3735 19.5677 28.8535160636
37.4302 39.949 15.3007 27.9471299411
30.6624 33.3156 12.8503 29.7190876918
38.6846 37.6392 16.5089 29.7376823405
39.017 43.4321 14.0389 28.7037157625
34.8013 41.679 12.4076 29.1532044139
29.8662 39.0342 21.0193 30.4825846694
31.3201 36.8236 21.6709 31.2786751767
32.5363 46.9215 21.0557 29.2811353675
39.235 40.6367 20.1669 30.1438378818
29.5528 34.4711 20.8153 30.1582371128
30.274 48.622 21.0901 30.8881979112
31.2849 43.8376 21.9202 27.1874437006
31.3676 41.3343 24.2484 92.3815377135
37.2297 35.3342 22.0123 27.3164879799
34.2767 44.1237 21.9539 28.3018673175
37.7762 44.3782 24.4079 83.866341094
34.4943 34.2434 23.2289 31.1522622301
38.2303 33.5692 24.2822 80.7537654512
32.8275 46.857 23.9205 37.2435502865
37.0855 39.2982 24.0587 43.6132721136
36.0942 36.6796 24.4722 80.5375263277
33.5394 37.39 24.6233 95.4958655828
33.8772 40.055 23.5587 37.5633537328
30.8691 36.2964 24.2538 61.1189181179
32.3714 33.9223 24.6167 102.1858967018
35.5276 42.1692 23.8951 60.4726947458
36.2572 48.2951 23.5657 33.4350513423
38.1192 43.9871 21.6505 29.7707267067
30.7561 45.3636 24.474 107.8986587284
35.2985 45.6537 24.1164 72.7193082845
36.3445 42.0885 21.0536 26.1141583873
38.6056 41.6026 24.5048 87.3758873474
38.6363 49.0128 24.6203 121.5509679692
36.9709 39.1013 21.4759 28.7547045909
39.2285 37.499 21.8053 26.1446314522
30.7414 33.4742 36.2118 52.7691394733
33.1217 34.9366 36.286 55.3391091625
38.0655 33.8676 38.1717 29.4215154107
39.3883 41.5136 36.3787 55.5686240081
33.6465 37.8539 35.807 87.2310648952
32.9955 40.7717 35.6959 75.4025510747
35.3094 44.2327 35.6675 90.2829094836
30.6296 38.1836 35.9232 63.917589642
36.2049 38.5812 36.5252 40.7100359315
34.265 41.8723 38.2521 32.2602723108
30.3641 38.0474 38.8274 31.206948032
30.5854 47.6701 36.0383 62.5598799624
32.8329 45.4736 35.9342 53.7933744149
39.3368 39.7127 38.6473 27.4059619762
37.4009 45.9805 36.1435 75.7658354681
33.5189 48.5316 35.7649 90.2623603557
36.1377 41.3306 35.8168 84.2787094476
37.0965 47.283 38.5138 28.5826158922
38.8892 38.1885 35.9034 83.1564070592
31.0254 47.453 38.6943 25.7083911429
39.235 35.1677 35.916 77.2280995782
30.9855 43.253 35.4992 90.9837851887
33.1789 37.282 38.6431 32.7822212769
35.1536 32.9207 38.4479 30.3656290576
35.1622 44.5625 38.4848 28.5757295163
31.1417 43.0473 38.2939 29.3349196354
34.3059 48.7323 38.5744 31.9342325005
30.6346 45.896 47.0738 25.8717915602
30.4204 33.6964 39.3035 27.0492211879
37.6158 38.8704 42.3431 31.0951539509
29.9826 35.458 42.8935 33.1437852056
36.8928 32.8437 42.4138 29.4523641119
34.8968 34.5683 41.3778 28.6596600729
33.7499 47.7634 47.3997 30.0479572837
33.6722 39.8377 45.9135 27.6037441568
33.2729 38.5664 41.2195 32.970872842
30.4305 32.8147 41.9523 30.9568258452
30.384 42.0636 41.437 32.9671927483
32.5517 44.6288 45.2682 28.5607456162
30.722 39.4435 42.3166 31.3892276735
37.5427 41.8483 41.7256 32.0129208708
35.8578 44.1251 41.1016 26.7645831115
34.0726 45.3726 42.8896 33.1346524169
31.6957 47.2362 42.7122 31.4215661213
37.9467 37.6812 46.6999 29.2784714016
39.5476 36.6263 42.8484 30.8242936146
36.8678 42.6569 44.482 31.222660389
35.3755 37.2344 47.0024 27.7364433344
36.4287 45.3766 44.1382 27.8093503478
33.0129 34.4333 39.3176 29.2447406711
32.0087 35.6263 44.7238 27.5792285088
35.6845 41.8443 46.9328 31.5170704678
37.3997 35.8354 40.3715 34.5153983063
36.9213 33.1888 45.3103 29.8608130521
34.5867 35.7027 44.1781 29.1376946442
31.3376 38.2541 44.7527 28.3478737396
34.8818 38.2158 43.5528 31.5466949143
29.9131 41.8492 46.0004 29.868892631
34.7975 40.7973 40.6637 28.1200372172
32.4491 41.9448 45.0112 27.3831692256
33.2339 42.517 42.3648 31.7975623935
38.4933 46.7675 43.289 27.1920854146
37.9492 45.8461 40.5208 28.8828544248
38.4795 39.5389 45.0324 31.124213757
31.3331 48.0654 45.5183 27.6694960065
37.4311 48.5816 45.2716 32.1818510586
35.9222 46.4137 46.7042 29.5467217951
32.9315 32.9814 42.9254 29.7309466446
35.3978 34.6785 47.5705 27.4396051817
38.9758 35.4126 45.5141 32.5961417888
34.2994 44.0274 47.3709 30.1407172084
31.1821 34.4225 47.1257 30.994534977
32.6477 45.2769 39.1238 31.8671065204
37.0397 38.82 39.2187 30.587964577
32.9836 33.7951 49.134 29.3786646642
32.2653 42.1807 54.9821 29.3695992394
38.5401 47.7146 52.1343 27.0936113766
35.2046 37.7927 49.8327 29.854934028
36.9663 34.2374 49.5279 29.2488024006
37.5493 36.4512 50.8883 31.9977911663
32.8406 41.0605 49.6603 29.4232698024
34.2659 43.7804 53.6109 25.8829991412
32.018 32.6718 53.9973 31.2292431773
34.9332 45.1891 55.9321 27.6561198517
37.301 36.0706 53.7984 32.4293190232
35.4029 40.544 50.9045 28.9419316368
32.3164 40.6527 52.5535 27.9300573782
38.1116 38.8261 55.0289 29.4856754546
33.678 43.9357 50.4875 30.2690080718
32.0826 46.2969 49.2117 27.3839593641
36.2794 45.6061 52.2993 27.8017193349
30.2267 34.7606 55.5839 28.0000556219
36.9346 42.2289 49.3618 29.3338730768
30.7282 36.9015 51.4829 31.7162120373
29.7054 39.2087 52.6231 29.6459461188
33.8282 47.4607 54.1876 30.034473384
36.4783 47.7903 56.1015 27.0513840888
29.9037 33.9187 52.2091 32.5974439785
34.1203 47.2676 51.3916 29.9372911957
33.634 35.7664 51.269 32.55891573
35.7725 41.4386 53.3518 29.466199047
33.9755 38.5174 53.1057 29.0506414175
30.6117 36.8101 48.6967 30.2098612586
38.2107 46.6412 48.3957 32.3202634936
35.2407 39.086 55.5707 29.2893846111
39.2774 40.6893 49.6971 32.2575346765
30.7758 47.8819 51.2107 31.1800948299
37.6657 43.18 55.8132 25.7059285802
37.7687 44.6143 50.1995 29.324830187
37.7862 33.4229 55.4825 27.8833120899
34.5266 35.1723 54.2999 29.6095606344
32.1992 36.6419 54.4981 29.6093930403
31.302 43.9318 52.4584 27.0905226184
32.5914 38.6512 48.2384 30.64735729
37.8179 45.6684 54.6689 26.6250276741
31.309 46.2494 54.3447 31.9258619808
38.6326 41.3248 54.0096 28.7470347657
30.2987 42.1703 50.0021 27.2323673346
35.3465 32.8178 55.8237 25.203410645
43.5471 3.76687 6.74038 29.5146499593
41.7199 2.88099 8.51323 32.3973649027
46.1112 3.30416 9.81923 32.3665577792
46.8934 2.677 5.50133 30.3177152536
43.1891 11.4279 5.67406 35.6064773471
42.1877 12.4327 11.5179 34.8051418351
42.537 5.32351 11.9877 31.8417515073
46.316 0.538968 7.50072 30.6737758939
45.8127 0.0900677 11.6677 28.9966119152
43.6449 8.21266 11.2796 31.9945789161
42.1149 8.61095 8.91206 31.6559950886
46.9779 7.26074 6.15041 34.126813222
45.3931 14.8843 5.51415 33.2583568384
45.971 4.71177 7.25262 33.3319305288
45.6799 9.46592 7.20512 30.7412794919
40.1624 16.2528 5.34667 28.9795864339
43.1886 8.47458 6.25096 35.0751929
47.2847 6.16243 10.5569 33.4824642417
39.7189 0.279318 10.0819 36.5654672947
47.9529 0.957068 10.248 30.8992528678
42.5517 15.5238 8.40306 29.6870062114
41.7943 12.9833 7.5197 31.4649998976
46.2128 11.9731 6.11784 28.9379532512
43.6496 0.883485 6.19518 30.6211966818
46.0105 8.94078 9.9222 33.0432139628
43.2948 3.0082 10.6777 28.019984406
40.1092 5.90796 5.47882 30.3255671764
48.5574 11.1165 9.87729 30.908757141
39.8785 7.04282 8.08363 30.9767933138
39.5693 13.9036 6.26816 28.9661430409
40.3446 6.94967 11.0931 30.0750198027
