10.1777 6.59208 38.4385 27.9739402305
4.65962 5.36094 35.4589 108.3010915204
4.4267 8.04294 35.8825 52.9145807309
6.63544 9.67657 40.2383 28.0989177432
6.81526 7.94462 37.7248 28.9542856919
10.0581 8.52 42.9296 28.7005366929
9.32918 6.63638 35.45 102.7686002562
9.70122 1.78202 40.9199 30.5715661297
5.08336 10.9583 38.1699 28.0667557153
1.15154 7.90489 35.8385 82.7709893843
2.92177 8.78054 38.1927 29.0737168244
2.67342 0.819313 41.3494 24.689450775
4.65778 2.61741 42.0295 30.0319559566
3.13969 10.8234 40.8119 29.3033672582
1.28079 2.21198 39.0971 27.6419572867
12.0885 11.6331 39.6307 31.5687190192
8.22433 0.426142 43.0027 29.9408111337
7.92652 9.26922 35.5123 88.1568584671
5.1449 1.55482 39.2609 28.7335639417
0.435385 10.3876 38.4783 27.8790571865
10.0025 4.61899 40.698 31.0077051485
5.19591 11.0083 35.4114 72.2218849698
1.74208 6.75918 41.9716 29.6916465692
2.61467 6.15891 39.4001 30.8254337354
3.05786 8.86311 42.9437 27.9778581746
5.28268 5.30909 40.8556 32.0271002161
11.4918 8.86133 40.5995 27.3092984145
9.96347 10.8799 36.7769 31.6837909461
0.101113 4.54992 39.0423 30.1989794338
8.29553 6.28177 42.6228 32.8769371312
0.217501 12.1839 40.8988 26.7430802276
7.76746 12.048 41.2119 31.1009594986
2.82032 0.024452 36.1157 58.6922385699
0.774752 5.88736 51.8962 25.4362490122
0.840385 0.865874 45.9943 32.2472655819
5.93243 5.34039 47.3003 29.8700363417
8.0692 1.66708 53.1423 30.5910748354
1.29192 8.37285 52.9355 24.8733096552
0.302623 2.64424 49.979 30.6495145642
7.81057 6.85523 45.8272 30.7565429797
11.7916 9.13029 54.7872 32.0317515097
8.13366 4.02376 45.1381 33.5768319145
11.5717 5.3638 48.4396 30.0968708454
0.993617 5.72007 47.3897 28.039939104
9.25876 9.36238 53.529 28.1728154279
11.3682 6.82243 52.3101 25.9433599116
4.0913 9.08016 53.0637 27.8782702987
6.97208 2.5996 55.9055 28.1069987252
10.0413 7.54959 47.4971 29.9705396319
7.16515 10.3679 48.1066 27.8257126584
10.7354 3.39497 46.5201 30.7947258097
2.73955 11.6767 51.3862 29.80557457
11.6484 8.56281 45.3381 29.1758771637
10.5545 9.83378 51.0265 29.3966667914
1.81557 9.72915 47.0386 24.3631926081
9.39466 1.30159 47.5178 27.4165739121
1.28709 2.46118 43.2427 34.6080038671
6.57838 9.36989 45.7985 26.7776207865
4.17611 5.4506 54.7857 30.9735993493
0.317914 9.64663 44.1446 29.6539595766
3.12475 4.77355 43.2119 32.6766518899
5.61688 5.42824 50.6854 29.2359275063
2.92129 3.23842 48.7053 36.4996104775
6.65409 2.42155 47.2534 31.6586053456
8.15113 4.00079 49.5538 29.2195762874
3.8566 8.4194 45.9419 27.873470715
2.05109 7.81585 49.0871 28.4521365658
2.82364 11.5603 44.5532 28.0354932681
3.35007 5.66398 46.0276 33.5623732413
7.29897 8.76971 51.0765 27.9572042358
10.3695 3.23839 51.3598 29.5472053097
12.1678 6.58498 56.0075 29.5648861404
9.40013 6.71308 50.3665 30.5824494097
5.76708 10.9515 51.6932 29.3206334335
2.8072 0.525381 47.5859 32.354099614
3.99872 10.8587 48.8163 29.0697766986
4.99992 7.96239 48.9897 29.7178788516
10.213 10.3698 48.3115 32.5165484836
3.22256 4.38994 51.5588 30.9157534621
7.49227 7.292 54.99 29.40092395
9.7468 5.88571 54.6774 30.6111701807
6.49956 2.25206 51.0148 30.0987115344
11.214 2.79562 54.1807 29.7353175141
0.692276 9.57827 50.7223 26.5594078038
6.0983 1.61851 44.1208 31.9798650454
5.17317 3.19946 53.675 27.0539112327
3.74839 0.722228 53.1825 35.3451274336
4.51078 10.3564 55.2791 28.4582118226
5.72705 6.9979 52.9789 26.857162719
1.19774 5.82181 54.8155 26.0323733477
8.35801 10.5008 43.7138 27.7757974888
1.52767 2.15523 54.1287 29.2139496949
1.60254 9.94383 55.8031 32.0495840174
10.6742 0.679619 50.0275 29.7273692737
8.18651 0.0108273 56.0585 29.9796473054
11.1449 4.29437 43.3258 31.7346872879
8.88993 11.9028 54.7475 28.8476709002
5.73432 11.9219 44.3841 31.162681346
1.32455 13.4381 3.80609 27.0874816736
2.87048 12.9057 9.35941 33.5148034795
4.3449 16.1028 5.23297 30.9273551187
0.287266 17.8368 9.42227 28.5835645188
7.27669 13.3698 6.84704 28.7055288262
3.85858 12.9896 13.76 30.9106444197
9.22244 22.3198 13.5852 29.4857922212
9.81504 12.4008 9.8359 29.8880102689
1.87013 19.9777 6.08731 32.3209081123
11.1549 19.991 10.5304 33.3682746909
10.8743 19.3715 3.80772 35.2244485724
5.92204 18.0967 4.54234 32.4911415801
8.24664 19.5737 5.62723 31.6866979996
4.30513 20.5693 4.87938 32.3749034826
3.80427 23.8984 11.5614 28.4775565371
5.18113 12.8747 11.3832 27.1882892545
5.57297 14.6469 15.419 32.7398757948
4.9751 22.631 6.78459 28.6033133266
1.37788 14.0194 13.1642 29.7621180246
0.573703 19.0472 11.8622 31.6523278359
7.33137 21.1953 7.73995 31.8231573061
7.93944 14.1015 12.2911 27.3713583183
10.7844 15.1498 12.7456 27.4980173842
11.3742 18.2236 14.1674 29.3819726922
3.80956 21.6337 9.23912 28.7179578577
7.24589 14.5154 9.49844 29.5652731431
8.13733 17.1158 9.51204 30.6053597806
9.50059 17.5452 7.28642 31.5877904485
1.90429 15.3798 10.7901 31.3489630803
5.28407 13.6147 5.19681 27.9664443181
0.962011 15.929 15.1857 31.3071724904
4.36709 16.778 8.13523 34.8263158647
6.04224 19.1867 8.924 28.6140981296
6.04299 20.0854 11.6184 26.9543417524
4.58452 15.7937 10.7757 24.8717066516
7.89476 22.2466 11.3575 28.7834665366
9.61497 17.8858 11.7887 29.9250209551
1.64637 23.1751 10.291 26.11662123
8.70076 21.967 4.0525 33.9226727359
9.51763 24.5183 5.42022 34.0576929129
10.8309 12.4915 14.0447 29.0082782841
9.6208 21.7778 9.37985 37.2965142625
5.46213 22.9203 15.2474 27.8976513077
9.16981 12.6642 16.6597 26.5023746529
1.55827 22.9238 7.21221 30.3821307183
0.203623 18.4194 4.48913 30.4050915312
8.33755 14.7562 15.2291 29.0781678665
5.64698 16.2315 13.2919 25.6041035256
11.6815 14.3406 5.6179 29.2369783082
10.5951 16.3842 16.0487 26.3025230705
12.0112 21.1673 13.2186 31.0450637857
3.29626 17.7236 14.5944 31.4832051537
6.8109 18.4965 16.2743 31.9365771462
3.54759 18.4197 11.6306 27.6483039939
11.8706 23.6745 14.9625 28.2702819549
7.23556 18.4162 13.3132 30.8852376322
3.98185 21.5262 13.1938 33.0661691912
2.63293 19.1703 8.67285 27.9646768846
2.74025 20.2584 15.6583 34.3182277991
8.90769 15.3081 5.70783 33.3093009118
11.9301 14.7498 10.1784 31.2585835235
1.68 15.7109 4.68219 31.5313991691
7.93512 21.4834 15.8529 31.5269398077
0.187075 16.0556 7.03753 35.458985798
6.61445 24.4735 5.40341 30.3800129636
12.1353 16.6469 7.62104 28.3949996092
11.0958 24.2242 10.218 32.5448462864
6.51174 15.2892 19.3578 28.9861213808
4.27509 17.3447 20.6016 27.86922239
1.80584 15.3635 21.004 29.1214381898
9.28403 16.8167 19.4007 28.0497660476
4.44963 14.0976 21.3157 30.6133980918
2.29591 19.3545 19.8155 26.4122686306
10.5977 24.1077 20.9984 32.2952625916
4.14718 20.3717 22.2279 26.9974106
4.11074 21.8403 19.5141 25.0673888298
7.23682 17.8715 21.2356 32.2330610325
0.733571 21.3816 21.3988 27.3376128094
4.93378 13.0725 23.791 39.1478184367
1.23574 22.8733 19.2357 24.4682798879
11.1107 12.7113 21.3168 28.0607931224
9.08041 13.8807 19.2328 28.8701673373
12.1133 15.3855 18.2416 26.2982704873
6.52471 23.2619 20.0511 28.0107146142
10.7806 24.1142 24.0231 49.413013738
8.68498 23.409 17.9451 32.2553860082
9.54973 21.4156 21.628 29.4228569449
10.3362 21.2538 18.5796 30.4978652201
7.68397 13.81 23.9615 56.7293987009
6.39187 18.5182 24.7339 118.7711327873
0.055345 18.5817 18.2511 31.0052707754
0.722365 13.6375 17.7628 28.8916994466
4.21392 17.4921 23.4065 28.5906154831
0.109457 13.2994 20.2171 29.6256278257
3.59551 23.6786 22.0475 28.021783197
1.79401 19.24 24.2397 69.9841388673
11.3869 17.1296 21.3707 31.649171461
10.7374 17.0683 24.2166 69.2210464544
8.0363 16.6126 23.7338 38.5546847375
5.20881 16.5245 17.3295 28.8208057451
9.55897 18.6131 17.5198 30.01950666
2.22652 16.4337 17.9095 31.6887911716
10.8691 14.3795 24.6118 98.156076592
4.81616 22.8923 24.3414 78.9947772693
6.91508 20.7356 21.3851 28.6362676632
6.95969 21.0071 24.1362 45.9759208466
1.54831 22.0138 24.1759 52.5784643382
9.69344 21.4976 24.4068 92.9804902365
3.31827 15.1707 24.5275 103.3062767744
0.724715 15.2932 24.0686 38.5871040741
12.0858 19.7022 24.0685 56.6367907546
0.385197 21.1243 17.1114 30.4318017262
0.496892 17.9638 21.6126 28.285090305
12.0342 19.8909 21.3636 32.7911286973
11.8449 12.7661 17.2638 25.7779282703
4.89693 24.0753 17.5527 28.9312209292
4.93476 20.8541 17.1458 30.6012214539
2.35601 23.5525 35.9287 61.1415547214
3.93831 24.0616 39.5812 32.8433845928
3.90832 15.0466 35.7432 54.488445902
1.23918 14.7925 35.6795 80.6198401388
5.74989 16.687 40.0847 26.8667886535
9.04309 13.3459 36.0534 60.2931585209
5.24699 13.8692 38.7739 28.1043543203
2.13905 18.785 38.1096 27.7500386676
3.35088 20.295 35.5365 74.5290124822
9.04093 23.194 41.782 29.1943975806
7.4519 21.922 38.142 26.4229384016
5.59133 19.665 40.7193 27.1226184938
5.04733 17.8697 35.5563 76.1759669601
7.47472 18.6256 35.5809 90.1695802013
4.97977 12.7097 41.7965 27.4868850543
0.493634 19.9338 35.6849 81.1239546422
11.2302 20.7304 40.0775 29.0810640452
4.65721 23.0569 42.0126 32.4452715244
10.6311 13.304 43.1727 27.8597246205
2.27263 22.3322 38.398 27.8800055815
5.36083 22.5442 35.507 91.8823149546
7.80511 21.2388 35.6392 72.6702067345
10.6069 22.348 35.8903 72.7008719737
2.14723 13.0356 38.415 30.379288451
10.578 16.3509 40.1993 30.0099066265
6.18055 13.4753 35.5846 81.5210934233
3.74476 16.689 37.9275 31.244854916
7.00756 21.438 42.5854 30.1165226211
0.894491 19.2992 40.5921 28.8151702375
8.2777 16.995 41.3831 29.2235020499
10.5365 17.4012 37.6307 30.7352033786
8.03215 14.5141 38.3966 29.3007699332
1.25076 13.3479 43.0352 28.9176295641
11.8837 23.4582 41.3926 26.7031620191
4.66813 20.7352 38.2435 28.978864744
8.30646 19.6689 39.9978 29.7646431804
10.005 13.4697 40.2824 29.4449933813
10.0128 22.6489 38.5128 26.1499281717
7.95232 17.4161 38.0204 27.5398372846
2.00334 16.0876 42.9456 31.3480992007
11.0598 15.3871 35.7521 100.046329318
4.59823 15.44 42.3195 29.6440606827
3.29634 19.224 42.3324 29.9276450898
0.113931 22.0469 42.0835 31.9039472227
1.57503 12.7902 46.8202 28.3379529701
1.14073 23.9345 46.6354 32.5736273598
9.40172 17.7472 45.0063 33.278159819
0.533508 18.4073 49.126 28.0953378897
5.20601 17.9848 44.0641 29.0139365671
7.96621 14.2986 46.6355 30.6519916715
1.40336 16.8331 45.7913 29.3774007879
0.70138 19.6944 46.6272 28.794213646
4.14079 21.3697 55.1576 29.6803041206
3.30048 20.1048 45.6504 27.9385451691
6.40383 14.9094 44.7479 27.7259817581
2.71812 21.7831 43.343 32.8474097703
7.22268 22.7021 54.5735 30.1576667702
11.8893 19.1016 45.2035 33.8171607864
3.3345 22.5892 46.5737 27.2544111551
12.122 15.0548 47.8927 30.8968513721
0.499294 18.5034 54.2028 28.4502709111
9.36708 12.323 45.571 27.3829484988
7.48493 22.2066 46.5169 29.6736076857
11.815 21.6945 45.504 29.9112343298
0.960095 22.2469 52.5121 29.5381662366
4.23031 16.8444 51.2901 32.0155924436
6.64487 13.3215 55.4962 27.7267583007
2.46291 14.6245 50.4702 30.442535683
3.50601 14.071 48.1016 31.067653963
6.4955 12.8507 48.6449 29.4784612671
11.6744 21.0656 50.1253 31.4505878602
7.22576 13.7611 50.9152 35.393824225
12.362 14.9935 53.6185 31.1825521024
2.66435 19.84 53.0999 29.4152930446
6.8615 19.991 48.5242 31.17986843
4.18925 16.2471 46.3199 31.4334280681
8.15767 17.8593 49.4191 32.3899841994
4.58401 18.6006 47.8567 31.1753938881
9.67605 16.5869 47.3009 31.3745598336
3.36558 17.0176 53.8386 30.7209267116
11.5923 21.5882 55.3064 29.0981771673
9.81859 22.7826 48.4278 31.0639021353
11.3056 18.0923 49.8231 32.3587693014
2.83968 19.0975 49.9473 27.1815950548
3.36725 21.8861 49.4747 32.4718191305
5.17898 23.9988 55.7379 29.4730909146
8.99443 19.9184 52.0074 31.2725707965
1.58487 22.7548 55.448 29.3005190852
2.53576 14.3948 54.4013 27.996894547
4.80734 12.8304 53.8955 29.8277169225
7.37709 19.7747 44.6374 33.6059498644
6.99767 16.4409 51.3229 30.3100627386
9.11667 16.0133 53.6279 32.0426291628
2.65886 24.0796 51.1863 30.7863299777
11.8262 12.576 46.7723 30.4515441703
9.58454 23.194 45.0101 28.5362428391
10.2445 22.3005 52.8894 28.9040674534
6.34724 20.3629 53.3099 31.1753852639
6.05125 17.4604 54.2452 31.5452500347
9.74213 13.4032 52.4237 34.1062588397
10.6824 18.419 53.7229 31.9728985239
5.85589 21.39 50.6392 31.7523862616
7.74821 15.8284 56.004 30.4650091787
8.82767 15.5105 43.4411 29.3368515676
7.69747 23.6231 50.2617 31.819672889
0.559577 13.6 52.9476 25.5869361776
10.8271 24.3316 50.945 30.003778699
12.071 12.388 50.7949 30.7191948991
5.55821 24.0032 46.7023 28.9684616404
2.65885 30.8811 15.2757 32.1313822493
1.87083 27.147 5.19218 28.5474282668
9.784 27.1617 6.6599 32.7975149214
3.29409 25.2274 7.87177 30.5331900229
5.53769 26.7954 6.52154 29.7350686387
7.21566 35.6766 15.4052 29.9004664753
0.688219 32.9768 6.24896 30.7141597105
10.0319 26.0687 11.9068 29.5943119464
3.61662 29.1342 6.37972 34.7356785303
10.5427 32.3523 6.37965 30.501156249
6.72952 27.711 3.98584 30.3783995533
2.38997 34.884 7.38634 29.7242949667
3.70773 35.844 14.5079 30.7267446588
10.9262 36.1498 4.91893 27.9162596449
4.90206 35.3499 5.88692 30.9214631072
2.75564 36.0769 11.6233 29.9749355912
10.9636 35.7324 9.49941 28.9073760397
1.54046 26.8866 8.68745 27.3824327451
2.93208 28.9328 9.23254 31.2093539546
1.58062 32.6788 13.2823 30.3568169554
7.56875 27.8113 8.13142 33.5403698937
9.69121 29.7288 5.16241 28.7856715604
0.998607 30.6559 7.92789 32.6567737196
1.76165 34.6071 16.6458 28.6757550916
7.56785 31.7885 6.42354 34.4339593768
4.99459 30.8956 10.268 36.2833869756
4.33347 33.2014 12.0304 32.9364471641
7.44399 30.3775 8.90964 31.2736010276
9.67088 31.6694 10.3223 34.3435758942
0.882521 34.34 9.92107 31.8647003192
4.5134 34.7422 9.65637 30.2372694844
8.83168 34.4266 10.1112 30.0588516616
6.91763 34.2624 7.81665 30.5482549023
8.13357 36.3932 11.683 28.2128692341
9.46772 25.2077 14.3846 28.8630881659
4.10036 31.3135 4.33464 35.0466539491
6.73235 25.1501 14.1388 30.1274415474
9.25858 34.8797 13.8845 29.5422484345
3.03558 26.5361 12.9838 32.6189038323
6.49652 29.3206 12.1187 34.6044543357
12.1869 32.0654 9.02228 30.5431048243
7.81591 26.898 10.8392 34.9555406476
11.6305 31.4864 14.8376 34.6351111205
0.370857 33.3638 3.76092 30.136163754
2.09093 29.3299 12.2292 32.8666293917
7.27123 30.0529 16.6936 32.1046377152
5.85367 33.1678 14.5814 29.5018406221
0.503816 31.5906 10.6302 32.1072796711
7.3988 31.1342 14.0759 33.9223792552
9.84088 32.3688 13.0283 32.7970246566
4.04788 32.761 16.8072 33.2205844147
1.48843 24.9436 14.6253 33.5718427555
5.40673 27.5734 14.0024 33.7296777139
10.4448 27.3162 16.3157 31.2827888219
0.593885 25.6074 11.1641 27.6432426437
7.11841 30.4774 3.87619 29.5209247382
11.8844 28.8764 14.6848 31.6042534059
11.2121 36.0615 15.4394 29.9895538307
0.450848 30.8979 16.9755 29.7634957484
8.85453 36.0196 6.79252 31.7606320775
12.2225 27.7358 12.1853 32.9795732479
4.54883 28.9522 16.6827 33.798209276
2.69826 24.6371 4.90034 30.1810808639
6.43872 24.602 11.4856 33.7396761908
0.118365 33.2771 18.2984 29.5075523308
6.12096 25.4349 21.6432 26.6625702293
5.4351 26.7913 18.5367 32.9627878581
7.68625 34.164 17.8489 32.0700407338
11.9599 35.6062 18.0625 30.7615227754
10.2935 28.9452 20.777 30.544802332
11.3565 31.4238 17.7986 32.5323589936
1.47941 25.1673 21.6832 29.1987274888
5.64844 30.5934 20.868 31.7313396847
6.33957 31.7658 18.4231 28.8668377899
9.43833 29.1603 18.0959 29.3173432416
0.711258 30.6799 21.2843 30.7861998852
0.64751 25.1559 24.3956 79.8425568642
2.14601 24.9935 17.5891 34.9455710625
10.2199 33.8314 18.6743 28.7492148263
8.5318 35.5218 21.4128 33.8766959219
2.01017 29.2286 18.799 34.420428907
1.99389 27.5521 24.4169 77.2289094533
2.05627 27.956 21.5958 31.4844569508
4.83861 27.7731 21.3452 29.2262104704
6.18361 25.3442 24.4661 91.3133513529
4.69516 27.9487 24.239 64.3229252138
8.93722 26.4913 21.2869 28.4540282941
8.85386 26.2379 24.0514 45.4382858199
9.89199 28.572 24.7552 97.1414056932
1.24984 32.8332 24.048 87.5053986113
1.33696 33.3819 20.7472 31.4161539889
5.45329 30.5912 24.1746 72.2600891277
4.14734 32.9893 23.6823 42.5289126591
8.38433 30.8709 21.7402 32.893114507
8.16293 30.9341 24.372 70.5501324259
0.942468 30.0704 24.2014 61.6578725993
4.40527 33.0573 21.0711 32.7751877778
5.93795 35.2332 19.9002 35.5529557659
5.60748 35.2664 24.3824 101.479424479
8.33067 36.0097 24.3445 83.4247236144
10.0035 33.1963 21.3367 28.9876714756
9.77984 33.3504 24.3321 80.3225515549
8.18291 26.3098 18.5989 31.7224954165
0.410747 35.3135 22.5756 28.3897235547
2.22831 26.6689 35.9759 63.3642628878
11.2776 32.506 39.7655 29.8285044217
1.67346 30.8533 42.878 33.9130456808
10.7263 25.2272 39.1065 26.9700383528
6.82226 26.1244 36.1912 46.9373825604
9.51867 26.9487 35.4433 113.9740401827
0.277639 30.8122 35.6591 96.267841872
6.77676 35.8163 35.6934 80.1840727022
3.05888 32.2277 35.7254 76.3471231651
1.47913 31.5676 38.1587 28.4689066185
4.77269 27.8297 35.5493 98.1566293587
5.46276 30.7867 35.5593 85.4324183243
5.64851 29.3769 41.4307 31.1910499081
10.3599 29.6046 35.7519 74.279055352
8.18932 31.374 35.859 60.6740943915
6.49938 24.5824 38.47 29.7615564192
3.97223 34.9961 35.9254 69.5321881198
9.19438 34.0015 35.8644 74.8826220882
9.95634 35.9568 38.2722 31.6511748692
1.00373 35.6474 36.0539 62.8511989926
1.1379 36.1796 38.811 29.453441854
5.1135 28.3231 39.0482 30.1554354263
7.35836 28.7053 37.5033 27.0668055874
9.57754 32.3707 41.7375 29.69093056
8.27524 25.6006 40.1953 32.2967795417
4.11355 31.767 41.5359 29.2920965837
5.43762 34.4578 42.7743 29.8081613791
4.85523 31.2164 38.4408 28.8797148397
7.71034 31.7059 38.7897 31.4962560042
2.99596 33.5684 39.6788 27.4690318093
5.12794 35.5035 38.5877 30.4359963
8.39244 29.903 41.2936 29.5641937072
9.69294 28.4353 39.4135 31.4504760895
11.7221 30.0463 38.2633 32.2085318774
1.95648 25.9766 38.7129 30.6938399161
7.68079 34.8442 38.9276 27.6838875738
11.329 25.1087 36.2575 43.2937661158
1.98653 28.1549 41.9989 32.0353585463
2.3464 28.6972 39.3852 28.176112795
2.91798 35.3359 41.9097 28.8287161643
7.95357 34.7251 41.6796 32.4042176032
12.014 33.9379 35.9344 65.5945316665
0.0204311 36.2667 49.358 33.5213281755
10.4126 31.125 54.2866 27.3792704655
10.2056 25.3848 46.4884 29.0933343591
10.6 26.8392 43.8095 28.5533437208
0.991919 25.3476 49.1468 30.0869858791
5.52779 24.8955 44.0576 31.4550923632
1.67485 31.9403 49.1718 34.4171616431
3.81638 28.1132 46.0505 32.1011269022
6.5391 27.9894 52.2533 31.9156612051
7.76857 31.5832 46.0354 32.5058519448
11.4952 34.4667 43.5947 30.4435763131
2.62938 34.5245 48.4184 32.8141364791
2.48211 27.8493 55.507 31.2192586835
10.7592 31.7318 44.4673 30.3070943896
8.39756 29.7609 47.8276 28.3812946886
3.97215 26.305 48.1351 31.1353786634
2.75209 34.6451 45.4274 30.6168096609
9.21419 24.839 54.4369 31.4926931513
6.36271 25.8799 49.3419 29.076558587
6.19609 31.0374 49.3101 29.0006685626
9.7499 28.9603 51.9074 28.2515488115
4.1761 36.0618 49.9712 29.0999778848
0.133189 27.9267 51.2993 26.3433742464
4.571 33.924 56.314 32.8549657502
8.81093 26.2005 51.7495 31.9592189236
6.65898 34.3496 54.5817 29.7700174465
6.21307 34.0609 49.3499 28.9319274253
8.1546 27.0977 47.3976 32.9670439429
3.77994 30.4398 50.3934 30.5503934674
10.7378 29.7227 49.2514 31.2791618006
5.34785 32.852 52.1401 27.8445173008
8.06067 30.9488 51.594 24.7855254658
9.39692 29.3439 43.8967 31.6051309307
9.12685 32.8923 49.9293 25.591353954
4.87539 26.6367 54.6949 30.4214497454
4.54057 27.3997 43.3402 33.8862866742
7.62748 34.5074 47.0726 29.8319310097
2.8437 27.7184 50.5922 31.8427216995
7.00945 28.1648 45.1032 29.5855091249
9.2859 36.2357 48.017 26.6257399399
2.82316 30.585 54.844 30.1057823137
9.1437 35.3819 50.7209 30.6933433223
8.07063 25.428 43.4131 29.2508099021
9.17133 26.8536 56.4413 26.3462564304
4.34259 32.6892 44.3558 31.5447175078
5.31073 30.1598 53.6451 29.5566599335
4.64019 25.9756 51.846 30.7104466097
0.860665 25.4338 54.8552 30.6748863883
11.3896 31.8832 51.5719 28.3476988465
10.9381 35.9457 52.839 32.2847580313
5.99133 35.7647 45.3292 29.8818235759
11.1489 28.4297 55.4918 28.3260561854
5.09275 30.6665 46.3439 34.9351428064
1.12776 29.3407 45.3582 31.7421010593
11.6084 35.22 46.4194 29.2851141739
6.73242 35.6509 51.9738 29.5597109875
10.71 32.7015 47.5605 28.474309044
0.569501 29.8714 52.8439 27.2094967366
7.81593 31.8908 54.2907 26.7234821437
9.6242 35.05 55.0254 30.9470083014
2.18882 35.6812 56.3622 28.7078809761
2.74429 32.4051 52.4522 29.5246187199
1.6027 35.0877 53.5758 32.4753198092
0.13315 34.9514 45.0163 33.6140606182
0.354991 26.7989 45.6979 28.6760871806
10.6 32.8207 56.3611 27.5394821347
11.8735 24.5086 56.1525 31.021403196
2.43349 37.2838 6.56641 29.9202517613
4.87331 40.0385 5.48188 29.8042634116
7.07423 44.4635 5.94835 30.2217230876
6.49965 37.6236 5.35285 31.1010264167
1.45631 38.3508 13.4532 30.9884968344
9.35365 38.149 8.84039 28.955980795
8.88972 42.8895 4.3627 35.3038229201
3.61763 44.9129 11.999 31.3537152015
0.956765 46.8733 10.225 32.6488083494
2.32681 43.6177 6.96915 28.5008692032
5.69959 37.3286 13.1411 28.3881582675
2.64509 38.287 15.8851 32.5265240658
10.3782 45.5215 16.1895 27.0114031925
3.30132 41.1791 7.27926 29.3618516884
9.92549 48.7602 5.43434 27.7728370509
6.83952 43.9341 8.81512 29.7444272353
1.76806 44.4967 9.76409 32.9709495912
2.99954 48.6687 5.53966 27.5438703674
1.3814 44.3685 4.25591 30.8712644797
8.5432 46.7448 7.04849 29.4852396325
4.12284 46.0545 7.27949 30.2868207055
11.0441 39.7548 7.30592 30.5637175285
6.24632 48.4441 6.32996 30.0225102394
11.3198 38.8062 4.69231 34.8296531715
6.27521 46.9917 3.73169 28.3922735371
9.53023 48.0335 14.5864 27.8885083921
10.3875 39.0114 16.2192 26.3577926656
10.2438 38.0574 12.836 30.6191837683
10.318 40.4006 10.7746 32.5087960481
0.837161 47.5322 4.19717 30.5221218868
7.54761 41.7544 11.3648 32.0358661154
4.02659 47.7 16.6942 28.652847796
12.1088 46.9773 12.1483 31.7958087043
5.87326 46.3082 12.1468 26.4723406414
6.6573 38.6836 8.09954 33.0059722645
5.47849 41.1698 8.96138 33.9800477991
8.16162 44.6549 11.6884 28.9543247372
8.98168 44.0486 14.3676 31.9685643398
10.3828 45.9686 9.06299 33.3778256535
9.46905 43.1281 8.9069 35.3648155657
7.00666 46.3451 14.7688 28.4439731905
6.27011 46.7005 9.14047 25.6522776032
4.3298 44.8061 4.46279 27.3476589201
2.34884 45.9596 14.086 35.6323243873
1.45075 41.106 13.1724 32.4834283602
9.21659 47.0622 11.5642 26.5053430835
11.2605 42.9976 16.7391 29.3147618829
3.28313 38.9077 10.8894 29.1558893958
1.98794 39.3391 8.50377 34.5171186433
5.11122 40.551 12.1373 29.4544337626
5.66434 42.3063 4.23002 29.3207268604
6.45809 39.5255 14.835 31.4478535348
9.15677 40.5631 13.7638 28.7593622764
3.02308 48.4339 8.86026 31.9428668967
10.9945 42.2083 6.53388 33.5702287346
3.7698 42.5946 13.465 31.6349273043
0.113669 47.3623 12.9588 33.3311952637
4.78009 42.3761 15.9696 32.3224500461
11.8886 41.5523 14.7022 31.7848163611
4.07589 48.4358 14.0646 27.3288521938
5.67665 37.1472 10.1461 28.3633867528
7.35833 43.2979 16.5157 32.3749534062
0.374178 39.5989 24.2436 71.2976921435
1.28715 43.444 20.3468 28.2205532176
6.95048 38.0185 19.5137 34.0142033041
10.4145 42.7278 21.4859 29.1335981043
9.24793 46.3513 18.6319 29.4345545276
9.16712 41.3502 17.3717 28.9159067314
0.783483 43.6706 17.3573 32.6359056047
1.16455 37.1591 20.4302 28.7055955532
1.41351 47.7926 24.5378 94.8781251412
3.76342 40.1237 17.4188 32.5184323591
1.37465 42.2884 24.168 57.9815768024
0.640238 46.505 18.6531 31.5461173608
4.84996 45.3982 19.9344 33.6869583675
0.846915 39.8195 21.2595 26.9362556715
1.42138 37.1381 24.2415 94.5745271972
12.2691 38.9127 23.9083 65.8035369954
5.7925 47.9302 21.1279 29.8431783267
3.8114 37.4808 21.1341 35.6987100229
5.05099 40.1353 19.9408 31.3566222035
4.09082 37.5848 23.9262 59.6876074249
4.98552 40.7085 24.0329 62.7501976113
7.50385 40.646 23.9314 55.4909663007
9.58996 38.5161 24.1803 83.8078012986
9.78716 38.1761 20.91 35.0882664691
11.3577 43.1168 24.4295 89.7661406375
2.18806 46.0545 21.1137 25.146802258
3.05524 41.558 21.4746 30.8219558826
6.95637 41.6793 21.3435 30.5959309272
4.24143 43.5249 24.8915 125.0021797918
6.77605 45.8987 24.4398 86.6577190399
9.2756 40.8779 20.0324 28.2974807098
8.56603 43.1126 24.3303 74.7399466282
0.912955 36.9874 17.7793 27.727178244
3.14885 45.748 23.6713 33.2291572043
5.1848 47.8738 23.7357 43.4348698786
6.09848 44.3903 22.1768 27.8480601491
12.1852 45.8258 20.1233 29.9710427603
9.02551 45.0419 21.1572 31.8505738646
9.3009 46.5807 23.6304 35.9353859592
1.13147 41.0011 18.4142 30.6702336805
6.74977 45.9337 17.5431 27.1154607539
11.9216 38.3113 18.4651 30.7731687853
3.32136 44.8964 16.9113 31.2272741219
12.0086 46.1388 24.4615 100.1630297724
2.75372 48.8571 20.6533 29.3054905779
7.05217 49.0667 17.3319 28.3025308544
7.83121 38.2803 16.7698 31.5267951295
1.40494 38.3773 35.7173 97.0958760071
4.35149 39.0824 36.1484 48.1908681653
10.154 44.918 35.8963 68.7519916062
3.76216 39.8062 38.9281 27.6773769216
5.08087 45.7082 36.6575 33.2335981297
10.5264 41.4731 35.9872 80.7156352569
6.91506 38.5234 35.5329 105.1633521692
9.70278 38.8912 39.2338 30.9122130654
9.79392 38.7742 36.3353 42.7180876967
3.52082 37.9786 41.9443 27.5427953506
5.3675 37.9073 40.0231 26.9488631423
3.61075 44.0093 42.2622 26.1021840286
6.66242 43.3662 35.7254 92.1670783812
6.39021 42.3541 40.0895 31.4652952991
10.1108 44.1076 38.5217 27.1703100529
8.19977 42.189 37.5078 27.0137197116
7.9465 46.7397 35.6259 90.4851116797
0.59593 38.4357 43.0417 28.8930199381
2.30749 46.1398 35.8637 77.2622411901
5.75354 48.7889 35.9696 75.6379834476
4.62016 41.8209 36.0594 59.3904941842
4.19991 45.5341 39.4755 26.1013573638
11.2754 47.4516 35.8519 58.2156992553
7.48011 44.8765 39.4387 27.0277101797
1.30911 42.9034 40.464 28.3633287888
0.113926 48.2638 39.3682 24.6353635042
7.01136 39.9595 42.6856 30.6032138612
11.121 42.5631 41.2306 28.2268155619
1.18889 45.8871 41.388 26.883559975
7.06083 39.561 38.0216 27.2859412215
9.21402 48.1207 38.0035 27.5177903171
3.7839 42.8715 38.5604 26.4120761675
12.1419 40.2385 40.3684 27.8314040396
4.42224 41.1532 41.9244 28.3680120296
1.30179 39.2329 39.983 29.8840268627
10.1208 46.6912 40.1537 31.1163595221
1.72189 42.9993 36.0671 57.1500197326
9.06495 44.5545 42.032 27.6297782402
6.52794 47.6936 41.8693 31.8813466311
3.56031 47.6545 42.7845 26.8554884977
8.1339 38.0503 41.0949 27.8021496235
6.32506 47.7593 38.7333 25.7262342941
3.12793 48.4828 38.6191 25.2090421389
1.3969 45.6246 38.529 24.7587709051
6.22981 45.0254 42.7545 28.5710005895
0.0994989 40.7289 35.8274 78.447233401
10.077 36.7383 42.9672 31.6448515557
7.45604 40.528 50.4873 26.128928787
0.844197 38.6937 50.3181 29.5881336274
1.74507 42.2957 55.1514 30.2423390309
0.626424 41.9881 52.5311 31.1311617607
1.05725 47.7774 44.0449 27.174683113
2.74289 45.6006 54.5426 31.1840636668
11.7366 38.008 49.0052 31.2546475099
6.41489 44.5931 45.3135 31.2942236463
0.802473 43.9581 50.5278 28.6468264515
0.875682 40.6763 48.2102 30.4128748936
4.96388 38.961 44.4945 28.7530252382
3.17706 41.1408 46.8904 29.4304135773
3.35889 44.1776 44.9514 35.8832782745
10.2983 44.5337 47.3462 26.7976235138
9.91238 40.7901 46.9254 28.1133534588
8.84729 43.4757 45.3769 25.8311341613
10.6872 45.7445 43.9804 29.4104064214
5.97917 47.0108 46.5698 33.1829452568
0.682609 44.9589 45.1806 29.424885529
11.0141 40.5542 55.1125 32.8064063817
10.0315 39.7053 50.4972 30.8505134042
5.34927 45.0795 53.3576 30.3275570795
11.3449 38.9664 52.7464 34.4992005121
9.612 44.8103 49.9122 30.6008869883
7.98861 45.7734 54.3191 32.060741849
7.81253 40.4391 55.4071 33.5077964523
11.6945 41.5554 48.7909 28.0704642402
5.41299 39.5585 47.4019 26.9515464352
1.89872 47.3535 49.0551 31.1844589637
8.29753 38.6025 47.7393 29.096427191
7.24857 43.0575 49.6538 29.3270006335
3.70032 47.8757 55.6191 27.3037966115
6.6701 38.3231 53.0545 31.7590822012
3.10657 42.8884 49.4375 35.3349001519
7.03292 41.9647 47.3277 31.8944180048
7.39341 41.6617 52.9618 31.6560776424
9.60842 43.6843 53.0474 31.2337777984
5.23785 44.4653 50.595 31.2241062804
1.47007 38.4394 45.977 29.1394598063
4.80895 46.9279 49.5648 31.2079901566
9.16129 47.9552 53.4834 25.9201139973
3.78834 39.086 53.7481 30.0885726141
11.1969 39.0411 44.0024 29.8277357109
8.88556 47.5948 50.6521 27.7756410168
12.1218 46.9376 51.2414 30.3123082256
3.65844 37.0016 46.7599 28.6692134616
5.19612 38.8252 50.2299 31.0070422136
5.67653 47.8169 52.2081 31.42009592
2.49207 37.2266 52.0041 30.2616262659
2.51449 41.0469 44.1552 28.5707658467
7.7983 37.873 44.755 31.024602148
1.64839 46.2676 51.882 34.2754818336
3.08684 40.78 51.6027 30.8554320681
8.73628 47.0324 47.3472 29.7946269934
4.47458 41.9607 54.6436 30.2547539163
12.2485 44.3443 51.9233 30.8038063905
10.6911 43.6499 55.3663 27.4672828016
11.821 47.798 53.8116 29.1940058947
9.86598 48.6238 44.9256 29.8656554278
7.54682 37.1922 55.5542 34.4384463977
0.987259 40.0043 55.9607 29.6405986518
4.34302 48.5944 45.1212 30.6580347763
3.12038 38.4536 56.4758 30.0070388701
9.53784 41.4145 43.5625 31.287027732
11.9077 46.7187 46.6072 27.5812425687
6.88367 48.8997 49.2299 27.6385369846
17.4345 0.0492018 16.6742 28.6518089672
19.3978 4.79255 7.15404 26.7707298852
19.0579 2.33174 10.1051 31.3437313197
14.2665 1.80123 7.41999 28.9649117352
24.0798 1.75286 9.59517 30.1049918015
19.4738 11.248 16.2144 27.5235043154
23.0597 4.98529 5.73129 28.5679871034
12.7299 10.5224 14.8547 29.9628150338
20.6948 2.05925 16.2633 28.6947980727
19.6863 4.7821 4.20129 27.9364759433
21.8022 3.95078 8.07021 28.4260928533
20.7999 7.29708 14.2221 28.9694207313
16.3254 1.81829 9.48198 28.2073194281
15.468 3.68902 5.92807 29.5920472997
12.6795 0.459179 13.452 27.5596973184
24.2711 9.32723 15.8105 31.7067571625
21.8122 0.376762 5.33433 33.2889907948
24.1423 10.5501 11.5156 30.7306387428
19.8689 8.42915 7.54678 28.7598857407
23.5108 7.39683 14.1272 27.5641611021
18.0802 0.488221 5.48086 32.0325470206
20.1316 5.20269 16.1253 26.5189508485
21.3101 11.1951 10.1683 30.4038930951
17.4945 11.2261 7.7286 29.1157957586
15.14 1.83105 13.1966 30.3020852016
12.751 5.43459 9.79984 30.7454633513
14.9473 3.8057 11.1785 31.0377258466
19.0897 5.01669 10.4336 26.5431586482
15.5006 11.6619 14.324 33.5796752675
18.0171 3.8994 14.5308 30.2365909051
20.004 10.6923 12.9669 29.638785337
22.8078 11.0577 5.72199 27.6950469061
20.2884 11.1844 7.23236 31.8241709195
17.6487 2.63705 7.03847 27.5837930699
15.3143 6.41547 6.96775 28.2037789287
17.554 6.44732 8.4617 28.5827906564
21.3465 6.50358 11.1546 27.8063916456
12.3815 4.34519 7.17442 26.3438427168
17.5385 9.40806 14.6584 29.0019151892
21.6071 4.36033 13.1579 27.6079830798
23.3619 5.38095 9.58472 29.1553944718
13.6914 7.88867 8.79417 26.2429673378
13.9977 10.3838 7.21127 31.2213267015
22.6242 10.9755 14.2627 29.4154150163
15.1778 8.93189 11.0608 28.4085019305
17.6582 9.15307 9.68891 30.7870700944
16.9932 11.4967 4.7991 29.6686576199
14.1668 11.1498 11.7076 31.684932578
13.2881 4.71094 13.7437 29.9111459209
22.3666 8.87694 9.37323 28.2306858641
18.2222 7.38798 5.38815 28.6482864477
20.1404 2.01406 12.9526 28.3551443187
24.0691 3.51671 11.9983 36.2811108054
17.1458 5.32555 12.3921 29.3320945816
21.3758 2.87658 3.93589 27.9583893948
23.8239 4.63809 15.0863 29.0766810196
15.7385 8.70758 5.46408 28.8870416879
18.6562 8.14438 12.0411 28.0175252061
15.5506 7.5511 13.4674 29.4677147021
21.5262 1.14762 8.79017 31.0255755117
17.6603 0.667975 13.9094 32.072323283
22.2328 8.00334 5.49618 30.0883295944
14.8382 6.08314 16.24 32.5605405432
12.563 8.49859 12.9428 29.4680453635
13.7424 0.627845 4.72628 26.5225716158
14.611 1.7121 16.5128 31.7207029328
14.9809 2.17087 24.0322 50.7089048547
16.498 4.74274 20.0212 30.6080418857
23.2386 10.5373 21.7235 27.7728731818
20.533 3.91198 19.8877 28.959755587
17.6117 3.27867 24.4021 111.634963304
18.6771 2.18914 18.082 28.1951971909
14.0215 4.6349 21.3063 27.4250937369
13.6462 4.80094 24.0414 58.9389980037
21.0025 8.35896 20.0953 27.7596276273
16.0664 2.02541 21.2115 28.365259944
13.2002 7.33009 20.807 28.6458436765
22.6006 4.93393 17.9729 29.5301183816
23.2279 7.29078 21.3348 26.5808984845
23.5196 4.51747 20.9618 26.8127012716
13.8954 1.47262 19.3577 28.1030340619
18.7347 10.9314 18.9428 29.3655137106
16.6726 4.01587 17.1765 28.9151593824
20.2079 10.5921 21.3209 27.6474308427
23.1423 11.3159 24.5165 92.6470204563
14.4086 7.4951 23.9613 76.5284927786
22.8038 2.09511 18.0019 29.8580215484
19.1486 6.98892 17.7611 25.3266566799
19.0166 6.00377 20.6172 27.658579126
18.7707 0.838424 23.7042 34.1076321696
18.9803 1.37376 20.955 28.4044874962
23.0893 3.40617 23.8208 34.6333681899
16.2449 7.68663 21.0893 29.679864601
17.1772 7.72293 23.824 68.4920225602
18.8649 10.0554 23.849 62.1378983515
18.6763 5.63967 23.4824 37.4964188531
21.5011 5.81262 24.0791 76.4672024608
15.9527 10.9754 22.9818 31.8895269411
21.5712 1.11252 24.2639 80.2934354527
21.9812 1.43214 21.2553 28.2913694974
14.7545 10.9846 20.3179 28.5532344029
21.3997 8.78152 24.0614 64.3834770527
24.1707 8.04213 24.0884 50.0655469045
12.7908 7.08184 17.9797 31.6714068145
16.3848 9.42572 18.9719 32.0925470704
23.4406 9.77482 18.6026 29.8422883416
20.9711 8.86892 17.0309 28.9005489808
17.0491 7.8724 16.842 28.8787347814
19.9285 3.47999 41.5802 32.3193901205
15.1855 2.67696 35.9127 65.3507112321
20.1891 4.46488 35.891 63.6881299741
20.5606 1.56537 36.09 53.4782794773
24.2996 2.16359 40.9617 30.0888886498
13.7052 8.13255 36.0561 62.8315728247
17.6447 4.66367 38.9693 30.9256886045
17.1433 4.51765 35.8658 74.7908778855
22.9086 4.92772 35.5075 99.848004094
20.5442 7.74999 35.9676 56.3008684562
20.1196 7.4149 38.5587 30.6133634851
12.534 10.792 35.7116 96.5589360015
14.2381 2.39108 42.2266 28.6729470146
14.1412 9.41683 38.5281 28.8335358117
16.2957 7.33451 35.6941 85.7405872017
23.3003 7.17751 37.5736 27.633410567
23.7754 7.39262 41.4907 31.6274596567
16.4029 10.6099 38.7972 35.1971192774
18.0738 9.18444 35.6314 93.8589933311
16.8891 7.19823 41.4516 32.4616654895
15.6342 2.53294 38.7016 32.534942703
17.298 11.9031 36.1625 57.6068319063
20.0809 0.504696 41.9777 28.2349428842
23.2103 5.01413 39.4586 30.1360171026
20.3001 4.38415 38.6532 26.513890719
23.6111 0.370731 38.3442 29.2504990807
13.2542 3.60612 39.8054 31.7941806129
17.1807 11.0493 41.9909 34.4570626708
22.553 9.92619 35.5725 77.136692113
17.3088 4.12683 42.2531 30.7691987625
14.1842 7.44608 41.8866 29.9499863322
17.369 7.53958 38.7297 29.433444386
23.3452 1.36779 35.3819 98.7620969291
21.3576 8.73192 40.8 32.2927536487
21.1817 11.1249 42.0759 31.9756269804
22.8886 10.0159 38.4745 36.9335477301
24.3486 10.5051 41.9771 28.6647663032
23.5017 4.59839 42.4438 29.8706422771
20.6214 1.31269 38.7488 32.5665588548
13.1396 6.75546 39.2322 31.1416001995
15.4543 0.0375922 42.1406 28.5601328895
12.5676 3.12521 36.2031 54.1832412957
14.995 9.79371 43.1707 27.3540037216
12.3899 10.8034 43.0651 29.4403769043
15.5621 2.7519 46.6467 28.5875813818
22.1685 7.04739 47.3964 33.9224269151
13.1097 0.894061 54.6649 28.3820149688
15.1088 0.594394 52.8358 28.9195907752
22.7751 0.241924 52.3114 30.9098706786
16.0693 9.24064 45.5697 25.6767306108
19.21 4.4598 46.0028 31.2227875483
20.5352 5.1825 48.2973 29.9079526978
16.2534 11.3901 53.1017 31.5542501857
20.9807 4.03264 51.4765 29.1174957042
23.3766 0.349202 45.0953 33.6343768088
17.7513 1.48405 43.2817 27.9032744104
18.1796 9.68376 47.5094 31.1173144498
13.8653 1.75396 50.176 29.8611447272
13.3311 8.5949 51.652 29.1082296336
18.4147 7.08955 49.0318 32.2905839209
22.1762 11.4137 47.6112 32.4677470257
17.0072 5.53791 55.3848 28.3953249661
21.1693 7.84459 43.9096 33.4253028736
13.124 1.6766 45.8613 28.2436450929
18.9126 1.32992 49.8666 27.701144114
18.5403 2.00383 45.9915 27.3121409574
13.1319 4.65629 53.8217 27.9014533796
19.0136 9.58798 51.9019 32.954400157
21.1759 2.60759 49.0386 30.6845397053
16.2534 12.1079 46.7488 25.8674768378
19.4986 11.2404 44.0605 29.8351329033
15.4762 3.25011 53.1303 25.3574939944
13.8774 6.58059 47.106 28.3313560646
14.5195 10.6657 49.6425 31.7328492184
16.0371 5.63427 48.7531 27.649859095
16.2653 2.75298 49.2981 28.6735720224
19.9151 6.77622 51.5089 31.6658972789
20.8344 9.60872 46.3452 29.9015695423
23.3399 5.62443 52.0313 31.7608854012
22.5668 10.038 51.8367 32.1196147745
22.0405 11.0106 55.9846 29.6483555466
23.5944 12.2566 50.1426 32.5264433669
17.2697 10.8697 49.9129 32.387096403
13.0355 6.32556 44.2794 29.3875156712
24.2039 10.1799 54.491 29.3440004509
21.0572 4.80624 43.8027 37.0734524117
13.9271 9.2281 47.2424 30.272061463
12.9854 0.038796 48.1346 27.2753644718
22.7487 7.77986 50.0528 30.5305006994
17.8474 8.81346 54.1566 28.79113368
17.9005 3.56359 51.6438 27.935764188
19.191 1.58206 53.5284 27.2465504996
21.7194 2.45863 53.9614 30.915329839
15.331 4.34639 44.2034 28.0907653489
16.7654 6.2325 45.8431 30.3143611325
15.0967 6.4883 51.1608 30.3272642391
17.2182 6.12775 52.9178 27.0454410937
23.6586 7.16238 54.4805 28.9513244622
14.9322 7.19345 56.224 29.0602532894
19.7337 9.11042 56.0792 30.9577656938
14.8777 8.9227 53.9428 27.8567037679
23.5277 1.3667 49.8307 32.4173623716
12.9532 4.36569 50.7666 26.6348091588
13.3428 11.3275 55.4856 30.7033708917
20.7789 0.412852 46.7945 29.8907371908
23.7936 12.0719 45.7709 29.6201992597
18.3394 8.52937 43.5555 30.5330263664
20.8969 11.6349 53.2732 33.6159720423
15.4695 3.11387 55.8912 29.2181518545
21.3757 6.9586 55.9411 32.2266491352
24.4026 3.14673 56.3852 29.5733107843
18.2686 2.35436 55.924 29.6843294398
18.6706 19.4567 16.0333 29.9522240973
15.035 16.3026 6.00372 29.9304430475
19.8336 14.8231 7.3054 28.9259905861
22.7943 13.6477 9.82175 29.001816449
22.4637 22.2121 15.271 26.7449080249
22.5529 15.597 7.88001 26.7437959178
16.5581 21.4675 4.88332 27.9997019367
14.0978 21.1244 6.50635 35.4159936271
13.2867 18.2501 9.70447 31.1889880646
20.2416 18.6438 4.92133 33.4241500863
17.7639 17.3725 6.299 30.4514126598
17.9658 13.4414 14.8919 33.6016000508
21.1822 15.3442 4.70213 28.5054289756
13.9358 17.4358 13.3742 33.5311443275
13.2138 23.7313 5.85351 32.4753648346
18.9134 13.1645 12.2394 33.8551429481
20.8795 20.1421 14.1221 28.9629881874
17.7808 23.3899 7.20452 28.7723377733
15.8628 22.6898 15.0823 27.0016656444
21.2364 23.2008 5.63319 30.3910952049
22.3087 18.1502 14.9016 27.8641034164
14.7908 16.4088 10.9189 31.2428450955
15.0583 13.6964 7.49381 26.8545444602
22.2151 20.362 11.7599 30.5382819641
17.741 13.7551 9.59491 33.7468214242
23.8364 16.437 3.92411 31.9588710877
19.751 16.316 9.92314 29.6244741752
12.9513 18.7642 5.6537 32.4580585934
15.0492 20.3798 9.01825 32.6437447183
24.1936 18.1074 6.10025 34.6362591397
17.4946 19.2067 8.55404 29.618604967
17.3527 17.5437 10.5874 33.9726511973
19.3618 21.3383 4.52312 28.3985747604
22.0413 17.7832 9.89145 31.0375934048
12.2369 12.9641 7.83577 26.3738187486
12.8042 23.6099 12.0486 27.3650409493
14.9883 22.7646 10.4943 34.874874001
19.1753 21.1043 8.31171 30.9559892509
17.0452 22.246 12.7151 36.4328317875
21.8623 19.1082 7.26667 31.1814867552
22.8838 21.8812 7.67843 28.9660987661
20.8141 21.907 10.132 31.0407564466
14.8353 13.4818 16.4586 29.7788171575
14.2327 20.5341 15.3339 29.4853363853
20.8784 15.9214 14.5644 36.1261909103
16.5056 15.8673 16.4551 31.2786176005
17.5301 14.08 5.82772 25.2891789475
21.1276 14.6867 11.8039 32.0803318373
23.6779 13.7943 5.4281 29.5514534234
14.6831 13.6226 10.5553 32.3274414103
16.4649 18.284 14.8985 32.8891938867
18.1851 19.6169 12.6712 37.2847305801
23.9478 15.0337 15.1774 30.2204898752
24.0826 22.1095 12.6457 30.3383849211
24.5239 16.9811 10.8976 26.9650134352
20.5289 24.0764 15.8338 29.1237965501
18.6734 24.405 13.8373 31.1125100863
16.4475 18.7959 4.07464 27.9814765747
23.3657 24.5192 4.04215 30.4504629049
13.1306 14.8148 14.6287 32.8686246716
21.7537 13.1327 16.3272 29.9106830953
22.5364 24.3831 9.40624 26.3462575467
14.5235 12.5004 5.11137 25.6787078858
13.7944 14.8054 23.7262 35.7689549716
14.2642 12.2137 24.6523 123.3963700303
14.6582 16.9757 18.2802 28.8560544607
19.6322 17.7878 18.3087 29.5597804891
14.9543 20.1208 21.4479 31.1851978609
14.6638 17.6638 24.1568 64.9338750022
12.6613 22.0601 17.3162 32.0195746022
21.2171 23.2751 19.9218 29.9592771293
22.2469 18.264 17.5901 32.3317862626
14.7325 20.7142 24.1802 70.1796415347
19.6365 18.0506 20.9292 30.7262217219
18.9365 23.8218 18.1529 30.1805059413
17.4316 16.0871 21.732 30.5002212887
21.5149 13.3606 21.1168 27.2044112863
14.9773 13.4267 19.3486 29.1047353976
24.0121 20.4554 20.8155 28.0616458631
14.5519 23.7008 18.9872 30.4036723224
21.2902 20.5924 21.1304 29.7566673691
13.0401 14.7094 20.9688 26.0323635153
22.532 21.0657 17.7147 31.2478472012
19.3297 13.689 19.4189 29.497694827
16.8139 15.5885 24.4086 84.9045445933
17.5238 19.248 24.5288 96.4855307535
17.2307 13.3026 21.0755 28.3826590672
22.7513 12.5114 18.7953 28.9493395472
21.6401 16.2211 21.7658 30.829064336
20.9845 13.3429 24.0513 48.3287676813
15.1668 17.29 21.1255 27.6687683438
13.5748 23.6846 24.1528 69.3910275519
16.2674 21.8216 19.9062 28.3968675108
16.7857 19.24 18.6763 32.7346325414
18.88 21.6244 23.9612 54.5700317632
19.6095 17.367 24.1225 55.7138105792
22.1651 15.3872 24.5408 88.6104698462
18.1026 12.9931 24.0912 67.310558517
23.1541 24.0734 23.8411 53.0228183686
24.3234 23.414 20.9907 29.4238825561
18.5033 22.3837 21.2895 31.039250797
21.6243 21.4296 23.9076 61.9721763939
22.3129 18.7175 24.1959 74.3778155407
24.1595 17.6135 21.7881 25.7155190117
24.5043 13.813 23.9455 43.1141886086
17.4204 21.7683 16.9796 29.0642804013
12.7684 18.7648 17.0938 32.5177924503
19.2782 15.1783 17.1409 29.1116319501
17.6191 24.3524 24.2032 81.1504514007
12.6222 19.3721 38.2592 27.7452530483
19.4813 18.5557 41.7609 30.9137591647
19.2577 13.7077 36.4907 44.6995659385
17.0137 19.1158 39.8121 30.4016629029
13.8136 15.4056 35.911 72.7748791111
21.5622 12.5833 35.5824 98.3283168648
19.179 14.5539 39.3403 36.1390012748
21.3458 13.6444 41.0799 33.9281045876
24.045 14.2378 40.1348 28.767553623
16.3282 17.6993 35.9959 81.5792481358
19.0027 22.2697 38.7724 29.9140539622
16.1038 20.8316 35.8317 87.7797007152
14.0103 22.8688 39.7494 30.4875484221
19.0841 16.7376 36.0322 82.3660710644
21.4763 17.9251 36.1786 46.5586340262
16.5266 15.4845 39.9728 31.15839441
21.4952 21.8696 40.9615 27.3255921386
16.5354 22.1465 40.4486 31.30880002
14.1128 22.465 36.865 31.7464488863
18.2837 22.4243 35.9604 53.3526360061
20.3713 20.7282 35.7642 88.9169710051
20.5391 24.1228 42.4053 30.9061146214
22.0232 17.815 40.5513 29.7209655902
13.9336 15.209 38.5705 30.2226736749
14.6784 12.7129 35.7121 91.6960533523
12.7728 19.3446 42.4564 34.1837388217
22.3417 23.2494 38.5227 25.1757560406
15.6603 20.2204 42.5036 29.9294017141
14.8232 18.0156 38.4644 27.0814982209
15.8382 17.1789 42.3974 30.9525390715
13.3991 16.9207 41.1814 27.4745467675
19.142 17.4279 38.8195 26.6910802285
14.5843 12.7574 39.797 29.2277013301
12.5529 20.1888 35.7164 109.4525988926
24.38 17.4225 35.3971 94.8609025405
15.7261 13.4905 42.1979 27.9128402386
22.7772 22.2698 35.9232 60.4791596274
21.0258 19.867 38.7358 25.509459896
23.8564 20.1059 38.428 25.893615646
21.9941 15.81 38.2254 27.3718243591
23.5295 14.6032 35.839 63.196863963
24.3931 21.7827 41.4816 30.5505911214
17.8731 24.4831 41.6919 28.1645351863
13.2553 14.5649 43.1207 31.3859502928
24.3516 17.4055 38.4096 29.4001064044
14.1497 15.6489 45.8318 32.5336749485
13.8511 12.9188 53.0569 32.4045577568
19.158 14.3952 49.6978 37.70592552
13.9097 12.5304 45.1291 27.0097396153
24.2571 23.0712 45.5813 32.1724758294
21.9498 16.0874 46.482 29.079301991
22.3368 15.0835 43.4429 28.8638513145
21.3913 23.5104 50.7382 27.3245855663
13.031 18.1026 47.5193 29.4660207024
16.6147 16.8813 46.18 29.7491710966
20.5389 18.4001 45.7281 28.0809871441
17.386 19.5385 46.1729 29.490678026
17.9231 19.6936 54.3545 31.4735027446
21.7609 20.8714 48.8195 26.968802368
17.403 13.0302 54.8559 36.8907134816
17.3116 21.5817 44.5046 28.538212874
13.46 22.2133 47.6129 27.1026793214
14.1383 17.63 55.9092 28.6784443115
22.8264 20.6224 54.202 42.0949171688
19.2969 16.8958 55.6044 31.936718598
13.8494 21.8674 53.7835 29.8867182068
23.4413 14.9764 51.0643 30.3377120671
21.6017 22.3375 46.6045 29.1947306497
22.8601 19.7946 44.8156 26.0431157501
23.4873 18.0492 54.1768 33.2818937815
18.0567 23.0225 53.1094 26.7365183303
16.1398 13.5498 48.9103 31.5811370375
17.0392 16.3834 48.7385 31.3374157667
23.39 18.7467 51.0465 30.1957779395
20.7774 14.3288 52.3033 37.9535002698
20.9418 24.2475 55.2026 30.8397761396
22.9863 16.847 49.0227 25.6394157193
15.2624 19.9264 48.1803 27.2587611141
15.269 18.0153 50.2802 30.7296284698
16.8213 15.4017 56.2124 32.3543637097
19.1915 19.7307 48.2045 26.8870487457
20.644 18.6972 51.4216 29.4973200937
21.0203 16.8698 53.4467 32.7414608103
23.6681 19.2069 47.6413 29.5490558813
19.9127 17.3017 49.1541 29.1041887307
17.2956 21.2948 49.6691 26.2760644663
16.2417 19.6228 51.8741 32.3486440303
19.6514 21.3609 51.4143 26.7823249198
13.6007 14.7109 50.2201 30.4945256115
24.0804 23.166 50.1649 31.9416512648
20.4071 13.6199 47.4669 33.3495103942
19.9138 13.2645 56.2302 32.80472176
18.3033 13.1052 45.6687 28.684138874
16.2667 21.8584 54.8734 29.8776617193
19.7094 23.0086 44.8564 27.1300803461
15.8985 23.0263 46.3552 30.8037030244
20.0806 21.6544 54.5607 26.985701448
17.4368 15.1713 44.118 30.814555422
14.209 21.9563 50.9422 27.5751596321
13.1746 16.952 51.6101 28.8395018093
13.6274 15.0843 56.153 29.5794046689
13.6167 19.0691 53.7382 29.3290467667
20.0964 16.6802 43.5331 30.5188175227
20.5369 20.8329 43.4597 28.9837263756
17.9272 24.1253 48.3278 28.1928939744
16.6312 24.1851 50.9295 28.8861260949
24.5496 14.8874 45.5309 28.796199141
23.6289 17.8347 43.1537 30.6552701469
13.7391 22.141 43.5082 29.4325435073
22.0434 26.3329 13.9586 28.2049736292
24.0365 30.0358 5.84752 29.4418961573
13.6583 27.1868 4.10093 28.3573748152
15.1957 27.1762 6.74583 29.3012573722
14.4552 26.1169 12.72 32.9737125639
20.3479 24.867 7.75798 27.3572966739
12.7011 25.0321 8.07559 33.3221467567
16.6371 29.3127 5.53103 29.687131287
12.4795 29.2397 9.90445 36.8163404438
13.8095 32.5789 6.55326 29.5561961031
20.1814 24.8692 11.4116 31.5117482201
16.4334 32.5678 7.47598 32.2395342953
16.1762 31.4026 12.2591 31.2167215015
18.7684 27.4785 4.83418 29.6805735761
12.648 27.8962 7.28306 28.6708096631
21.35 27.7537 11.5345 29.7933107925
15.9211 34.506 9.44052 32.2342534002
19.4676 35.6515 7.28996 34.6795941706
18.1321 26.2769 9.80217 30.2720254052
22.2596 36.0763 8.57575 26.450041377
15.4052 34.7835 15.2022 28.2440809588
21.0142 30.4761 5.43671 28.5989130176
19.7954 34.1465 14.8073 29.9643516061
21.0357 34.1049 12.205 28.0142172438
23.1332 34.3287 6.39682 28.9363556719
23.9014 27.1117 4.88557 27.3304256477
15.3788 29.4333 10.4054 33.6349461764
16.8396 27.5383 11.8136 29.3589529492
12.7998 36.4309 11.8226 30.1855887002
19.5882 28.4541 9.12038 28.2284782271
20.7966 27.5747 6.76867 27.8236335292
17.5161 29.4405 13.9307 27.1978721993
22.2379 31.3135 11.527 28.3640296895
14.5157 32.2141 14.3591 32.1112242523
17.0949 26.5646 14.6459 28.4765822847
23.746 29.0145 11.0901 30.5276976807
17.1254 29.9386 8.18725 30.1514669761
18.6981 32.3987 11.6392 33.6231276293
19.8599 31.1242 9.34146 32.9614227794
20.732 32.7692 6.99382 32.5245968539
15.8889 24.7822 8.5021 30.832791819
13.4405 36.6321 14.4552 27.1714723402
13.8393 33.5678 11.1145 37.5765710904
23.3475 33.9432 10.1837 30.789582012
18.3281 28.7318 16.5751 29.7257675196
14.2976 28.3335 15.9469 31.9982326338
18.1728 33.4409 5.15447 31.7166653388
17.7438 36.0142 13.797 33.8361767255
16.9821 36.7293 6.30319 36.9014139207
15.8737 30.7811 16.215 27.858219421
23.729 24.8706 11.8648 30.2872266564
21.0558 31.3788 15.167 27.3891040133
20.0629 30.0933 13.0932 27.4233500134
17.4607 36.7051 10.8321 30.7617546388
18.8762 36.5009 4.16933 30.7968611839
23.3615 32.5914 14.1874 27.014853667
18.7062 24.8577 4.60516 28.6081703969
20.6222 36.389 10.7188 30.9565600509
18.6056 30.9626 4.01274 25.7226516401
24.1321 24.6812 16.0025 28.5319400615
23.2833 27.0863 7.52019 29.781294489
24.2914 34.8815 12.9945 29.190945718
15.8799 24.7281 4.89812 29.218018909
14.2649 25.1001 15.5019 25.4759499633
12.8737 33.9908 4.16837 25.5247425355
17.5307 33.1749 16.7301 29.7531148372
12.9907 30.1418 5.45196 30.0412357364
12.6132 35.2885 7.30629 31.9169136686
20.9779 28.2786 15.9041 30.0411572513
24.3959 33.9391 16.46 29.6479088171
21.3932 35.385 24.4562 103.935385967
19.1461 35.9942 23.2925 29.5066933721
13.9066 27.962 19.1863 29.3429656732
20.1603 32.2444 18.0277 27.5062860951
21.4871 26.6776 20.0841 30.0019845559
19.4541 25.064 21.6677 28.5136700894
13.1534 29.8943 24.1021 55.0632483933
22.6974 30.1116 17.7509 30.8632778921
