9.86666 6.48465 44.708 31.5044041567
1.06491 9.08687 35.8635 72.0100110481
3.89938 9.01668 36.061 53.1649229546
1.05008 3.82692 39.1975 26.9974504583
1.23835 5.75541 36.6165 36.3992471255
4.00317 6.30798 36.0145 62.6587503803
3.99996 2.4305 35.4648 105.7879851038
3.53017 3.93382 37.7924 29.8963331353
10.2452 5.5764 39.688 28.2036415744
6.85938 5.32572 35.4639 102.4769388741
2.30503 1.62034 41.9618 32.4115054675
9.68944 8.65129 35.4415 106.5293981214
5.1705 5.88322 44.9561 28.1000081005
1.45036 11.0026 39.586 31.4879261643
10.9795 8.51948 37.9863 29.8153035548
9.7404 15.8946 35.4856 85.8928086543
1.2923 8.39853 38.4138 26.4870874462
1.99321 14.4154 43.4069 34.6290996984
11.0903 1.50719 37.3048 28.3458800194
3.29618 12.7835 38.7538 31.6347434237
6.01728 0.814219 39.6597 33.1507129903
7.14158 8.1702 35.9637 45.0800110351
7.44013 9.86379 39.8556 30.8914275882
9.54028 11.5291 36.2825 35.1214174495
4.68173 1.85204 43.5953 30.1764174176
0.676119 11.9039 35.7698 87.7730853852
7.90384 2.77695 40.4429 27.1583234882
10.7025 2.60997 39.7047 29.699744031
1.65529 6.77499 44.6991 31.1278561632
7.90863 4.09874 37.8118 27.8468421763
12.3468 6.14728 41.5553 27.3140423956
5.53734 5.19478 39.218 30.217614631
7.94915 7.36416 38.6522 29.6755756049
1.3173 5.03846 41.5791 28.4014771289
6.42255 4.76637 41.9029 30.3652744869
12.2484 5.04691 36.092 62.1858623744
12.044 12.2001 35.1744 131.966181872
3.92439 7.93916 39.1537 29.6051041039
4.79945 11.5339 44.6173 28.7701421562
9.57312 11.7682 43.2853 33.7232521199
10.9634 8.78157 43.1488 29.2102795314
7.51731 13.8939 35.9949 59.9989072844
3.72381 12.376 42.4096 29.3084124933
5.59258 13.7173 40.6736 32.4978600521
7.06815 13.3118 44.2077 35.9129553991
8.28572 14.1166 38.6302 34.6997798075
5.05974 10.5562 38.6509 30.113390069
9.6364 11.4608 39.0241 32.9648938457
3.64832 6.10136 42.5369 28.1692871569
6.38106 11.14 35.575 91.670785891
1.75457 10.3103 42.3087 30.2469313248
8.97939 0.245963 35.7298 87.4906673116
11.5871 13.5068 42.5831 31.825770416
3.57724 12.4889 35.7557 81.2442401854
7.51613 1.51107 42.9918 29.3247268943
0.641852 9.38616 45.0417 31.5992884972
4.40717 8.4582 41.9657 30.582372804
12.0395 3.77443 43.0377 31.4344143244
9.98169 3.46615 35.769 79.4825566803
8.18563 9.20664 42.39 28.2342985789
11.7027 15.1221 44.6204 29.5556721575
8.62713 6.39144 41.9728 29.3009903188
9.5541 3.49862 44.2854 37.3754909619
4.85779 15.1296 36.3737 49.1751552098
5.98517 15.5913 42.7904 26.7728706413
6.00489 9.14549 44.0475 29.823090745
11.0999 11.0224 45.7221 31.2069129334
4.1736 0.0945655 45.8585 34.7025523043
0.0553025 0.588883 44.5407 27.2968907816
0.00732882 7.73462 41.3968 30.2378699356
0.0111169 3.11214 35.6278 95.6791195133
3.36465 6.73285 46.8564 26.1466735199
3.43944 4.47113 48.0002 26.2581601256
10.8562 6.46184 51.2577 28.3236500846
1.75893 16.1644 54.7949 30.2155926149
4.93992 5.74299 50.0155 30.6640010488
0.790881 6.13823 51.1364 28.6498039151
5.62805 2.13269 53.3614 33.3295810509
2.20227 10.4814 54.1618 27.2989400842
7.18822 6.86044 48.7847 29.8926709909
2.0929 1.46058 49.7022 31.0431379332
2.95714 7.34708 55.9497 30.0666838907
1.1946 11.0741 47.25 29.800268779
3.95501 11.2899 47.1323 26.8328286889
8.0357 4.11718 48.9501 27.7643270233
9.93851 9.84326 49.0459 29.0375761095
12.021 6.2365 47.1342 33.3108365315
6.75456 14.519 46.8828 31.3619819173
6.01475 13.0406 54.5409 30.7712865921
4.13593 13.9263 48.1741 30.7972151784
3.76469 13.1749 51.0073 29.2468480646
4.85416 1.65754 48.7507 27.8259034551
6.70525 11.5706 47.8793 26.5227163358
3.83239 4.01211 54.1387 31.5711690567
6.22448 3.31987 50.4942 26.8106181524
8.7563 0.711002 48.2312 31.6305544
3.44006 6.26608 52.3441 32.4623595052
8.02319 0.851146 50.831 29.5251989738
7.74798 3.67752 54.5291 30.9832479063
4.40169 8.70266 53.4646 29.7931923114
4.81301 8.87395 48.2684 30.7488591043
12.2582 8.08067 49.2086 32.3793444835
8.97953 3.45849 52.1206 27.2460872823
10.9188 7.99679 54.2912 32.0529574757
8.49285 6.4664 53.3788 32.3208132404
11.5864 15.4129 51.1166 30.6290396539
1.56051 10.5636 51.2067 26.8329783432
4.45586 10.1096 50.8575 29.7522568781
7.05078 10.9005 51.0625 28.5800220407
8.40465 8.40699 50.8198 31.3267285185
11.9458 3.70552 52.2154 27.4573299387
1.28406 15.2548 50.6296 28.7930711183
2.6723 13.6172 53.8675 27.9376086899
1.45329 1.23048 46.8142 29.0983489661
8.01249 14.9861 52.1378 30.6777606328
7.89725 0.383803 55.1452 28.3787742879
11.6789 13.4355 46.7009 26.7265235423
7.59294 7.44185 45.948 29.3418612086
10.603 12.3676 49.2815 27.8843828178
11.1099 4.5617 49.055 27.778562548
0.932693 3.69547 47.5848 28.2510518032
7.09265 8.34089 54.8417 28.8535529403
11.6889 12.6622 51.7691 31.8409630862
9.34337 13.3988 54.1496 29.7401561725
1.33141 3.18941 51.5659 34.2504074248
0.203976 7.92139 54.9151 29.7921930272
11.1801 1.69687 48.7741 29.5493876227
7.62718 10.8874 53.8739 30.4836777987
1.46916 2.46119 54.4871 30.150189597
11.1098 10.8397 53.958 34.9031566326
8.17657 13.1145 49.6992 28.076298577
5.47658 14.8998 52.4043 27.5561987054
8.50347 10.0204 46.8262 29.926715987
10.058 0.834014 53.2848 27.652725508
9.68296 15.2623 47.5136 30.2356727231
10.4343 15.8594 55.8003 29.3621553055
7.81024 2.84678 46.5522 32.1783871561
0.937416 7.04286 48.4419 31.8397591555
0.441131 12.8515 52.0991 26.5819124404
-0.122455 10.5912 56.059 31.478389477
3.64773 12.4328 56.2905 26.8465136419
3.42967 15.1888 45.5866 27.7539213142
5.21417 3.45356 45.8079 28.9369703749
9.76563 27.8935 14.0968 31.1428815893
3.94957 28.5687 13.5369 31.0138278013
7.89704 21.8883 11.5435 28.9934179609
11.7448 18.4546 4.3741 30.8470565402
1.1696 21.9157 8.07286 28.0360278159
9.46888 30.8009 11.4258 26.890511991
0.155586 26.3058 8.52227 28.2487248571
3.78 18.9754 4.82057 30.4902845991
6.10873 19.529 6.49666 31.398625181
0.655236 19.3544 7.95093 31.6031136943
2.54028 23.0571 6.11542 29.331156751
4.83092 31.3376 8.18915 32.7202420796
5.14492 23.8291 6.67183 28.8327686207
2.46308 27.3767 4.58044 30.1337434155
4.84986 17.5962 13.8595 31.3771000836
7.54289 16.4027 10.6675 33.4271256233
10.9734 19.704 6.70722 29.7145072837
9.1448 29.4444 7.94725 28.7607494812
0.978874 25.5529 5.97718 28.6585837453
-0.0273836 19.2304 13.2407 36.6901967394
12.1101 24.8301 7.64536 28.0880660835
9.48591 27.0897 4.87698 30.2170858614
11.5919 29.3054 10.4352 26.7784998779
2.88422 17.594 7.27482 31.5628992877
5.13438 17.4715 8.85948 26.557569097
0.908762 20.6125 4.83895 29.3971541787
2.37878 32.0699 5.19304 30.4635493233
9.33322 18.3637 8.73887 31.8799009361
3.94083 21.5242 3.82998 29.0467894916
6.48287 20.1405 9.33444 36.0396772315
2.52152 22.4389 10.3534 33.8890842499
9.63679 22.3232 6.01595 29.8447027354
7.09219 22.065 5.32764 32.946154516
1.66006 28.4046 12.0629 32.9146022385
5.53955 30.3828 5.6358 30.9877790444
5.79339 26.3083 7.16363 31.5447872473
4.22564 27.9707 8.82289 31.779074041
8.62903 26.432 7.78359 30.5317668676
9.4862 24.8395 10.2895 28.2394004166
11.0934 26.5502 11.802 31.466336675
12.1999 31.1761 8.15489 29.1272662741
2.5423 29.3844 6.91758 29.9726942852
2.92681 31.6157 13.7417 32.8069666796
7.17985 30.2239 9.7287 29.9695173866
8.56196 17.6924 5.76621 30.9430266157
8.29988 31.0168 5.96459 28.0374557423
-0.0301033 30.0233 10.547 30.0768261423
9.79674 18.496 13.1784 27.5248019496
10.3859 22.849 8.22928 35.0089043791
6.8917 27.6219 10.3042 29.7855736073
7.80711 29.1589 13.059 27.8193944112
6.64069 24.3513 10.8452 33.9845802095
11.7046 31.3429 4.54023 28.6133743785
2.67556 20.1215 12.3469 35.584548351
2.49526 26.4901 10.0653 33.5400110937
5.79782 26.5227 12.8612 31.1894968656
5.21178 22.6286 9.12327 33.1929378044
10.5875 22.8884 12.2459 32.9409501687
10.1526 19.9692 11.1277 27.6869387678
11.3679 27.1599 8.70565 25.5030191848
1.77538 24.3337 12.2762 29.9501555496
3.74177 17.4363 11.3842 32.8553973845
11.4073 25.2417 5.12267 25.0304087616
-0.145086 22.2837 12.8362 34.2851934821
9.82769 29.6501 4.14377 28.2301929506
11.5066 22.6561 3.98402 26.9952002057
5.43862 27.4016 4.42127 28.4117094507
12.1748 31.7744 13.2342 30.5697311665
6.61602 21.6974 13.9025 31.3653210911
3.77032 24.5241 14.1684 29.2705810203
8.86992 28.1553 20.3971 26.5075329791
11.9636 25.692 24.333 68.4458846926
9.79486 20.8923 15.2833 26.4778127668
1.15916 21.8012 17.9664 29.8257367301
1.37043 18.861 21.3128 29.3262789754
6.38191 25.641 15.7069 30.6314243425
8.31337 31.6961 15.8356 26.3144830807
0.924063 23.6082 23.4478 50.1254625728
9.27356 22.266 17.5 28.4706281143
8.71216 20.3032 19.4988 26.8631068758
2.18283 27.1564 21.3161 33.6519883097
9.51124 16.5052 16.7302 28.3439352076
0.217174 31.3626 21.0278 26.2424629152
10.3174 24.8034 17.4353 33.9427471577
4.91371 21.8122 21.2547 26.7463095951
12.0217 22.3042 14.7209 28.2036885864
10.6598 30.045 14.9352 30.6560721238
2.95066 25.3784 16.3788 27.0939693332
11.4339 31.7272 17.3369 32.2538338187
5.90567 30.67 14.4161 28.7023693249
5.77307 30.2669 17.3584 29.1574253989
7.13898 19.0764 14.3643 30.2134192744
3.69851 18.9859 24.2085 72.8201458303
11.5209 17.4615 20.8332 26.6858770453
8.60826 31.4333 20.4544 27.3765759619
10.0316 22.6736 24.168 69.8550597972
5.2136 21.8697 18.3067 30.1711091162
11.5248 17.0257 24.2878 87.6443837051
7.76701 18.9024 16.8984 29.255426277
4.36681 18.6746 21.4035 29.1633562252
3.48206 17.1445 16.3321 31.1087246597
3.35996 23.8421 18.4755 29.2527247866
5.21823 24.9062 21.7789 28.3293899373
6.90282 23.1314 16.4079 31.5611441651
6.32756 27.8203 21.4636 28.8603717522
10.0102 25.6092 20.2309 32.9694154806
9.89069 29.393 22.7294 28.9634757201
8.14015 24.4482 21.673 30.8581312707
3.72779 28.0194 16.2622 29.2267708264
8.8571 27.177 16.4767 31.5236939127
6.11928 27.1212 18.0595 30.644384764
6.23006 30.5513 21.7512 25.8275767789
11.376 30.0861 19.6396 31.8949874101
0.926457 31.6606 15.389 28.8928858379
0.166407 17.3118 18.8145 30.1103590586
0.131294 25.1791 16.103 35.7669031248
11.9257 28.4971 24.4282 82.1555253392
0.354962 28.8836 19.7863 32.6435099567
3.81071 21.6063 14.4961 32.9756790583
1.0399 18.9089 24.2689 86.5672331285
5.43451 18.7448 18.5515 29.6494866417
7.90449 20.7575 24.514 111.195538762
7.9384 21.7009 21.6453 31.1637639701
5.11058 21.239 23.9746 51.0424353255
6.27094 30.8153 24.5575 84.4274139688
8.68395 17.7091 21.1394 30.4297737218
9.34053 18.2867 23.8115 42.5932940823
1.27507 32.5462 18.342 28.1849340036
3.26283 20.0046 16.8923 33.8161649997
8.45023 29.5281 17.9392 25.8429610649
11.2588 19.0866 17.1198 25.6312838817
7.6373 28.161 24.471 80.220400167
5.49142 26.2607 24.3885 76.3065176872
1.34596 29.3829 16.9845 31.8731518331
9.01708 25.177 24.0826 63.1081630424
3.29612 29.8741 21.5794 30.0074853879
4.1245 26.0416 19.63 28.0516179665
1.98534 21.7655 20.9959 31.1747063368
2.50689 30.4927 24.4137 77.1614682756
9.11759 31.7792 24.1323 64.6373630194
3.07232 27.5557 24.3412 74.8967655621
3.7458 23.7794 24.192 90.0811674171
4.01428 31.7638 19.223 30.8233699558
0.577285 26.5347 23.8391 55.2553413078
11.4288 20.3578 20.2033 28.0972470511
4.20046 32.6297 24.3253 46.2653924418
12.22 18.1885 14.642 26.8534095808
8.58233 18.3917 35.3617 103.1390210061
2.61137 30.6212 41.1155 32.940160528
9.96801 26.2731 42.0223 29.0741324768
0.76905 26.7268 39.3062 31.0593928923
7.36747 22.1679 35.8696 70.3131864206
10.4363 28.2411 35.6038 72.0299463176
9.18289 19.2746 38.5624 29.2085135789
8.19772 32.5191 45.7071 31.5907846969
11.9522 18.118 44.5892 28.2766385129
7.0854 25.275 35.8171 74.0633103991
6.13483 17.7749 36.5396 34.0847717102
7.57002 31.196 35.9012 68.9464636369
4.6655 20.6032 39.2123 28.9351850103
10.2847 30.4565 44.9956 27.2049823255
4.64652 22.5059 37.1656 29.26815319
1.93986 26.5362 44.3 28.6822001366
11.6865 32.2009 40.4176 29.160049907
4.11551 23.8185 45.4588 28.0256368992
1.92249 26.0743 35.438 83.1235156629
10.0922 16.6365 38.0924 34.822250348
4.18814 28.0896 35.6675 72.4157607852
7.31741 28.2101 35.5398 78.2164575712
9.1525 28.9959 38.0028 25.9898975859
7.34258 27.1936 38.8507 29.3170216425
10.7129 23.3034 37.4486 31.9774457467
3.21945 18.881 43.4693 25.6171001147
4.66596 28.1662 38.5855 27.4933286984
5.92045 29.0284 43.4844 30.4747885626
9.2687 23.2862 45.083 32.3972034304
7.75053 18.2362 44.0501 36.1569754369
9.49004 32.1406 38.713 28.2920907858
1.94475 16.6773 38.858 32.4678234727
10.4069 32.1771 35.9947 64.0717383547
6.65348 31.4106 38.6739 27.8612558552
5.42067 31.7823 44.2984 31.1746268396
3.10126 30.6273 35.8752 68.9864205035
7.8335 29.9545 41.0005 29.4530561546
2.10667 19.4431 38.5936 30.6711430062
6.36089 18.4074 39.3339 29.1260602799
0.534465 29.7782 35.8828 51.2245303872
12.0302 17.578 41.7805 31.5056740952
5.35816 20.0314 35.4093 95.9073326177
3.61169 31.6279 38.5849 26.4042626807
2.63124 23.0648 42.6619 27.3351467095
6.4181 22.2988 41.4174 30.9850368493
4.41091 23.9953 39.8862 29.8498452319
2.71283 19.2581 35.705 74.6498847818
6.84252 24.3961 38.4104 28.1090391097
2.99826 26.2324 38.2313 29.485175118
3.89229 25.9082 42.0723 27.5489005229
6.02478 24.6476 43.2133 28.5549885631
8.92527 22.6452 39.5371 32.6367225533
7.64847 25.45 45.7796 29.3473373844
4.38532 28.6135 41.2298 28.2744903434
0.436916 20.9484 35.8434 68.0113878221
7.33744 26.8078 41.7852 28.6291905904
7.74117 17.2228 41.4267 31.2728412566
10.4636 28.6719 41.0548 27.9084133933
9.45984 31.7031 42.5337 30.0025975386
3.64012 28.3147 45.4668 31.1011030029
5.86339 20.34 43.2796 32.7076362838
11.7409 27.2765 44.0987 28.7619969023
11.3055 19.8364 40.3758 33.9669704068
9.7367 20.7372 36.3766 42.0213368251
2.35577 23.029 35.7333 81.8965986831
2.65132 20.7188 41.4225 28.4621958225
9.47833 23.607 42.3249 29.8354132886
0.942044 29.7229 38.5964 30.6368862659
5.12755 21.4318 45.736 28.2242227692
10.0841 25.3855 35.6673 98.3099435584
0.865854 23.3501 44.8938 29.0347632838
11.8892 22.3974 41.8885 29.6542016592
3.47524 16.4457 42.2504 28.7131714146
1.43888 32.4178 43.3994 29.9312936416
0.648422 24.5755 41.3497 29.3224354788
11.9538 28.0718 38.5364 28.6989634123
0.582989 18.3851 43.2781 27.6729767843
9.42273 27.8425 45.5591 27.6798788566
5.35597 16.8212 45.8196 28.8300793675
1.6728 21.9988 49.4161 30.7065932121
1.41846 28.6513 54.0634 30.6438286802
7.66183 26.2934 55.7285 30.0698628809
4.06169 27.0525 48.0225 28.2076647776
7.75194 18.8235 47.9068 30.08347214
4.81388 18.7592 48.2577 32.4135738888
1.47567 31.2192 55.1559 28.9841032024
1.24854 29.3101 46.126 29.8639322979
8.62868 18.1246 55.7361 31.3001816401
10.899 19.6414 48.0563 32.7915387821
2.02557 26.549 50.3139 28.5390797135
1.41288 17.0035 46.5503 30.5609032682
1.74384 24.882 47.6328 30.4895385501
3.09239 30.3125 51.0762 29.0573104723
5.17704 23.5133 49.9685 33.1352761018
3.96096 25.5691 51.756 32.6168434552
9.83463 24.2936 54.8632 28.8138843967
5.52275 24.8739 47.6264 30.5289420425
9.93301 31.9456 52.1116 29.9939237962
5.60363 17.3248 56.5217 32.1763132442
7.26555 17.8769 53.2856 34.2990355781
4.05492 31.4259 48.786 25.3130543105
8.22851 31.0319 49.6954 28.325007848
3.96873 20.9398 50.0079 28.9817491324
9.32759 29.9012 54.149 30.1436915685
4.50038 24.8507 56.4328 28.7101973598
6.12344 20.6064 52.3281 30.0501585895
9.63094 16.3919 49.8518 29.9483400717
8.92968 19.1207 50.6923 31.522949964
2.55848 32.5372 52.8135 29.6056895893
6.51008 30.5754 53.8852 29.1701592681
3.1632 19.5989 46.0365 24.272852363
0.302976 23.5146 53.4815 28.2964105011
10.4497 22.6666 48.7676 31.8789806258
8.29792 21.8007 53.7146 29.9135178711
4.28824 17.2401 53.7934 30.7130956511
10.745 29.9281 48.0671 26.4823392676
5.68546 28.7249 49.7005 28.9087079324
10.294 25.5886 47.5296 30.3919067396
8.71255 28.0083 48.8408 29.6844174385
7.44375 21.9389 49.7838 29.8278395809
9.06829 23.8203 51.8625 31.9535006208
0.925085 19.2569 52.8106 24.8968401489
-0.0348934 31.0612 49.8011 29.5565580883
1.38541 21.2226 54.8357 29.669060619
11.9763 26.7356 49.5519 29.2699787643
5.34932 28.0193 52.4371 28.6563792984
5.987 31.5969 51.3365 28.6421641958
9.48016 26.4749 51.3726 32.0696462517
4.03574 28.5765 54.84 27.5970037599
11.6189 28.2465 52.8348 28.1632051094
6.79495 23.331 55.6361 29.1925835231
11.3609 19.9454 52.3273 31.0085340414
3.65767 16.4331 50.1313 32.9879810916
0.501416 28.7122 51.2656 27.9407534979
10.4866 20.3092 55.1731 28.5848359868
11.7212 22.8736 51.5953 28.2961011228
3.25106 18.6604 51.7014 28.8167390823
4.51168 22.2325 54.0825 31.543131952
8.0292 27.6391 53.4367 29.3674580937
6.36578 31.1648 47.2605 27.4322963439
11.9406 26.0868 54.585 29.4249379887
7.63988 21.4862 46.7949 31.4847007822
0.383311 24.4384 50.4654 32.7319736283
1.29316 21.1012 46.7742 30.0970769481
3.01874 24.4881 54.0224 32.3879440573
2.05074 31.5449 47.3031 26.6175854525
6.70995 28.4787 46.6454 27.1813332335
12.1657 30.1864 50.6102 27.7232517753
9.58511 17.6836 45.9068 29.1541719473
11.8356 22.5656 46.1715 26.3250492823
4.38015 31.1151 56.0694 27.2979490364
7.54909 33.6425 4.93884 34.6871184325
9.60962 35.5135 5.16311 29.5297314085
1.55745 35.697 11.3765 27.4231700722
4.57088 39.2925 5.81346 28.397105521
3.01742 35.4921 8.28372 27.5804832483
4.13685 36.4955 5.88337 34.2575188959
9.79101 40.8649 9.68943 27.2561640479
1.75828 46.615 4.7206 28.1191575908
8.73162 39.3224 7.27646 31.0755260417
4.68015 43.6808 5.51107 33.3538531345
8.35835 48.804 8.43849 33.6946549742
8.23232 44.4003 6.30809 31.6557045819
5.85933 42.7505 12.9383 30.1387251228
10.8238 33.2262 6.60856 27.4688913432
8.81888 40.4244 4.66133 31.2783514561
10.4041 34.9171 10.835 29.8395283988
11.0074 45.8831 4.19977 25.2156947521
4.08962 47.4108 12.9833 28.1424358745
5.9068 47.6189 4.16478 32.4645249837
2.53397 44.1245 3.77677 32.9660480713
1.61034 32.7498 11.2938 34.019047196
11.0576 37.8427 6.66344 31.2512869009
4.22108 36.6668 10.4368 29.5467113705
6.87374 37.644 8.90406 28.7085981009
6.10917 34.4628 11.3123 31.3985011504
8.05716 32.9097 13.1495 28.4379217363
8.29723 36.7746 11.0144 30.5789568392
11.1219 48.7733 7.0572 27.1960974694
7.23235 37.5596 5.29048 27.7941467142
6.6194 35.2513 7.15357 30.189503327
9.83621 42.8331 5.00636 29.5546790741
4.45507 40.0158 8.42092 28.4267455005
3.81994 42.6847 8.17833 28.5362737644
5.18236 39.9647 12.3046 27.3063687079
6.09589 44.5652 8.09609 30.0288961611
6.8299 40.5561 10.1283 28.8095438193
10.8914 47.6918 12.5126 32.7004004208
7.34177 43.3006 10.2772 30.6775674689
1.80485 47.2408 7.42946 30.4497883001
-0.0727271 45.2503 8.04622 28.1139071562
4.6097 47.0465 8.38943 31.6165375644
9.25342 32.8808 9.16767 28.4263696141
0.525276 45.0694 10.668 27.6153202135
1.9384 39.819 5.375 33.0004573779
6.27406 48.8242 6.66358 31.7573944343
11.8342 47.9728 10.0461 29.6291658791
6.69147 33.3414 9.18581 26.3320114931
2.6382 39.1515 11.5081 26.4266073057
5.08724 45.4564 11.1947 30.1953727019
10.7457 34.2885 13.4988 31.9757156348
11.2474 45.2393 9.46156 29.459658013
1.93023 38.8526 8.85801 27.7867155107
2.41844 32.9206 8.29761 31.1743260175
1.27013 43.1098 7.40857 30.6144282328
0.0655295 38.1997 13.3588 27.6548772162
6.97963 38.0943 13.3183 27.3673954508
1.55142 41.6409 12.4223 29.7366263021
9.70618 39.3299 12.1014 33.6651099397
2.839 43.7475 10.7816 27.9231059117
6.15644 41.3875 4.42932 34.4358872918
11.4417 41.0595 13.4133 31.5792929499
2.86997 34.5048 3.85481 32.5921120869
9.76369 44.1163 11.3859 33.0516633495
4.92053 33.7843 13.9963 29.0268509748
10.5628 46.1684 6.82492 27.83349204
0.551729 42.1699 4.56372 29.7168903991
0.514824 41.3871 9.70586 28.1062870592
3.94211 49.0463 10.3676 29.5175898725
12.0762 39.0235 9.01206 30.6412325697
11.4577 42.7013 7.74897 32.8071593762
0.930079 47.3769 12.6101 30.0697425913
0.314941 36.3771 8.14202 30.8343517306
9.4079 48.4908 4.38917 29.6311890627
12.1015 42.3082 11.0069 30.4843540858
2.98516 44.4714 13.7777 28.9567574682
12.087 35.1767 8.19168 29.1766836259
6.9354 48.5504 10.796 34.0036051551
0.951044 48.708 9.91927 28.2417853937
2.63608 35.492 13.8473 26.5975685136
7.58516 45.4399 3.76607 27.9591955111
0.672633 34.6356 15.4978 27.4950443396
11.2639 34.8553 18.0503 29.0613025459
8.06301 36.3841 18.6246 29.7275358383
11.141 39.7478 23.8361 48.4402568929
9.91457 47.7502 19.5536 27.4052033575
0.541237 40.355 18.2273 34.8647842367
4.22603 40.6131 15.0351 28.9305906572
1.52061 37.5976 17.5004 31.1199058073
6.25837 39.3002 16.4712 27.8153993958
2.22802 35.1983 18.3154 26.5886063265
4.88861 35.8336 17.7267 27.8313945573
10.4665 36.6286 16.0477 29.0307085893
5.86909 46.5458 17.5419 28.300212388
3.48548 47.6408 23.869 32.6996587251
12.0555 32.8642 24.2921 67.5941099536
8.7585 39.5517 15.3778 27.8353839709
7.73 36.541 24.0714 40.5728781907
7.53055 42.5051 23.9895 64.1470727357
9.30141 34.1558 22.0429 27.5987146228
0.974604 48.8031 20.1004 31.0888347722
7.04502 35.4921 21.3557 27.7485338296
4.89886 43.8893 15.5615 28.1055391686
5.77245 33.1238 17.0541 30.7998096171
8.1305 45.5264 18.4715 28.5217315106
8.31341 42.6305 17.6759 26.5354080484
11.4489 46.7499 24.2916 92.112347115
9.99369 35.0461 24.4883 76.8568547228
2.31786 33.0971 21.7423 26.148928351
10.0549 37.9835 20.0441 30.7699599618
11.3256 35.504 20.6478 26.8803289528
3.4182 37.4495 21.1765 28.4199707263
5.45164 37.8945 19.4411 28.2302567459
5.43839 35.1659 24.8189 111.5436718489
10.1606 39.0079 17.6414 26.2876356183
11.8506 42.5125 23.8239 42.529293551
2.33475 42.0298 16.581 29.7679357978
6.40597 41.1724 18.6986 28.8306891232
7.94314 42.4152 21.1552 28.2603759406
1.22762 37.0332 24.3053 78.6118386174
4.00385 45.3771 19.3311 25.8509545146
2.94012 47.3421 21.0837 28.7999467716
4.07522 42.7542 18.3931 28.0536187892
7.82899 35.658 14.7278 31.977900647
2.34953 38.0495 14.8359 27.8689401409
7.45543 38.5813 21.2216 27.5668263022
1.18642 33.9611 24.5351 95.7746809343
5.41762 33.2942 21.5948 31.2733987299
0.654668 39.7854 23.5995 39.6954357949
11.5648 44.3542 16.888 29.8767784873
10.1567 46.6938 16.6074 29.9114745978
7.43727 47.7014 21.9285 29.007828838
1.46877 39.4201 20.7063 33.372055223
4.06346 37.4783 23.8107 32.4582559403
5.98151 40.6165 22.0783 25.5543270349
9.96321 45.6359 21.71 29.3252483041
8.33918 39.1853 24.214 69.6899444687
5.09734 36.9235 15.3675 26.1374918261
5.29699 39.5382 24.6384 103.4052196291
1.48114 45.5757 17.9991 31.7649024864
7.8637 42.2336 15.0991 29.0169021216
3.3867 44.1077 23.9792 55.0401894485
1.19452 48.4928 17.1481 29.2652596772
8.70183 33.132 18.3615 29.3119366826
10.6997 41.7607 18.4989 27.8122326269
2.2163 43.8751 21.5379 29.1071053579
10.7952 42.5355 20.9491 29.1360764498
0.753317 44.0465 15.4024 29.7911068149
6.66423 45.0749 20.8083 28.0036875616
3.43123 41.5804 21.0168 28.8765112904
5.99798 44.809 23.5664 35.6830236247
9.69179 44.2117 24.2775 87.5887186396
1.48764 35.4702 20.9593 27.1316666092
11.8289 37.1192 24.4665 88.3799275223
6.19041 47.3455 24.4705 94.1515674613
6.19626 46.4052 14.8823 31.6138050241
10.3119 43.436 14.5502 32.3130174405
2.93255 41.118 23.9554 67.6588604655
8.99282 46.0949 14.1091 33.279345831
9.93784 37.88 35.4515 98.4516217224
1.86972 46.0767 24.8332 133.4348236082
9.52551 46.5101 35.7704 66.4831765906
2.34802 33.9578 36.3814 43.4712710213
9.30851 43.8809 40.052 30.0152726816
9.4536 36.9741 39.9165 32.8494428214
5.67918 33.8377 39.9014 30.0214805268
5.48721 37.9677 35.2996 104.0310777034
6.91874 35.3941 36.0111 54.2916418322
8.62032 34.5045 40.3621 31.7466727585
0.551978 40.0962 43.4442 28.5239305811
2.52015 34.2862 39.3302 31.1944535769
10.4034 46.925 45.6815 36.3958912345
3.54328 43.4802 40.8344 30.6093402326
4.51985 40.7542 38.9765 29.4011035909
0.95579 42.8544 36.1051 68.8846791304
3.00979 44.528 35.8319 72.9223085209
1.25986 37.3228 42.9162 33.799577561
2.05306 47.2737 35.7588 73.7846135463
7.49192 38.7766 39.3201 30.8856567909
0.357412 36.5778 40.1758 28.2921801867
5.30001 42.6668 35.7904 68.7840516041
4.06252 40.1205 36.1992 39.5112228413
9.6286 44.3377 45.2461 31.0886197656
0.665412 38.9134 38.4596 28.7105430751
7.97487 45.862 38.6319 28.7104690743
5.99648 42.9012 38.5846 24.5901446012
8.51694 41.6568 38.4736 33.223943269
2.54976 44.5518 45.8759 31.1741602066
10.2204 42.9117 42.7048 34.0452567753
4.83209 45.6405 38.2862 30.401142922
1.79272 48.0438 43.2161 29.0522601506
5.14149 47.9482 35.8515 67.6154486435
5.34677 34.2037 42.7007 35.1007167192
4.11547 36.0905 44.4649 32.924264274
11.3011 36.0963 37.9168 31.5137519955
7.90955 33.9611 43.2082 27.3402216793
6.74399 37.4386 45.5913 39.1262897671
3.8781 38.6602 43.0465 36.8441998423
5.94272 36.4248 38.4926 32.698480504
3.04836 37.2229 38.4018 32.3800064834
3.66325 40.8296 44.7034 28.4815521964
6.08884 41.96 44.0365 27.7022970177
8.21242 48.0438 40.3739 32.7852286808
6.89623 45.5594 35.7005 79.024986203
11.5639 48.3884 42.6709 35.6049032979
10.6148 47.37 38.4382 31.633553202
2.19526 42.9168 43.5024 30.4501696947
6.56865 43.2598 41.5052 29.2277761987
2.04141 42.0049 38.8954 28.3902579416
2.70846 46.3892 40.4608 33.0779652116
11.6359 44.3323 38.259 27.5381018943
4.69446 48.0636 42.3118 29.3843111724
3.56022 48.4498 38.4304 28.2900057782
9.635 34.8323 35.8462 74.8833757616
0.115027 37.3539 35.4767 94.1549214064
7.75995 38.7342 36.5286 27.0054787924
10.162 43.2718 35.8894 59.3980730837
0.0806997 41.239 40.7892 29.8329228815
0.323745 43.9499 41.2185 24.830746242
5.93622 40.0108 41.5294 37.5620192669
12.3222 41.4354 35.7271 67.9681969686
10.7213 37.1549 42.5348 31.9414994774
5.28387 32.9066 36.0317 65.2710146082
0.0615295 35.0988 44.6497 29.2276587591
7.88132 40.2484 44.8835 32.3175199286
6.94913 46.0819 42.5609 31.7094463479
9.21727 35.9393 44.5428 34.1114994333
8.76927 48.3017 43.5076 34.8978333774
4.282 46.4796 44.8286 33.4870302475
2.85496 36.4876 35.7565 65.6956774033
0.303822 33.2632 40.6293 30.5229974249
6.66736 44.6097 44.9565 30.3830943878
3.2743 33.0964 45.2202 27.8101458671
11.2746 39.8939 42.8783 32.4132438658
-0.251322 42.6201 45.4868 25.615001235
10.5444 40.6161 45.5654 27.6440037059
1.29169 40.0407 36.0164 58.7559057678
7.83212 41.4068 35.6461 81.7163077175
0.0274459 32.9933 51.6384 30.565279849
6.49588 33.3126 54.9218 31.811594697
5.85317 37.8487 51.5689 26.4982107957
9.20565 39.1448 54.5809 30.3257139527
11.0027 47.3789 53.0285 30.4686103278
4.02289 40.3927 47.6328 30.5858200673
7.03543 40.2953 50.5807 28.3762275981
6.91927 40.3982 47.5625 25.4426067842
0.87611 40.4753 46.7111 26.8953934069
9.73477 35.9881 49.0687 26.1676169811
3.83084 43.0677 48.1551 29.9346408508
8.82772 42.4438 48.6278 29.1322518929
9.19794 35.9807 53.7251 27.4030023065
7.12575 46.2223 49.0466 29.8998559186
5.66498 43.0411 51.1409 30.9545501098
6.38558 43.7463 47.6803 28.8592766106
2.68475 35.5862 47.0278 28.4715380893
4.01969 34.2892 49.2503 31.3419661916
11.2294 42.9692 46.9921 29.3111093942
11.185 35.7874 55.6498 33.0725242242
5.02241 47.9373 48.9996 32.1727515331
2.88557 43.1218 51.9243 29.2110736008
3.39351 48.2001 56.2109 30.0810666664
6.19935 35.3057 50.2176 28.1279890728
7.45958 37.0132 55.4338 28.7916512464
9.89655 38.9848 47.9059 29.6653987017
0.247997 45.4568 46.815 30.2223536983
11.9823 38.4917 55.1334 33.8321841999
11.0853 35.2237 51.2358 30.7099632023
10.5531 42.9073 53.4312 31.4747559454
3.26884 35.9605 51.825 26.2484451918
9.80059 45.3883 54.5989 28.027299747
8.87843 37.9309 51.5267 28.4370751468
4.17825 40.2309 53.4021 29.9000909799
7.95838 33.848 52.4323 28.7878959065
2.95603 38.6325 50.6735 30.0283611669
1.5117 40.8186 51.9859 27.7237453141
6.00892 44.55 54.2884 29.0558603356
11.286 46.0613 50.2959 30.5038399505
11.3943 39.3284 50.1874 30.7429864172
2.441 47.4842 50.3266 29.7997231486
7.36862 46.9182 53.4607 28.0939219727
5.66156 48.5662 51.8574 28.9971911222
9.80997 43.75 50.9065 25.0902438069
8.13965 33.7437 48.5795 31.5215267409
9.62229 47.0106 48.362 31.7377007792
11.1553 35.7159 46.6188 30.1790313538
4.03632 34.4229 54.3233 28.4709439102
0.997388 35.0212 50.0978 29.8648865876
3.20109 47.6381 53.2715 31.5060876695
7.1645 37.6874 48.4386 29.9166721947
1.00266 37.0062 53.3562 30.0049308833
5.06624 37.599 54.2578 31.3898586323
2.32535 44.891 49.8399 30.3826256073
2.25173 38.1244 47.9626 29.5763407723
2.30332 38.8243 55.3459 32.50387001
0.583367 41.1137 54.8023 29.5664497312
6.19948 41.7349 54.4527 30.8635975061
7.54795 44.983 51.1701 27.1055451718
8.49451 41.1136 52.8335 28.5120833818
0.527551 48.5445 54.0965 32.8300682916
3.34747 44.8997 53.8566 33.1201286407
0.474337 35.5119 55.7105 30.8783786357
-0.0350958 41.3152 49.4764 29.2544873294
0.447388 47.9802 48.2538 30.2820613946
0.550669 33.9259 47.3575 30.0247650395
11.3708 33.022 47.9468 28.9563235879
12.4325 43.3948 56.3537 32.1495971123
12.1936 41.9853 50.0958 29.2593893636
13.6732 5.27468 10.3891 27.5218496996
22.8869 3.36994 10.1774 38.7420862935
14.9937 15.47 4.13033 30.1902964578
23.4574 2.55758 3.83553 28.9482787372
22.4528 14.8131 11.0045 30.8488210219
24.496 8.43209 8.39369 28.6051771605
15.2853 4.61789 5.92137 31.346174153
17.4226 2.51366 5.90458 26.8364821201
22.6178 15.0389 6.63218 31.4818667155
20.9235 15.5817 13.567 29.432702664
21.2236 1.08869 10.9313 31.7470471384
13.8423 15.8115 9.88719 27.9194738636
16.7505 6.54756 7.35875 29.1108168435
22.1888 7.51833 5.53303 31.0222660346
22.7795 10.0606 6.72824 29.4715321142
21.4471 0.741918 13.7513 25.7194263712
13.6222 1.29819 9.06803 29.3764361224
17.6224 11.6543 4.77654 31.9415323417
23.8624 12.7282 7.75065 26.9337430552
12.7715 8.95417 9.33429 27.4843239824
18.9685 7.05439 13.0046 31.9098659807
15.3957 3.19687 11.122 28.7700928475
17.6488 4.58833 12.8608 31.1150805211
18.8068 4.23591 4.10048 30.9830445079
20.0616 10.6657 13.653 33.2193418015
22.344 12.0335 10.0722 28.3183915124
18.9894 7.85508 5.41318 29.6376908938
13.0018 12.9473 9.79591 27.4112209164
20.0761 10.3044 5.02791 26.3066178033
22.3052 8.22816 10.0639 31.8229138729
19.5762 7.59647 10.2392 33.2177487746
20.0379 2.63575 8.82471 28.2355853267
19.0109 5.45397 8.42574 32.332388537
15.3574 7.55799 9.76199 32.4851130791
16.2199 9.87912 11.2907 29.5158658548
16.3864 12.1197 9.45313 28.6450237505
22.7491 10.3423 12.029 31.7332785902
20.0374 11.2557 8.41975 28.5448923132
19.2936 13.3138 12.909 32.8480414865
23.7003 6.28444 11.7171 33.3008998226
14.0844 11.4317 7.74009 28.1533592079
15.4761 1.42572 4.10397 30.1569457656
20.1702 13.0568 6.09493 34.2801741568
16.2069 9.43002 6.23366 31.6767043197
17.7892 14.2408 7.2009 29.6580097982
14.7836 5.6905 13.3544 30.0624953831
12.816 12.2426 4.95738 28.0900238612
14.3375 1.10894 13.3479 29.5683367856
21.5494 1.95807 6.44403 27.9078434185
13.5182 5.61652 3.88742 28.779908361
24.7302 11.5322 4.92872 31.2518897874
22.1306 7.78152 13.5863 31.4757566396
16.2925 14.4106 11.1988 31.0606865567
13.6272 11.2551 11.728 25.1540294705
16.8531 2.89853 8.4823 27.8219067933
20.5467 4.8575 6.12912 31.7517971267
12.8865 3.51835 13.8911 27.7234707628
15.3261 13.372 13.6609 30.9492443613
13.4825 15.6287 14.008 32.1330262777
13.359 4.18903 8.12932 30.182870645
18.1903 9.32475 8.71649 28.5054036836
24.2134 5.67367 6.49438 33.4107521272
14.4036 8.44649 13.4041 26.8345382618
19.1878 13.2753 10.0998 27.226738711
20.6236 0.503769 4.19279 30.3095410401
18.4457 2.22066 11.5737 30.6949691028
15.3792 13.3928 5.76806 29.6565885567
17.039 0.169797 9.61727 27.9131517499
12.9456 16.2317 5.5358 30.9957516411
13.9045 9.2187 4.50212 32.4273706947
17.3122 9.42269 13.8651 29.5327324493
20.4103 15.4494 8.96478 29.50267984
23.9951 15.2542 13.6195 31.5985255364
24.554 16.3707 10.1209 29.885107884
24.4763 3.29014 12.547 31.9228155733
12.6347 8.87893 15.5251 28.540487159
21.2532 11.5685 16.2207 31.800911027
12.3874 3.61889 19.2862 29.7281802196
17.6409 13.1585 23.9536 48.2833780413
20.4404 3.0177 18.0728 26.3925994532
12.4125 10.4663 18.0978 29.0993126377
24.0524 2.90265 23.637 41.5928975105
22.8405 3.79419 17.1413 32.5962645445
14.1062 7.35419 17.5092 31.0353446655
16.2547 3.87921 15.4486 27.878970209
20.6438 5.19724 14.7201 31.4620707414
18.8107 6.38465 16.9225 31.4337680714
15.9717 15.009 17.498 29.2175808633
13.7195 4.79862 16.8214 29.8235696585
20.3906 7.48359 18.7695 30.0634250277
18.3916 15.9672 23.9792 65.1926431925
18.8089 13.3241 17.5718 26.986853832
19.7972 10.462 18.6303 33.2769083141
12.5719 4.83189 24.3312 96.0868707552
12.3969 7.69222 23.7479 42.3723866268
17.6046 12.2192 15.0474 28.6341392808
14.5595 12.5294 17.0309 28.7104907104
24.3522 10.3847 24.0292 89.9566385452
19.8531 11.7074 24.1645 64.7982146176
14.9295 0.169683 24.4156 84.4729880129
17.6288 0.354865 18.9241 32.411452559
16.1274 2.80464 19.0363 29.1749568282
19.698 2.02475 21.9363 28.7384855102
21.0104 4.27067 20.6809 30.2786640986
18.0861 4.71464 19.1224 29.5849944041
23.2782 11.0314 21.3511 34.9260963444
15.3844 3.7609 21.5276 30.5145217905
16.4256 8.14753 16.5128 32.8692388616
12.7829 7.87656 20.004 31.2326306343
17.1685 6.10363 21.4318 29.41411298
15.1775 8.01566 21.6945 28.7131278045
24.3148 13.7191 21.4757 28.0609187894
18.2607 9.32949 22.0343 30.5413665057
16.7514 10.6437 17.6192 29.6567048945
15.2632 14.7783 20.4088 27.5819654381
16.8922 12.641 21.0347 29.6411318429
15.3088 10.3551 20.1588 29.1562886436
19.3012 13.7445 20.2076 28.5100310785
20.088 7.04512 21.566 29.0617678989
12.6476 12.5186 23.9351 59.7191641754
20.7683 15.0434 16.2719 30.7861012411
22.6276 9.00134 16.055 33.065401074
12.8911 13.8363 18.8076 23.9670319801
13.307 1.07952 18.8974 29.8918803433
18.6173 16.2809 21.1761 29.3683987229
23.0461 15.4939 17.9082 33.609802044
17.2431 4.96222 24.1465 51.8967839649
24.1122 4.06963 21.0762 31.5879436947
16.9521 1.21075 21.9084 28.8220699114
12.5723 5.27755 21.2818 28.3883922265
21.7055 14.7186 21.5926 27.6198118857
21.4407 1.62662 24.2626 87.08233995
14.8723 9.10896 24.2625 59.558734212
14.9692 3.1072 24.3579 79.8150476793
19.387 8.80361 24.5578 86.2343594
18.9811 1.15326 14.1177 28.0490958653
20.7395 0.245797 18.0237 28.6360335913
18.363 0.41991 24.4691 81.5990291545
13.0115 11.6743 14.3854 27.7550041198
20.3935 11.1406 21.1613 28.9053055505
13.1809 12.0522 21.0352 28.4625876202
15.3029 11.7661 24.8007 125.7565637654
15.9868 1.14718 15.3261 32.1281915587
19.8842 4.33098 24.153 73.4414896962
21.6404 0.393699 20.5212 29.0910380225
13.2846 15.3526 22.4736 28.7801278652
21.1494 15.917 24.4789 103.0052878802
21.4783 6.84915 23.9598 72.3259771635
24.4793 0.862732 20.7064 30.1855660596
22.7238 6.52169 18.0398 29.5554716364
24.0595 7.68448 23.2745 36.9224510424
18.8521 3.3151 15.8383 25.4023635115
22.1772 13.0851 24.1299 63.715017164
23.6022 13.0774 16.0957 32.232817605
24.4091 6.9674 20.4609 28.5720763982
22.4921 3.01376 14.4471 30.8155759454
17.1803 7.59802 24.8049 103.9176989951
17.2787 2.61473 36.766 32.7674759169
22.3559 3.93505 45.4912 29.6850551789
19.6477 12.0823 35.6341 100.7170924094
21.4372 16.1732 43.3221 28.396586475
18.8953 5.09496 38.4496 31.0322413782
17.2223 14.2812 38.2601 26.9586980599
14.7172 7.19656 45.7438 28.1901340049
12.6111 1.52908 41.4855 29.2110986615
13.8846 10.9359 36.5796 33.9247425975
22.8798 13.3663 45.5895 28.5642219945
23.6036 11.2015 41.749 27.3433081358
22.0894 1.62834 38.608 28.5167071123
13.6245 8.08801 35.9679 85.2370373066
23.6842 0.764813 42.4795 31.6258255636
17.0426 8.41066 40.1251 31.2118268474
23.842 5.61323 38.9586 30.8557728073
23.1648 5.89302 36.2207 46.2081680965
15.5941 12.0979 42.1038 31.8233523168
15.4047 1.30115 43.33 34.0161473983
16.2894 8.3453 36.4286 54.6201544699
16.6378 11.5975 36.0176 83.9809737643
19.0141 7.95756 36.1479 74.1715602278
23.418 8.55379 35.394 126.1403118858
21.9066 8.89478 38.7607 30.5644947618
19.6059 1.61237 41.8183 30.3608148611
17.563 12.3479 40.0625 32.0495749419
13.6835 13.4225 40.6894 29.1520153643
20.4574 5.4128 36.1393 52.7502185061
14.4079 15.8601 44.5001 28.9910375171
18.4141 15.137 36.1598 65.2176672551
22.4344 13.7685 38.7122 31.0593888975
17.7488 9.76584 44.7196 30.3167613149
22.0159 13.7409 36.0076 59.2998116143
15.4661 1.19477 40.1273 29.2293953853
17.9801 2.13696 43.9621 33.0982938881
16.1258 6.47734 38.6226 29.8065806603
12.5322 11.0204 39.2393 33.4318844535
21.2348 3.8777 39.8117 30.703097747
21.6239 3.19008 43.0055 26.6376068282
14.6761 5.4564 40.7002 29.3684042788
17.8473 2.31336 39.36 30.3378569554
18.2737 5.04056 44.7581 29.6523433708
19.6463 7.51531 40.5695 33.7075626952
22.0397 1.74259 35.9249 61.6320628873
19.6208 0.727595 45.5141 28.1862314471
16.1316 13.7229 44.3537 32.7417541093
13.1049 8.92669 41.116 31.6058078598
22.2133 7.13413 44.2667 27.9272346614
15.5638 9.36922 42.5295 26.5284786712
18.1949 10.2854 38.2462 27.4873632051
21.7353 9.18144 41.9377 29.1089414535
20.7554 11.5336 39.5596 29.6954858718
18.8861 14.8719 43.5491 29.0822142078
20.0381 12.7702 41.9484 28.5524012435
22.7055 13.4243 42.9535 27.660614578
14.3089 14.6099 38.2443 33.3981048747
20.9867 9.64145 36.219 38.8141247101
20.1413 10.6281 43.6234 31.3743099973
14.7304 4.10615 43.9456 30.09751837
13.9688 3.12553 38.8247 30.3004882771
20.3525 5.93232 43.0582 31.8786429736
13.4568 9.30717 44.5093 29.7398924631
14.6954 3.50695 36.0875 75.0614813644
16.2032 6.34331 43.1498 32.085925028
19.6635 3.06393 35.5216 119.3928059235
23.3513 16.3068 45.3857 26.8238842023
13.2199 1.2236 35.4448 118.1144505979
20.2244 15.717 38.8021 27.9478568297
12.8258 6.56338 38.2066 25.6464174282
14.4991 16.3096 41.3813 31.2393392635
23.8898 4.51923 41.604 30.9089388995
12.419 14.9279 35.9139 63.2015414692
23.6758 10.2006 45.644 30.4112432124
13.1444 1.6632 47.0509 41.080301879
20.6572 11.3586 47.9975 31.8469804484
21.3469 12.4215 54.0757 33.6580340209
17.0051 0.857119 49.741 28.4637814133
20.4817 2.83675 55.3579 31.0336569255
22.0136 1.25783 51.0442 30.6062088007
22.9063 7.92841 55.6911 31.0234145609
14.2518 4.17724 46.9581 27.7110706168
20.9842 6.35566 46.9444 31.7214965128
22.6459 15.7397 48.8749 28.4180888689
23.1387 5.61653 48.8564 31.4962033037
17.1093 11.7544 46.3345 31.4451254636
15.0103 9.04965 48.1331 31.9428797998
19.2251 10.4095 50.249 28.9222347555
19.2312 8.11457 48.6228 32.4785839092
17.506 7.4865 46.4152 27.7339774051
23.5853 9.24513 51.5479 34.1364457664
14.0745 13.6657 48.0264 30.2117731967
23.0332 1.01879 48.4137 37.8824665644
18.6601 14.0925 49.9258 26.6718812225
16.6478 14.2769 51.8313 30.4351363427
12.428 15.5509 53.9156 30.614599319
13.3404 11.615 55.1415 27.5917077854
19.3925 16.0995 46.0366 28.711063999
20.9095 9.90559 55.3934 30.2188758785
14.907 2.26706 51.1547 29.7535659608
19.9988 2.77195 51.6445 28.0726048531
15.1515 9.98914 53.7701 28.2023927927
14.0013 4.653 49.8939 30.4551817997
16.9307 4.48063 47.5089 34.5466933119
18.9373 5.77999 50.0437 29.4651121981
18.3794 1.62759 53.6727 29.1826301497
21.517 5.52695 51.0096 29.6096743399
17.0694 12.0296 49.2127 27.6444222909
15.2106 9.81926 50.9567 31.0834892362
17.0277 6.25853 52.1094 32.7098621536
17.8815 9.88107 52.7503 30.5848481269
18.6101 2.99103 49.1597 28.2657015743
21.7316 11.5506 51.1855 30.1093029362
23.5517 12.7527 55.7449 30.1916299326
20.7273 14.4261 51.7066 29.6317138231
16.9746 12.0101 54.8765 29.9136760681
23.5822 13.4661 50.1433 29.8943691612
14.7468 13.9879 54.4386 30.380500871
20.7715 2.31782 47.2849 30.8998800441
14.5139 11.079 46.5277 29.3757184826
24.1924 2.32011 52.3102 30.8782607949
22.1571 4.07161 53.4229 31.6222271127
20.8472 9.35952 45.9146 28.015296564
17.7423 6.64633 56.0645 33.494804883
12.6907 1.98642 54.4084 26.2600949385
14.6257 3.54047 55.1295 28.5217656799
17.712 16.1257 48.3318 31.5510692192
16.4466 3.703 52.9426 31.3518233731
21.8345 7.47311 52.8542 31.933106267
13.0209 6.11851 53.6519 27.171399515
14.3906 7.23281 51.3682 28.115538303
12.5816 0.709147 50.967 27.4209029955
18.8178 13.8872 54.0844 32.1872884467
19.24 8.03946 53.9648 31.6826039817
14.5984 12.9954 50.5604 30.3405738808
15.1404 7.53009 54.8452 28.5579722743
20.7529 14.1162 47.5259 28.9735349187
24.4283 11.5959 48.0433 29.1756654694
24.4212 5.22518 56.2164 31.0828681538
23.4992 15.6551 56.3415 35.4991325395
22.8697 26.5147 11.5217 34.2189660642
22.2516 22.8519 4.14609 33.3442702329
17.372 17.4419 4.13631 28.3361208752
22.5214 22.4604 13.6451 34.5316773908
17.0442 27.6898 7.79738 32.3322038587
19.9443 17.9955 12.6785 32.8508455523
14.3114 20.1537 13.8455 32.2754956844
12.8176 19.9915 10.8834 32.7315209663
16.4737 31.3747 9.12603 30.5541445278
15.444 30.4921 5.35627 30.1568060655
20.5807 23.7559 7.74557 30.6830899006
23.2065 19.2018 6.97111 30.5429457522
19.8155 21.0515 5.22807 31.9952706265
17.3704 16.8477 6.9913 28.7602471064
15.6884 23.8015 10.2146 34.5771471846
17.6985 25.7692 5.77263 30.8574942391
18.1353 22.9785 6.48431 28.1459821559
23.1763 25.6058 9.00703 27.426152201
23.7614 25.0063 6.01815 30.2252182062
16.9145 29.8041 11.1869 31.4528656434
13.034 29.065 6.408 27.2184095897
16.0697 31.2174 13.4426 29.9710112559
22.7142 31.7044 4.64867 27.611037309
22.2262 29.3504 8.06556 33.1364965499
19.8369 32.1338 12.2135 35.1198658148
14.4522 17.1883 7.63155 29.9838021085
17.5418 18.8564 9.37287 35.6739089017
20.6695 19.264 7.17232 28.4025124782
23.9916 29.4439 13.5106 32.1429146658
22.3133 27.0587 4.68923 30.9621734927
23.9907 29.4497 5.23581 31.7901079007
22.2895 32.4677 10.8455 30.8397732847
17.219 20.0559 4.71907 31.4440991305
17.2253 21.8019 8.94323 31.5397846838
21.0563 25.087 13.6089 37.1847124029
14.9028 24.7458 7.84937 31.3732233299
13.2274 27.1129 4.26293 29.5863966994
19.2345 27.1686 9.84356 33.5207623848
16.4543 23.3809 3.646 30.3243622255
19.1743 25.0776 11.6385 31.3798829281
14.6519 27.0722 13.0557 30.2994387434
17.7836 30.3554 6.85359 30.4046959337
21.1608 26.7566 7.71337 29.1879947796
22.8641 22.7819 9.18739 29.7908165423
22.4808 29.5953 11.2868 28.1830909307
19.8903 29.2103 11.9175 30.1225510016
12.7425 25.2827 13.5455 29.010938847
23.4626 18.9288 9.62925 31.2526042174
14.0567 23.0425 5.21516 33.6295659382
16.4417 17.3037 11.5428 31.4224886294
21.5663 20.7186 11.2939 31.323075497
13.5842 17.5774 11.6499 26.2627025763
13.6906 22.869 11.8703 31.51782022
15.5492 21.0286 6.77304 30.1847470077
14.1821 28.6983 10.7565 30.8595811698
16.6104 25.3293 12.6816 30.5826906274
20.3291 18.2303 9.78646 27.511944395
19.5138 26.8708 3.86549 34.0994712049
19.6364 22.7489 10.1262 34.7964804111
14.3161 27.6613 8.3013 27.6001649969
17.0657 18.1118 13.9484 30.5461758925
20.3394 31.2738 6.81876 31.0854581009
23.7472 21.9975 6.58136 29.1698557157
13.4887 19.5667 7.82002 32.7642958239
20.1825 16.8805 6.16183 27.1048380692
15.6578 23.0627 14.1288 31.9812595969
12.9617 24.8954 16.4765 27.8371023121
12.6807 25.5858 21.5066 29.5133725308
13.3299 27.9296 20.0182 29.7783542439
14.8849 28.8829 15.3919 28.6770553147
13.8479 30.4786 24.5744 95.4397386202
15.2082 23.4419 16.7519 29.5931194676
13.6409 31.3415 15.7505 29.430032218
21.1912 26.6871 15.6565 27.4122223571
23.3353 25.3736 23.5261 34.6344782502
22.5889 22.0887 16.5284 35.4916955736
16.5653 27.8192 18.5157 28.0312420067
16.5231 17.2991 19.9091 30.2533495631
23.9839 31.3427 19.1961 28.8672741319
12.8252 21.8185 17.7433 26.7456182538
12.7828 31.771 21.7433 31.9877694053
14.3382 19.0439 20.9647 29.0878550694
20.1334 28.0097 24.284 77.0878572267
16.7006 30.5719 17.0336 28.1877960395
15.9242 21.7353 20.4461 26.3722047303
19.5939 30.4204 16.3922 29.3735737068
14.1895 27.0786 17.4182 33.2630485265
22.1641 30.9405 17.0225 35.8192201355
24.6377 22.3779 24.2269 70.6716940359
16.7603 31.2764 19.6091 29.7022554903
13.3903 23.0822 20.4158 30.4113156097
18.7047 18.6682 17.8528 27.223875147
21.0487 19.7753 16.8141 29.0780188188
22.2594 30.2139 21.0471 30.5522972135
16.3414 24.047 21.6509 24.208955499
22.9153 18.062 23.8391 33.0966848809
17.4758 20.73 22.4451 30.1346499812
19.0411 26.1711 17.4805 29.3290215041
16.9901 21.0109 17.6981 26.0878656644
17.6136 24.2591 18.5982 28.9594916546
21.7002 24.6402 17.7615 32.0535645613
23.2007 28.5526 15.9934 30.4687044388
15.6659 26.6709 21.223 28.0834923287
23.2094 27.3837 21.1794 29.486103289
18.8377 24.9806 21.1359 27.0714724887
23.8413 26.0361 18.9521 30.6853916841
19.6553 22.1244 18.1236 30.4909432501
17.2678 20.7479 14.9438 42.2632635644
20.0712 27.607 21.3724 30.5542284311
19.3865 29.0725 19.4154 31.5494414406
14.3399 19.5432 18.2094 27.3787146717
18.2696 16.4844 16.3061 32.0554505324
16.7048 22.9054 24.4468 81.5189857014
19.8947 18.6067 20.2222 30.2575033804
12.1485 16.6198 18.3143 28.8664135227
18.6506 30.5277 23.933 49.1179037761
24.3982 22.7198 21.4568 28.4444142236
15.7698 19.2744 24.0578 66.6946808047
13.831 23.7172 24.3603 76.0264781625
12.2459 21.6376 22.5998 28.8914650526
20.9477 24.1123 23.8732 55.9610334192
17.3258 26.9835 15.3662 33.2866263727
22.2218 20.3906 24.1952 62.5093752651
22.1073 20.357 21.4565 28.9385661491
19.7894 21.7647 20.7385 26.6855962875
14.8485 29.7817 21.3807 28.2627350824
22.8837 18.457 18.4984 26.7879688461
24.0562 17.8584 14.6499 28.6625877855
21.8546 23.7804 20.9623 28.8936919269
23.0312 30.6673 23.8237 36.5921052175
15.6545 26.0662 24.1034 65.9996484885
19.7002 28.4894 14.6448 28.9885462976
19.6325 21.3274 24.66 121.6338399658
22.5433 17.0381 20.9157 25.8304237119
18.566 25.6981 24.1129 62.4033515777
19.3002 31.3009 21.2976 29.5439323643
13.2211 19.6714 24.2453 85.2734835905
16.0371 28.8873 23.6433 41.8168210714
14.8267 17.378 16.1193 29.5944796569
23.1323 27.8967 24.535 98.121228907
21.7529 19.4468 14.0406 30.4784286922
16.2832 32.1877 23.8429 50.0708054616
20.5986 32.1244 24.4819 105.7207403726
15.5157 16.4971 24.0877 82.8875932534
18.5369 32.32 14.4872 31.278287879
15.3413 21.6217 35.6947 89.7049425605
17.9528 24.8723 45.4993 32.5869256351
16.8709 17.2085 36.0463 83.9712714843
23.694 30.5227 45.5437 34.3113323184
19.3388 32.0006 42.2836 32.5628340521
12.8849 25.1595 42.0285 30.6909100268
21.1759 30.7439 35.6142 79.8142477917
20.9249 19.0589 38.6869 30.227637271
21.3645 19.3139 42.3374 33.9630208751
23.0424 22.2293 42.7654 30.8999695153
12.7309 20.9058 44.1462 29.8880584012
21.2907 21.6221 45.1699 32.7769081935
21.4873 21.7405 40.5695 34.7350883582
21.26 25.9367 35.6418 86.4613785022
24.2797 27.9837 38.2722 28.351337658
23.4394 23.0263 39.2583 26.3948227731
15.1152 24.54 35.7552 87.2077133612
15.6528 27.9496 37.2924 29.907723931
18.2409 24.6864 35.7931 76.8051775943
18.2546 30.5579 35.5263 88.4897971516
14.4102 22.9022 40.0112 31.7800912175
15.6317 25.2432 38.7179 28.7379725341
23.2791 25.772 39.828 29.1887294036
22.9728 28.5243 35.6749 73.9002438358
17.8974 27.5468 35.7219 77.517812055
13.0195 20.1477 35.8782 86.4808128648
13.2098 31.8192 36.0629 60.0551379661
13.6616 30.0603 38.5646 29.6621869495
15.0032 17.3846 38.5451 25.2546353025
17.6056 20.074 36.1675 60.4548161327
19.5918 30.6714 38.2745 26.4484156646
24.3718 25.7074 35.882 67.0752667406
17.2995 16.7285 42.5802 29.7975688655
23.6189 30.8506 41.8563 27.0545360813
19.9115 19.48 44.5949 32.8759046769
22.0385 17.0611 40.6529 31.3524086306
12.6336 32.2733 45.2654 30.9801280595
13.8212 19.5844 39.0313 28.5333184928
16.02 20.4852 40.4105 34.6197531607
14.7012 31.5 41.2101 28.235916041
19.8632 21.8233 36.4493 41.7735366607
17.8942 19.3197 38.633 27.3130455832
18.4648 24.6248 38.7351 33.810625401
24.6604 19.2082 36.0137 54.896426237
19.0397 21.9244 38.9442 32.6394881529
13.3389 28.849 35.4853 107.5385229724
19.4155 29.3177 43.1921 30.6385905975
17.3645 25.5255 42.9826 42.7653932677
20.2135 27.9453 37.3425 27.9424422872
20.8766 29.3852 40.3917 29.7783438692
16.7623 30.0359 39.2317 31.9419189761
12.7976 25.7184 36.764 32.613656767
16.4411 28.068 41.4972 32.7722845797
24.3371 31.3753 35.8462 65.4272446324
14.113 26.853 40.2566 29.4837492996
22.5345 28.877 43.2376 30.7536316463
16.5729 18.7817 44.3186 30.9528353149
13.0957 22.4026 37.653 27.2641490643
21.1768 16.7365 36.2383 55.0011280822
20.522 26.2484 39.6781 30.1475160921
15.3891 20.9531 43.0591 35.7090122332
20.2473 26.6014 42.4428 32.931455171
22.5376 24.9645 43.6299 31.6114170153
22.0473 23.5076 36.818 29.4071220325
23.9285 16.3786 35.8034 81.5220207638
24.3143 20.4792 38.567 29.3053973252
15.0442 23.7569 43.7943 31.0917593815
15.4015 29.6292 43.4481 35.2608143007
24.5305 18.5873 40.9334 29.7048472395
12.495 29.8994 42.8835 28.5213049867
22.9912 30.7272 38.8654 26.1508438406
16.9658 30.1342 45.8676 29.017751915
21.5372 19.7445 35.8597 84.1629179343
13.8844 17.4589 36.1153 63.8102426178
17.9384 16.5333 40.0731 30.2792275351
12.8985 25.0276 45.5717 29.7419343882
24.374 26.8754 42.3553 30.4256630407
17.4456 32.7049 40.1544 24.8762819642
20.6497 24.4216 45.9855 30.5262960339
24.0565 22.0956 35.4636 106.823356852
22.2966 31.2133 47.7656 32.2227652432
18.5707 27.2075 52.2762 29.0342997745
23.7151 20.3167 46.2761 29.9994417276
21.8984 20.1693 55.6681 30.1456841878
19.2197 16.4773 55.1804 33.3630541971
