18.4277 42.3103 16.5999 31.3640483856
20.8217 43.1707 11.6856 26.0674938205
18.6888 41.3362 13.9187 30.8511660289
21.4857 40.6943 13.8416 26.9495817305
17.0556 48.0973 13.9511 31.7769494875
13.7718 43.4545 11.5102 30.9164587074
18.732 46.7364 11.7633 29.7724861691
14.2536 36.9601 7.42227 28.258404867
24.3448 46.1761 10.0115 33.563238995
14.1482 36.6083 4.5234 31.389051647
12.4377 43.305 5.33199 28.6759189426
24.1624 47.3979 15.0629 34.4607818631
14.7397 49.1583 12.9364 31.1637556769
24.1926 43.1596 24.4844 91.1924775604
14.5936 48.7271 21.8927 29.0978541104
23.7788 47.846 24.1589 80.1375919249
21.502 39.193 18.3255 29.2624852426
21.125 47.7318 20.3563 31.8757553451
20.7145 46.1793 17.8125 26.8497761604
24.5577 40.7793 18.6328 31.020121249
16.4007 38.5317 21.7034 27.9420666849
18.8671 38.9028 19.5628 27.2929996109
18.4066 41.399 21.6131 27.8107276488
14.8085 43.7166 17.8867 27.4976831631
13.3444 41.1392 18.9204 29.5881253091
12.5855 45.3744 21.5918 28.6236797029
24.1726 46.468 18.2015 33.1408367182
14.9734 45.2986 20.1965 29.2334912109
19.0378 46.3799 21.2831 28.2721777675
21.6896 44.0322 19.2205 32.0085133446
13.5748 37.8166 18.6018 30.354973891
14.8859 47.4093 24.2086 70.5002222056
13.2844 38.9372 24.4409 78.5950297373
23.1955 36.722 16.8426 26.0939520522
16.526 39.2121 24.3213 60.7294539947
20.3598 39.1145 22.2791 26.9674260354
13.535 37.5579 21.7836 30.512792222
22.7306 39.3703 24.3637 61.0245268403
15.9458 44.7546 24.0203 52.5423738486
14.0123 42.0815 24.2004 57.3480577473
17.4105 41.7422 24.2676 73.2068573035
15.6169 42.7894 21.6652 28.8328159105
20.4169 41.3639 24.3191 81.3796329562
22.997 39.124 21.0037 31.5037007181
17.2016 39.7012 17.3179 30.2458400863
21.5084 43.7354 23.3127 33.5197366073
17.8308 44.2734 18.5908 28.2269022127
15.9644 40.9283 19.8687 27.5492777501
16.7977 47.3343 20.1218 28.8692767776
23.9462 47.0584 21.2787 26.6835792404
18.2329 46.3689 24.1622 72.5047643631
19.6059 43.7852 20.6975 28.0771181636
23.7097 44.3387 21.5782 28.5210761645
21.0774 46.445 24.1256 77.0132390274
19.0029 38.1892 24.3532 70.1860956531
12.8067 44.4198 24.5787 82.0196508778
17.866 46.9953 17.5784 28.9958849684
21.3816 41.8309 17.244 31.7460031481
14.2113 48.2592 17.0198 29.7069681509
15.7581 41.0015 36.267 35.9846600203
13.8602 39.1391 35.4697 97.5017861612
15.3975 39.4841 38.596 31.1723121873
20.9857 36.9201 38.3059 28.6245227959
18.1894 39.0816 36.2453 43.8747795449
24.2918 46.0484 41.1107 27.4663389111
13.3946 41.2323 39.8893 33.0598829548
12.5099 43.2556 37.9483 28.4044321457
20.5555 39.6124 35.5153 97.4481085213
14.2619 43.4907 41.6131 29.0081186001
18.3908 42.2183 35.705 74.1990965174
21.4022 42.3226 36.3319 39.8385014751
20.4532 45.1873 35.9166 69.7352954919
20.4251 45.5168 38.9228 30.4096798844
23.375 41.3771 38.447 29.192121525
22.0495 37.2781 35.8547 78.4924471796
13.6072 42.5771 35.5493 71.5746061689
17.2786 45.1666 35.3098 99.3011566236
14.417 45.0889 35.6196 54.6389611108
12.6647 45.8449 42.2995 30.1591566627
18.1065 42.4032 38.6429 30.716475404
17.5977 47.9722 35.8783 61.0999530745
13.7728 47.6697 38.4894 28.4670474566
20.8114 39.0102 40.662 28.7404656897
14.4548 36.9675 36.8613 28.3841166997
23.7085 44.7428 35.9086 62.1388932733
20.8614 41.5505 42.1336 29.7413024518
22.2141 47.9362 36.0648 60.204093139
17.0335 38.606 41.4029 32.7273235537
18.572 39.7128 39.0234 28.7697095109
14.864 47.8766 41.1591 28.5777096936
23.4857 38.8434 39.3297 26.4593296326
14.788 45.15 38.3313 27.6424851233
13.9747 37.94 41.338 29.8689875294
23.2546 46.1247 38.5429 30.2892532466
17.4898 48.9636 39.8804 30.69382494
16.412 44.0251 40.1686 31.0724708901
17.1486 46.2191 41.9978 28.059981727
20.7139 42.7474 39.4976 31.4175898033
20.3574 46.5341 41.7782 29.9983355352
17.6315 46.5188 38.3022 29.2087343181
24.279 40.9443 35.7562 84.2072153343
24.2269 39.1144 42.078 29.8405965997
23.3984 41.8124 42.5147 28.3617794991
12.4915 47.2505 35.4376 92.2824356669
22.2711 48.6917 41.2673 27.6712170234
20.546 37.2421 42.8669 30.9347014403
18.0058 39.3082 52.4995 31.7877773627
14.3339 41.4792 43.4175 27.6619181043
24.0597 38.5971 47.733 30.3927022979
19.4609 38.2936 47.2563 29.9417999724
18.3498 37.6842 44.7985 29.1682595335
13.5981 39.8054 47.1794 28.8428513374
22.8284 37.8797 44.2323 36.1436263121
15.4293 37.9971 46.0069 28.2569278228
21.2667 40.2209 45.1476 27.3166598257
16.4036 45.0157 46.7166 27.0571607528
14.0262 39.8231 49.8112 30.8926038378
18.6335 41.4686 44.2642 31.9156307249
14.1626 44.8923 55.9735 30.0207861711
16.7444 44.1462 43.965 32.1369922649
18.6965 42.8103 46.6612 31.1419350345
17.1167 37.1072 51.113 35.492165662
24.1347 36.9555 50.0861 26.5763507509
15.0073 47.1547 45.6001 29.4902357826
16.1102 45.6363 50.3989 28.3366613005
19.0633 45.9386 44.6585 27.4708193343
21.6361 39.8192 47.7182 27.9580623006
21.4444 36.8053 50.6397 28.6167588429
22.7768 43.8379 55.0738 27.2965051524
14.7619 43.7612 48.5496 28.3528718533
14.2378 42.1455 46.1209 30.3395150646
16.1719 48.4698 43.7484 27.8381183947
16.8135 41.7521 53.0032 35.4995712295
21.5845 49.0765 45.3547 28.3865982363
18.9134 43.6851 53.8301 30.5713976983
20.8664 41.7073 50.2244 30.3572718911
18.8407 49.1716 44.929 28.1217024212
14.5067 47.9844 50.2917 29.7525029044
14.6929 44.5621 52.4788 29.7227464152
18.2446 41.1516 48.8377 31.5423120591
18.4157 47.015 47.3991 27.2521504296
19.7212 47.9631 52.1592 27.3168839716
20.1392 44.0973 51.5555 29.6501172588
20.9025 44.5161 46.9391 33.7836239081
12.7552 37.5288 50.4605 33.2425538855
15.9469 47.2407 53.3925 29.5456878711
18.4874 46.0668 54.6902 30.2199737538
23.5462 40.131 50.692 30.4644554656
15.9641 42.0871 50.177 30.1916811244
18.8197 46.0814 50.3988 30.5870791153
23.4127 46.5313 49.2422 27.5176217228
21.2946 47.7009 47.7332 29.2750472021
23.0722 46.7462 43.989 28.4362442424
24.1693 39.7976 53.6141 25.9904426891
12.9705 46.58 53.6997 28.3261492238
20.5392 42.244 55.5496 29.7682224978
16.7859 38.5885 48.7098 31.0396624965
20.5829 39.2585 51.788 30.2075507105
21.7147 40.0012 54.3678 30.1311263179
24.2204 42.5478 48.2693 29.0925977199
21.0103 37.6182 55.7315 30.3164270581
14.5643 42.1794 55.1569 34.6662229562
22.7734 42.6108 45.6314 30.219495004
20.9883 47.422 55.2043 28.2342881718
22.1424 45.4281 53.193 26.6620317992
23.3678 43.7339 50.6752 31.6484541381
18.3445 38.7034 55.1451 33.7546373997
16.5048 39.8246 43.8817 28.2017767831
22.8379 47.7487 51.3392 26.5879344691
24.4979 37.1041 53.0341 33.1975699561
12.2896 46.1518 44.9091 31.9567265223
14.8779 48.8379 47.6498 32.9928825075
17.2677 49.1496 51.6481 26.1973224694
21.3631 44.517 43.5916 30.1155809931
26.7735 1.09415 11.3318 30.2193403528
27.9099 6.86461 7.17971 28.7409095146
27.7732 2.92406 8.23076 29.0392377328
31.1875 0.801867 5.59706 32.477839707
31.4428 2.97926 7.24239 28.193374607
26.2128 5.56457 14.9259 26.6561232803
32.6315 9.71059 4.25547 32.8961498421
35.5731 6.20427 5.94182 31.4502496393
32.959 5.28792 6.93163 28.9083422708
35.7944 10.3447 13.8383 36.2431044095
25.386 5.58625 10.9244 28.2956187007
26.6868 1.3432 6.09356 33.4127223655
29.2201 5.18958 9.87712 25.8975261652
29.5132 7.96209 10.7471 25.8192558684
29.3167 4.37568 6.45529 27.3530688854
35.4815 8.64309 7.13183 30.971214302
33.1624 9.15607 8.76061 33.2720342096
33.6824 2.54227 4.45893 31.4422611315
30.6335 10.8725 10.0763 30.9872848919
28.0519 10.1174 7.92861 28.3079968063
25.838 8.96642 16.7496 27.0766796145
32.6453 5.09342 3.94837 28.3209200443
30.0275 8.94637 6.20014 32.7982785598
35.1112 11.3646 9.32943 31.1038140176
28.5114 9.1427 15.907 29.0981281098
24.4879 1.14529 9.79042 29.4128365629
25.2073 10.3029 9.9885 28.5664059792
33.6286 11.5663 16.4667 27.8562960472
25.9545 9.25882 4.67005 31.5665040784
27.7504 11.1043 11.0867 30.1953524907
26.6253 7.60677 9.58697 27.0747854472
34.1298 4.99131 9.6889 31.8251692203
28.9933 0.415538 10.1047 36.8338499725
34.6994 3.14797 13.5824 33.1740911378
26.159 11.489 6.59996 28.2219983293
36.5248 5.66705 11.0583 32.4695755427
30.6477 2.48178 10.0093 32.0247925215
27.178 2.57944 13.5884 31.9308685286
31.1957 7.00775 8.26954 27.6457400929
31.9239 5.32114 11.4337 35.215820204
34.4493 0.801068 7.06171 29.1730030859
26.396 3.50028 4.06431 30.263515672
27.9114 9.09769 13.1566 27.8708045687
27.6722 5.01014 12.2805 29.0738531684
32.8634 1.93763 12.0463 30.4573451482
25.6022 7.70788 13.3443 27.1392492627
29.7987 6.88422 13.7298 32.1817446387
28.8513 5.23556 16.2262 29.1712453593
36.5708 12.0409 7.2315 31.9691946498
35.0935 10.7399 5.08889 32.0154256991
34.1109 2.74173 16.3114 30.4353188127
28.7054 9.49226 3.69311 31.9368052955
28.6762 0.140409 4.66322 28.1837483122
33.0431 9.74178 13.577 31.1442409438
36.0871 5.90344 13.654 34.4396787585
25.0796 3.84456 8.76977 31.4489980326
29.2089 1.28536 14.8712 30.2401369964
32.4243 8.17368 11.3415 31.9832650162
25.8878 6.01116 5.30634 31.262533654
32.3932 7.65003 15.6756 32.5651171765
35.4211 2.4338 9.1038 33.9333771701
36.6711 11.5139 11.4674 31.0333706724
28.958 11.6982 15.3788 29.5392176412
29.0694 12.0412 4.11048 27.1258256276
30.8338 11.4303 13.1112 28.650808015
24.3475 0.407983 7.20581 29.8293258754
30.5348 3.14873 16.7344 33.3466191732
27.2885 2.27544 21.2312 26.9655215969
26.3944 11.1146 21.0587 30.0343659692
30.3705 9.87789 20.2071 33.0697809066
36.9636 5.72423 17.0376 29.677673941
31.7035 10.0699 17.7199 27.6430297071
27.1551 3.9327 18.7206 28.8961132755
29.7482 2.06859 19.4276 25.1444332889
31.7329 5.80442 19.6465 28.242396424
36.3175 7.63817 21.988 27.4689915884
35.3625 3.60467 20.6843 30.3534184119
34.6484 6.58639 19.9421 28.1689908215
28.5582 10.1081 24.6127 111.6994929857
29.6442 7.22526 20.9249 28.809913437
31.55 7.39948 24.7004 101.2337349023
32.9752 5.47779 23.1138 29.3228569746
35.2732 9.12269 24.519 97.2022245071
25.3753 5.03268 21.4245 29.1708562553
26.0254 8.958 19.4402 30.8462737311
35.7188 2.10776 24.4473 92.5636880494
25.9292 10.2033 23.5959 34.8735543764
28.2423 0.500293 17.2871 30.7465650386
32.2984 11.6167 24.147 67.2274477433
36.4254 11.4882 23.8134 46.3382473988
27.0765 5.66088 24.2379 84.8462621994
32.8546 4.98014 17.1248 31.5856016168
30.8742 3.69102 21.307 30.0147317451
27.6119 1.05653 24.5678 94.0579973564
31.2913 4.00353 24.6997 106.7199133699
28.9552 11.9477 21.3966 33.7223257711
33.3619 1.75404 21.4153 28.2834537703
33.0774 8.90526 20.527 26.9497776684
32.8455 1.57436 24.0074 41.5382617637
29.1247 7.49762 23.4924 32.3107330225
27.4434 6.58166 19.3164 29.1436151899
32.8415 9.21787 23.2469 28.1102112489
29.9818 7.28791 17.5667 26.0485409153
28.6043 3.44587 23.5 31.4916693092
35.1664 4.90307 24.5791 85.7007305419
34.6401 10.7347 19.4354 31.0158849406
33.3172 0.138133 17.1592 32.5288876073
36.1183 3.22281 18.0089 28.9430706305
24.8078 11.6016 17.3169 29.8597246714
24.6395 7.78226 23.973 61.9887271757
24.9108 1.53334 24.3351 77.1635134794
25.2509 0.428055 17.5815 31.8810921604
24.7723 3.2821 17.7579 29.177458772
36.422 10.5084 17.288 26.733516235
34.9784 7.61265 17.0884 29.9331183237
32.5249 0.311397 36.2882 43.9607744864
26.5586 6.64707 35.5029 114.8128582102
27.0861 1.69593 38.5293 25.9493272219
28.9133 5.05679 36.1974 59.3713043404
31.7412 4.37982 36.1361 77.4731708301
30.9041 3.32123 38.9041 31.1167604489
32.9374 4.54197 41.5764 31.9273261766
30.3411 10.3216 36.3151 40.5936533641
30.3111 5.65071 40.9271 31.1811074137
28.4596 4.96038 38.7904 28.7266975156
36.4495 6.26797 35.9775 65.1083654118
33.4885 6.42476 36.1693 57.4001627046
35.2441 6.06923 38.7543 34.4212819735
33.1412 8.216 39.0713 30.2622816061
30.5724 10.7983 38.814 27.8527606879
32.5523 1.36038 40.8246 27.4909054178
36.6823 10.7212 40.1214 26.2317451258
27.8539 9.3722 35.9381 65.934481555
26.3051 10.3544 39.8313 30.8577619379
29.7146 0.759204 38.9479 26.3591717189
32.7669 9.03151 35.7379 92.8301524262
26.2103 12.0788 42.0494 27.8398162061
30.4509 8.19993 39.8464 28.7234639888
34.9902 10.9997 35.4932 106.4053235926
37.1009 0.819789 35.9249 61.9902903911
25.4741 4.15177 39.7262 29.5294771266
29.9671 9.83699 42.082 31.3296412768
34.5361 2.31634 36.0866 73.1148523986
25.2544 6.71725 38.9463 31.2519371976
29.7752 0.383505 35.7934 86.562335533
34.5723 3.33495 39.1055 32.5629755308
34.1736 10.4778 38.3695 29.5465036521
25.8295 11.0963 35.7832 68.2925064944
27.9097 7.71655 38.4264 30.62352225
26.741 0.846783 41.2993 29.1360001323
36.6199 8.8413 42.3809 27.20278774
36.3061 0.134788 41.8425 28.2096574736
24.5643 3.15426 35.7765 85.7765957824
27.4973 2.66716 36.11 60.7194135476
34.2024 7.62394 42.0302 31.4338851328
28.0988 11.9838 38.4193 26.9400362293
24.7246 0.170347 35.91 64.4119773091
29.6898 0.565624 41.8498 30.3721807683
28.2366 1.23024 54.6294 28.5787352943
29.0642 -0.0909284 51.9405 28.9638271281
29.5204 0.938324 48.0236 27.2004937362
34.17 9.26837 47.6151 32.6703465734
26.0362 6.14948 44.1213 31.5916427542
35.4104 2.48731 44.7296 28.7800926131
24.8929 2.61138 51.6016 29.7319202065
29.9736 8.34701 48.1523 27.4461356676
27.3853 7.45111 46.659 29.6336844014
31.827 1.23537 46.7814 27.0163425982
28.1146 3.22129 48.2424 29.819299759
32.6748 5.8872 45.8286 30.0593540424
34.3597 5.33983 43.9061 29.5044253738
35.9376 0.723777 51.5044 31.3778620971
35.7494 7.46021 51.5231 30.0315896978
32.2641 2.9397 44.3275 29.1373887803
29.278 9.9164 52.279 30.2175451648
31.7327 8.52817 45.9621 26.4097701686
36.1067 9.80313 44.819 27.0701136126
29.053 8.54978 44.0618 30.6422576107
35.6549 6.96291 55.8757 28.8676928631
32.3442 2.65846 52.9115 29.5176549489
31.8216 3.61316 48.2658 25.157432992
35.1562 0.799637 48.7541 29.7787351444
29.1902 1.57569 44.6855 27.9076553918
31.3135 0.952822 54.8414 29.3328733694
27.6383 2.5553 50.9303 30.4545912787
30.2015 4.31962 51.0862 30.5480363717
29.6323 5.39778 48.5105 27.6542888604
29.5542 7.05718 52.1839 28.1427334558
36.0809 3.18515 47.4906 29.3520669681
34.2989 4.87101 48.2747 28.8889320233
26.1416 3.58764 45.9516 30.0269974089
26.1093 10.2145 46.7963 29.8059233762
36.2512 3.78675 54.3678 28.1412449019
31.6962 10.9406 49.4507 26.6891081911
28.3193 10.0932 49.623 30.6144146229
33.4096 9.23395 52.1759 26.4072709549
25.5495 9.64211 52.8458 31.8834843183
26.8963 7.38551 51.0654 31.2079775355
26.6785 10.0042 43.9863 29.0963112221
25.2678 11.3259 55.1734 28.8356870147
26.3171 5.07438 52.4276 31.4502601426
30.0225 5.15028 56.4687 33.1517585653
28.0683 4.0731 54.5516 33.3477577466
30.1523 4.52873 45.4771 28.3899294417
34.2198 11.4637 43.8102 27.1785941655
34.5171 11.6495 48.9255 27.7478201514
27.3315 2.97462 43.3911 29.4876121565
33.1695 5.4476 51.0394 30.8818527132
31.7122 7.96589 50.5353 27.8335459204
33.0837 8.16221 54.723 27.3112103542
33.5459 5.12646 53.9309 29.0153837696
35.6253 7.14316 48.9104 30.5955131318
34.6357 1.29903 53.9001 28.4595593173
30.1676 7.56122 54.7866 31.9362660317
31.5027 11.5454 46.7658 28.1258544989
32.7438 1.71517 50.2997 29.7784670759
28.892 5.67018 43.2392 32.4003802143
36.0403 10.7929 53.1909 29.1064647429
31.8668 11.3278 53.0427 30.2435536936
36.5128 9.4628 55.4885 32.1651221872
25.2677 0.857186 45.954 29.4575183502
31.6751 11.9016 55.8811 30.6363802661
33.7309 0.326289 43.0762 27.7628576833
25.6704 6.7421 48.5348 31.9366375353
27.1738 12.1395 52.6549 29.442144098
28.8596 11.9766 47.5696 28.4820817884
32.4949 9.2732 43.4857 31.372709756
33.0564 21.7512 4.06016 27.2807388215
26.2437 15.2543 4.30125 30.5163396569
30.3865 15.3736 5.34986 33.1849107248
31.6974 14.0092 8.34425 34.1574810863
33.5119 15.1143 6.47572 34.2753711656
32.5166 13.7661 14.5333 27.8056058437
36.8153 18.0179 10.2133 31.702905878
30.4575 24.4238 11.3688 29.7766280555
26.354 19.2918 16.152 27.8380284141
34.605 20.2242 5.90403 32.0538734589
33.1868 18.2164 7.13445 31.4552363278
26.0482 19.4712 5.85095 30.5765418026
26.899 13.7384 10.7253 35.4736808534
36.5786 14.1678 12.2788 30.9494112572
31.517 24.0203 6.45618 30.8773615246
34.793 23.6806 13.738 29.5694403329
32.5067 14.5538 3.58529 27.693988763
30.4586 21.4638 7.56591 29.930022381
34.636 21.1622 12.3011 28.2974990027
29.5454 12.8074 6.67893 32.6738244974
27.026 18.4811 10.2535 32.0302086662
31.1273 16.4454 9.71817 31.1359963671
27.2179 22.4576 8.01125 27.5104995414
26.0061 22.0207 4.88729 31.3157752551
26.4084 12.6837 15.8289 33.8042946478
29.3315 15.9841 15.3877 28.1905565693
31.9347 19.9707 12.8455 29.0056528501
25.2777 15.3052 14.8559 28.9913415607
33.3462 17.3176 11.0372 28.8823778971
26.8979 19.6274 12.9034 28.5521848377
26.8285 13.9483 6.54849 28.1843102837
28.4309 16.1036 11.17 28.6753638478
34.0452 23.7376 7.96906 31.0660531058
27.5055 23.2425 10.7391 28.8414533412
30.6813 17.7996 7.18527 32.4377440013
34.4456 19.15 9.32359 26.6245233124
28.9082 22.0171 4.24838 29.9745357155
25.4194 22.6672 12.5084 26.1149387565
28.0928 19.8913 7.77605 30.8948244447
29.4947 22.3325 13.9965 26.39569288
34.016 14.7752 12.4734 28.9001141987
35.8806 21.5883 9.66705 29.0262508436
30.8588 20.2136 4.91807 29.02349933
27.3352 16.9786 13.7295 30.0988032352
35.6135 18.4261 13.0806 31.6175238903
30.4466 14.3133 12.3285 30.698001109
35.1526 14.2849 15.9918 29.0027471496
24.7596 18.1298 8.57433 28.9480635129
26.0282 15.4718 8.6842 33.220602029
31.092 17.1499 13.1007 30.3788159263
29.4091 20.9481 11.6819 30.3748648198
26.6733 22.6768 14.6545 26.9473681588
31.7059 21.4528 15.2913 30.9347228812
32.3481 17.7711 15.9163 31.4626676245
31.8641 21.0007 9.93585 29.1578356021
35.4068 13.6394 4.29087 31.4997879716
32.8067 12.786 10.7102 30.427205053
36.2867 14.7941 7.4824 29.6635404987
36.5697 21.9738 7.05355 29.5765600975
26.7473 17.8295 3.75272 29.3709829362
35.0196 17.2967 15.462 31.2006263207
28.4628 24.0041 5.9276 31.7987539967
33.1056 23.1156 10.6016 28.9191787313
33.7369 24.3856 4.32698 30.7639329351
36.9569 22.4475 15.2525 33.5957504512
24.6208 14.8984 12.2913 32.6091923454
28.7321 16.6456 21.8939 32.4047638901
27.5712 14.763 17.2913 28.667235996
33.3188 16.0877 20.823 35.5653105034
29.7764 12.7136 24.0697 46.4723120505
26.1066 17.0756 17.8812 27.5932148398
24.4976 12.4835 19.9764 31.0572092491
29.1724 18.0602 17.5088 29.0322721807
28.9807 20.4724 24.5341 71.3501476443
35.6782 14.7967 22.1482 29.2862357121
29.2041 14.1472 19.4631 32.6536908625
28.5318 22.5313 20.7558 31.6818164911
34.3424 20.5144 21.5248 26.7236955803
25.4829 15.2053 23.7355 35.4450087868
32.3684 19.3751 23.8468 41.6507617048
35.6757 17.9619 20.7994 29.6662864276
27.0433 20.2443 19.0982 27.840298729
30.638 16.6228 19.5909 28.1104329149
34.1187 20.772 18.683 30.2197885542
29.5605 24.063 17.9258 30.99016661
26.5789 17.7087 20.4929 26.550730093
35.3121 23.0813 20.4017 30.0465957161
34.4148 13.4676 24.3893 91.8978345652
31.415 19.307 20.8949 29.2394564764
24.8709 15.0181 20.9294 33.1514282544
31.7097 15.0399 16.9596 26.8970467836
26.4004 24.28 21.863 30.5550970116
28.0877 15.1964 24.5702 89.4701753696
31.48 19.8024 17.6582 29.1071599985
29.7724 17.6599 24.7064 91.2645855593
28.7725 19.8659 21.8592 29.7856460008
34.8711 21.1114 24.6407 103.9003716175
31.5299 15.1966 24.4643 79.0857408314
35.6963 23.8177 24.5143 95.13370861
26.908 22.2961 24.6193 76.4390469844
31.2411 22.2563 24.2319 61.873594276
24.9053 20.4489 24.574 84.0812930754
33.8904 13.873 18.7998 35.3233793484
24.6718 21.7976 19.6103 31.0369329471
31.3115 22.279 21.296 32.3507474452
35.9886 18.8277 17.9942 33.7436998575
36.8357 13.7043 19.2784 30.0483742152
33.6653 16.8349 23.8225 49.3379893616
30.2259 12.5018 17.602 29.7443981965
36.7495 16.8386 24.0237 67.1619491049
25.0831 22.9698 17.0709 28.9353787633
28.8031 21.3541 16.9314 29.7647263248
34.2181 23.209 17.0381 28.1128611252
33.6278 13.5659 35.9554 65.8849632851
26.7619 15.9666 36.1935 47.0332880486
36.2798 13.855 36.8981 32.8708779673
30.8291 15.3099 39.7844 26.499792127
30.6519 15.8141 36.8501 33.1316566488
32.0361 19.0881 36.068 69.6259310325
26.7725 19.8519 35.6835 89.4281261292
29.8449 19.5572 37.7163 30.1969167295
28.8364 17.8958 35.7148 90.0474242462
33.2471 21.5536 36.0415 66.0806404883
32.3866 13.1314 38.663 30.2151271238
35.0098 17.0537 38.0026 25.9465650651
25.2632 22.866 35.6139 71.1919994471
35.7098 22.5521 39.8194 28.3626760856
26.1466 23.9538 39.903 27.9786503941
28.2 21.8153 36.9534 28.521726907
31.0905 24.0353 35.8562 78.6136825495
32.7984 22.3185 38.7613 30.2084335039
34.9207 15.2874 39.6513 27.7844464073
29.2643 23.6937 41.311 27.8633071116
26.4593 16.6053 38.6844 27.0188801669
30.0767 13.1091 35.7736 94.7524048298
35.6721 19.2012 42.3712 29.64486066
35.8834 21.7824 35.8824 65.7442778015
28.4941 13.8085 40.535 29.5697140652
26.2504 15.2566 41.9817 27.6747483897
34.6693 12.3594 41.158 31.0958950118
34.3949 23.2999 42.3245 29.159363556
33.3474 16.4224 35.8941 82.4673008467
28.8893 17.6709 39.5221 26.1776325202
30.5321 19.6206 42.6961 28.8735184455
32.985 15.0863 41.8163 27.3615736795
31.9432 17.9671 40.8625 28.5231133008
31.5348 22.128 41.7562 32.224366294
35.9466 19.7779 39.7749 30.1066325726
33.27 19.1487 38.7254 28.7103452602
26.3133 21.372 39.2111 26.4510140659
30.0668 23.4718 38.5386 29.8097970213
27.4623 13.2427 36.0662 53.924872401
27.8046 19.87 41.2129 28.0699027028
25.2793 18.9297 38.0799 27.2353263036
29.5627 12.6606 43.0711 32.0626036705
27.9291 24.0264 35.3512 102.6205721871
24.5888 19.6318 41.3054 28.4274366806
33.6096 17.9428 43.2823 28.7628305708
36.5079 14.6798 42.4564 29.2617264025
36.695 17.6159 35.8504 93.3150983158
28.2756 16.9805 42.4267 26.0775411043
34.5937 14.034 54.0129 27.6588720968
32.2392 21.6955 53.4421 30.1584954632
26.2268 15.269 47.7982 28.1138065209
29.4309 14.5978 45.9347 26.9560955096
28.8892 16.8876 47.5193 25.2908022099
30.0374 19.7142 53.7765 28.2087386429
31.9552 16.7569 45.5769 30.136340316
34.5992 15.6164 44.689 29.3379229701
25.637 19.8752 43.8877 30.9794449469
27.4719 17.669 45.0241 30.6413245523
36.2041 17.7825 48.8226 30.5064309583
31.1391 19.0395 47.8284 26.6136742421
34.2208 21.5345 46.0176 27.860920936
33.8766 19.4756 48.105 29.3292591569
32.4232 13.2138 44.8703 26.9379746087
36.5352 14.695 47.4155 28.77113044
25.2703 22.7879 44.7102 31.0973268019
34.6661 15.6744 49.9513 25.1426847066
32.4368 23.054 44.5786 27.4547681254
29.6424 22.2736 45.1138 28.0216333001
25.814 15.3571 44.8645 27.1440934525
36.7529 22.6182 47.3699 30.48432077
25.6478 16.3942 52.4755 29.5878535634
27.9879 16.9641 50.3858 29.4341637784
28.0347 13.793 49.8944 29.189985312
25.5639 18.6234 54.1152 28.3423867068
32.6767 17.5442 49.9116 26.862107521
31.1732 15.2029 48.8593 26.4545590622
26.6199 19.8506 50.6747 28.8970004531
27.0302 19.3846 47.7683 29.3909306492
29.1087 21.0052 47.4882 29.4137978019
31.3245 20.7347 50.6638 31.1687679757
29.566 22.8621 49.9109 28.5456910628
31.8402 19.9041 45.1101 28.0793304035
35.1935 21.2345 51.7075 27.8918823317
26.752 22.4916 49.6464 28.2876860436
27.6337 20.5794 53.1137 34.8511421553
35.5939 18.6431 51.3863 31.2096372626
34.0405 21.9219 49.413 28.728501308
35.9119 23.456 54.7517 31.3356457156
28.8157 24.1734 52.2498 30.2306232541
26.7192 23.5582 46.8611 27.6612467117
33.3896 14.3165 47.5317 27.8541419513
30.3058 18.0405 51.6407 27.6589073912
36.1692 18.0954 54.8077 33.0363242708
27.4125 13.4609 55.0119 28.3377864974
30.6803 15.6273 52.9871 30.2012961168
34.4068 16.3248 52.9708 28.2030896453
29.9087 23.2625 54.5567 31.4129622782
32.3747 16.8644 54.6851 34.7534967183
30.421 15.4456 43.1044 25.9111727301
28.1726 15.8888 53.9834 29.6077262918
30.944 13.693 50.8498 28.2117660093
24.8533 17.7696 47.7739 27.6716822215
29.6166 17.9343 56.1494 29.952202609
27.2548 12.9159 45.0146 26.6323474957
25.434 13.6771 51.1506 26.9501167136
33.4989 24.4182 47.5208 31.620645952
36.3318 21.0465 44.2935 28.0964994579
34.8421 20.8211 54.8757 31.3117202225
24.8483 12.6999 47.3036 27.6950849585
33.8408 12.7271 51.4928 26.5053258162
35.975 24.0488 50.1544 30.6148201627
27.8619 22.0617 42.9019 27.3714532827
30.0616 27.9811 5.83928 31.9827399718
36.2973 30.426 8.26381 33.1581468535
25.4947 33.9078 9.24623 27.8837675695
28.1215 33.6725 5.48979 26.7552004538
27.9102 35.027 7.75168 32.3274202972
35.389 29.4553 11.8812 26.0329362158
31.3851 34.7891 4.71104 27.7617780329
28.5144 30.2169 6.48553 30.9859314123
27.3101 32.1667 10.7832 29.1285279483
31.7478 24.649 16.5526 27.374546279
34.0772 28.7049 6.43853 33.4018985044
27.586 26.4934 5.67606 32.6609703705
33.4534 28.7283 9.5776 30.0288092441
36.6495 26.5121 13.9778 27.0447894644
31.1033 32.7615 6.4737 27.5191011707
36.5833 26.421 9.8293 28.3694482025
37.2354 34.3959 11.443 33.5737893158
34.0538 28.4939 14.6737 29.0090674853
33.1386 34.0472 10.3732 28.5005541059
30.3013 26.7654 10.0319 30.9620616389
29.1332 30.4803 9.41904 30.6353652271
35.7181 33.316 9.01412 35.3709088358
35.3256 26.1175 7.14358 28.8360240022
31.2621 28.9553 11.2983 27.0845469636
25.7158 29.9911 7.49176 30.5094640779
24.943 24.5957 9.77489 29.1443432564
25.8875 32.2963 5.073 26.2207343245
27.6116 27.9957 9.99744 29.6636007895
31.0249 31.9624 11.8979 28.1962587367
31.731 26.635 7.6229 31.2956711039
34.1044 31.8441 12.3937 30.4691766977
34.7909 26.394 11.9182 29.0193685434
24.757 35.6115 15.0277 27.256508222
30.3464 32.5528 15.5761 29.2885885689
28.7798 25.3007 14.1808 28.3167832463
34.9582 34.4663 15.9218 31.3642308863
31.7503 35.2498 12.7437 27.9371924499
29.3996 34.5957 10.8983 27.618781241
30.8459 34.712 8.39498 27.593367782
32.1099 31.4603 9.00697 32.3489216132
36.5108 25.6243 4.5209 31.1197756849
25.8783 27.1778 7.87969 31.3345308453
26.9953 31.9593 14.7461 26.3461139864
26.7141 29.6134 12.2608 32.8121026804
27.5412 25.8639 11.7479 28.8386343881
34.034 36.095 5.79183 33.100485425
29.7705 27.8573 15.0789 30.1508377419
32.2057 27.4018 13.262 26.1387974056
34.9083 36.5733 10.4709 30.3672806079
36.0983 34.3679 6.50172 31.746158871
32.8859 33.2258 14.4867 28.4164172257
27.7517 35.9863 3.61112 28.6220244643
33.9411 30.9457 16.3993 29.8052981106
32.9967 31.1553 5.02052 32.3697873249
26.9107 34.2531 13.2272 28.7822997153
29.3747 34.912 14.4064 28.2815391294
32.2515 24.5771 13.6992 26.5209984932
29.3208 30.4916 14.0463 30.2982259199
25.9892 25.9166 14.49 30.3558075077
36.2165 29.9396 5.09317 30.1326765062
37.0927 32.2409 13.1006 32.2967415721
36.7703 32.6419 4.32381 28.0584622915
24.6683 29.7782 4.33093 30.5087006244
28.741 36.9724 16.2681 26.94925134
36.233 25.4017 16.6888 28.8388083641
36.1109 26.2048 21.0887 32.0240026098
32.0999 27.5644 16.8199 28.8451661406
26.6705 35.3405 17.4808 28.1991500547
25.2923 29.1447 23.609 44.2735732328
27.7897 25.0359 24.5895 76.4681883373
26.2486 29.1626 21.0556 32.1302869441
36.4513 32.0763 16.8801 25.0415967601
30.6186 28.7058 19.0202 27.0456162782
29.0458 28.6902 21.9942 27.2233458118
32.4153 30.9582 18.6793 26.6923367547
35.7305 26.6189 23.8344 63.8305606108
26.7006 32.6343 17.3966 30.3379959343
30.7664 24.9077 24.4853 87.1355894117
26.6169 33.1183 21.4189 30.1360717015
35.1058 31.8882 19.5739 26.3434405751
34.1294 28.9241 20.2108 27.9415131883
35.0106 34.8288 18.9724 29.6303305452
28.5939 31.1075 18.8104 28.2961455964
27.4037 27.8824 24.5793 101.8534272588
32.7234 27.0631 23.996 56.1262801663
24.9385 36.0231 23.406 34.4796953939
32.0344 27.6915 21.3541 27.3434753197
34.9238 27.9739 17.9881 26.6024438166
35.7231 32.399 24.0347 61.3822415215
27.9288 28.6907 17.2019 28.9850172097
31.9054 32.4909 21.243 31.7691888825
29.3764 30.3911 24.2749 68.6738002484
31.9941 29.7689 24.6297 124.9787095276
29.2063 25.9135 22.2746 27.1458442799
34.1078 34.9553 24.5999 109.8803348689
29.4822 36.4406 24.3366 90.46023182
33.7355 30.8192 22.7102 32.0281535292
30.6164 35.9513 18.2381 29.3550973843
29.0498 31.788 21.5753 27.4788271974
26.4754 35.6491 20.4934 29.0303626249
33.787 25.1442 19.1356 28.1611864287
33.6244 34.4636 21.7624 28.1052756734
29.035 33.5072 24.0505 72.3617313458
28.4247 26.5153 18.6033 29.2824677645
30.5245 33.2589 18.3164 31.2364266202
26.0542 33.6306 24.2511 97.633354885
25.9007 26.242 19.8241 28.6362625572
24.8992 25.6464 17.2625 27.3031582166
31.129 25.0257 20.2926 28.4539791462
36.6159 34.454 21.4288 25.9106707768
33.1727 36.6221 17.3058 27.6030312165
25.1797 28.5136 17.1652 28.1191592879
25.3642 33.9212 42.0831 28.8132503413
31.4952 34.6725 41.4683 28.505126453
31.3195 28.7283 38.1377 29.6343174439
33.1131 28.1984 35.7562 76.7414704875
32.0935 30.0795 41.6893 29.9476537845
34.3303 32.9602 38.4906 26.8305686328
31.7242 35.3356 38.4168 25.700881652
30.1644 28.0669 35.5417 90.2896709833
25.6688 28.5576 36.0195 67.6651373674
28.5402 34.9753 39.12 26.962933644
32.586 31.576 35.9529 57.7624556935
31.7533 34.4496 35.9402 72.2134914458
29.2593 30.7007 35.8278 76.044302085
35.5426 29.3293 36.2254 43.3100969013
33.649 36.8586 35.7321 76.9140383241
35.3221 32.2054 35.4537 106.848749643
32.4289 32.5467 40.3236 29.4555807064
35.2148 36.5989 42.1 31.8460304772
26.0438 33.8401 37.9195 28.2527908157
28.9071 34.1294 36.3506 47.8252873039
33.611 25.5359 36.081 55.3287073329
34.0405 25.4987 38.9534 32.9327539176
28.938 33.5557 41.7664 26.8381446989
33.4325 25.9184 42.1749 28.5287018005
34.5785 35.579 38.1385 27.4217474522
28.0482 29.2246 41.7707 27.5358880668
28.0907 25.4501 38.551 25.5457628911
29.3087 27.3551 39.9 30.6958104481
26.0969 28.2217 38.7434 28.7222391373
35.1416 29.6386 38.815 29.5861611026
33.3417 28.1119 40.1913 27.7075899894
25.8048 24.6247 42.6653 30.4459165132
27.8019 26.5638 36.1089 41.5982654056
30.5054 31.3911 38.1236 26.5448912517
28.6086 31.2929 40.1124 27.0497616104
26.5017 31.2448 36.0405 52.366674344
27.7593 36.2948 42.2059 30.3142762319
25.0677 36.4581 40.7234 28.4488992893
36.4478 32.702 40.4374 29.0670399276
27.2329 36.5461 35.5444 94.563110778
26.2311 31.0328 39.1087 27.5839873951
30.7251 26.0549 41.9565 29.4148106901
36.3248 24.4349 35.764 76.124751654
36.4821 31.2139 42.5928 30.0364014031
36.6477 36.4783 36.3531 44.0980823684
27.5298 30.389 54.9608 29.8344545013
27.7688 28.508 46.4831 29.0953203212
35.6755 33.5255 46.0491 29.2372396261
29.6182 26.6752 44.3925 26.9607641245
26.3036 32.3341 48.534 30.057701905
34.6885 34.2771 48.7225 31.8075886663
35.9893 27.0762 43.9356 32.5544052351
33.0974 35.4151 43.5224 31.6918441678
28.3784 35.1567 53.6936 28.3106677274
26.1854 24.7044 51.9737 30.1336828774
26.436 31.045 46.0372 31.8494331743
31.383 28.6703 45.8813 31.6577018548
35.8387 35.6296 55.3452 27.6342995879
25.6792 26.8584 50.2676 31.8556914909
34.254 28.9517 45.4514 31.1437225443
34.019 30.876 43.5021 29.7390928197
34.9308 30.9645 47.8696 29.7299747469
31.8157 25.1555 55.2213 32.3273998443
28.536 35.9298 46.2737 30.1670576138
26.3407 35.0316 44.5439 32.937194265
31.0144 32.556 46.6445 28.8607310385
30.2181 34.7049 48.0305 29.2841262691
33.2214 33.1287 45.0643 31.4056492714
26.6102 35.9213 48.0736 27.1177167532
26.7662 27.7117 55.9632 35.2817362339
26.8243 27.1749 43.6269 30.1523632594
29.388 29.6951 53.0153 31.2313216349
28.4145 28.1874 49.8134 32.1013302768
35.5768 26.139 48.2036 29.9464875067
31.5561 29.9237 55.6949 32.9260034642
34.0261 28.4187 48.7168 34.359820802
29.566 31.5064 56.4312 25.5988207641
36.5039 33.8681 52.9772 27.8380770551
29.0032 32.3959 49.6237 26.1930452975
35.9053 27.2368 50.9926 31.5163417971
29.655 30.0467 48.1307 31.2726644164
33.7175 33.3472 53.4863 30.6042663357
32.6507 32.4467 49.1243 29.8276245021
32.7104 29.902 50.9404 29.5930236416
30.9584 31.8687 52.0082 32.5752736914
30.2768 33.6998 54.5588 31.6614830345
30.159 30.026 43.7188 31.8434193126
28.0683 34.9396 50.4307 29.5620374462
32.5808 35.9745 49.4969 30.55449278
33.9642 33.6289 56.1993 28.1072720888
32.9006 36.01 52.574 36.4398939154
35.0854 30.9618 52.2195 30.3915051972
25.9726 34.7667 52.6762 26.9019906861
30.1822 27.596 55.6086 32.2927507228
26.2292 26.3879 47.5656 29.2609211021
36.8529 31.145 50.1036 32.3756207434
30.1939 26.1843 50.9703 31.2042886495
31.8716 27.9008 52.9506 30.3606735613
32.7824 25.9732 44.976 30.0546341662
35.0707 28.5518 53.3511 31.9510997513
29.1825 24.7116 46.2654 28.3062512534
28.7217 33.0272 44.6091 31.8220690502
27.0586 30.7142 51.2944 30.6115728478
36.6393 28.3736 55.5801 32.1053541065
25.0802 26.017 54.3117 36.5288319983
25.3229 34.2519 55.6961 26.0765799334
25.7697 32.0835 53.3946 27.7603348161
35.0742 25.093 52.6461 32.2743946394
30.7402 25.0554 48.4571 34.1962303322
32.3881 24.635 52.3581 31.8270682646
37.0443 36.0392 45.7396 28.6067760691
24.9601 29.9051 49.7688 27.781867344
26.5182 31.4802 43.0968 28.4433641065
32.2833 47.4163 15.2006 27.5252849216
28.1398 39.5628 4.69273 32.86368963
35.7031 47.7456 12.591 28.2157009824
28.3936 47.6602 14.2412 31.5404688847
31.0294 39.8306 9.32482 28.6075101109
33.5831 41.7531 4.7661 28.3068797499
34.3023 44.3731 4.60948 27.936191154
27.1861 44.1481 16.379 34.612869545
29.7207 36.9932 5.10235 25.6116063414
25.9802 37.1373 12.6268 29.5568254549
28.9759 46.6761 5.9702 30.3309826054
27.7474 44.3349 8.97247 31.2076074289
25.1684 43.0608 4.13129 30.3640286833
28.6451 46.6639 17.0553 27.6830656023
30.6679 47.368 10.9103 32.0745626731
26.2653 45.4607 6.80578 33.2137040738
30.1896 43.1483 6.74246 28.5261130979
35.4611 44.5143 15.3683 32.2497942533
29.2961 42.0997 15.7225 30.4853983373
29.7374 38.1723 13.8024 26.8860728857
30.8618 43.8329 14.9111 27.0127733527
25.5447 42.8063 12.1646 28.8705297511
26.4176 38.4905 15.1811 28.9617036174
24.9617 42.8687 14.8767 34.7030505751
33.8866 46.0446 13.6191 28.6862963772
31.8617 39.3551 11.9903 33.201781323
32.1871 44.0225 8.8334 29.1039348493
28.3645 38.3434 8.60875 28.1780051352
35.1289 40.0136 8.6098 32.6947817566
34.1528 49.0349 10.4679 31.5409399893
28.4518 41.1075 7.26479 26.9502973677
33.5895 37.7197 8.28475 33.1814623923
30.2836 46.0392 8.3418 28.0430402684
32.8637 41.3788 7.62145 31.1135557189
36.5143 41.1318 6.4301 29.255901329
28.5842 37.1399 11.451 30.5188348434
28.0221 40.3063 14.0648 30.6603727607
32.7424 46.7698 5.20337 29.4789297409
34.2407 40.3266 16.656 28.4209551843
32.8991 47.3261 8.15459 29.3057893775
25.6992 38.106 7.46467 29.6650566612
36.0143 43.9869 6.69985 28.3943136497
30.5195 45.1386 4.41727 28.2297497811
34.5464 44.3428 11.4399 29.9065217231
27.0702 40.7189 11.4532 29.329859744
36.695 38.646 10.8398 27.748516873
29.0458 41.7836 9.88065 26.4523784828
36.5219 47.8744 7.67152 27.7378139278
29.6585 45.3106 12.8173 28.8964128025
36.7963 40.0818 14.9723 31.8218850399
26.0791 47.4838 12.4899 31.1182877398
34.9 45.4114 8.90835 27.0464410708
30.985 43.2691 11.4415 31.6557660108
33.4185 41.6573 12.1528 28.9049089133
33.364 42.5473 14.8639 32.7765530508
36.1071 40.7957 12.2565 28.4104351244
27.0302 44.9521 11.7453 30.668278034
31.5793 38.7069 16.3908 31.598163408
26.072 42.6488 6.78606 29.4671976609
25.3327 37.0763 4.70882 29.5921422866
30.7409 37.2119 7.59791 28.1195101173
30.9853 41.1594 4.4789 28.3127028123
25.0079 39.4706 10.0232 30.042941691
33.457 37.3055 12.7159 29.6938069054
31.4503 49.0687 13.3157 30.3396749921
34.732 37.8469 15.0858 28.299346477
35.8316 48.9506 4.51859 28.8423497337
29.9406 40.6083 18.0144 32.2717677747
26.9094 45.7727 19.1317 29.5646225917
26.3236 48.3861 20.1656 25.5261072862
36.3147 44.9224 17.9732 28.8098701192
33.2285 47.8224 24.4653 92.8022639632
32.3075 39.7816 21.4319 28.0973014592
27.1618 41.8324 18.2837 31.9440817951
28.9432 39.765 22.431 30.6337980042
27.0067 38.1784 24.0928 69.8601186088
31.4982 42.1002 20.0817 32.962069373
26.8529 47.456 23.6712 34.9504826657
34.3634 48.2269 21.4595 25.4411818596
32.294 37.1455 24.2814 65.6814941288
30.1708 46.5378 19.8597 29.0680231225
26.8043 45.0416 22.0529 28.008555286
32.733 44.2819 18.8395 30.8181078443
27.9842 38.9523 19.5831 31.9355596377
34.5673 47.2106 18.634 30.0338056339
28.9968 48.6145 21.4049 29.3056004078
35.3233 42.2722 18.7493 29.5606194189
25.3876 37.993 18.3101 25.825870248
36.6135 37.5646 18.5383 30.1314242021
29.0735 46.0711 24.822 107.519438397
36.0364 36.709 23.4146 31.1329896462
34.0246 38.8588 18.9316 28.222724042
34.7531 41.2082 24.2326 60.1801312407
30.0054 41.3937 24.4633 90.9089973065
29.6518 43.9557 21.225 29.5060832114
32.2364 40.0586 24.2153 60.8605598275
33.0701 45.134 24.0959 59.081025021
36.596 38.4768 21.0873 30.0262785533
35.0963 40.7953 21.4543 27.835045059
32.1768 36.9794 21.4601 31.3468736131
27.4639 41.9675 21.2335 28.5433639039
30.2903 48.5494 24.1037 50.2637320154
27.1587 43.4273 24.562 79.7153602931
30.4373 44.0718 23.9747 37.6143026618
32.871 45.843 21.2931 28.0971989874
36.5268 48.5573 23.1379 32.1049580635
35.5915 43.826 24.2631 68.7773270453
35.4289 44.3559 21.4645 29.2206036612
25.1308 40.359 24.567 84.3539078204
24.6269 41.6393 21.5937 31.2262987835
31.286 45.7719 16.8038 27.9916788299
31.8352 49.3211 19.4138 29.9821875471
29.3281 36.5365 20.6456 33.0498456898
28.0032 39.2023 36.0917 50.5943298426
24.5498 38.3091 36.7184 28.9659785346
34.3099 38.0252 39.7736 30.7615477939
28.634 43.4709 36.0077 48.2820428661
27.7116 39.8351 39.275 27.937374665
29.9936 41.1356 35.5784 87.7078859225
33.7829 43.4962 35.566 85.8789292097
25.0349 43.5264 41.1784 31.5220600273
33.2121 40.7572 36.1983 41.2020378546
36.433 44.2177 43.2595 30.1503757883
25.9656 43.1117 35.7561 67.7087017896
30.7469 45.4068 36.0941 46.4031175821
36.201 41.9463 39.8596 29.4093761302
33.0119 46.7938 35.7491 70.1170804824
31.2916 38.3281 35.5415 87.6840106125
25.79 46.599 35.5265 86.167634209
32.4463 40.0489 38.9343 26.4723372312
35.9425 47.0683 35.5861 80.3787754014
28.6063 47.0368 35.6901 68.4230418584
25.6063 48.4144 38.512 26.0760711419
33.6399 40.5944 42.6079 29.1596870751
32.2493 48.5764 38.7301 26.4803825722
26.1289 41.883 38.4311 28.3659714245
27.9537 46.5812 38.2979 28.1556323444
27.88 43.2578 42.205 30.9289405206
26.9775 39.2037 41.8519 32.5300410633
30.2704 37.285 40.8651 28.7010026368
33.822 44.9772 41.9291 31.8714757313
30.2717 41.4946 38.6688 30.2177264712
30.4353 37.8548 38.0889 26.9148282461
34.2111 47.3931 40.5585 28.7130791811
36.4379 44.0385 35.4505 87.8723152139
35.6746 39.4933 35.8174 78.9598376429
28.1361 43.8216 38.5828 27.2535454921
30.8419 46.01 39.0428 26.0147484751
26.7713 46.9431 41.2769 27.8152558511
30.3743 43.799 40.8247 32.2142336789
30.3072 46.9105 41.9535 25.9573214152
33.1458 44.35 38.195 27.7148305741
33.5121 42.3635 40.2556 26.7340052238
35.2672 46.0477 38.0731 27.6359356248
31.0927 39.3435 42.5118 31.2202976686
36.3027 39.4812 38.7404 31.7696555887
26.8444 37.2601 38.6445 25.475398634
27.119 38.3509 49.6765 31.5541332134
36.2724 45.7215 49.43 31.1957398104
26.9861 41.2503 46.1006 34.1356276402
29.6115 38.3485 45.641 33.5631527547
33.6667 38.5194 48.6269 28.5191294791
32.4486 40.4601 46.3972 28.1633532834
29.0394 47.2067 47.0367 27.7502268403
25.827 43.0997 44.3968 30.5134071092
31.5507 38.4524 55.9906 35.9323765909
28.7591 40.5139 43.7843 28.2278775317
28.3216 46.0315 43.2459 25.4125160555
34.8115 48.4803 46.2762 31.7007333419
35.3228 42.326 49.3421 27.2668032252
31.1454 48.5964 49.8568 27.9912027758
36.6654 45.497 56.4832 30.7148464618
25.1131 39.8856 56.2111 30.4146209135
32.2046 46.9688 43.7269 31.7038471139
34.9446 41.6547 46.7939 26.7546059584
34.7392 37.7684 46.2539 29.2574011465
36.3677 44.231 45.7722 27.6667347942
28.5525 39.4667 51.8092 34.0532477799
27.7007 48.3209 44.9728 28.0422620662
28.7511 46.4387 55.2237 28.7526986719
25.3463 45.1533 47.7843 30.0421374299
30.6505 42.0633 48.8765 29.2894176674
25.6723 48.9375 54.8425 31.5687330995
25.9135 40.5295 48.4475 30.7975462757
27.9441 45.5165 48.6434 28.9010562593
28.6783 42.9658 47.4094 31.6100073014
31.6952 46.1329 51.2403 30.0622137766
25.5458 45.4548 53.3675 33.1187298334
29.5714 44.6595 50.8444 30.7844972839
33.1572 43.5354 54.4093 31.8234047556
30.4927 45.4314 45.3759 32.0311365467
25.4769 45.7823 45.1185 31.3158481208
30.835 47.4821 53.52 28.2087942431
30.5837 42.511 45.0362 32.3050449278
32.275 47.5395 47.2251 30.8231852485
34.3735 44.8779 47.4338 32.6923340498
33.6592 46.4153 53.4457 32.7825295367
32.8296 43.6657 49.9325 30.9943399408
28.2323 44.3 53.3665 29.4977032562
29.8513 41.7634 51.6765 30.1857294814
30.7691 39.193 48.4743 31.3195926592
27.1272 47.7105 50.5108 30.9374258076
36.123 46.8422 51.8061 31.8878593127
27.2706 41.3537 53.7264 30.8397944071
33.6086 42.6974 44.1292 31.1026267995
34.1411 37.9899 56.2312 31.0183435503
33.5877 48.1712 55.6924 26.0123510375
35.4411 38.5848 43.7362 27.2156875976
30.1581 37.1171 50.2711 28.1110160647
30.3548 42.8102 55.166 29.4084780114
36.9901 39.1471 48.8952 30.1363549087
32.5907 41.7357 51.849 34.3317699836
35.5228 42.0604 53.6814 33.2089579247
34.6523 39.7914 50.8833 28.2686323523
25.0409 48.9299 48.5645 30.9148300015
30.2818 37.3793 53.2829 35.7909195245
32.1636 37.7209 44.6254 30.670617886
35.1665 38.0468 53.038 34.7599340255
35.7278 40.2086 56.1784 29.8343026999
24.8096 42.6489 53.0923 30.7959259901
25.3167 48.8072 52.1725 26.5274388381
25.8783 46.4201 56.2403 30.7851032126
27.582 42.2939 56.0875 27.4469424163
38.8294 0.0932879 8.69611 34.4556418417
49.0928 0.648997 5.23826 30.6217418901
45.2442 1.64702 11.202 27.9656681546
47.7518 0.0283306 16.6724 30.0091752938
36.8698 1.31382 13.4116 33.8143130968
38.7183 10.0112 10.4674 29.1453070543
42.7473 2.3751 7.81805 32.0568565353
40.2055 9.85705 6.1165 35.3224641369
47.9744 5.14507 12.7534 30.174325487
47.1449 7.57979 13.7721 30.8527875069
44.8406 7.31458 5.02722 28.2113674583
40.6056 0.766821 6.28666 27.5735758133
39.1134 3.99464 10.6038 28.481831031
47.0659 2.73863 6.56902 28.5078795385
39.6009 2.22692 12.6062 28.4814266467
44.6996 2.03292 4.17747 27.7376443949
37.2985 8.24951 14.9805 29.1839559612
42.2345 10.9703 9.34687 31.4895967001
48.1943 3.64512 3.90342 26.5170067338
46.7521 6.9082 7.74285 27.5108962269
42.0536 7.522 4.64956 30.5258083591
42.1282 4.10798 9.95417 32.6732787652
43.9673 4.90653 6.95515 27.3582017911
45.5827 3.41966 9.12684 28.3072240512
38.1196 2.96915 8.4718 32.3215350827
46.1821 6.03466 10.3361 26.5403518563
39.6021 7.53325 7.79518 30.4328436521
40.343 6.26376 13.8373 34.8714855592
42.3528 6.77518 8.58268 27.9768396554
44.4557 8.60631 8.00508 26.7308402314
46.8436 2.5873 15.921 29.0935906301
40.1815 3.06012 5.2551 26.3555957658
37.1019 7.99812 9.41873 32.834367731
44.5556 11.2526 12.8014 29.6353322782
40.2631 9.94157 12.7152 32.3050677938
39.803 8.77839 15.1513 32.868052455
40.0612 6.7229 10.7106 27.981323481
42.2924 8.63577 11.1909 26.4115823176
48.7025 8.19668 9.40294 28.9588125129
44.5263 8.42263 13.4766 31.2103046797
45.6875 9.25004 10.5352 28.7368612322
45.9406 3.39954 13.3499 32.6691387437
43.0913 10.4983 5.83389 36.5121725806
49.0453 0.198164 9.83118 30.3522912491
38.4833 4.40032 14.544 29.070705869
47.5363 12.0253 10.569 26.6461244299
39.4892 11.8766 8.25182 29.6683302485
41.9665 2.31613 14.2469 26.6616921544
43.2301 4.7436 14.1689 32.3357248923
38.2926 5.36647 6.45325 31.6021510262
44.1346 8.87162 16.5965 35.4888089414
48.8007 9.15734 6.53768 31.3732728344
48.5563 9.74811 14.0973 28.5069953597
42.9378 0.533175 12.0331 30.3872171591
43.7041 6.03849 11.5456 27.3557481259
42.4512 4.51989 4.55384 27.7762560404
47.9861 7.03304 16.543 33.5713334336
48.9015 5.7895 5.81234 29.8845425243
47.235 10.8501 4.01584 32.4986489997
44.9085 0.417217 7.72746 27.6540687265
37.3483 2.65139 4.23759 31.0211946009
43.8177 0.684997 15.8957 28.0167731286
45.3634 11.5212 8.16228 29.4107077651
45.231 11.5329 16.7494 30.3666556177
39.9573 2.91799 16.5185 30.163180082
48.528 11.8391 7.6802 30.4025070454
46.9424 11.747 14.3849 26.5738098437
38.5169 1.87918 20.9385 28.3795761178
45.9771 10.3654 21.2128 29.8287568225
38.7022 6.41799 19.3511 30.4265241923
42.4551 2.84274 20.4221 29.3723882679
41.0648 0.182847 23.9532 63.942900631
42.2637 4.72645 24.3487 91.4957930735
39.0073 10.2986 18.5375 29.3444958272
47.2153 11.3833 18.7797 29.0002867109
45.9551 0.651232 24.3102 93.2884320501
42.3755 8.3184 21.0035 28.4721074151
41.8066 10.9071 19.6706 27.1171191756
45.0846 7.82241 20.5861 29.1716196652
45.6044 6.61456 18.0484 29.7096478882
38.6327 8.82571 21.1264 28.1672741024
37.5784 0.879925 17.2837 30.585963103
48.3249 9.32603 23.417 31.6406661856
39.8741 12.3748 21.2949 27.0019330466
38.5918 1.87931 23.7358 49.2964524866
46.9678 3.04852 20.7551 30.6174967101
43.1412 1.9538 23.9181 55.799887336
39.6086 4.45782 24.0203 68.0427390637
46.8552 3.05141 24.7604 107.9621340855
45.5231 5.39438 23.9921 43.6067682388
46.886 5.85249 21.5923 29.4991290625
37.3111 6.62976 24.2982 70.9196285154
43.3681 5.1714 21.7851 31.0693920186
45.8309 3.7472 18.1145 29.9191387664
43.6453 9.63926 24.3631 97.4643888329
45.0208 1.44615 21.517 30.4862443187
39.4836 8.87846 23.7894 56.6642405364
42.1196 7.70062 23.8461 48.745950863
46.2085 7.9827 24.4097 98.9746251889
43.019 2.77239 17.8042 29.4324044239
40.9851 0.157904 21.0588 30.3641282232
47.749 12.159 23.1083 30.343954412
37.6521 4.89405 21.4417 28.0345285444
39.7841 11.5292 23.989 77.7632158723
39.864 3.79183 19.24 29.2899272741
41.6384 6.71202 19.0716 27.2254782221
36.9526 11.3422 20.919 27.5101046075
48.9599 9.20739 18.5652 32.4389292046
41.4599 8.74334 17.3935 29.615569565
48.8158 4.51617 17.3163 30.8952336235
43.7057 12.1018 21.2947 28.3839392397
43.1103 5.46328 17.1286 30.0314949863
40.5773 3.75911 36.0034 58.0378503559
40.3255 4.37662 40.6738 32.5555497426
40.0425 2.6378 38.693 30.1994215858
47.0915 3.29517 40.2413 29.1778027543
43.9971 3.17879 35.4515 103.6457372171
42.1725 5.9747 35.8878 74.0913101959
44.7286 4.9113 38.4535 32.3264879968
40.8962 8.27958 36.1812 51.4320248543
42.3496 10.9073 38.75 31.4639876837
45.1064 1.89082 38.7432 27.0114711623
44.6365 7.90974 36.0262 57.6444570737
46.5977 4.63273 35.992 60.0332547368
45.2006 10.9508 38.7762 29.8580678486
47.7082 7.49636 35.645 77.4285953712
44.899 10.2789 42.5853 31.1734222772
38.7599 3.04242 42.7724 31.0519326059
38.1482 11.9427 42.5588 31.3739012703
37.8124 11.1926 36.2955 31.8324400009
44.8464 10.8011 35.5004 94.1625384527
41.9395 10.6824 36.0119 50.5292979589
48.0498 10.5988 35.5091 84.7677933476
45.0869 4.87553 41.5604 28.0796604304
47.7729 11.593 39.9517 31.4945935169
47.6579 10.3822 42.2137 29.0006563853
43.3159 0.947227 42.4177 26.3600000469
37.3079 8.20198 38.6997 32.5962081811
41.9358 7.98266 39.1828 36.6421078747
42.796 3.23957 40.9342 27.3196392274
39.148 7.91393 42.9742 29.7555399229
38.2338 0.652238 38.5276 31.4057561892
42.1616 0.866062 35.9615 69.8624790285
39.5283 7.09592 40.3115 37.4663062241
48.1682 7.75812 41.6276 29.8853482308
48.2102 7.36335 38.5628 27.6162897479
45.5416 7.90441 38.6906 28.2351665958
38.2034 8.63012 35.8861 79.2868104539
42.2124 1.23105 38.6285 26.3915342077
37.7314 3.86138 35.4737 113.0073324349
48.918 1.47317 35.6535 102.7073059638
46.1182 1.2674 36.1723 45.3976132289
44.2883 7.68342 41.5304 37.7218501275
47.6596 0.987325 41.3593 28.0487217832
38.7367 11.9285 38.7228 29.6003856834
36.7644 2.52101 40.571 36.2217688837
40.1171 9.46195 53.4765 30.5856668524
40.4395 1.09774 43.7295 27.9107121457
38.0816 2.12467 52.3796 26.9295058532
43.017 0.74949 54.9347 27.5840696733
44.4904 4.56394 45.8548 29.288444428
43.6829 3.13165 49.9421 27.7417475241
45.2869 2.73292 43.8121 28.4723563233
43.2937 4.25537 54.1396 26.3572351973
44.7611 7.30744 45.2737 33.6875218515
46.6913 1.66604 54.8041 28.1542365076
45.8178 7.76685 48.8033 32.1077575432
46.3113 3.59065 48.12 38.0687702338
47.708 5.97352 48.2542 28.6607477396
44.1609 6.08425 52.0093 31.2064556845
37.7714 5.03658 52.1733 35.3809713497
42.562 0.404259 48.8952 31.5037042767
39.9615 5.42221 47.5611 27.0824503299
38.5346 10.2483 46.096 27.6597054262
41.9008 1.68663 46.2388 27.3805646607
42.0668 7.76612 46.4282 29.3778729838
46.7616 9.43665 46.3535 28.0362306819
39.3048 1.13829 46.6856 28.6981202698
48.0778 2.76616 51.8633 28.2374699508
44.7945 10.9508 45.2073 28.1733254834
44.7204 -0.0963713 50.6899 28.4238877177
39.9751 6.55816 50.1838 31.7546168358
48.4383 7.84945 56.421 27.550292551
44.6243 2.11548 52.6533 27.7603783517
47.282 1.22785 49.9275 33.0050533164
42.5885 4.21345 47.7734 26.2661543541
42.0577 10.5184 51.9451 31.5630012042
38.0459 0.6905 54.7713 27.0518811461
40.6834 2.14126 50.7836 29.7399936725
44.3261 9.0551 52.8273 29.2305289619
41.6617 4.7504 51.4589 25.3077296325
38.7275 3.0253 48.8641 32.2298359591
37.8117 9.31681 51.5415 28.7520607957
41.9389 9.86218 49.0086 30.0147824614
41.827 7.50108 54.3275 30.9977663082
39.3965 9.4351 49.2822 28.0275196997
43.1257 6.94122 49.1847 29.0591969923
46.3603 11.7258 48.56 32.8959772658
45.9359 9.92716 50.7371 28.9086123226
42.1617 10.6078 46.0078 27.5220404338
47.8635 1.47912 44.2913 29.2972331174
45.5031 4.88009 56.4048 27.5592368514
