17.7187 8.07155 23.7398 42.9495896049
20.4548 8.90235 24.383 89.1928704318
18.2049 8.66946 18.9272 27.4301450886
16.2709 10.791 24.1873 79.2887957624
20.3631 9.05866 21.12 33.3067018776
19.9206 0.596266 23.6871 58.8132310972
20.6368 11.9858 21.331 30.8590946749
20.7763 11.5562 24.4209 86.6766871979
15.1177 3.68865 38.4159 30.5600122886
23.1902 6.08291 35.8993 67.5736261814
14.3899 1.83267 35.9127 68.560956251
23.754 1.91357 38.2332 27.4549400753
13.6692 6.2119 35.3615 94.8326642512
15.9592 5.67545 42.8362 31.9297517698
12.4909 11.7516 39.1661 29.5902333038
18.1108 3.31957 41.9469 29.2051503421
23.6797 1.8071 42.3777 27.8305284247
15.7515 4.1395 35.593 74.5213300547
18.4819 3.67264 35.9186 59.3044983063
20.2295 5.66634 35.9063 63.1410478086
19.2729 8.29074 35.4545 103.3209291366
14.1242 6.49903 38.7085 28.7358863123
23.1792 6.51396 38.8644 28.0558073835
15.6302 11.133 38.8607 27.6246277745
16.8384 6.82739 36.3358 35.7814011154
16.5331 8.70331 40.4281 28.509083115
16.5056 10.9538 36.2396 38.5492568524
20.6615 10.7808 38.7421 28.7835865527
18.1758 9.11684 38.0283 26.3943593683
23.499 11.9704 38.1535 28.0934064817
21.6317 10.0041 35.9206 49.9082387677
20.4557 4.76487 42.5993 30.9026264052
21.7182 8.7852 42.5627 33.0301486508
19.5642 0.895237 35.711 101.1790216751
23.7579 9.76196 40.0282 26.1189362009
17.5671 10.6365 41.9101 28.6395958221
22.5462 4.03906 41.1616 29.9767250488
20.5197 1.26399 38.3348 31.3401976981
18.4661 0.941551 39.9584 30.5836134873
23.0417 11.6146 42.1741 28.1430624134
14.6003 8.71954 35.5692 79.2333972903
17.7528 3.79286 39.0299 29.5919089522
18.5009 6.74238 41.5752 26.9612579076
21.501 3.9545 38.4064 29.7226475621
24.094 1.10495 35.4989 107.4395483612
21.0172 8.23558 39.8076 28.1053671984
13.3448 9.2001 38.129 28.1732758648
19.1841 6.22384 38.7882 26.9768564197
14.1296 7.19164 41.5455 30.8248343901
13.7638 2.46064 40.4651 32.128684115
24.118 8.7084 35.828 59.1060535444
18.9765 11.9293 35.8278 63.0816711535
23.982 0.0683945 40.4097 27.0637606959
16.633 -0.143493 35.9042 70.7085025712
23.8226 7.05013 43.4333 31.1312475172
15.2032 2.88713 42.8911 31.6659375961
16.3874 0.933781 45.3 35.5503846687
18.9634 8.56767 43.713 33.8936029031
22.5675 7.80133 51.572 34.2317041113
23.6618 5.96791 47.4445 29.6909295619
19.3918 0.824546 52.298 31.0136013548
20.6618 4.42038 45.3101 30.9777815984
20.4972 6.47245 55.8724 35.0979637541
15.1429 6.24079 45.3738 35.064998217
19.7969 6.72783 46.2991 33.0822120561
17.2675 6.35954 47.6587 33.1937644766
13.794 11.4393 53.1362 35.1618121786
21.7034 7.40921 48.8239 29.6954544611
15.4195 12.1845 45.6945 27.7494911979
24.7826 9.55385 47.9229 32.0566612109
17.1985 10.6651 47.585 31.3912437271
19.6201 10.0945 46.2357 31.1012850137
22.9411 3.75238 53.1909 29.5064028576
21.6206 10.0733 48.0342 29.9986486004
12.565 2.50037 51.0737 33.3656768036
15.5606 4.18129 48.428 33.5803465491
17.1505 1.93469 47.8784 34.7892562382
23.8415 0.0708466 47.5102 31.31681456
21.7298 0.176524 43.3998 31.7026638976
19.7612 5.50796 49.2673 31.2724570428
17.1733 0.763662 50.6795 31.1464354045
23.6424 2.67829 56.2039 29.0033456936
13.2213 4.49372 46.8237 30.2097869793
14.7101 4.25774 51.4067 30.7287419889
18.9922 5.17677 51.8926 29.537435176
18.1569 10.2549 51.4534 30.7351028675
13.9809 8.51396 44.3161 30.2129974402
19.8409 2.24969 46.7297 32.7304714297
21.9736 1.99878 51.3366 30.3325096549
14.2269 7.73568 50.1882 26.8485868884
16.8436 8.57333 49.483 31.4075789004
19.3482 8.43392 54.3536 27.2323823501
13.9279 6.3175 55.8228 29.7742542898
20.8256 11.4441 50.1325 32.8100689456
21.4716 3.23821 48.7948 32.2929013526
21.2288 10.123 52.8965 31.438322132
17.8346 12.1118 53.3102 28.2173770573
14.0874 3.45225 55.5585 31.2318385352
12.9368 9.99197 50.7907 30.4610557687
14.0859 11.295 48.2951 27.7669762845
16.1241 10.1096 54.378 29.682263165
16.9145 2.73755 54.8464 30.0346564634
19.8505 2.92834 54.4076 31.0120750456
15.1569 10.8702 43.3336 29.6903956785
23.3037 11.12 54.9582 30.7253830032
17.363 7.38953 52.379 30.5040627709
16.4365 7.47582 55.683 26.4051016876
21.506 5.83319 53.1521 30.5844541275
17.0895 3.27016 52.0446 28.6010173479
23.7852 0.236704 54.4589 26.6347563755
12.5428 9.39066 46.7863 30.8284856064
24.0596 3.05094 48.0641 30.3177190668
23.4141 4.72357 45.0442 31.8679235388
14.3419 6.55847 52.7168 30.9506053596
12.825 2.75359 44.547 33.2243189617
18.0917 12.645 49.3015 27.2747460794
24.1663 11.6034 44.5738 30.143519834
17.8851 5.16814 56.3961 31.044848466
19.3407 10.5082 56.2451 27.3367110723
18.528 0.915298 43.1727 31.6767229571
17.1876 12.9977 10.6068 30.3011355487
14.5311 14.5119 12.2128 28.2135016213
16.5072 13.6757 7.1316 31.5068389251
21.1105 23.2581 5.28244 27.1455403575
22.7465 22.0467 11.9429 30.9738409944
12.8889 17.3819 12.8359 28.9035696492
20.9693 13.4287 9.08897 33.1178155741
22.9299 18.4435 8.07349 27.5962404806
13.3642 19.8733 9.15387 34.4777778699
15.0806 22.4615 5.58153 34.3309187259
15.2012 17.5934 8.25209 30.2281128885
19.1058 20.1143 9.00988 28.371773768
18.3783 15.7211 5.84243 31.1813888134
19.0238 20.3128 6.33792 31.4252055506
14.8963 17.9269 5.55425 29.9152729432
21.5235 16.3425 6.20511 27.6615319342
22.629 18.9448 5.13715 30.2173544625
16.2331 23.4452 8.28868 33.9245241942
18.6617 12.8692 14.2457 33.4432312306
13.8112 13.245 6.43822 28.6007001061
17.3669 21.9702 10.4308 28.0059298942
24.485 16.9521 9.64317 27.6809539098
24.0203 21.0601 6.69396 30.7572474487
14.9397 23.8628 16.0064 31.1378557196
17.3315 15.2086 12.8716 30.727292805
20.6189 16.2571 8.56376 28.0417658637
20.7337 18.3223 12.0062 29.0481403318
14.8626 14.9785 9.36006 27.8066595962
17.5058 18.2697 4.97078 32.2204116552
16.0211 19.9084 14.1061 29.2828676802
15.2733 20.8103 11.4936 27.2751381738
18.3077 17.3715 11.2847 31.941611142
18.1502 17.6285 8.53301 28.2707222792
22.3663 15.7105 10.942 31.5882621227
21.6205 20.0973 10.0351 28.9546923014
15.1732 23.8408 12.6305 29.7386883292
20.6811 21.1764 16.1959 33.2013560901
18.8739 22.9456 12.3453 31.0741162796
13.6209 20.256 6.03546 32.6437607799
14.0108 13.24 14.8804 29.4514894287
22.0984 22.5289 7.73339 27.211612472
23.9516 15.1687 5.52169 25.177274528
18.0943 22.9644 5.93423 25.3629142519
15.1639 17.9429 11.3803 28.3199237843
15.7176 15.5865 15.7214 30.6462104006
17.6171 17.7034 14.8623 31.4432124289
13.6482 15.5364 4.53066 30.2178456772
20.8645 14.0125 4.2666 27.1762458998
21.9357 17.054 14.1124 31.0041760301
23.4086 14.5265 13.6722 30.3380983272
22.1076 24.4136 10.948 29.9968403193
19.8148 23.5563 9.02719 29.0773591395
13.6771 19.6372 15.3039 28.4821550692
18.4435 22.3958 16.7869 31.0348224109
17.0445 22.3573 14.5234 28.5573517407
19.9811 16.4775 16.0798 33.4024990384
20.8273 20.9318 13.3643 32.5706138486
23.631 24.4561 4.38422 29.2363756909
16.102 13.6059 4.19306 32.3929222194
23.6426 18.7898 15.1276 29.1499210057
23.1388 12.2232 5.55452 26.158803444
25.0423 14.3822 8.40704 28.6570819727
12.5408 21.3686 12.4377 27.5815150452
12.4448 23.06 14.6447 28.8088510219
23.6775 24.5613 16.9011 31.211746547
23.736 24.6903 8.74376 30.5273863871
20.9103 20.8557 4.15306 27.1268349092
14.6415 14.0251 21.1516 30.9011292581
16.5917 14.7986 18.1833 31.5285354446
20.8861 18.6413 17.5791 28.5236102689
22.9835 18.5659 24.2069 81.293016462
23.4504 19.1529 21.1923 33.4856280809
23.8464 19.2734 17.8071 27.2682463074
18.9818 18.8251 19.6622 31.9951501397
18.658 23.4937 20.2318 28.0300179133
18.7656 20.9041 21.4958 31.3840209717
19.45 14.2759 17.7536 32.6936059423
22.5053 17.0748 19.5469 30.8254421668
14.2358 23.6645 20.2107 31.2142529447
21.4997 23.0678 19.8789 29.9949716419
23.5343 22.0425 21.6455 28.6317838187
22.7431 21.841 17.8504 27.5602018176
16.0429 16.4465 20.9023 31.4347737328
13.8632 21.8022 17.7099 30.3255559918
23.4341 14.4372 21.2069 29.6682122606
12.639 16.6025 23.7419 49.8944026218
20.7677 14.6926 20.353 30.4894675641
18.3655 13.1572 24.1612 70.5071820152
22.6186 13.7104 24.1505 66.8554433726
15.3014 19.7432 24.2216 75.6398950137
14.5459 18.9753 21.6552 31.3557757374
19.631 24.2599 24.3663 77.1039661868
15.4689 16.4747 23.9175 51.7311121467
18.4928 16.1238 24.2236 68.7235816894
18.7998 16.5015 21.3561 32.4483726059
21.4123 16.4587 23.761 51.9590371281
14.958 13.7255 24.1561 63.8010235002
22.7228 21.6504 24.3431 92.8944697098
15.9514 21.2303 21.0492 29.5830336008
17.8435 18.8716 24.6637 106.1196176532
16.6456 22.1463 24.4 75.6724459445
16.8263 18.2711 17.7499 30.1854126324
19.5929 21.54 23.9386 46.7779341624
16.4477 20.9546 18.3979 28.847769499
14.7331 24.2268 24.2555 57.8821678379
13.9759 17.689 17.0406 34.1323935774
14.5429 13.2295 35.4853 120.3195629354
17.7411 14.7432 35.7636 71.9420815072
17.7048 17.6963 35.6703 81.1252395754
13.5404 23.3272 35.6895 82.1245854598
20.7275 15.1897 36.21 40.4016642431
13.5325 18.0252 42.7862 28.2312187502
15.8231 20.0825 35.5689 92.7060716822
16.3898 20.1026 38.4348 28.1354441802
13.3384 18.9062 36.055 59.6176057001
20.8864 17.8752 35.7735 91.3939506949
20.0275 17.7048 39.8438 27.840976202
23.6019 17.2893 35.8422 69.7982965993
20.2898 12.0962 42.4175 31.0130839311
16.3214 17.5509 42.6932 30.1591835038
15.9515 22.7837 36.8423 27.1195024667
22.1224 20.9877 42.5048 29.8632777783
14.0392 14.6887 42.1955 32.3051482835
18.5544 21.4284 36.2463 54.3606315349
18.6689 21.3789 39.6633 28.671080324
18.7627 13.0692 38.6287 29.2019271873
22.7452 21.0925 38.2244 31.113657315
20.8541 14.9199 39.0401 31.2337532335
23.3332 23.1034 36.321 69.7930738827
13.1503 21.3302 40.688 31.7836753622
17.2656 14.8938 42.8675 28.7588911641
15.5418 15.5853 37.0527 33.8939053811
17.4752 17.449 38.4593 29.4633958552
19.8209 15.0546 41.9016 30.2129084409
15.0687 17.136 40.1106 28.7287229273
20.955 23.5511 43.3577 31.3922596089
13.4618 19.0554 38.9207 26.8468173651
18.6057 19.365 41.917 31.0045908486
13.0062 12.0103 42.2493 27.5088894596
20.3139 19.7352 37.9728 27.5068546906
16.8712 13.0576 40.5466 27.5450589243
22.5471 18.1387 41.3621 29.6773931487
23.6433 13.9169 40.1912 30.7648644812
24.3728 18.4422 39.1873 31.314178528
14.2383 14.1436 39.4336 26.0234777043
19.7266 23.83 38.5535 28.9813183428
24.0661 21.973 40.629 30.8716015023
24.5603 19.9253 36.1251 63.9772440279
23.8126 15.7822 42.6962 30.5614246138
15.1176 22.9693 39.6584 28.4750489605
17.4757 24.3909 41.0283 27.4877458323
20.295 23.9739 35.6366 105.3446314626
21.9961 12.8006 35.5047 87.854249376
18.4783 22.0384 42.8194 30.4544325209
12.5176 19.979 49.1729 31.1953055048
13.1676 14.0828 45.4328 30.1893072489
14.3263 21.715 48.0025 28.9286901175
22.6494 14.2825 53.0807 32.1315981089
17.2076 14.0602 45.3745 27.5801376828
23.3315 12.4472 47.1732 27.5073695731
15.1785 21.3027 52.8211 25.5645582807
24.415 17.6785 55.9094 26.964499114
16.5311 23.9133 46.6186 27.9688542225
12.841 17.0389 45.2357 31.0451980951
23.9707 21.3185 44.6327 30.5756890079
21.4287 14.4854 46.2949 29.0832296028
15.7934 17.9079 45.4776 26.7837981912
19.2237 14.7377 47.8773 27.7243623447
12.8458 20.9697 43.655 30.3695546797
18.82 17.6907 46.3137 31.6421030561
13.6802 18.1378 55.0018 29.8867735079
13.5569 24.3954 46.8064 27.8910748608
21.3698 16.0626 44.0403 29.5676687486
14.9214 20.5607 45.6067 28.5972525322
17.7823 20.5294 45.478 30.2410088921
19.0971 22.1174 47.3867 29.2510650125
14.6709 22.3123 55.379 31.3184952385
19.6606 12.6185 45.0633 30.0279819002
14.0405 14.2249 52.015 30.8704117194
20.7483 18.8088 44.0175 30.7516114618
21.0739 24.0393 46.1989 28.6988627805
20.9594 14.3812 50.7136 27.396919726
16.7169 14.4474 52.8011 31.6745702581
23.1291 14.5901 49.3289 25.8937406999
22.7882 17.4428 50.0572 30.0223705966
23.0617 21.8752 55.2702 30.6962144412
18.0101 17.4657 49.3655 29.9745816932
18.1864 14.9605 55.568 31.0907274964
13.9377 17.5532 48.1253 27.9929369363
16.1373 15.8325 47.538 25.6714343698
20.5973 20.6387 52.4925 30.1489062351
12.2546 20.4384 55.7077 28.1119784794
22.3394 18.3769 52.5794 31.6188232056
20.139 21.0765 49.5494 27.5242858464
13.1946 17.9414 51.6539 31.0334944204
15.9574 22.9975 44.159 30.5752789871
20.7774 18.5474 48.5409 31.5884216523
16.7062 21.4086 49.4921 32.1776249666
15.6707 13.8247 49.2707 29.5816035523
22.0083 22.7826 52.9909 26.1763054536
22.0074 16.0927 55.5397 28.8769533818
23.7754 23.6307 46.1047 26.9700367505
22.4199 22.9427 48.6454 26.3463302826
19.1716 20.662 54.7535 28.7995702653
18.6637 15.7725 51.3718 28.6009391128
13.0281 21.4804 51.3252 26.8799596738
17.8476 22.8106 56.0522 31.3247568445
23.1702 19.2759 46.2198 31.7417114583
24.6217 15.6843 46.5392 31.4614854536
13.2089 23.8577 43.9323 29.6142022823
15.8485 18.7053 53.1839 32.0684591754
17.9354 18.3004 54.9983 30.4797541767
23.8626 20.3138 48.5427 29.5507141186
17.4173 22.4981 52.2589 30.6760136402
15.7653 18.809 50.014 29.297053199
19.913 16.9105 53.5184 30.1179902566
13.0863 15.2281 54.5814 30.4815330451
20.3657 12.5463 54.7067 27.0088512699
24.1809 19.767 53.8222 29.9775161016
13.1956 24.1652 50.7922 31.5599256896
19.8712 23.8303 50.5985 29.0624358973
12.7844 15.6086 50.0121 28.237582957
12.6428 13.4166 48.0835 28.8141725786
24.0132 14.008 55.6867 26.1611423483
23.7846 23.1777 51.2624 30.1367492439
13.4077 34.9724 4.06805 27.6478471755
19.1204 26.5752 9.41586 30.4815010736
22.2339 35.4834 4.57356 29.4491885396
18.3729 25.5858 6.94269 28.3867358998
20.2757 26.023 4.62102 28.9871553156
19.6384 36.1226 9.58299 29.9785852438
24.5332 34.7165 6.41497 29.4760568766
13.3688 28.8086 4.9733 25.9645054885
16.3683 27.1415 5.63976 31.7082833025
16.033 34.8032 4.34247 27.159311864
17.5213 30.2929 5.98905 32.4614758517
20.3769 30.2751 6.51442 31.1311767214
22.5146 27.0904 16.6256 29.5720812756
22.8827 32.4018 7.61459 31.2131923764
12.47 25.0036 11.3196 28.8610948095
24.8139 28.1849 11.6609 33.0635638908
13.3761 32.8415 6.43173 30.4871794138
13.8064 25.4776 5.07474 31.4670216786
12.4755 33.795 9.0938 32.8393082522
22.8409 26.0982 13.1804 35.8867246254
17.1898 32.2671 3.78465 28.6693327397
12.4382 33.7384 14.2038 34.6523861261
19.5506 31.5745 16.56 32.1530801235
19.9537 35.5739 5.82384 30.6102513845
16.2537 27.4366 9.9298 34.5393949056
15.218 35.9755 11.9909 28.944073047
20.8397 28.3001 8.40307 33.8182377381
13.6194 29.9153 14.9027 28.5332828955
17.4967 33.6512 14.0095 29.8743653974
22.9035 31.3556 4.81561 29.1981127968
22.3896 29.2736 10.8271 32.15243926
15.3926 31.6404 7.74713 29.8527840592
14.6943 28.8517 7.46666 28.6569020541
14.6763 31.8456 10.3735 30.1849576987
18.2269 30.9066 14.046 28.1506011619
18.7681 31.8553 11.4041 40.9292533664
16.6367 33.5726 11.341 28.9322998418
23.2438 32.0364 10.1604 27.250371345
21.5848 34.8765 16.075 29.487908211
14.7912 26.6579 15.2913 27.5422935539
20.1605 33.0458 7.12001 29.7953695774
17.3119 33.7157 6.91434 29.309530652
22.9931 31.8981 13.5264 33.8717421666
22.5403 35.3781 11.6299 29.5854731934
20.7673 33.4513 10.0657 31.2048251046
23.0161 26.8929 7.35886 30.7563149595
20.8611 29.7837 13.0329 34.1104670694
15.2329 34.1213 15.2761 29.4017268017
20.5246 27.2879 14.3543 32.9232272151
16.3616 29.2492 13.9898 28.5618786978
17.0803 35.484 9.12013 29.6555833625
12.6857 35.3305 12.0422 32.6005311051
23.2064 27.1523 4.6661 26.8423920124
14.7939 29.3742 11.6531 28.9789196318
19.3484 35.7856 14.6512 33.9634954321
16.3929 26.4291 12.5819 29.3640290628
20.947 28.7796 3.90625 28.1589241015
17.8612 27.307 15.8459 31.0179300238
19.1414 25.7792 12.14 32.3258261863
23.5147 35.7492 14.21 27.5112343639
14.3768 25.3666 9.15367 31.857892775
22.9832 32.8655 16.3084 26.8209270604
16.5001 35.2523 17.4753 28.8374791569
18.0918 33.2213 21.3586 26.9676347303
14.8552 28.3521 17.6533 29.7836163558
15.8717 25.7782 18.9304 30.8362114045
22.8171 33.7438 19.3281 27.7534924227
22.946 25.1245 21.4266 26.1872445879
13.4553 33.4215 18.7929 30.3575869929
21.0524 30.7456 21.1366 28.3468110978
16.8059 30.7108 18.3469 28.8136820367
21.0996 29.9832 17.9988 29.115115114
14.6 35.6806 19.4563 28.6036955254
23.9267 31.6453 21.5468 27.3466850157
13.1957 31.9907 23.5144 37.3086599141
18.2287 33.2286 18.5512 30.2040165541
12.7692 29.3294 20.0963 29.48960134
17.5647 34.532 24.6121 125.1835863293
20.4502 35.5273 18.7186 30.0736868491
12.7698 24.9862 22.2071 28.6917688478
21.7928 27.5932 23.8329 56.2127667995
16.5538 30.7624 21.1699 29.015277913
18.6326 28.6123 21.2557 28.1182839144
21.83 27.9349 21.061 24.7071234316
17.3732 26.0076 24.201 69.5298628554
19.0442 28.3742 23.8851 58.9622755836
23.317 30.1469 24.0085 51.0892386351
15.1236 30.0149 24.1303 75.6356765054
13.7503 31.616 20.8757 29.4701355268
21.1122 33.5679 21.6819 27.2171051071
17.5863 31.7285 24.14 63.0504380825
20.356 31.0821 24.0988 73.816149436
24.297 28.9152 20.2836 28.8890580379
23.038 33.2295 24.0541 61.4399852506
14.3594 27.4413 21.5307 31.1997164593
18.6065 25.0892 17.8315 30.5866256139
22.3602 35.882 24.04 70.0170730435
19.6477 36.0555 23.4641 32.6793454505
16.4422 35.351 21.3724 28.7692386186
19.7389 25.4998 21.7883 25.7350981432
12.7284 34.6221 23.9959 62.7925951616
21.0736 26.1288 18.6649 28.3441327674
13.9017 27.4068 24.449 82.1958993396
18.7857 36.775 20.8854 28.369159885
16.8131 25.9859 21.3992 27.156502907
23.7496 35.6758 21.1195 27.1205674017
18.8524 28.6383 18.1513 27.8176520295
15.0899 35.9169 23.6963 38.649035568
14.5179 31.6171 16.6878 29.9523768751
22.6745 24.5791 24.444 87.0314060708
23.8428 29.568 17.5183 29.4919557637
14.7599 26.2195 36.144 38.6473608076
17.97 26.0286 38.5384 26.2517819282
17.8321 33.0769 42.8655 32.7744304444
21.2296 26.8058 36.0491 75.8233362481
23.4527 25.8928 37.1289 31.2557638158
22.8568 26.106 39.7881 31.8375982149
14.1211 30.837 36.2787 33.4595823558
23.0385 34.1854 42.6814 32.3947430816
13.1673 27.917 42.625 33.8409560763
15.7946 28.6958 35.0568 142.3762949191
20.7545 33.149 36.0782 48.6944681779
18.2403 29.9324 35.9279 44.7004382778
21.1508 30.2427 35.4619 108.8636610162
22.9468 28.9117 40.3358 30.2740504071
12.6557 32.9637 39.6246 27.8448361685
23.7463 30.8627 38.6682 32.5254617563
15.0238 33.3921 35.6299 77.6116300352
13.8036 33.5132 41.9776 33.7632427486
17.7711 33.0349 35.5218 88.1290243628
18.3849 31.7529 38.432 28.7786531777
23.1727 35.853 38.5203 29.8451257521
22.7638 35.0159 35.8782 74.213195399
21.1863 32.3381 38.6959 29.3297747548
21.4693 34.5857 40.35 31.0808313932
15.1999 26.7569 38.9435 31.3167733712
19.2492 28.3687 37.977 31.338203082
16.6463 26.5748 42.7897 32.7282063484
17.4067 24.9367 35.8282 77.923949195
19.1696 27.3055 41.3417 31.4015568141
15.5074 35.7669 42.0583 28.5729425364
17.7199 34.0156 40.1517 29.0328527864
15.959 31.4725 41.4394 29.86652766
14.1351 25.2019 41.5216 28.7030266843
20.6768 25.0079 40.7932 27.0359908923
15.436 30.1059 38.9913 32.9683186943
15.2841 33.1303 38.5927 26.8673881993
20.3876 29.7821 40.3956 29.3594471437
15.5921 36.063 39.4309 30.1798656162
18.5044 35.8817 36.2039 46.3056379344
13.3816 35.8828 35.7686 63.8484927177
24.0027 30.2491 35.9704 62.1477838863
13.0699 24.4666 38.4489 27.596061998
12.4376 29.4661 38.9351 30.7392691251
18.6446 36.1317 42.7861 34.9566876618
15.3376 29.6658 43.4007 31.9329879245
19.9522 36.5189 38.7181 27.0705274228
19.7046 30.8012 43.1059 33.4267462425
23.8996 29.6296 42.709 31.6991167896
18.6878 25.2129 48.3828 25.437132804
12.7 27.8329 45.9054 28.918891422
22.5064 26.1042 48.7293 30.05092606
13.4518 36.0759 53.8365 26.4400223261
12.7702 29.9624 50.684 30.3526486364
17.9083 28.43 56.2689 32.8984931281
24.3446 35.0002 49.1016 30.5406190729
13.918 35.4488 45.9343 30.6152280503
16.2615 29.3703 46.2436 30.0404397427
21.131 26.623 43.6616 33.020163181
18.9373 29.8115 45.6399 34.2813283442
19.3217 34.9065 54.2348 33.6117258416
13.1789 31.9976 52.9604 28.2741286139
15.6482 24.7593 51.9484 28.6365310681
13.7442 32.3674 55.7721 27.3988279314
21.1713 34.0386 47.4427 32.1775568848
18.2296 33.4849 47.1277 32.6351914403
22.7558 32.0655 46.2807 33.1250602318
22.2345 31.64 43.5461 31.9880834242
16.5837 26.2678 49.9399 28.2533324031
20.1778 30.5366 52.7377 30.6486321287
15.0038 26.8663 47.9727 27.9950347584
16.392 35.8424 54.449 28.8804619931
21.8073 33.0277 56.0133 27.5744690582
22.2459 27.2713 54.0808 30.1311957716
24.0496 27.9132 47.1046 29.0233941229
16.3851 31.7479 53.3483 31.2127873351
20.3819 25.1619 53.1257 32.0481731275
19.3149 32.1264 54.8937 28.3809663774
20.2892 27.8056 48.9189 29.1037917958
15.2184 29.8022 48.9917 29.3796604964
24.0846 30.3684 50.6741 30.9273902468
15.3487 34.1786 52.3117 27.1928252177
24.6645 25.3435 43.706 31.6385988437
15.8784 32.5173 48.5273 29.6249733303
22.532 30.0598 54.5125 26.914468899
19.7459 30.9025 48.136 29.8337175265
18.472 31.0519 50.5152 29.2732704868
18.6828 33.8932 51.7679 28.9735765138
21.4088 34.5422 50.5983 31.805295164
22.6877 29.9847 48.2317 31.5193693811
13.8505 32.3869 47.0817 30.4406415245
13.4158 24.6573 54.4875 27.2579840968
16.075 26.2971 54.1461 32.7547138674
23.5799 27.5852 44.4168 30.0508043039
18.5458 25.3834 55.4076 29.5238034157
23.6809 33.1297 53.9364 29.8155093422
15.0449 28.9412 53.4107 30.3187746355
14.2669 34.6357 49.5721 27.7809804044
22.3808 32.2672 51.8378 29.4757664638
16.8193 28.5749 51.1089 28.5123245504
19.6024 27.7004 51.4882 33.3994016072
15.3245 30.1204 56.1982 26.7714320914
19.4598 26.7296 46.2745 28.6396944401
16.7963 34.7609 44.9441 30.8085123868
16.821 26.6103 45.5752 28.2399691791
23.2766 36.2933 44.2603 30.9031131304
21.5848 36.6169 54.9226 32.2783184228
17.4208 36.2293 50.7381 26.991357625
24.2428 28.1121 52.2485 29.7065070829
17.9442 36.2687 48.0561 28.7450061196
13.4037 30.5486 45.1011 29.7059106851
21.4056 36.4279 46.1942 30.9031589333
12.9302 40.0757 5.2597 33.3110321935
20.5434 41.1658 4.97174 28.8801456262
13.4083 38.1789 7.37947 31.7449345704
23.2977 41.0727 6.90921 29.9430140641
17.2451 40.9734 4.77536 30.5305457112
23.8247 37.5168 6.99635 27.7054007254
15.6282 36.9427 14.4786 32.0640144965
23.2699 38.8307 4.54581 32.829819066
23.8442 43.8793 6.65595 29.7116346467
24.5001 42.8812 15.729 33.7243905409
23.1988 45.3921 8.98643 31.62104937
17.2961 43.7031 3.71804 31.4687877394
15.5388 41.8655 8.38772 29.1039791074
16.8167 45.2169 5.93208 29.5760832151
17.6629 47.6354 4.66571 28.4869905998
21.5072 43.7284 4.75209 30.7436225171
20.2106 42.3912 15.2664 30.6362936412
13.8913 44.5918 4.42714 31.7291743835
14.6956 46.0505 12.3976 32.2271359139
20.1183 47.9106 6.7506 27.6891291844
18.1936 38.6806 3.6176 29.882739789
19.4554 45.2954 6.55721 31.423299249
23.4026 45.2506 12.6944 30.350838472
23.5436 40.7614 9.73925 27.4782243149
20.1622 39.8677 7.37679 29.4712211215
17.541 39.9241 7.27033 27.7406324798
22.9567 48.1727 6.30419 30.130933489
12.2435 42.9529 10.6409 31.3728939756
14.3834 40.7663 10.6403 28.662608723
15.8693 38.4172 10.8653 32.2291892893
17.5843 43.8489 10.6179 28.4150329635
21.0522 41.8494 9.56073 28.9119390383
20.633 41.6318 12.6251 30.2013527891
15.9974 42.2672 14.1362 31.5728527768
18.138 37.8067 16.0832 31.4513309098
13.7662 45.2898 9.92327 30.2111510459
16.0404 37.7348 7.95802 28.3813210461
13.6236 38.88 15.3089 35.2151042989
17.0463 44.7697 13.2604 27.9617182139
18.2216 48.135 9.07887 28.6461115691
16.159 44.8301 8.56429 30.9241517673
21.2283 37.3833 7.84751 28.5664448781
19.2773 46.0031 11.1263 29.4607901151
23.6722 42.3907 12.4542 27.2536844528
20.3262 44.4504 9.14326 30.2905401388
23.5064 48.1554 9.13169 29.1672440248
24.1012 38.7475 14.4872 26.5949814308
18.2242 39.5288 12.6358 29.8149790429
19.9175 37.4141 12.174 31.7158837265
23.1973 37.8077 10.1767 29.7032608942
13.4811 41.0706 13.4621 33.5389022968
22.1724 38.9135 12.2869 29.2300261484
13.6008 48.099 8.6905 31.3920185082
17.1495 45.9444 16.319 32.8534935322
14.7227 48.7438 12.5017 28.7898452739
17.9542 40.3465 15.2163 27.5420560212
13.5873 42.4776 6.72594 31.8591351192
18.2231 41.1773 10.0673 30.6295435264
20.8295 44.939 13.7862 32.5419172724
17.6996 47.7152 13.9661 26.1175505724
22.1344 47.9934 12.2833 29.2944958122
22.3941 40.8514 15.8126 34.4178548936
12.3356 45.69 14.4891 28.591213096
14.1328 47.3377 3.81424 34.4391767985
20.2462 47.4921 14.2474 25.7374486995
24.941 45.5892 15.1787 29.6496628082
13.8472 47.3631 16.6344 32.3023842407
17.3905 36.8039 5.51836 30.4420378306
14.5661 44.2337 15.7728 30.8109524514
24.5358 44.3718 3.74778 30.9736294848
24.297 37.313 17.0637 28.730496965
18.7358 40.3865 18.4574 29.3236396113
13.0914 42.5164 17.4001 28.8291499712
16.646 48.6892 17.6427 30.1098160607
15.57 40.0607 21.3307 28.1036194795
14.1739 47.2518 21.2113 34.248799771
16.5234 42.1145 18.9184 30.1121835656
14.8295 42.7855 21.5757 32.0569817511
19.8444 45.0472 19.5764 30.9950153211
23.0982 42.6763 19.9169 31.3863354189
23.4926 46.4492 20.3276 28.2966092035
13.3725 47.353 24.1487 74.9681858991
16.9396 46.6104 21.8282 31.6227318862
14.158 38.4459 24.5317 89.7387620912
21.8475 40.2832 18.6944 36.0522105384
21.8455 44.5633 21.4587 26.178173807
13.3024 43.3002 24.6754 117.9458356562
17.2135 37.9243 18.8366 26.1284430552
18.3694 47.67 19.6472 28.2772538467
24.3975 38.6661 21.1335 30.2662718866
18.933 38.6762 24.2831 66.1829997911
22.5936 37.3829 19.0127 30.4360955522
21.1803 42.3102 23.8869 44.7767671858
18.5117 39.5157 21.5823 30.1681372463
19.9684 41.9902 21.319 30.2637138255
21.5023 39.5089 24.8093 120.2717465293
12.6872 38.9881 22.0226 28.5991955289
16.5414 40.0972 24.2798 72.1800798115
17.6544 43.9333 21.2638 28.1160496837
19.0146 44.1311 24.0625 80.4837005093
23.4997 46.9692 17.3268 33.5748493452
23.7233 43.1286 24.2284 70.5478738575
18.5722 43.5284 17.4268 32.2340127382
16.2768 42.6661 23.9169 53.632295968
18.3388 47.0405 24.2524 97.9997334877
14.5485 38.9634 19.0993 31.4236097841
20.3381 47.1867 17.3517 31.8798753157
21.1607 46.798 23.4981 42.5747837671
23.7464 47.7417 24.4082 105.646596431
12.287 43.2014 19.9007 29.3886377042
12.8192 48.1946 18.9781 31.1399632752
15.2122 40.5833 16.9323 26.0408555181
15.8047 48.7736 24.1239 67.2038402575
24.0501 38.1416 23.7203 41.8438970652
23.2915 39.3036 35.8231 56.3531635847
12.9561 37.6183 39.2701 31.7423640164
17.3335 38.0669 38.5415 31.4733355472
14.1922 38.7506 35.4362 93.4064613347
24.048 42.7933 38.3424 28.9224890273
21.126 37.3995 35.714 84.3053654454
18.952 40.4309 36.2113 55.080112845
12.8788 42.033 38.4172 27.1023941013
24.1023 38.5404 38.4301 30.2222874818
13.6992 45.6819 36.6396 34.7874375025
15.0794 41.1551 35.7845 77.607114092
17.2534 42.1286 37.6428 32.782923376
15.2192 40.2137 39.2823 31.4538580311
20.5767 40.3616 40.4996 26.6960835529
23.5285 40.8764 40.2288 27.9040906929
21.4653 44.4304 38.5727 29.6803987
20.9037 42.8622 35.6218 114.3577031051
16.9265 46.0469 40.0 28.1870278037
16.1902 46.3404 35.8804 99.3026651909
12.3699 39.65 37.4434 27.4500239103
17.9577 44.7857 37.5629 30.7805993511
12.9492 43.0688 35.6932 90.4868042608
20.1962 45.526 36.1561 71.7974851812
18.3856 47.2419 42.0475 26.9628019981
22.7954 39.0454 43.2207 29.4209691065
17.0142 38.2415 35.7368 79.6286536917
14.9237 41.9111 41.593 29.4727105269
23.3146 41.8674 35.8668 81.4319153702
14.5133 48.7102 40.6548 31.8788611041
21.925 43.9677 41.6711 28.1750314383
20.5724 37.839 41.3621 33.2080870115
21.0799 47.2064 41.358 31.6869473167
16.4716 48.5385 38.7608 31.849945848
14.7396 44.4481 40.8708 30.6680351811
19.2054 44.3471 40.4987 27.6902429801
17.7958 41.4219 40.4842 33.4434817499
20.6191 39.2989 38.0011 28.2332109137
21.8979 48.1082 36.2032 56.5996048304
22.3483 46.9543 38.7888 28.7844374487
14.0009 45.6537 43.2211 27.721102307
24.4629 42.6798 42.5941 28.8146895218
12.6396 45.0083 39.1445 28.9997490586
15.5022 47.89 43.1729 28.9644804428
17.0838 42.0799 43.6545 29.5097737979
18.6408 47.7931 54.0747 28.12225831
14.9299 43.0331 55.0945 29.0506078681
23.7396 47.3194 56.4479 26.5295753214
12.588 38.5665 55.2102 32.7620670109
21.8097 47.7295 53.0604 29.4937692195
19.143 37.7274 44.8809 30.9555078262
13.0964 39.1677 48.6893 31.1147386232
23.1027 44.3456 48.3379 29.9625734906
22.1182 45.2903 54.7494 28.2591506477
17.2078 44.1037 47.2729 29.6362921151
14.2766 40.4923 50.8941 28.3540911705
22.0629 44.8565 44.4585 28.0375473264
12.5437 37.2112 51.1094 27.0296255138
24.4782 42.0378 54.4797 32.1270076959
15.3559 37.7048 51.6963 27.5154488733
17.5048 46.0949 44.9543 30.3749891276
15.721 47.2215 46.8139 31.5815774964
23.5178 47.2234 44.4463 27.529838255
12.9171 47.6115 45.7083 32.5398755201
24.0315 43.1314 45.5938 26.543416756
19.8598 43.4264 55.1343 26.7307650647
13.5942 41.628 46.6934 32.0544884554
14.3179 37.1945 43.7808 37.2258217819
16.878 41.5522 50.9925 28.3914713633
13.3476 42.5486 52.5257 28.0603139468
16.1702 40.7262 46.0302 30.8951804132
15.2864 43.6537 44.9073 30.5010837608
16.2608 48.9613 55.0917 30.5273667107
19.1783 38.9607 48.2934 27.3302196505
22.0705 38.6996 47.6636 26.3840007558
14.4946 45.2898 48.8615 29.5928577639
22.0779 37.0694 51.031 28.4071531285
19.8473 42.1551 50.708 25.4372420899
17.9517 41.3312 48.4248 28.1105907128
20.2467 44.8309 46.5609 27.9557786644
17.2153 45.7344 49.669 28.409626878
21.7791 40.2149 50.0357 29.7557451841
22.6296 45.8011 50.9391 26.3192693516
23.2974 48.3273 50.2428 27.8235844651
14.8604 45.6818 52.0473 31.1879825426
14.8429 40.5364 56.036 29.5978023109
18.0538 47.8625 48.5742 31.6172479096
20.955 46.9636 48.3264 29.8626056567
20.7145 39.5371 55.6898 31.0695410517
16.2968 38.7581 54.3879 29.9129179562
22.7222 42.9945 52.6675 29.7516284494
20.1373 41.4464 53.5006 29.2356558947
15.0275 36.9276 48.1782 28.8491634534
20.3962 47.4485 56.2571 27.9015976068
13.3727 42.6874 49.2402 28.3805297618
23.7978 37.4708 53.4031 27.8649275886
24.2601 37.6343 49.1676 28.1796133549
19.8907 44.7685 50.71 28.943885954
16.5579 43.7878 52.8729 28.3406885993
22.6409 40.3197 45.6082 26.4582619333
18.7494 45.1863 53.1536 28.0174661946
16.3937 37.842 45.7497 28.7271383468
20.9835 42.2335 47.3623 28.8191989635
19.5095 38.207 50.8168 27.7129230591
18.1676 39.7283 52.3739 28.1624744152
15.6129 48.3339 52.2702 31.0226325708
19.3378 40.8718 45.1387 27.9476974704
23.8371 39.9019 52.0246 29.4742929646
12.911 48.9627 52.2099 33.2366451905
21.294 48.7663 46.2786 31.9885413587
20.6179 41.466 42.967 27.4956320185
19.1597 44.1759 43.4666 27.4689002244
28.1854 0.560355 10.6507 31.7248858431
31.9916 9.05871 14.1594 29.0675732968
34.5319 9.16999 13.1111 30.887774264
35.8823 7.12234 5.45474 32.6899696915
31.3159 -0.106098 17.073 27.5937803395
33.2691 2.41984 4.11991 31.4854864318
26.2117 5.85781 5.48836 29.0646164669
27.4699 3.37937 5.72542 31.7387561693
25.0829 1.79923 14.3635 30.7743695688
29.9395 4.69009 7.26113 34.7888539063
28.5817 8.64964 15.5173 30.6851009783
31.1137 6.87802 5.9121 30.0558153959
33.6473 5.4859 5.64625 33.1681958455
26.8004 6.28337 13.7607 29.3373700572
29.0671 11.4336 16.1669 28.9050101472
26.8825 10.6037 6.83327 28.9210864206
29.3815 9.41295 5.75087 30.3293722043
34.6942 8.99937 7.26482 33.5392071124
30.1822 7.80323 12.4455 30.3712452779
25.2689 3.10525 7.55452 25.768858331
36.3611 5.02299 12.1219 31.8449688544
35.1498 2.59907 12.5094 30.1628021805
32.1446 2.90902 6.74549 32.8695889947
28.7315 1.46409 7.47779 34.4730610234
32.7615 2.68186 11.1243 35.029416295
34.2526 2.87102 8.67995 31.5479088758
28.1749 2.97724 12.9066 32.3950269277
32.5073 7.35675 16.2282 27.215222739
28.0812 8.34485 9.24073 26.8733128123
27.4847 8.38104 11.8925 26.1712726183
29.4943 6.17084 9.48245 30.8324477267
31.9433 8.70829 7.86423 31.9020494454
34.955 7.54473 9.77009 31.3252963823
36.0242 11.3163 7.7086 32.3956391087
33.8651 6.38266 12.6154 25.8458234551
32.2588 2.17829 15.3646 28.2580739586
26.1611 9.46472 14.8683 28.5973457295
26.0426 7.96273 7.65331 27.4463479122
27.0034 10.932 12.6517 27.3484029415
30.9541 11.3072 7.8956 34.1408930543
28.6398 11.1358 9.24705 30.1117250824
25.9428 2.48479 10.3966 27.4082179186
35.4629 9.14531 16.4927 30.0621991301
35.2277 0.393232 7.98011 28.0454407096
34.8853 6.26483 15.3739 29.360242977
32.3071 4.14467 13.4243 27.7290774636
30.0723 11.1946 3.6817 31.400666319
31.5448 11.6625 15.0813 32.9523989328
27.1923 5.18137 10.9588 31.1312790209
30.32 1.14609 13.0674 29.9515021736
29.8825 5.50789 14.0014 28.5770665884
32.0145 7.07646 10.4143 34.0117128075
36.7827 1.21027 10.7337 36.3529108019
26.5334 3.94121 15.1841 28.8252119525
25.096 5.55924 8.67928 26.8468096328
29.9365 5.86729 16.7366 28.2434912659
35.2901 0.478488 4.85658 29.923266147
34.4924 0.97807 14.549 31.0810416249
35.9396 5.24065 9.06469 28.9563607688
36.321 1.50249 16.6472 31.6564307827
24.4584 0.293811 11.812 27.2379880979
34.2423 11.78 11.7977 36.8000903589
26.7971 8.91243 4.19342 26.6776361254
25.999 0.156255 8.02601 28.9251013128
24.961 11.4984 16.7243 31.6849047786
33.3859 12.3293 4.09178 34.091260502
34.1185 1.81403 18.7204 29.0484784833
36.5667 7.06759 23.3216 43.0953368729
27.591 4.34164 19.7166 27.8623343318
28.3458 9.48109 19.8165 28.5366100494
25.4518 1.10084 24.3196 81.0883009649
31.3093 4.04045 18.9478 28.454172356
34.0603 3.10315 21.4704 29.5132045258
31.8197 11.1956 24.2691 66.9435210102
36.1916 4.4656 20.3182 33.6159704862
32.9209 4.20102 17.1637 27.470172043
25.6493 7.97827 21.397 28.5305439069
28.0552 2.78279 23.9506 47.6327758694
27.7312 7.26369 18.4868 30.3435484941
28.2575 3.80456 17.188 35.1855273754
30.2059 8.88561 21.744 27.5536208855
33.137 8.71747 18.4905 30.7759736929
24.7548 4.40274 19.8011 30.0616118478
28.2109 6.4909 21.8149 31.6245232252
28.2411 2.03435 21.0688 31.8317770564
36.4316 11.6732 17.7952 29.6008776406
31.8469 11.3171 21.4259 28.9625018917
32.0828 1.25022 23.6708 46.6656895646
30.8939 3.79286 23.8635 48.1654467606
30.5313 7.17243 24.2892 78.4957592538
32.5636 0.267749 21.068 28.0795114869
35.5695 2.88553 24.5175 92.5313850018
29.5333 0.417551 24.3416 88.6256502385
24.8993 1.39113 19.2652 33.4972791286
26.0563 10.6613 21.6404 26.3974042836
27.334 5.51965 24.3229 80.4183274126
31.8672 4.60494 21.5683 26.7552127656
33.5521 4.66193 24.5768 101.3497403574
35.4907 7.73176 20.401 28.2888078819
30.5556 1.32326 19.2539 28.5973782415
26.4664 10.3747 24.4213 69.1586369063
25.0254 7.23603 18.4907 27.9660406326
32.6125 7.16022 21.1452 30.1018833495
29.4376 9.80576 24.4291 73.6845752558
33.6474 7.36231 23.8073 45.7343173017
34.5098 10.2314 21.3049 26.2344726047
31.0571 10.5079 18.4859 30.0782714349
34.4891 10.1982 24.1392 73.7033792405
25.2576 7.89882 24.4947 92.6445985604
24.8292 3.70574 24.1079 63.1434079593
28.0786 12.2637 18.9242 29.994298906
35.9842 4.46755 17.3881 29.7454379438
29.8895 0.696119 35.9634 68.9466328717
31.165 9.60972 37.1744 31.7860538096
30.1934 3.62535 36.1198 56.2656955599
27.5934 4.99959 35.8084 80.8219452407
33.5814 10.5705 41.5787 32.9551301294
31.534 3.79764 38.8919 30.7301601912
24.9866 3.95326 35.7561 74.783205724
31.1744 7.55519 41.9414 29.175394214
27.9259 11.9179 35.8413 58.5643660096
29.204 7.38738 35.9904 57.3031217855
28.0502 9.64067 38.5616 27.5688225492
26.957 9.22901 35.3915 98.1347756296
28.3199 4.94241 42.5054 32.508498108
25.7845 8.51984 41.6786 27.9008063572
28.6767 9.6146 41.3445 26.8670757996
35.8161 7.32097 35.9151 59.9125905772
33.9793 11.8219 35.3534 106.0893897291
25.4628 8.3089 38.0687 24.6177987649
33.2708 8.65012 35.685 83.1792539686
35.31 7.0464 42.3089 33.1218081533
32.3347 8.53334 39.6017 29.2616095507
27.9583 1.66623 38.4936 30.0080975429
30.9171 4.62987 41.4655 30.5622826097
31.4841 1.44498 40.7205 29.5384719032
32.8658 0.622764 35.5259 102.894862383
28.5859 1.02887 41.4637 31.5589303252
26.5488 3.06883 41.5507 29.807530529
35.2952 2.82726 40.2789 28.4412678258
35.3362 2.08866 36.3222 37.9078420806
27.0961 6.15718 38.2764 25.0703592554
28.2707 6.81616 40.4388 25.0598756917
30.5375 6.5259 38.38 27.1950787915
34.8425 4.84524 35.7934 77.7984485866
34.6978 7.21056 39.4144 30.8530531649
34.2062 4.65156 38.7469 27.2516751527
25.0525 5.79428 40.9375 26.3464040627
34.1412 0.505463 41.3184 27.062049988
25.9121 3.61432 38.9585 26.1857277827
36.3138 11.2731 41.1551 32.1569073045
31.9875 12.2271 37.4194 29.5328377916
32.1256 5.72678 35.7326 78.5039059994
36.2549 10.3519 36.0522 42.3515612412
35.4121 4.22611 42.8155 31.7445924403
26.5929 11.7626 41.4191 28.9558331421
28.9017 4.83735 45.3078 33.856697055
26.2738 2.06907 56.1941 28.0929852338
27.6405 3.91408 54.3601 31.3331536601
30.5639 3.10416 53.491 31.5566375797
28.6308 0.00490845 55.79 28.5297710756
31.6202 4.80703 45.7339 31.0993839245
25.1131 7.41429 52.2091 29.4202542131
26.3865 8.61495 50.1608 27.7256367666
35.4008 8.89277 55.852 36.2745603498
25.6867 12.2033 48.914 27.7998470473
28.2891 7.2404 46.5058 29.9061045001
33.2864 10.7633 48.7093 29.1083705644
33.6793 6.69421 46.7261 28.1863083523
33.2082 7.27482 44.0783 27.441037254
26.3363 6.38921 48.4678 31.0339058109
25.4232 10.599 53.3965 30.0284732908
35.1813 12.0411 46.9696 29.7988031733
29.5603 8.71543 44.34 31.5909542852
27.3437 11.5121 55.9686 28.3814639374
26.2455 10.339 44.2518 26.5576282041
28.7947 3.55548 50.7479 28.6641593112
29.3917 2.29037 48.5505 31.9796945028
33.9604 9.98576 44.4356 30.5497666342
28.7494 11.4453 44.8788 26.9281602004
32.8178 3.72819 43.5742 31.4193406031
25.4485 7.95366 45.5722 31.3050924063
36.4345 11.0277 51.0241 28.4980998509
28.8574 6.66573 50.7242 32.4171807191
34.7382 0.221066 45.9593 30.7905870784
31.9235 3.65312 48.2353 31.9645999886
26.9262 8.27199 54.0987 30.3785968393
29.8945 8.80261 48.1596 29.7435269254
28.279 10.6348 49.4442 26.5866004151
25.4905 4.77483 52.5053 31.3327289808
35.7352 4.64716 47.2326 31.8615454382
32.526 7.80167 48.9229 32.8493428448
36.4371 7.85058 47.3838 30.6644194778
31.415 5.45178 50.4102 35.6167310083
28.0534 2.06383 45.8505 35.5977802728
33.5339 10.5702 54.9245 34.2805314698
34.3667 2.14626 48.2691 32.6617282177
31.0849 9.0359 54.8762 39.0623531628
31.5714 9.7844 46.1183 27.4098556001
35.0687 8.85153 49.8597 35.7579079413
32.907 3.66188 51.9288 42.3954005997
35.2776 4.46854 56.2028 36.8082886467
36.7427 9.78748 45.1487 31.5268676981
25.0714 1.32132 51.5276 29.5230689939
25.9818 3.73564 50.0142 30.707247815
31.3559 1.1043 55.0953 32.7720977207
27.7083 1.42818 52.6812 27.4875809331
32.7123 0.759252 43.9964 29.6688316441
32.6193 4.75832 54.8739 37.0497369232
33.6642 1.27048 50.8643 34.2533580223
29.4743 11.3121 51.6622 30.2756597262
29.2742 8.7659 52.505 33.9450427194
29.792 0.243675 44.5172 30.5625396226
30.6782 6.49337 56.0183 33.5470730034
27.9221 6.11795 55.9149 31.0751196812
25.2308 2.15406 45.1016 32.6807903085
36.4254 6.81773 54.346 39.4223082185
35.6512 18.9843 15.1369 32.8814203896
35.0734 23.2982 14.4214 30.3475676717
32.3556 17.1606 16.1427 33.3999296928
29.1117 16.941 9.52558 26.0621412643
27.7893 13.8497 8.22626 28.8751932659
35.5546 14.3631 4.01795 29.9452780848
25.7299 20.243 8.8564 28.7836089159
26.1124 16.9048 5.56874 28.6159272711
30.9887 23.8278 12.9034 26.4921301704
24.7602 13.7184 11.3523 29.2267239616
31.2042 18.789 8.98627 31.403136443
31.417 19.3098 6.13984 28.0494284128
34.2292 15.2644 6.54323 30.6325685741
33.2645 21.1036 6.22101 28.3182189924
28.8227 19.7819 5.88145 30.1457873869
29.8116 21.4611 9.30101 29.21783537
27.4795 22.0112 7.89704 28.3079486083
34.9724 24.0511 6.07492 28.5007429041
31.409 22.6624 7.36837 27.8850679193
25.9686 23.1051 5.28286 28.8107248116
26.0761 18.1952 11.5516 29.7074374858
36.5886 22.85 12.206 32.0782087586
27.5395 14.9843 10.869 27.451654591
35.1021 13.7933 13.4323 28.8713576081
32.0821 16.2831 10.5345 31.6469766891
30.9605 21.5603 14.9643 26.8044080298
27.3816 18.2908 7.64737 28.8683907254
25.7134 20.9758 11.8845 30.1750883703
27.992 15.4506 4.08221 38.5108542003
31.4046 15.7125 13.0976 30.7028386647
33.9599 18.6398 10.5041 33.773949425
28.7262 18.0624 12.1277 26.5284845751
32.0255 16.454 5.45855 32.1221136667
35.0166 20.0898 8.07646 29.3313768329
35.9641 17.1352 7.60261 33.6159574198
30.4231 24.3459 10.0389 28.9925278039
26.3986 24.0469 9.38513 31.9260859464
32.2204 14.4984 8.52794 31.2617538306
33.9477 14.5448 15.8178 29.9236700501
29.6216 20.84 12.1862 27.8506722686
32.8905 21.071 12.0464 36.6093877759
35.7143 22.2808 9.3649 29.2775007478
27.4297 13.1696 14.4459 32.084967466
29.7627 15.5188 6.81424 28.5283073719
24.7953 21.5097 14.2635 31.6838027394
36.6202 17.4063 10.7172 29.2681356991
28.5089 15.9245 14.0237 26.3370500999
30.7829 18.5547 14.2833 28.84841218
31.679 13.0746 12.5265 31.9376518172
29.1483 12.9239 11.5502 31.3872054845
25.3388 15.2311 15.3012 30.2577249125
28.2945 18.958 15.9477 28.4828076534
26.5815 13.1381 5.37166 28.7310525012
33.6156 21.1695 15.339 32.0776472711
33.4618 24.2777 11.6556 28.5470164583
27.8893 21.9859 15.9739 31.9080946345
31.0121 12.8508 5.69279 30.8120297586
27.6648 22.4884 13.1921 27.2970361589
35.8162 16.6158 13.4608 33.1486621657
33.711 23.8502 8.65942 27.6273960297
34.9124 13.202 9.1496 31.3216223023
26.03 17.6491 14.4512 28.1734261681
30.5823 24.351 5.35875 28.1113668119
29.776 16.2214 16.5783 29.1881144624
36.1729 24.1963 17.3141 31.8032308022
25.171 13.1172 24.4611 80.3104454093
29.9945 14.2843 18.502 29.9992629067
29.5423 18.5226 18.3667 28.0774056134
31.9936 14.2269 21.3559 29.7740244242
36.2017 21.6487 20.9276 32.082237006
26.7163 20.1086 18.316 30.7696542333
25.8463 18.0965 24.3151 68.585202884
29.7753 16.1406 21.0331 28.5079388063
27.4821 16.8573 19.4721 27.2042704405
25.5495 22.6809 18.9822 31.5253707919
28.9216 12.8974 24.2323 65.0788294999
36.1947 13.0124 24.4174 101.3207162119
32.2392 13.1494 17.5451 28.5317500026
24.9953 15.8988 18.0966 35.4621489665
33.6154 18.2007 21.6924 32.8500256583
31.8385 22.2057 19.1336 30.0568795985
26.2334 23.1839 21.9172 25.2605916392
34.5653 23.5216 19.4916 32.6492195751
26.167 18.479 21.3347 27.4035212151
35.882 18.0404 17.7792 28.6312921004
26.5593 15.5678 24.338 73.4210721252
34.4998 15.1598 23.7175 38.0237303612
35.952 15.1792 17.889 28.158599095
29.6082 16.0181 23.8157 43.6611792585
26.2357 15.2291 21.5355 27.1436037065
27.4743 12.8576 22.0137 27.9606847655
30.0702 21.7495 21.2002 28.6276960089
30.6884 18.7945 21.1225 30.1663138411
30.1644 18.7271 24.3216 80.5240357962
31.7427 14.1725 24.2669 82.4698932682
32.6527 20.0204 24.0472 50.04119928
34.5411 15.3927 20.8807 28.1999760169
27.8591 19.9036 24.4702 75.0488411211
27.3931 20.6794 21.6855 27.6667151985
27.9867 22.8855 24.5392 91.6694243049
30.4955 22.3031 23.952 49.1503949227
34.635 19.717 19.4923 31.560844959
34.2549 12.7586 19.4724 27.6297041709
34.2283 22.3266 24.4735 117.3209457143
25.2178 12.9867 18.9739 30.2421689053
32.5544 24.2093 23.7793 48.4552604184
34.7797 17.9237 24.491 107.972499218
32.297 19.7894 17.7396 29.3181590395
28.8795 24.4033 21.4809 27.7115577149
29.9142 23.3456 17.392 30.5260956662
34.7204 22.2132 41.885 33.6696016799
30.122 13.6786 35.6697 79.8816118055
28.145 15.7674 35.8453 75.0864056685
32.8859 13.0594 40.6094 27.557521315
31.162 17.9739 39.6728 28.1813361655
34.8992 13.8016 38.3841 26.3506457782
33.2281 17.2614 42.6232 31.817488316
25.1259 12.2017 35.4705 76.686364845
29.229 18.4215 36.1448 52.9622195941
34.7864 14.5257 35.8119 61.6577964242
27.1649 20.6428 35.609 118.8431946859
32.3191 15.4398 35.8772 60.4236837322
31.1876 20.5842 36.6613 40.2831282139
32.3755 18.3822 35.7971 82.9464137611
34.9024 19.0916 35.7672 72.8508899062
26.3395 22.9774 36.4422 40.5090029825
28.2086 22.8998 38.6878 30.7581605133
30.9368 23.8459 35.9041 78.6128650936
34.8428 21.3791 39.0039 28.6286081481
34.6699 21.8147 36.3474 42.8391040603
36.5778 16.7521 35.6281 84.9603675693
25.2377 15.1452 35.6392 76.1522845298
27.6458 16.0315 39.7 28.4234828387
25.1689 15.7203 38.4421 31.0785335677
37.2148 15.3223 38.958 26.9680440769
32.0466 15.3891 38.8136 28.5564366321
30.9505 23.4326 38.5699 32.1153210426
36.7723 15.7628 41.6769 30.4451628155
34.4782 16.6594 40.2003 29.1165699259
25.7926 19.8591 41.0159 25.7935129129
28.5711 18.2423 38.7219 27.6207123348
31.9156 20.7978 39.4981 30.4844366174
31.8604 21.705 42.5099 28.662178579
30.4087 17.654 42.1876 28.8517468399
28.1442 16.2262 42.5416 33.0032705293
33.7968 24.5652 35.7079 93.636601387
36.2461 13.2448 42.8748 31.5037261761
29.306 14.1421 38.9831 29.4004402235
28.0641 20.4394 40.0798 27.6437176571
29.3534 20.3277 42.3833 27.438296673
33.4734 14.5696 42.9459 34.1281023076
35.4603 18.8042 38.4385 30.3865742273
25.674 17.7171 42.9375 28.125476652
30.2789 12.0659 40.5547 31.8834732119
28.3588 23.5513 42.8589 29.060786249
28.6219 13.4926 42.8867 34.3584511083
26.7211 12.0794 38.7659 29.2333202172
30.9956 24.1869 42.717 28.730016097
27.8472 15.2903 47.3824 36.2455553122
26.1275 15.6094 54.5622 30.871349714
31.5501 18.0416 47.399 28.9622306567
36.0159 15.0538 53.9114 29.5294144876
33.4564 13.7576 45.6232 28.8187471176
35.2683 23.9041 52.5271 30.2806436494
25.788 18.2814 45.4712 30.6745946638
28.8528 24.277 52.1217 31.5004486095
27.198 19.0495 56.3067 29.9750671319
36.965 14.9946 48.8507 30.1575214573
27.9992 20.1244 46.0426 28.5002143632
32.5343 22.1616 46.9513 31.7647128751
29.4641 17.1196 48.7204 30.5212989796
35.0475 19.0889 43.9689 34.9599449272
27.4833 12.5631 53.2881 30.9393827082
24.9928 12.9851 51.4238 32.1499248922
35.5654 17.6997 46.3982 28.0808507159
35.2236 23.301 46.5553 32.0017043195
33.3811 23.1257 54.2404 28.4437147368
30.5841 24.0558 54.6386 31.0249105232
36.1777 23.7078 43.8267 31.5220378659
33.3497 12.5322 50.7703 29.4245050371
25.7553 15.7096 49.4322 27.1333173779
36.2232 21.2752 51.5492 26.5029315137
26.8535 21.1202 43.7582 28.326445245
31.1178 13.3115 52.333 31.2611260385
31.0253 12.672 45.9214 34.0039223083
26.8945 21.8274 55.8139 28.7974354797
33.3174 15.967 47.1164 31.5615046555
26.5635 19.5855 52.0883 32.5526459823
28.1394 19.3713 48.6742 26.4725103844
30.9262 17.9395 53.6902 32.9827246505
30.092 15.8977 51.3649 35.1564817944
33.0839 19.7518 49.0067 27.6992230601
35.658 18.795 48.9236 26.1593944013
32.4405 19.1741 51.7311 32.2576809991
26.1162 22.0951 48.8644 28.3761475626
27.658 22.0809 51.0195 28.9157172029
25.7032 18.437 49.8048 28.1782111868
30.3536 23.7077 48.2207 27.4257249284
29.9898 21.169 49.5846 30.0871551348
30.373 18.683 45.0152 33.255500252
31.7009 22.0039 51.9583 30.9089848092
26.215 23.2285 53.5818 31.8933709234
32.4977 13.8783 54.6733 33.5617684849
35.0459 19.0673 52.4932 28.8502562753
32.513 20.3353 44.7348 30.4922921748
33.9617 15.0989 49.6728 34.8465272341
27.456 15.336 51.9265 32.8743495702
27.9842 18.0446 53.8905 32.0026739089
31.3011 19.9792 55.63 33.5928349107
33.6223 22.6163 49.9623 25.8747281565
33.7991 21.2546 56.1145 31.800667459
34.96 17.5538 54.9968 32.0493984534
32.7268 16.5288 55.6168 29.9340918977
34.8163 12.4872 53.1312 32.384753477
27.9536 22.9156 46.6186 30.2300210275
29.4125 22.0103 56.266 30.6403312717
35.7756 16.7401 51.1197 29.630507783
25.7649 13.9433 44.4143 32.1239522117
27.8988 12.6141 47.3128 27.6650932493
30.6877 12.9834 48.7477 34.4974131669
28.9334 35.6088 6.25214 29.8557095182
31.7131 34.8149 5.89086 29.7477984201
26.0345 35.3437 8.60825 28.2905074572
29.9408 26.9416 13.1771 29.2541914375
26.1329 28.2072 5.54526 26.600265249
32.8336 26.8915 8.75874 28.8130003145
33.5679 28.3059 6.41504 29.0031591131
35.6377 26.8734 6.47937 29.64471725
25.7959 27.6107 16.5077 28.8492302952
30.8588 26.9664 5.98826 26.6420553495
29.8416 26.8042 8.70291 27.2693003955
28.874 29.0284 5.81195 29.3167786517
29.5109 31.2404 7.37087 30.0174201297
27.7696 25.0045 5.34777 28.281283842
34.6372 26.7835 12.3512 35.2422662034
30.094 36.3557 12.0866 30.2505969485
35.9926 27.0118 9.27378 31.0292690463
36.0665 35.2545 8.04032 27.7528912072
31.7737 35.3846 9.67033 30.9849571568
27.2642 26.175 7.91482 28.829863689
32.1208 32.4996 8.32305 31.8073541097
33.1214 32.3802 5.13089 30.6820213734
30.087 28.0115 15.7995 29.509941254
28.0162 24.8436 11.799 30.4898386526
30.2649 31.3251 13.6962 29.8822668005
25.0619 34.2719 10.886 27.2731960892
26.7119 26.8164 13.5666 31.0452027398
29.2438 29.5322 9.63064 30.7824795342
31.9586 27.9053 11.1774 28.5007016444
31.0977 25.0898 15.5202 31.2372004021
28.3878 29.3359 12.6202 28.1730911283
34.7146 36.0439 4.02775 28.9607138105
26.7669 31.9306 5.7248 27.7399968879
31.4641 31.039 10.8837 32.0266985339
26.2609 30.7276 8.33375 30.8042189765
35.2014 33.8907 10.3808 31.7838639759
34.3808 30.5705 7.67425 32.4387657673
35.8831 29.6327 9.92864 31.7649861261
32.5671 35.7374 13.8676 33.0362175871
37.096 30.2586 16.1818 34.1332122662
25.0534 24.5106 14.6114 32.9833972088
28.1137 33.6385 8.19153 28.4320256209
29.0923 33.0547 11.067 29.6959051318
28.6375 34.164 16.5608 30.6486545112
27.7543 29.5409 15.4666 26.5908289055
35.5689 31.9971 12.4054 28.8518731576
33.9443 36.2322 11.5326 29.6921986511
