24.1978 21.4038 13.9153 29.6464346411
24.2121 17.9745 13.225 24.7689929357
16.3412 24.297 3.9576 40.3722779757
12.7776 20.715 24.6286 105.896091427
13.3244 15.469 19.611 34.0835413273
21.313 12.2795 20.8397 26.6473458455
17.5448 12.9403 20.0501 31.3465998445
17.9061 22.0826 18.928 32.0529989364
23.4925 16.7159 21.0335 29.4101724987
23.973 23.5358 24.5602 98.2105318139
14.0224 24.2229 19.7232 25.5685529144
13.5865 18.1091 20.2919 26.5553960834
19.6621 23.5566 24.4627 77.4591845542
16.1198 17.2008 21.0248 29.9588206931
18.2989 18.6776 21.1907 29.7675974512
19.3662 23.5369 21.5008 27.8913201614
19.0197 19.8781 17.1931 35.0897996567
14.4632 20.3925 21.6671 28.7548693139
15.3051 22.4551 17.5997 31.4590841596
17.0582 21.0209 21.5174 26.9194821288
19.9591 17.6523 19.2232 28.1946399639
13.9066 19.6663 17.9434 32.3825100174
22.3257 19.4769 20.6861 31.2042496229
21.0149 13.4771 23.5756 49.499655815
16.0904 24.4787 24.4788 93.8767832103
15.6457 14.262 21.6877 27.3675400271
16.3208 24.2255 21.4239 29.5015659263
18.4251 13.9749 24.3299 99.8540911482
23.3292 15.3469 23.769 57.9641460508
14.2906 15.0615 23.9662 49.0950481249
24.1937 16.1894 17.6562 27.4833457515
18.8614 16.4571 23.1401 28.9942789094
16.2045 17.1269 24.2429 77.0588454891
19.6258 19.4977 24.3768 84.7489879405
17.9755 15.4084 18.7995 29.494769829
20.9957 22.0794 18.9988 29.3835667318
22.585 22.5334 21.4867 28.83058205
22.9936 19.0239 23.2681 31.4959893125
22.5708 13.3827 18.3653 29.2313320092
17.459 22.0373 24.2861 56.2066944158
15.4007 19.7495 24.3769 69.8307013117
21.7681 21.7966 24.0699 52.3092788688
21.3759 17.2157 24.363 95.3577139826
20.8101 15.3075 20.6076 29.6391294942
20.4025 14.5517 17.4484 24.9357406382
22.3472 17.7559 17.0487 27.4404826962
12.6431 22.4349 21.3947 26.6226475863
13.3481 13.3458 36.0826 77.0412346974
17.2033 16.8387 36.0532 41.9427067159
21.9397 24.1622 39.0464 31.6529199113
19.923 13.6048 38.8884 32.4718342731
19.7535 12.7636 36.3332 37.9586883668
15.7819 23.957 36.2984 50.0757565594
16.9807 18.7982 41.3553 32.1739887584
17.7826 13.3241 40.7026 32.0765932496
12.9148 21.0346 40.1304 32.0818720319
14.281 16.2206 35.8792 82.6532555394
13.5831 19.1188 38.2014 30.0266093669
13.92 14.4205 38.549 29.0028465684
19.4434 15.3336 35.3908 121.7464270289
16.4336 19.7415 38.0746 27.3987513744
20.9192 17.2279 36.2563 35.8814820121
23.4104 16.3678 35.9084 82.1131879605
15.0286 23.5072 39.0918 27.1658744421
15.0004 21.0231 35.6082 103.2451549599
12.2814 20.821 36.3824 37.9170752919
24.3943 13.0952 42.0317 27.2974688729
17.5313 19.3017 35.4264 99.4727910729
20.1185 19.783 35.8673 69.8668607979
19.6547 23.9977 40.516 28.6835356596
15.7542 21.4925 41.1138 31.9826041095
21.091 21.6568 38.2325 28.7807127037
24.7021 22.8546 39.2825 26.522829009
22.0633 22.2067 35.6211 110.9334666426
12.7137 16.768 41.428 28.7952884971
24.4718 13.8254 36.474 39.9391018548
15.4976 16.3683 41.5909 30.1392864805
21.8433 15.4646 40.2679 32.1399143965
23.9436 17.3266 38.4467 29.1949413428
24.3393 14.2637 39.5435 26.0215860447
18.0791 21.734 39.4284 31.3867723541
17.8927 17.5449 38.7619 28.5624372809
16.5565 15.3035 39.1552 31.1017807943
20.8682 17.7208 39.2641 29.1871789894
22.6629 19.93 39.5944 28.8080707343
12.398 12.697 40.2478 30.9348393127
20.2713 20.0268 41.228 33.6116233693
23.3817 21.7973 42.1722 31.7922786707
22.5729 15.7037 42.9702 29.5933575621
12.3432 22.9628 38.3863 27.5918938072
20.8878 22.9516 43.059 32.6337172623
16.6347 16.1437 46.8852 27.2017013592
12.3664 13.3115 48.6743 29.8424513536
18.4595 14.815 45.0015 30.1871701893
19.9258 13.7928 49.1538 32.2617637241
14.718 20.5798 55.8792 34.5069439701
14.1977 19.3652 53.4388 33.7267223936
22.795 12.2708 46.8913 30.6114069801
15.9892 21.4961 45.7213 30.363431937
14.4156 17.7576 44.2294 34.2498970397
16.8755 18.7206 45.5498 28.3981697066
18.8058 19.1228 43.6081 30.2167331804
13.7526 20.5865 47.2008 28.9209347674
20.2297 16.7715 44.4062 34.6307435045
21.442 18.3236 46.3011 34.3418420366
16.4423 13.3576 54.7223 33.5205456381
20.518 20.9626 45.1068 30.7503682026
15.3885 15.8731 55.6694 37.3786887807
23.3801 18.2068 53.5542 30.1163330898
15.2503 12.4627 47.7511 32.3459264332
18.8272 22.1602 46.8664 29.6411901427
16.9953 14.1845 49.0405 28.5211723824
17.4026 21.5677 55.9006 37.162360425
20.3147 12.4119 51.5965 31.2363948975
16.8541 13.0045 51.6956 34.9174999165
23.0337 22.5148 46.3425 31.2936742325
23.2852 14.8082 49.1938 30.9070410076
21.8771 16.17 50.9024 25.2912607067
17.4942 19.5717 48.1931 27.4578005119
14.083 19.3529 49.5105 30.8705228206
19.6316 12.8074 46.4895 30.1181191279
15.9819 17.2752 49.1592 30.7450970958
19.5204 16.4336 50.1037 28.8141122952
19.9621 18.5556 48.5229 28.4429396696
23.5364 18.7313 50.5487 27.7134792817
16.0219 23.5794 48.0953 28.319543133
21.2409 20.2564 50.1153 28.9870675598
16.3214 23.2439 53.1516 32.3163523685
16.3531 21.6322 49.9433 30.1177808792
13.066 23.1502 47.8811 30.159721286
21.5428 22.56 48.7985 29.9301445541
18.6427 22.9734 51.277 30.7467341652
19.9754 20.4078 52.4704 33.1885251566
12.3202 12.3085 44.6033 29.1941510404
14.2187 21.7229 51.8979 30.1406699993
21.9363 14.1101 53.3672 31.0901507243
14.955 22.876 43.4607 32.7863392171
21.4173 24.2194 52.7064 29.6161554346
20.5309 13.3325 55.5422 31.0752181607
14.6116 15.2012 45.4339 27.4185870931
16.0611 17.2989 53.151 35.8098039318
19.6365 23.0392 54.4909 28.4240734811
14.8434 15.512 51.2434 34.8712673048
18.8238 17.7176 52.6072 38.7729317716
21.1308 16.6441 53.7801 30.4330243124
22.2854 20.8602 54.0367 31.153395607
12.3594 23.639 43.3553 30.378164437
23.7328 16.7223 46.9128 32.1273690324
22.1544 22.4012 56.1256 30.0044388041
23.7754 23.7285 50.124 30.6236504592
24.2215 22.7496 52.8681 30.347043648
21.9468 13.5099 44.1452 28.7530558268
12.5835 23.8015 53.8617 30.1140508039
16.1297 14.1577 43.3035 30.9196908712
19.3227 12.4314 43.1823 32.1581814268
20.7054 29.5368 9.08917 29.9769141598
12.775 24.9561 13.3993 30.0629157841
22.1631 25.5627 4.42085 27.854591026
14.7276 35.6699 8.64749 31.9424152405
14.5591 31.8973 11.8844 33.2913883663
14.2234 27.8114 13.247 30.7125879782
20.8177 35.5813 13.7808 30.4141458115
20.3536 27.8804 5.38191 28.8390073802
15.6491 35.101 6.34315 28.5372168686
22.2623 33.5368 15.481 31.1922800949
18.5668 31.576 5.35247 28.7210338207
19.2188 25.1445 12.0278 30.057926195
23.4767 28.7852 4.03896 27.9632478988
15.428 26.6328 9.36154 31.427385256
22.0423 30.3049 6.48224 27.5489298359
22.5133 32.317 4.29338 28.1689011734
13.1324 26.8708 4.9241 32.8865008134
14.0536 32.7587 9.05034 35.9245910286
16.4807 26.018 11.9316 28.9778585047
18.577 35.1176 11.061 27.7794295062
20.7625 32.4873 7.7472 27.9653206021
14.9941 30.2824 7.3862 31.2030790113
20.3163 34.1402 5.30358 29.2347752999
13.7326 35.0882 4.68058 30.0607026387
16.8409 28.4476 7.95187 34.359730271
22.3916 36.3128 5.95721 28.5557278255
19.3027 24.6888 15.8142 31.4060150477
20.6824 27.096 12.9177 27.9877926271
21.3277 26.5662 15.5316 27.641276207
24.4935 34.6218 5.17531 25.5298516914
17.9855 29.8187 9.92361 30.6966973141
13.8983 30.7446 14.4702 33.5647586774
17.6903 28.8385 4.99292 31.9268380992
18.0625 32.0124 15.7661 32.300336217
18.8058 29.159 12.6049 29.58049116
22.306 28.3109 11.2624 29.3543041104
23.5438 26.4166 9.28339 26.868138222
18.5624 32.8808 9.48983 29.6450254447
17.4984 31.9009 12.1465 31.4226395289
16.4833 32.5716 7.20285 30.5748954971
21.913 33.0944 10.1571 28.0255600452
16.5972 25.2389 14.9031 30.3205506794
23.6788 30.9249 10.6293 28.576457213
16.7324 28.4389 14.422 33.5156279536
24.3691 30.972 8.20362 31.5758675137
12.7197 26.6122 15.76 29.3110109399
20.7901 26.9909 7.9074 34.8360246247
13.0096 25.7326 8.25268 30.6926138582
14.3445 29.3565 4.64863 31.5999060127
23.9976 26.0505 16.1242 31.9162167053
22.1688 29.5749 15.5303 31.7948700921
15.82 30.2385 16.1144 26.6999918057
17.1865 35.0081 15.669 30.1833830207
20.3681 31.1035 14.3804 30.1745508991
24.4709 35.2182 10.3032 31.6496010465
18.2618 35.9653 4.77957 33.9132576141
14.0701 34.3495 13.067 36.4326060015
21.7113 35.8692 9.03975 33.7716523562
22.6986 24.5913 6.81561 28.0953175554
13.0004 33.851 15.6369 34.8425353201
16.7807 35.6642 13.1144 30.7127462721
14.0778 29.059 10.5199 33.1788711722
20.4362 33.2087 12.5677 29.2452017929
14.3888 36.1153 16.8443 28.1583822243
16.3243 26.9016 21.263 24.9789118507
13.802 30.0228 18.3288 33.4476833807
22.8011 30.8 21.2692 26.9136841321
13.6074 25.7319 23.9483 55.9544829524
15.9177 27.898 18.6174 31.4606271225
13.623 31.6806 23.8925 57.5442271595
23.2255 35.0389 24.2818 82.2163066639
13.2602 35.0773 20.0644 27.0825850817
17.6689 33.3519 21.5372 28.6062520495
19.7394 29.3562 21.6504 28.1609303258
17.395 32.3296 18.3989 26.8402544436
20.5842 27.7693 18.1472 31.740717799
16.909 36.2602 18.2991 28.3220089374
14.8969 25.5826 17.0623 31.0966999605
18.1889 29.2961 18.8733 30.1571450636
20.2364 36.6022 19.7811 28.7110859042
12.8453 32.1888 20.9371 30.1108910319
20.171 32.055 19.651 29.6727062775
14.4965 33.0478 18.3197 30.6786672289
16.5834 30.1656 24.2421 67.9839757969
16.7308 27.4229 23.9824 53.3360931273
13.6145 28.6517 24.0998 61.5682043811
23.839 35.5223 17.2648 33.0266144784
19.6247 26.1085 24.0852 69.3421514674
22.5165 25.5829 23.7625 36.5905129026
22.5146 30.0416 24.0896 66.7692051461
22.0168 25.6281 21.2893 32.1525902094
17.0813 30.5671 21.4894 27.7615442043
19.4482 30.1491 24.1627 67.5614513771
19.2066 26.4174 21.0169 26.6127602278
18.8837 32.8741 24.4229 82.6252563824
22.4667 28.4832 19.8557 27.6515585567
20.6 35.2319 24.4259 88.3787116112
24.2317 32.3 24.1498 71.7491009133
15.865 35.2811 21.2068 29.55495678
16.0999 33.2897 24.2258 75.7038889946
14.2008 29.4789 21.2966 29.5055942254
20.6329 34.5142 21.5999 30.5305552545
23.3337 33.8391 21.2845 31.3784992567
22.4742 31.6563 17.7945 32.4674261514
24.3678 27.7897 24.4946 100.2200857329
20.122 24.7448 18.3866 30.6418450605
19.4503 34.645 17.9547 29.7561453507
13.2652 26.3899 21.229 30.2718103249
14.6751 35.4985 23.7558 49.0765567848
24.4235 32.073 36.4228 47.5524181252
22.1428 34.4598 38.2807 26.778180159
18.3712 25.4676 35.7852 102.3587851628
19.7708 36.0088 38.4999 26.1330788492
22.1157 29.1814 35.6416 84.1312614965
22.2282 27.3715 37.8746 28.8827045407
22.1119 34.8104 35.5314 82.7232397356
18.6789 36.5939 42.2027 31.2954792913
13.7494 25.9009 35.9217 71.4200048018
17.0628 27.7422 36.3492 31.9485819806
17.0624 27.6998 39.0948 28.2745710577
19.9662 29.0468 38.8012 30.3557243624
19.0161 29.4233 35.7771 79.6054175256
14.5858 28.3363 35.4536 116.2390395582
14.1002 30.799 36.777 34.4482759388
14.1233 32.0673 42.7699 26.9343156433
16.0697 34.2269 39.027 31.2816496732
15.847 32.2773 35.3977 121.7243015919
17.8576 32.1203 39.5865 29.0810095834
18.2361 32.257 36.5216 30.887186905
21.4645 31.9602 35.6133 80.0591435944
13.3657 33.6025 40.3317 31.1291865007
19.0545 34.9597 36.0336 52.8455658289
24.3251 26.055 35.8346 80.4075765633
12.5338 35.4 36.1409 61.994092618
14.7725 25.9819 40.069 31.6269997502
22.9631 36.058 41.4021 29.4882010885
22.7959 31.1459 40.7554 28.425488143
17.6668 25.0471 38.9124 30.1644243425
22.0755 28.3699 41.2469 30.5636999996
18.9941 25.9148 42.452 30.8561319599
21.1445 24.9172 36.1271 56.5843523484
21.6413 33.4261 42.1254 29.0195436096
19.5704 34.25 40.6996 26.5011936995
20.5958 31.8118 38.388 27.7125272126
12.6696 26.4954 42.2624 29.6441262775
13.0336 27.5891 38.4183 29.7786610489
13.945 30.6012 39.4815 30.4776561783
16.3095 29.8704 40.8053 29.2975351677
19.037 28.496 41.6746 28.7050953369
13.921 36.0072 42.4372 28.9762373697
15.2827 34.7628 36.2805 38.2378311261
17.1102 32.7957 42.5683 28.8085502327
24.5036 35.9438 39.0547 28.5119006817
13.3325 27.2099 46.0696 29.1404973413
23.3328 26.3357 48.2592 30.1062437886
18.4951 30.4669 43.6738 29.1586513459
20.0985 30.3025 55.769 27.7954948021
16.0921 27.1631 52.8986 30.8577094894
17.6979 29.8076 46.5412 31.7420361208
18.5749 27.7676 54.4106 30.7341405478
16.1013 33.3108 45.7141 27.2217216187
13.0707 27.3317 51.0625 29.060215646
19.4792 25.5921 55.9195 34.855456226
19.9589 35.4149 49.4058 26.9883821912
14.4903 31.0056 46.1228 26.7601870242
18.5035 32.5321 47.3586 31.2871159872
20.1878 33.0664 44.7242 30.8788055505
12.3956 29.499 49.1909 27.6105410013
22.4823 36.3667 55.5756 29.5118636891
13.3918 33.9735 44.498 28.2603651146
13.0602 32.1548 49.4448 28.2220966369
13.8913 32.9264 52.0382 30.9525925721
18.9834 25.9576 50.0517 30.8715426096
14.9254 35.6987 51.9347 29.5818439598
22.6196 35.1214 44.4541 31.5500341983
13.949 33.2396 54.9245 32.5099740797
17.9372 35.4041 54.3869 30.5799709946
15.131 29.0675 48.1748 26.0554624364
16.1946 25.2974 50.8862 28.5560380905
20.4436 26.8748 52.5201 28.1020367577
19.8267 28.2657 47.7704 30.3535784476
18.1285 31.9746 49.9991 29.3579557876
22.5673 31.6993 46.1151 29.658483301
15.7886 30.6249 50.2965 32.51490498
17.3133 34.61 50.2416 31.1877479155
19.5293 35.5386 46.6234 30.1890162931
21.3669 33.3439 50.7502 26.9058766954
22.239 29.0967 46.5803 28.6356231384
23.1445 32.1257 48.7836 30.8474129338
23.1948 29.2867 49.4778 26.5174511815
14.3691 25.7986 54.6678 29.6609545402
15.2887 34.144 48.2654 30.3033737828
18.0987 24.6409 45.8721 27.5547846249
21.8262 36.7161 46.613 30.3335546053
20.7469 25.499 47.6339 27.5560276543
16.7788 24.9022 43.5936 30.6560187729
23.2681 35.968 49.0484 32.2375763501
16.337 29.7981 55.034 31.0841072306
22.8687 26.9135 44.665 28.5932548924
20.6944 25.2142 44.6766 29.1470061645
22.3281 28.7759 54.0361 29.4084078378
14.4437 26.3271 48.7694 27.8388002116
15.6467 29.6333 43.9209 29.2238472551
14.7974 29.6509 52.5681 27.4340549469
21.3767 29.5799 43.6685 31.9424259931
16.9075 32.733 55.6851 33.1754664981
19.9683 35.6177 52.6529 31.8588492133
20.0886 31.2894 51.6406 28.0643252939
19.3707 32.3657 54.0682 29.7031431574
23.4091 33.1236 52.8562 29.7522344466
20.6949 28.9089 50.5925 30.6773361482
17.361 26.6409 47.8297 29.4321995149
21.421 33.9467 54.9416 24.7059270974
14.996 26.9417 43.8971 31.6186005687
23.3573 26.2613 53.6966 27.8165769353
23.5501 30.5198 52.0702 27.8431294136
24.6245 25.222 45.9704 28.5143696691
24.4109 33.1612 45.1993 29.9626741339
16.4476 35.4537 43.6047 28.6682087278
14.7391 39.793 7.58297 29.3373743399
16.7251 40.2751 5.82665 29.969329464
18.2082 42.5713 6.03364 31.9504773281
23.7993 37.9766 8.31747 29.3418287492
20.3915 39.3019 4.16474 31.2251760093
15.3821 48.7199 14.013 29.0104676195
14.8293 44.1484 12.9231 29.7397259728
21.1793 42.4239 12.9151 27.802418959
14.114 43.5766 4.38002 31.1196835369
22.9072 39.0938 5.62246 30.0590659739
22.5279 40.2105 14.1731 30.6601636053
22.8204 45.0397 16.4428 29.4885176954
13.1959 37.8842 15.2841 28.0577973125
14.9486 39.1777 11.7358 27.8568221659
17.7877 38.365 16.4201 30.2549874133
17.2389 48.1509 5.11737 28.8579359492
20.8581 47.4875 14.6596 30.5136325699
21.369 46.4904 4.54751 30.2095537851
17.903 46.8763 8.92129 26.4697961323
16.8685 39.2231 9.78915 28.4839327575
13.2528 37.9831 9.34884 30.6835122319
20.2811 41.8546 4.01868 26.085403487
12.4879 39.0637 5.78676 31.559594686
19.4718 48.9455 12.791 26.2271922537
17.2732 44.3955 14.7125 29.5369481948
18.0674 40.1386 12.7124 30.2886685861
16.1191 43.6055 10.2631 29.2404164569
14.4347 42.3908 8.66872 29.2932646736
14.2885 40.491 15.8505 28.7961135562
14.5833 44.4028 6.95466 29.206161563
22.1655 44.9215 13.6558 30.2164287887
21.524 38.6142 10.1561 26.7563540686
19.8463 42.3321 8.37958 27.1909101573
23.6092 48.2524 7.95204 33.9716633393
22.182 42.3734 6.24519 25.9548465242
18.8231 45.1102 4.16855 30.4284025377
18.5442 46.6668 16.0912 27.2213217277
14.1111 47.8274 8.37726 29.4077157463
14.412 46.4088 15.0676 29.5022218632
17.1543 45.6941 6.46969 30.7892347824
20.0395 45.3105 9.206 28.6407813046
22.1145 44.8943 6.83204 31.020057944
19.5072 44.8494 11.7089 29.9297055125
23.3079 48.5712 15.6565 27.0096963635
15.9874 46.3838 10.5523 28.3431657844
20.3738 37.1038 16.1637 30.6832275336
17.6386 47.1299 12.8554 27.8525320519
22.8427 37.8561 12.7703 30.4690429098
23.8964 41.2968 7.83189 33.0529525295
22.4268 41.5553 10.5471 35.0215930795
13.7138 48.5645 11.5792 29.0910899947
18.2893 42.3509 10.8435 27.7949519862
14.2075 41.4217 13.237 30.2401478073
19.6387 37.7672 12.0064 30.5750880352
18.8679 42.0699 14.6029 33.4613099896
22.7374 46.2871 10.0961 33.0727885791
19.5198 39.8018 8.65226 29.5274856799
16.0775 38.2185 14.1392 26.485949284
18.6538 38.3725 6.14646 29.5038083381
13.0966 36.9848 12.4315 32.5593178436
24.4261 45.22 12.1411 31.3878317676
21.5507 48.8311 6.08656 30.7130798398
14.6574 48.5215 4.11519 28.8549848572
21.3573 48.8202 10.484 31.4347855058
12.4119 44.7257 11.6234 28.5722760333
12.4159 46.9257 16.8472 27.2446825224
12.6628 48.4865 5.96808 30.4896807219
17.4927 36.8132 8.64255 33.3499606306
23.3044 42.1532 16.7167 32.3774162937
21.5376 39.677 16.8003 29.6993419689
14.8479 40.8173 4.00123 31.2662573281
20.7076 38.1505 23.5975 34.8951785655
13.3348 45.3133 18.9564 32.0391716281
14.6127 39.4476 21.9379 29.6482782419
17.4077 39.8659 18.5616 30.7632996271
13.1514 44.8493 24.4317 89.7893854013
19.821 48.1503 18.586 29.7230302472
18.6011 42.9115 17.4646 26.8819000903
15.6502 44.8538 17.3555 29.1095213116
16.0492 48.2554 21.7289 26.7725207103
13.8383 40.943 24.7084 95.1813111824
17.9336 38.689 24.4043 86.2888676543
22.5704 37.853 18.5334 28.6503676015
20.6173 45.1446 17.8502 30.0839531129
17.3235 44.0923 20.0329 33.1221412517
20.4547 48.7803 21.6683 25.8756619762
20.029 41.17 18.8256 28.9470774228
15.2157 38.1959 24.5907 83.1504791648
17.1281 46.8852 19.2598 28.2129573018
16.8052 38.1883 20.9173 32.0643569842
23.0551 38.5947 21.2598 29.3522521548
18.3912 41.5068 24.1754 74.2435137067
20.7983 44.8902 20.5963 27.8370016042
22.6537 40.1057 24.7484 119.9183787725
21.1509 42.1992 23.9577 38.1645352813
15.9164 42.9792 24.2813 63.0928018315
15.0801 43.719 21.844 27.4422192563
15.7075 41.8163 17.4924 28.98965784
18.703 46.2285 21.7898 25.9291405713
16.3023 45.9018 24.0866 52.9551113344
16.6203 48.7171 24.4791 84.3199769016
20.9799 42.2113 21.1643 29.862034532
22.8764 45.8016 22.0297 25.6293010978
23.6049 41.3314 21.5237 28.5874640741
19.3346 45.6602 24.219 70.6026822532
14.1487 41.5513 20.1388 30.9859864026
23.3552 48.8438 24.043 66.7059706766
22.1281 44.622 24.343 92.6338967526
12.5826 37.7455 21.6353 25.7833271871
24.3848 37.4353 23.6191 34.7245782265
20.6192 48.4596 24.4524 81.9466923449
13.6662 46.2062 21.8641 29.8590353411
19.7105 38.8158 20.9837 29.0390224794
23.2056 48.2309 21.2954 25.5742500785
24.5779 42.1666 24.1212 55.9879727912
12.8831 38.9583 38.4447 30.2477596623
18.3883 39.324 42.8185 30.4694504507
15.5501 40.0572 42.0364 32.0254486861
15.2574 39.1787 35.3927 92.560028694
17.0413 36.9212 35.5071 86.4114882213
12.9044 48.8734 42.5602 27.7832857519
21.0038 38.7788 38.262 26.4001541889
17.7686 44.339 42.7807 31.0033926822
19.0264 48.0994 41.41 30.6879145986
16.3385 42.0075 35.741 73.469991145
14.7914 46.4475 38.7321 27.2817265053
23.1943 40.4954 38.1515 26.9679043668
17.2154 44.5541 35.6021 89.2876326192
19.2111 38.8962 35.8792 66.0515452001
22.6136 46.454 40.4804 32.5378251923
17.3098 43.6095 38.4449 32.324709491
24.1062 45.3834 42.6425 31.4452297778
22.2025 37.842 35.7812 65.1134005018
21.4521 43.2043 38.782 31.261542337
23.4264 40.5313 35.4971 94.1455854147
17.4376 48.0481 37.3716 27.4255518989
22.8682 48.048 37.6547 31.0794215904
14.0152 42.6164 41.4216 30.576805266
19.2878 41.7989 36.1713 53.8101602426
18.3376 46.4019 39.3015 30.6094479186
14.7401 37.9903 40.4027 27.6768402481
24.094 45.1511 36.206 51.8257961472
24.5082 42.7975 39.9762 27.779211814
19.3098 46.8006 35.7465 84.7142597808
12.4586 38.2237 35.8058 80.3394876214
14.9101 46.2474 36.0912 45.2008091655
21.0966 38.0413 41.1386 32.4204436615
17.0517 36.8784 39.4707 28.3150628923
19.1718 41.7153 39.5142 30.0352113503
22.1815 42.8157 35.9059 74.0564992741
19.1705 42.0222 42.4686 31.0570363732
15.6714 44.5581 40.8986 28.1174186444
18.1442 39.2613 38.4431 25.8275277919
20.9409 45.7586 38.0082 29.2223032751
15.606 40.0466 37.889 30.8978101847
14.2845 48.7686 39.8504 29.6344200101
22.5772 40.622 41.5286 30.976345547
12.4529 42.6442 39.015 33.3983550405
24.706 45.3673 38.8408 27.1786313009
21.081 38.414 54.1038 29.9398017137
13.2479 41.668 45.8568 32.0191005419
18.2277 38.8047 48.8897 29.7262317081
16.1628 41.5088 45.1418 32.9599762056
12.2937 46.0373 51.9485 28.6798392901
14.3197 37.8601 56.201 32.251764256
21.3146 42.0175 51.7494 26.8860759647
21.766 42.118 43.7743 31.6289932819
16.6821 40.9972 49.6186 33.705639547
13.2631 44.5025 46.2003 31.6950449535
22.0926 47.7561 52.0364 31.0283536473
18.1514 37.8745 46.0707 31.2545072303
16.2176 44.2432 45.2724 28.5404343596
13.718 39.4683 52.7471 26.0980984011
23.8469 44.3343 47.0031 29.6713216531
21.9149 43.6205 48.9194 31.3874905462
19.6738 44.1252 52.665 30.4403418441
13.0725 45.2346 48.7929 29.340133238
15.9851 48.2906 44.0991 32.194929638
23.1416 47.1073 55.1506 32.9842433248
18.1466 47.4102 45.8697 28.5774010337
21.836 45.0095 44.5984 34.1516844285
12.498 37.1787 52.163 28.2025593005
21.3563 47.3515 46.2849 27.0980893139
14.1511 39.3286 44.2492 28.0223473241
15.8304 37.624 50.186 29.0617552648
16.6221 39.7399 52.3151 25.6529800665
18.4047 42.1993 47.3253 33.1276047006
15.7366 48.3979 53.0577 32.0507549172
12.7605 47.891 54.144 27.5341200779
16.2765 43.6943 51.1799 33.1971136475
17.7669 45.0995 47.4474 27.9203058234
20.3861 41.1592 49.2234 28.7809778106
20.001 46.3352 48.5779 30.8203393662
22.717 42.3848 55.1534 34.9350286032
24.3719 46.9735 50.3933 33.1975193285
20.3991 38.0787 50.5804 27.0373311777
22.9189 38.57 50.7862 27.5482649551
23.8316 48.3416 47.8928 27.1085544703
13.5864 40.551 50.1452 32.6751992284
17.5311 46.4804 54.5774 29.1394313883
19.5299 48.3794 55.5751 29.6880514733
16.3226 37.3874 53.9875 34.0804358847
19.2752 40.3426 45.3475 27.0749247901
19.3368 46.4558 43.422 31.1487013003
14.7515 45.6297 55.1586 31.0349268165
19.5169 40.0392 52.6103 30.1377313053
15.2486 37.2872 45.6107 30.4527195732
23.3132 40.3454 53.2818 30.6960433167
14.2573 44.0281 52.9726 27.8006887667
15.963 41.7391 53.9718 28.4223518979
18.411 45.9684 51.1931 28.3799180344
18.3549 42.5314 54.7752 31.6935173391
23.5356 44.4112 50.8667 26.9139767629
23.2212 40.2757 48.472 28.3019986748
16.3757 48.197 49.9593 29.0507385559
15.8401 45.6583 49.1641 30.8187853867
21.9625 39.6251 45.9687 31.9398200017
24.3671 42.0324 45.4044 28.6647498585
19.2423 48.4899 52.5116 27.1147012669
22.2435 44.9714 53.3417 29.8729884996
14.1315 36.9793 47.9337 30.5569740459
14.6851 45.8291 43.4563 30.1733771644
30.8337 3.09853 7.47438 30.7010092184
34.6847 4.76792 4.77514 34.0557763866
27.7833 -0.0595379 10.2758 32.5828771919
25.5916 9.05983 11.3544 27.4417397214
28.0906 5.57711 11.3191 30.3018278532
25.4227 10.6315 13.5739 30.9470509232
31.258 10.8745 6.76957 34.0876964644
34.3346 2.77934 15.9814 34.7175518426
30.737 8.05809 11.6609 29.3265056879
30.1529 5.78677 7.36444 41.4450643301
36.4251 11.6067 12.2816 30.0037039614
26.2078 4.57391 8.0932 30.4761533541
26.3077 8.02829 6.21385 29.0871599265
25.4003 4.85224 12.417 29.2822286792
28.6781 11.1294 12.7597 30.9415951224
25.5752 1.70319 12.3955 31.1501597578
35.5066 6.3422 7.01429 34.0679314598
25.6283 10.6187 5.10434 32.1242143193
36.5959 3.26356 8.29713 27.4437058745
30.2178 1.55233 9.86706 32.1209966655
34.5856 8.14518 14.1828 29.9821314118
29.8644 3.47344 11.93 31.3800117431
25.8405 1.41108 8.88398 31.7303845975
32.3209 5.82737 16.2162 26.8931457032
33.4794 2.68754 10.8222 31.3137597002
25.3589 2.09126 15.7917 25.7136991033
34.1099 0.438557 3.91443 28.2225951621
25.3369 1.6346 6.02219 30.6842316821
28.1136 6.38124 8.78637 26.5710550765
31.8083 8.35418 15.3724 28.4552808886
27.1053 7.6397 14.8123 30.6389557052
29.9561 9.77731 9.18772 31.0610928491
34.5237 5.62766 9.16371 28.7669264932
35.6042 4.85524 11.633 27.5280055228
31.2352 10.7743 4.10899 33.4788079794
36.1735 11.235 8.5969 30.5984985235
27.0979 9.01063 8.78298 29.8064570033
28.0022 8.00891 12.2658 26.1426942562
35.0707 8.96702 5.62206 35.6306880137
34.0089 9.63757 12.0087 29.104560471
33.2995 8.294 9.87474 31.7301700996
27.7311 2.34094 14.3038 28.8970306167
28.3646 4.47686 4.45835 29.6678086855
33.5708 5.49225 13.4795 27.9878552066
30.6722 3.74847 14.8973 33.4931574387
32.86 2.35131 13.5258 29.6404309859
26.8153 11.9721 7.89524 32.1609685533
28.1404 2.72811 6.42484 26.8397008431
26.2531 5.18047 15.0924 30.0483620311
33.2501 2.67574 5.60584 27.7274076625
34.1581 1.682 8.2094 28.5549037457
25.3122 4.28779 4.92347 28.4164494379
31.9325 5.39922 11.185 29.9999037682
31.5655 10.1249 13.3836 26.1004587708
33.7779 9.9319 7.67607 32.6184838551
28.6057 7.22765 5.37136 34.5799844966
30.4212 11.798 10.5838 31.7041434401
35.8823 9.49979 16.2811 37.4851292513
31.036 2.13641 4.12504 28.4999194744
25.0651 9.29218 16.1923 35.0709951469
29.2728 7.93667 16.6519 33.6722687678
36.7912 1.55369 15.0258 28.9712674503
29.2891 0.185571 6.13914 31.2528925382
28.8566 10.1471 18.5039 30.3889015436
35.9443 11.3128 21.1584 37.1673608916
27.025 2.45379 18.3806 27.8770832952
27.3092 5.02172 17.6377 27.9229770623
27.9691 2.46528 21.53 31.0836450881
28.7246 6.53114 21.3391 30.2314391497
35.6578 0.651182 18.3176 29.3911006383
30.9112 1.37037 19.6116 35.1249499031
29.9962 5.36744 17.7369 29.1251559161
34.0378 4.26887 20.4435 32.38418188
26.093 9.79182 18.8259 29.8374701584
36.1368 2.0972 20.66 28.8888196803
29.5229 8.81565 24.1175 59.5102486038
27.6679 11.0282 24.5373 99.8767112254
27.2801 2.86258 24.0181 49.4204014431
31.6358 11.7528 24.2131 63.5259449498
32.6078 8.48427 21.486 30.305166821
33.8788 8.25353 19.1477 29.8581688267
34.4886 5.44922 17.8741 30.2361392962
25.2628 5.42336 24.0764 71.6292214078
31.2216 3.55884 21.616 29.6474137931
26.6315 6.89735 19.5524 33.4318237002
29.9797 9.09119 21.2403 29.2609414474
34.442 1.99272 23.4474 36.9953360261
25.2299 1.51567 21.1644 26.9727924664
36.711 3.55069 24.4241 89.6886490831
27.917 6.59067 23.8531 55.4801898235
36.5717 8.67196 19.8204 31.5749708821
31.6904 2.34617 24.077 65.2944445794
29.8561 4.34033 24.5398 91.368434372
31.2312 6.07594 20.218 29.3202597042
35.552 6.31258 21.4826 28.6481118
33.1569 10.3087 17.2211 34.8606477963
34.8918 5.45709 24.2344 52.5062127985
27.8408 0.316952 24.5063 113.9899092738
32.3585 8.60272 24.3048 73.4744052195
32.3112 6.0245 24.5255 81.5373519786
36.5279 7.84146 24.4424 93.3377833099
29.5895 1.95224 17.1726 31.8247675568
26.6018 11.6307 21.2148 30.6481775077
36.1719 10.6567 23.7236 39.5544795006
31.2422 11.7685 21.4957 26.1479222773
31.2725 11.9698 18.6093 29.7562711113
25.5788 0.171456 18.4061 23.3924957698
24.9862 7.01532 38.6604 27.7352453705
26.2988 1.4302 36.2819 41.6187325646
36.3361 6.89939 41.2456 29.5860544465
29.9262 2.0794 36.0027 70.2241444313
31.2554 4.50048 38.936 31.6025365813
33.944 3.46862 38.1936 29.4719815919
31.5998 4.40312 35.9682 69.6632049204
33.9333 1.0113 36.2393 65.8397663402
36.815 0.64714 35.8106 60.5684792995
27.3721 11.8123 39.2367 26.6345557882
28.1744 9.5045 37.7535 28.1732350983
30.7087 7.32555 36.0845 71.3165773329
30.977 9.29463 38.1619 26.7403612626
27.5004 4.16019 35.8537 72.4360768289
36.7892 5.16264 38.7258 29.1399628506
35.5554 8.90016 35.8202 73.5106900485
25.7759 10.8051 35.9271 67.0977356485
34.6072 4.92804 35.6175 83.8159806777
33.7201 9.46554 41.6279 33.0040425292
26.64 6.40105 42.8557 31.173774017
36.2007 1.956 39.0753 25.8430148503
25.9729 2.16852 39.4064 27.5471324377
32.6675 9.90982 35.9963 61.8495255832
27.9772 6.82389 35.8594 72.2672323523
29.2198 1.4948 41.5036 27.7979783865
30.5574 9.63604 41.6571 27.6982566663
27.416 5.84029 40.0356 31.379846046
25.6739 7.9666 35.7725 77.6406768329
34.9061 12.2666 35.7244 79.5991858895
35.6011 9.22379 39.6484 25.2434712417
32.1156 7.09611 39.8327 31.1804031188
33.5671 0.140949 38.8978 27.314245503
34.4618 7.05481 37.8048 29.4613184199
32.1351 6.99027 42.6729 27.9501512689
29.9678 12.0018 40.7226 28.7707361732
26.426 9.27098 42.1801 24.8731515909
28.2159 12.012 35.6665 79.841501866
28.4198 8.3731 40.2323 28.3315419185
24.8439 4.48811 36.0667 54.7111521376
32.3878 3.91183 42.9983 29.3763062754
28.3466 3.68797 38.4679 27.4222537684
29.4408 0.809082 38.9182 25.8092274184
32.0434 2.23629 40.7095 28.709874829
34.2649 11.3616 38.405 29.0467621428
33.9818 0.330422 42.2535 26.5297650137
26.8424 11.6913 42.0413 29.4533695148
26.5013 0.398057 41.4454 28.6195329572
36.97 2.35282 41.6788 27.474581823
36.7355 3.37592 35.3968 94.5893004167
24.7316 4.58811 40.4573 32.1596889236
35.3725 4.48027 50.4816 28.4006256522
29.7763 9.20275 44.3641 26.451527548
30.1347 1.51838 49.6854 33.9916933898
31.2738 0.908179 54.3204 27.5695621402
33.1264 5.35475 55.1153 32.6764496405
35.1103 2.80246 43.5276 31.1107470572
25.2079 0.544097 44.0124 29.8380937325
34.5699 1.63475 46.0157 28.6972819925
34.5317 11.8176 54.0494 32.7857284097
31.3177 9.4787 46.5827 28.8150829882
31.6191 3.2015 45.7329 27.1935837057
31.7461 3.07231 52.5711 27.0483420346
33.4373 8.24126 45.2553 26.7728285592
33.7633 9.12232 48.5672 27.0712615351
35.9864 1.46057 54.6272 29.1854991442
29.4627 1.36455 45.6915 28.811739359
29.5682 3.52184 43.3723 32.9248419061
27.6862 11.1067 44.9491 30.2910325845
30.5128 5.62493 46.5257 30.5933060389
28.2709 11.1943 51.4472 29.2432684463
34.5416 12.1877 51.0022 31.7453581163
26.0236 2.50684 50.8087 33.91651509
28.343 3.02847 52.7678 26.9569249344
27.4015 10.0831 48.5486 26.7610931135
30.48 4.51461 54.8392 30.1168657982
36.8983 5.9525 53.7944 34.2933181543
29.2884 5.65619 52.1403 26.8034311562
31.5166 5.05445 50.503 27.5399367354
33.1922 7.40082 53.4962 26.4163594944
25.3019 8.2731 45.8841 26.5302067995
26.4616 4.75812 49.1463 30.6777067925
35.5312 4.13285 47.5352 29.6028777471
32.4068 3.02665 48.7524 26.8444750539
34.9676 6.03353 43.5741 31.19886214
25.6901 1.34391 55.9418 30.3105588601
35.8424 8.9662 46.7078 29.2852083458
28.9107 6.51206 48.8806 29.7402178091
34.7669 3.89644 53.2672 28.5401042786
34.7254 10.6151 44.0575 30.7517255408
36.0972 6.40994 46.0957 28.0394273451
27.9874 8.03088 46.6105 25.6057331557
24.6015 5.33851 53.8912 33.7280582531
27.5295 8.59532 52.5069 30.7917657598
33.5807 6.69408 50.8302 26.9227845224
31.9298 9.62482 51.1165 27.6309205779
33.3386 6.28396 47.8136 29.4109259882
26.6869 9.65198 55.1719 34.9262399561
29.4422 6.47657 44.0203 27.2604972121
26.6926 2.27713 45.6324 32.3758660024
30.4286 7.95058 53.4848 29.9743843036
34.3106 1.9464 50.8248 28.8019084032
26.0554 1.16544 48.1769 30.2238021227
36.1732 8.7519 53.8094 30.774620006
26.5633 6.04443 51.696 29.565540196
35.4798 9.47788 51.1187 29.6866397345
33.7547 9.37409 55.6663 34.9173567962
27.0639 5.0764 46.1897 29.8413519194
26.689 3.68053 54.644 29.4766779064
29.7977 9.17779 49.4697 26.3052539723
29.0123 0.323354 52.3863 30.4658829676
24.7337 9.3371 48.326 28.9275846273
32.3892 0.34062 44.6066 27.0034891675
29.3835 8.90125 55.7654 33.7017642632
31.338 12.063 52.1603 31.531135963
30.2834 12.0335 48.9479 27.1038340587
33.7045 0.00719248 53.2388 27.4939904612
29.3785 14.2942 6.41464 29.6374161899
35.6335 13.5534 10.1335 30.6149647511
32.9549 14.4692 9.46443 37.0871541142
32.2647 13.4948 6.97444 29.7001821185
34.3226 14.3483 5.55186 33.0406410456
25.886 23.5501 9.26671 26.4786147591
24.7065 16.2415 9.44786 30.150263644
32.7182 23.3696 4.91652 33.7093181337
26.7186 16.8197 12.3836 27.2545001251
29.4774 17.0768 6.4795 28.2034889933
28.1075 21.9228 10.8378 28.3097581541
32.092 18.0389 6.21489 30.9000033563
34.5925 17.1419 5.00366 31.9706432628
32.4789 12.6991 15.3575 33.4280633786
35.4487 14.5566 13.6003 32.3738337084
26.1026 23.0709 4.92577 29.1434361311
26.3208 14.1938 10.2683 30.008975742
29.1864 20.6777 7.54216 28.8598776408
31.6174 20.7048 5.76932 31.140521899
30.1446 23.3411 8.59284 30.4119795511
32.6905 19.1759 15.103 29.1753906027
33.1798 15.4806 15.3784 28.5564183967
26.3937 13.6583 5.55925 30.7330956782
30.5246 20.0022 13.3535 35.3751168424
28.9733 13.6044 9.02685 28.8945717834
26.5053 21.7055 15.4303 28.7664243545
25.1378 15.1362 14.7503 26.4830576799
32.3996 16.8627 10.8708 28.3585159918
34.9094 17.0109 11.8937 30.1513644049
33.8667 21.6338 10.6798 32.4710037466
35.7086 21.3941 12.8674 29.7776122455
29.1863 18.0131 9.03936 29.1665063416
26.417 18.3727 9.84865 29.9098031588
32.1743 18.7326 8.9945 28.6311297592
29.5294 15.9955 10.8958 33.1591198118
30.9942 20.8464 10.7294 30.0012704793
32.6474 24.0086 10.4627 28.1899615105
29.9407 21.0699 16.512 30.4745693962
34.4112 23.1362 14.6302 33.6379182725
26.5121 21.0755 8.06454 29.6648814026
25.4513 17.9442 15.7304 29.7953975742
28.8018 19.579 4.78314 28.7259157996
34.2166 20.4238 8.24607 32.0447803517
26.4904 13.4753 12.9197 31.3739658458
26.8641 16.8956 5.12387 31.1128221153
34.734 21.2226 5.5317 30.6113590716
35.2882 16.5552 16.6533 28.5533741154
28.2039 18.9406 15.3263 27.4009922329
31.3377 16.9364 13.6906 29.5971233262
29.4039 12.6812 14.767 31.6796491391
35.2248 18.8872 13.657 29.2178343116
28.6654 23.981 12.281 29.3135872125
28.9203 15.5829 14.3348 31.070174391
27.1532 19.9274 12.7904 28.1943936719
36.6126 12.8309 6.24527 28.7619940591
27.2881 24.3725 14.7799 30.6006338472
33.336 12.5625 12.5115 32.9034359181
25.1417 12.9297 16.7608 29.6893223847
30.8976 13.4944 3.84191 30.2474620029
35.8485 15.1489 24.267 82.84345775
26.1112 13.8095 19.46 28.1558051167
28.8865 13.4493 21.7711 28.2328271089
33.5818 23.2452 21.0916 29.0600129104
34.6106 15.91 19.248 30.7339986249
29.3875 22.0071 21.154 26.4423179006
32.1592 14.5836 18.0587 30.9688147467
34.4471 12.7982 24.2512 78.7672234667
36.1341 19.7563 24.0518 79.9915893717
29.1704 17.0907 21.155 28.4354216552
33.4495 17.3765 21.1066 27.1862218711
36.8246 15.8484 21.6338 28.7554513983
35.3043 21.5151 16.9976 28.7994340011
36.4329 22.5217 23.8137 51.5936331917
26.8852 20.5554 21.5882 30.0975971384
31.3657 18.8667 17.7029 27.9201821973
32.4009 22.6777 16.9563 32.2822434546
31.9389 21.7511 19.809 29.0655317775
28.2434 22.0664 18.5199 27.3076742776
28.2038 12.6242 17.1098 29.7020328375
25.3392 22.0935 17.9597 29.8299409663
35.9359 21.9509 19.8347 29.6287962939
28.7949 14.7728 18.6907 27.6973604978
25.426 22.8192 20.6614 31.9730786714
31.4634 15.2966 23.7619 46.116608492
27.7916 19.3314 19.3923 29.3756605824
26.566 17.0806 24.6152 111.2659697435
29.2141 13.3417 24.5731 93.0531417225
33.7236 13.1962 21.5148 32.4660579795
25.7696 19.5035 24.274 72.3991955153
31.2583 15.1815 20.7312 25.4087170997
29.3713 17.212 24.0094 62.0710534276
30.539 19.8656 23.3307 30.0106262458
33.2217 19.5919 24.3084 92.5439877977
33.7034 16.9473 24.0188 60.4961804583
35.5453 19.466 21.3286 29.0934891798
28.2831 21.0981 24.4125 77.7516231134
31.1349 22.906 24.4526 91.9072909415
31.132 19.1241 20.6134 26.4789293313
27.0249 23.6266 24.4224 71.4523426061
25.9128 15.041 22.9173 28.9031576988
25.456 12.3109 23.7844 52.8906810203
26.0635 16.3961 20.2384 28.1897960805
34.3274 18.9016 17.7031 28.7544243842
33.8263 23.7305 24.054 68.9548212863
24.7332 19.2514 18.8707 31.2078443947
29.4772 16.879 16.9899 30.8639392909
27.141 14.4866 35.8322 78.0057966845
31.4659 15.3336 35.7277 79.1821395844
30.2708 19.4872 38.0147 29.6157627223
34.5867 14.8912 36.1126 59.4317605666
35.5052 21.6597 38.0577 28.5928441178
28.0492 17.3356 36.0894 47.6148504621
36.7976 16.8003 36.0254 73.0463860311
30.7995 18.3611 35.3508 128.0408396966
30.6597 22.1305 38.489 32.5384654686
31.0677 17.6518 39.9905 29.6593626322
35.4315 15.3834 38.7588 27.764016586
36.1331 19.3455 35.8219 77.1809911026
35.9596 17.7372 40.1285 27.1609284203
35.104 23.9701 35.5548 97.9638436785
28.5468 23.4442 35.8217 84.1777155996
25.3423 20.063 38.3649 27.1212945705
33.2602 19.0565 39.0585 29.7458214883
35.2207 21.307 42.5106 30.2780442188
31.3567 22.9733 41.427 32.1612002266
33.4779 19.4376 36.3851 36.3753145755
33.3108 22.0743 35.6989 83.529858754
31.0164 12.3354 35.6334 81.6541009957
28.0215 14.4374 38.366 29.4830854146
30.9522 15.249 38.5157 29.4726218797
27.4674 16.2613 42.4371 33.8543468494
33.0771 14.6065 40.1621 31.4851913798
32.8384 16.504 42.5141 30.1228648146
29.0366 18.5911 41.8402 31.3816895541
33.9051 21.3794 40.3433 31.6347173122
26.355 16.0855 39.9719 28.2952846321
27.7768 18.2003 38.898 26.8746011769
31.3388 23.9801 36.3306 47.4929014294
31.3575 13.5234 42.6207 30.3730294205
26.6945 21.2807 35.7501 88.6163304165
27.5626 22.7593 38.5387 28.4376909651
27.1213 20.685 40.5917 27.4342068058
36.5627 13.0335 39.1361 27.212084406
25.6002 18.4326 35.7936 83.800350437
28.2614 23.1898 41.7617 27.9753713364
35.2391 18.5492 43.0659 28.2240134006
25.4284 19.8157 42.7484 33.3467633816
31.4789 12.3728 38.4662 27.0533462502
24.6295 23.3392 36.4241 37.5604646169
25.3251 24.5239 41.746 28.4204014451
28.1276 15.9373 46.2403 26.8301364302
33.9678 20.1809 53.7595 31.9790109958
25.6684 20.573 51.4565 31.7873955086
25.811 15.4882 45.5008 27.9718465626
29.9375 19.7922 44.2378 29.951376142
30.3588 12.2637 45.7466 32.678153781
33.257 13.0493 44.3706 29.557783529
34.8296 13.0843 46.7367 30.7529430531
29.4921 14.9269 44.1761 30.155596838
25.1296 16.0581 51.0997 27.4284521096
27.9829 18.6958 46.932 28.4111085378
30.2711 20.8862 47.5614 33.3044396895
30.3345 18.2867 48.1074 27.8170627625
26.7608 20.8532 55.9351 30.4562607342
35.3973 15.6651 46.6022 25.5944524538
26.8566 12.6151 47.7859 29.957416961
25.1582 20.8604 47.0166 31.1371616654
25.0366 13.5672 53.1817 29.7669061533
31.1516 17.1903 44.6498 26.9624399321
36.2563 15.5001 55.5077 29.1597779122
31.2062 23.0961 46.1077 24.517073152
29.2342 12.8089 54.2025 30.9768687433
35.0153 23.5284 44.6382 30.0035897834
33.1553 12.1279 48.7545 28.5583383183
32.1465 21.8432 43.8927 28.697767911
30.3705 23.5938 55.6663 32.6765137016
27.5841 17.1901 49.9663 28.556389531
25.3404 18.354 48.4045 27.3522409949
24.7948 17.1079 43.575 33.592205103
35.2293 21.9043 49.2162 29.7722350783
31.8961 20.9295 52.1368 34.6543863671
29.6053 23.2012 49.3149 30.8304244295
28.7566 21.0565 50.9692 31.1797621432
26.1162 16.3373 53.9173 30.0741462799
31.5545 15.1549 48.7543 31.8123411941
30.8014 18.2019 51.15 30.4242562504
33.2435 19.5158 45.14 29.5353691963
35.2335 18.3341 51.9571 27.2475453118
27.6993 21.975 53.4696 30.4529096604
26.1788 22.1785 49.051 31.8075115776
33.632 17.7402 49.5735 31.0153792087
35.0093 15.0159 43.6524 28.5481675877
33.7803 23.4895 47.4164 28.8699209952
33.5613 23.1516 51.173 34.9293840289
26.3103 12.7277 55.3913 33.2104651514
29.027 14.9675 51.9882 28.2375056519
27.0023 20.7206 44.8663 28.0122139905
26.7514 13.2963 50.8834 26.4384222995
33.3099 13.9268 55.3996 29.705812074
30.1473 20.8002 54.5563 31.253870386
30.1193 17.7237 55.5035 32.2367969207
28.6826 14.8287 48.7609 26.1541366336
28.4337 17.965 52.9598 30.6652871514
33.0356 18.0451 55.3384 31.4769627661
33.8874 16.0373 53.6191 27.8175762111
28.5511 23.1446 44.6387 30.8481749691
36.9575 17.4823 44.696 24.145828532
34.6599 19.7389 47.4424 30.0059709604
36.3519 16.3617 49.2555 29.1849125106
36.289 14.545 51.7806 27.8874465959
32.927 16.7765 46.7071 27.3521944989
31.7368 15.4165 51.7513 31.5894741998
25.2419 18.5672 55.9629 30.4968976969
28.0501 15.4592 55.575 27.3760142281
35.5015 22.0122 55.0951 30.9218032515
24.9831 12.7918 45.0025 28.4798026239
24.5621 24.2946 55.5677 24.9036825002
25.2566 23.2149 44.0823 27.695618738
36.9102 19.9738 50.4987 29.5975411233
31.5151 36.6137 7.39855 26.8863061256
29.729 29.4685 12.7288 30.5830124431
24.9572 28.5114 12.6162 29.3498036126
35.6761 32.5028 14.8672 27.3961887699
27.3513 31.5647 4.89101 31.8115985467
28.9724 25.8156 9.0117 28.2774789535
25.171 33.2373 14.6905 28.7413528316
33.4906 30.444 14.9252 27.8042656164
27.807 34.1646 8.24505 32.4762969617
25.2089 32.9179 11.8183 31.5708749589
31.3533 32.6762 5.42365 28.5543592974
24.9648 25.6085 13.5125 29.1159206467
33.1086 28.8677 5.93752 31.1819128928
35.3798 31.8 8.93461 29.3077683473
30.9069 30.3009 6.68034 30.8789453028
35.0602 30.7207 6.12082 34.8449267289
26.8235 32.0603 16.7571 27.4648425802
35.024 28.0248 15.1647 26.1790093135
25.4184 26.8885 4.42414 28.5130061917
33.1449 34.5921 15.0551 29.2145686671
29.8559 34.8007 6.4108 29.5076113627
35.4839 25.0891 8.42523 32.1581759717
25.1219 28.2962 8.01463 31.3558641107
26.466 28.1186 10.4388 27.7352549313
27.8362 35.0194 15.0163 25.8756012099
28.2829 30.5261 10.6245 36.9508356451
31.0553 27.3583 9.87174 30.3027988287
29.4296 33.3208 15.9685 27.9003495908
26.8467 25.502 10.8747 25.3997113688
32.8659 26.5776 7.69432 34.8832781606
25.8681 33.009 6.77632 30.8360892291
27.8263 33.1906 10.8496 28.956780306
31.0261 32.972 10.4117 34.6520204611
31.3383 30.3818 9.50027 29.9997244909
32.0673 27.4545 12.492 27.8197915748
33.974 29.3921 10.1435 29.6602147012
31.321 24.7283 12.4812 36.5840155005
34.0482 33.2144 5.55677 30.1366113497
36.2801 27.4572 9.37148 26.472829477
28.8281 27.8402 16.291 28.9119166948
35.8883 34.385 11.3065 31.2544040191
33.5395 33.7495 9.44881 31.9864035131
35.2401 36.0173 13.5576 30.8884529798
28.5047 36.0492 4.24027 30.1456708751
30.7071 24.7201 6.3352 32.1157120086
28.1486 27.3019 13.6322 32.4214011244
32.3475 33.0036 12.9353 31.9928055579
27.6 27.1259 6.75557 27.4411111373
31.4067 28.1619 15.3502 29.4446343467
34.9487 31.7658 12.213 26.725921198
33.8923 36.1301 8.19509 29.8933152698
34.7814 27.5955 12.2032 25.5965753593
27.8883 35.3586 12.4479 28.5083231209
36.1468 25.5167 14.9523 27.9567090441
30.7174 31.2506 14.4289 32.2044013313
35.3932 35.8094 6.10507 29.776969218
34.8142 24.8088 12.1133 25.5839345801
28.6931 29.2426 5.69519 30.5798404457
25.522 24.9487 7.01197 26.4575407052
31.1626 36.6776 14.9578 29.189305116
24.8825 30.2962 14.718 32.5156038117
24.9296 36.3134 14.7623 31.8369021506
26.1873 36.5268 8.16019 26.9024153224
28.5043 25.3041 4.50289 27.2790383802
27.1576 26.5417 19.5756 31.0877378534
29.3646 35.4277 21.4225 27.6280206627
24.8697 32.0358 19.1924 27.6670755976
31.6428 25.2061 20.1327 28.612180072
34.7675 25.1937 18.6522 31.3907511369
33.8694 31.4706 17.6391 27.8722415343
35.9662 30.4053 19.1155 28.4759675797
26.4253 25.1144 21.9164 27.4571269833
28.3102 28.9182 20.8118 28.6823525988
25.1709 27.9324 21.8551 27.9517002768
28.8891 32.8987 18.8921 27.1127660946
31.542 33.3924 20.69 30.8766906297
28.4965 24.8587 17.2273 31.881180354
32.3981 30.5295 22.0362 28.8547760921
33.3472 27.4615 17.4227 29.8146550527
32.154 29.5419 19.0649 31.4852138155
25.7839 35.499 21.5133 29.6615520419
31.4189 36.6836 18.504 30.0974042925
36.0605 28.9734 21.8092 29.8087023976
24.8506 27.6521 18.3918 32.6865363869
35.6244 26.0907 21.2548 32.9723391388
29.5315 25.2725 24.1437 52.2169954961
31.2267 25.3423 17.5293 31.8901137652
36.6183 35.1907 24.9581 113.4138580229
31.0584 27.8971 21.2541 30.0776715714
31.4549 27.5198 24.0887 66.7628723252
34.1399 29.5574 24.189 66.5731356338
33.9369 26.3375 23.5901 34.7280464186
26.0539 30.5883 21.3516 28.1042471033
31.6766 33.8531 17.626 28.6198261886
27.6431 33.1683 21.4872 28.3038916917
28.2234 29.4651 23.8707 45.6828482224
36.2232 31.8486 24.2816 54.5142097903
30.6708 30.4306 24.3348 83.405166138
29.3639 24.77 21.5993 27.4780511327
34.9959 31.9096 21.5714 29.6941400016
28.7868 34.8411 24.2825 74.9459352242
31.0932 33.1897 24.091 58.273965187
27.2397 26.9903 24.3404 73.4589917891
27.1106 32.3981 24.2643 85.3821756922
34.8267 34.5729 20.4927 28.1631690516
33.7992 34.4695 24.376 71.2226646672
26.1093 34.5735 18.5064 28.5127991912
29.2524 30.0974 18.5262 31.4972128052
36.5398 27.3945 24.6653 93.699146821
35.272 33.8345 17.9818 26.7752366677
36.8384 35.83 21.8618 27.7659820752
26.5369 29.272 16.7804 29.8791442994
32.5361 36.1277 21.1401 29.4136638336
36.1429 36.7581 17.2474 32.2993438212
27.4726 26.4601 38.6762 27.6022329212
27.7377 29.5498 35.6364 91.7328254439
24.8649 31.664 42.9562 30.8293650858
24.7509 29.5935 38.7203 29.6357567269
24.8107 26.6634 39.5219 29.2071882968
30.5425 28.083 38.3045 29.562031477
29.5523 27.4186 35.6067 81.1091843621
28.1086 36.6037 42.9666 31.2628860514
33.0376 28.3217 41.2648 27.3564165099
24.8384 32.7614 39.3519 29.1494064379
29.0588 32.044 36.0915 57.0767932592
28.5682 32.2549 39.1221 29.870240065
31.5411 32.7855 39.0563 30.9716728036
31.9039 32.7119 35.7231 89.0367416262
32.6866 28.2517 35.3665 120.2114972238
33.6764 30.6069 36.0467 54.5929112634
26.7361 33.0343 41.5432 31.7904207531
35.6119 35.7745 38.9027 28.2941422009
28.0302 34.6242 35.9949 67.658340212
27.3194 25.9662 36.1128 46.2047125684
29.8778 32.4301 42.82 27.7559484788
32.8494 35.1206 38.4404 28.864451845
32.4637 35.3516 35.8229 71.3064445533
28.2957 29.9823 41.6935 31.9035344384
35.7433 33.5445 40.7678 31.4976424926
29.7751 25.701 40.2385 27.4826559539
24.8615 28.8313 35.9499 55.0193536464
33.1037 31.8637 41.4594 30.4649330708
31.9339 36.1165 41.0783 28.5708275292
27.9183 25.9187 42.4318 28.5007384947
32.3462 25.934 38.1357 29.6046033466
32.9272 25.3953 40.8242 29.4743824291
27.5144 35.0545 38.9635 28.4587523412
30.5478 28.0696 41.8465 25.9050027723
35.1091 36.4366 35.9144 58.5938134173
32.788 30.0266 38.8908 29.495619645
27.5474 29.2745 38.6742 28.564090813
29.5345 34.7861 41.1297 26.3439038217
35.7079 30.3397 39.1803 30.0574787583
34.5887 26.5561 36.5213 33.3512401948
35.5586 25.6725 41.263 30.3159031016
36.2528 30.2292 36.455 40.6030280225
36.4998 27.5798 39.1299 29.8069693164
25.0495 34.7465 35.9308 71.348169134
24.5788 27.31 42.446 29.2789309074
25.3745 36.753 43.0438 32.3492454197
26.4815 28.8056 49.1112 29.4894115078
26.4826 28.7248 46.289 32.6885073757
29.9791 27.3776 44.4426 26.4188465219
32.7071 29.2171 46.31 27.6005689856
32.686 26.6205 47.7388 26.8411633428
25.2096 34.4762 50.9437 31.1936246218
33.5621 25.2945 52.9846 32.1924590339
29.2267 29.5078 46.2242 27.5200183262
26.599 33.1031 46.7873 31.15549201
26.2925 29.2663 43.5048 30.3617126863
36.4164 28.0286 49.9855 31.0641135775
34.9658 30.9318 46.2157 27.5501186521
34.2865 26.392 43.8949 26.8666270797
36.4745 27.1346 45.559 29.9197752244
36.6827 25.8091 56.0131 26.176562651
28.8181 32.1546 45.3077 32.596612562
31.1864 33.3905 46.6945 30.6315907067
32.2445 29.7551 54.3262 30.1643919872
33.9722 33.479 46.0571 29.2902487813
31.0319 29.1166 51.9092 30.7973839954
25.1468 30.8346 55.9708 29.2009673917
27.2106 24.9945 49.2318 32.3014109358
30.442 31.257 55.8022 33.0429975736
30.8709 25.9264 54.5387 28.6581495531
31.1826 30.3386 48.2889 27.7006556103
30.2698 26.583 51.9633 30.4640535889
24.7781 26.6625 51.1082 30.9769718118
27.3524 26.3728 52.187 28.6103468564
25.8845 31.8746 49.0386 29.3136768806
28.379 29.8115 51.425 28.6562219206
29.1449 27.7 48.9052 29.0271716562
31.2438 33.1545 49.4899 31.9776155992
33.6933 31.7902 50.6722 31.2767557606
33.0916 28.8972 49.8742 30.4149249922
35.8087 30.6104 48.9348 30.7783661637
28.4168 36.6057 49.506 29.1213476159
28.0657 34.4337 51.2633 31.8135549525
35.3986 35.2347 47.7855 27.383730414
35.1768 33.935 50.2805 27.3569161315
31.9445 25.7174 45.176 27.9496193213
34.2513 31.527 53.6527 34.7461528792
25.0957 34.1119 55.1732 27.1856966838
35.308 33.7305 43.5496 27.3097434612
26.1655 30.3203 53.1534 29.5903687821
36.3819 29.6944 53.9507 32.9220474687
26.6679 27.9396 54.5146 28.5783528364
33.2226 27.7468 55.8767 30.8366302836
35.4837 27.4246 52.4944 31.2936192288
34.8185 29.4438 43.6022 28.4674417773
36.3257 36.4119 43.6543 33.4779581607
29.2885 25.3976 47.2181 25.827849436
35.6112 25.9985 48.0894 33.0592373344
32.2173 34.2024 43.3116 29.31632656
27.1629 35.8909 47.1231 32.6458473331
28.71 32.0396 50.0041 31.0958069349
29.2477 27.9701 55.9228 31.382660617
34.155 33.5787 55.4964 32.3047911755
30.8277 35.7986 53.473 34.9798171253
27.6519 34.9969 54.2496 29.1132466614
32.0015 35.6086 50.9981 28.8157358423
28.1157 32.0791 54.7126 33.7922829077
31.2884 35.991 45.735 29.0135760486
27.2796 25.9954 45.4227 26.8120213849
35.8477 28.4368 56.2396 28.6520632647
31.6367 30.0694 43.8123 28.9055025735
34.9893 35.8169 54.4548 28.3627587758
31.9688 24.8612 49.8695 29.7264498187
27.19 24.683 54.3437 28.5546511875
34.3612 36.1657 51.6851 27.9598542997
34.5054 24.6029 55.3948 28.6025440216
31.5503 35.3786 56.1624 30.2727333389
31.7928 47.3306 16.7191 30.6388414709
26.8791 40.8694 7.75918 33.0557265548
32.1417 48.4911 10.1946 30.637206556
31.917 39.9768 8.79399 29.6001318143
31.8075 38.4986 5.21532 32.1664475398
24.7152 45.7378 7.64664 36.3144206103
27.4362 40.8356 3.93168 30.0853617412
28.1226 38.5078 8.46569 33.3583793644
