34.3392 10.343 24.0412 63.6101196143
27.3084 11.1397 23.902 53.662451294
25.7255 12.3179 19.3006 32.9335916343
26.1308 3.89861 17.807 29.6788153542
29.7405 1.19903 17.9057 30.7865096852
25.3402 13.6724 22.1661 30.3950267251
32.6316 3.43358 19.1541 28.2076717563
27.8899 7.79754 19.497 32.0749319038
35.2949 5.23308 14.9556 25.5253113795
28.4778 4.32963 21.6584 32.8702955585
34.2928 6.99641 21.6163 31.2071803714
27.9534 10.2883 18.5712 35.9771417038
32.1091 11.6867 20.9538 35.9911626661
35.1783 6.58019 17.4101 31.8130535555
32.3701 0.496173 23.9223 57.789421616
31.6257 7.80917 15.7898 27.5533810746
25.3143 4.23856 23.1743 42.1159168925
33.4717 11.9356 16.122 29.5970171881
32.9088 8.38638 18.1009 35.3901090228
29.6599 12.601 19.4716 35.8558767792
28.6344 14.6366 20.9916 29.1223085462
30.5856 14.5454 24.4276 104.6617317645
26.8512 0.656985 21.2548 28.6951710464
34.8502 16.4193 16.3649 33.2999387348
34.7899 10.0118 21.2811 28.6080362548
29.6599 0.732862 20.8573 31.6282595031
34.6287 10.9021 18.4294 26.9504493302
35.7642 12.6297 14.4243 30.1588087056
35.2524 4.83381 19.5668 30.3315782738
32.0159 6.36544 19.8228 29.7506313904
35.1893 1.21029 15.1674 26.4977827156
32.3861 12.3951 23.6853 42.2132262426
30.0661 7.68819 23.9397 39.3124854882
30.9582 3.149 21.4069 30.3228180398
29.7921 6.88146 21.289 33.8844773956
28.0274 14.0042 23.8291 49.7360695419
33.8712 5.27471 24.2038 55.8454544025
25.5135 7.99657 21.1353 31.5239913135
25.9694 14.0604 14.7313 31.4796545217
33.0727 7.86241 24.5153 93.5624996331
28.435 15.7056 15.524 29.557949091
31.0776 15.9166 21.6669 29.7850399633
24.8104 2.86741 15.0148 30.7122988564
36.7451 5.04801 24.7667 112.7217056968
26.3241 0.930151 43.4583 29.4684842672
34.5812 14.3003 40.3438 27.84754383
33.3278 12.1578 44.5978 29.5340018739
34.6843 11.7479 38.8729 26.5448172434
32.1387 9.73211 43.9921 29.4315990986
32.9947 5.11816 35.6424 90.6047328517
30.2191 15.5889 44.9823 27.3033184051
33.7224 1.65335 45.2135 29.8826486238
35.2644 7.34281 35.5268 97.8367279586
27.8952 4.61705 39.3231 29.6723171586
26.4631 6.79048 38.3125 28.7002869337
29.5917 2.48027 45.5312 31.1022373901
28.6898 0.451942 40.0244 32.2967441598
33.4962 8.55536 39.1246 32.2933029275
30.5179 4.36696 38.5753 27.2978717463
29.2837 8.41084 38.4978 29.3362057937
33.9661 7.3559 43.9799 33.803040072
35.934 2.2481 42.8881 31.0048127769
33.1015 9.02027 36.2624 49.4621911043
26.928 3.11997 36.4116 37.1860942883
27.6265 14.2952 35.8205 77.8130233526
30.4437 11.3343 36.2903 38.8406101403
26.7545 8.80945 35.6777 78.3341834534
27.832 11.4651 35.648 84.9004082705
26.8528 8.75815 40.4301 33.3979494298
30.3149 4.10836 35.8408 65.7695957577
29.9301 9.64546 41.7201 25.8751711993
29.8883 11.3632 38.8511 27.6492970326
36.5887 14.3481 38.4375 27.965884091
26.8394 13.8216 42.5919 28.589911007
27.7721 5.81943 35.7431 84.5161730405
27.3251 11.846 40.3293 29.9150090311
25.3624 2.49373 45.4514 26.9175209607
29.9823 1.20646 35.9882 47.796200728
35.3478 15.5718 44.718 32.5674676302
33.4678 3.2694 38.9812 28.3300238692
30.8153 1.39888 38.5752 26.2822283101
31.1275 1.55365 41.7346 28.5004421308
32.4561 13.5012 35.4057 123.2592307253
27.9562 4.87325 42.209 33.3786149766
31.0359 6.77977 39.7762 30.8183817555
30.6896 6.40766 42.6004 28.1616456939
32.1844 4.23353 41.8232 31.6830079334
24.9308 12.3246 36.5048 37.4313687071
32.5691 10.5402 40.8465 30.606294694
25.4266 4.83258 44.0343 32.2533203907
28.993 11.7885 43.1333 28.5932632482
35.5716 13.3216 42.6795 30.0888149084
31.318 13.1372 42.5851 27.6124924504
29.3366 6.42759 45.1875 26.162945189
36.8879 9.27684 37.036 25.5388344031
28.0099 9.89875 45.073 29.1092289462
27.4985 13.8339 38.501 27.6028994821
27.9035 8.05927 43.1388 29.0830201263
36.6772 1.49075 45.4849 29.966579232
34.4622 11.5342 36.1876 39.8262233429
31.8364 13.2762 39.8458 27.20814267
26.2466 2.11154 39.3287 27.6523228226
29.7813 8.25383 35.627 91.4089469485
34.2547 15.0988 36.7121 33.0375736984
35.9748 7.7955 39.8172 30.0860483812
36.1463 8.26122 42.6583 31.5174849727
28.6546 2.23382 43.0472 27.3041982797
27.671 14.6528 45.3911 31.2552478441
36.3394 2.21164 36.2171 54.8036190585
33.6118 4.25593 44.0531 33.0291223669
30.374 15.0402 36.0152 56.7393845016
33.6316 2.65345 36.2678 34.7884799712
30.7121 15.7053 42.0933 28.0925732081
28.0623 16.0425 41.3609 26.4854340063
34.8078 1.16046 40.5227 28.2918680474
27.2879 0.280899 35.5124 104.9182457341
25.0872 0.169954 37.4924 27.8964383271
36.5778 5.13495 36.4666 39.1270097437
36.0106 4.55919 39.2935 31.1297678514
29.9569 15.2342 38.9681 28.8880056706
32.4832 0.350446 35.5738 87.5009790837
31.3983 4.7261 45.8679 29.9073704533
26.0128 7.1143 45.5067 29.8336215483
35.157 10.6608 46.0974 30.2064205453
36.8711 2.13908 55.9723 28.9645046336
30.9709 5.69563 55.5955 30.0476147469
32.0282 8.90507 54.4544 26.229787328
26.6922 7.19472 49.5452 29.9784354457
27.549 5.47205 47.2637 28.5746320548
24.9884 12.3964 52.6672 33.4995232943
32.0136 5.74548 48.2699 28.2433356155
33.0597 8.38792 48.4341 29.5591307696
29.3917 8.68395 55.1351 25.5156069959
34.933 7.84446 46.6998 27.8781729486
36.051 5.44318 47.9038 34.6187578289
28.8922 11.8736 47.2299 29.2979401313
35.2995 0.186598 47.6985 26.9930667295
30.4778 9.99902 48.5083 28.4702749805
36.1019 14.2171 48.8329 30.2033312963
33.0491 1.23517 52.6919 32.1368929397
33.4027 14.8868 47.4716 29.8190109701
27.4654 13.0279 49.9915 32.9697896525
31.176 0.495232 46.7647 30.6074806614
30.3392 13.7697 49.28 29.728935109
25.4913 15.0941 51.8228 30.0359104132
24.9455 8.80681 48.1751 32.9646510481
30.7686 8.66798 46.2042 30.0970025196
25.3748 2.00811 55.2167 27.1475143136
26.2553 1.68714 50.8981 32.52900633
29.8657 4.81295 49.5009 35.6426963608
29.7556 6.45907 52.0351 30.9548896111
33.9258 4.1647 49.1615 31.8277347268
25.4562 10.6888 46.0193 33.0272937131
26.4785 3.75823 53.2693 29.9004787608
32.2054 7.37617 52.3182 30.2256248991
33.6919 9.44913 51.276 31.5193551708
36.3094 8.29212 51.4976 32.4548930926
28.9433 8.66242 50.5581 35.3333881642
35.0369 11.618 48.6514 30.318502302
27.3787 10.9283 52.1274 32.4139501374
32.258 11.5666 49.9474 28.8450275978
31.0313 14.9603 55.7037 27.3307899036
33.5146 14.911 52.157 30.9970753177
29.7281 13.7582 53.5205 27.8820063154
24.9671 14.0113 54.9793 29.552221722
35.8566 6.9509 54.3624 32.7743754794
27.4787 15.6089 54.7726 28.5660878255
29.1747 2.17821 50.6087 31.5332929149
25.8225 13.2105 47.4316 32.5424223904
25.1495 7.5568 55.1821 27.7239384287
27.7523 6.64485 54.3642 26.2137377277
34.7116 3.64292 51.9265 30.9344726921
30.082 1.3955 52.9583 31.0529769052
33.2031 1.57565 48.7633 29.2746246713
25.6048 8.34867 52.3205 31.219428494
36.4616 14.844 51.4028 31.5752418786
29.2965 3.64628 54.3295 29.7578008909
28.379 15.2682 51.5757 28.294353731
30.57 0.152127 56.1518 28.8505422793
33.5915 5.30845 53.8182 30.9463927664
27.3494 2.74866 47.0895 27.6944795062
31.1648 13.3002 46.189 29.2967687104
28.5563 11.1479 54.6998 30.0311664212
31.8339 12.749 52.2794 27.3420143621
34.7896 14.5547 54.7118 29.4529074046
33.0264 11.3545 53.9983 28.9978825683
34.5703 3.54849 56.2348 32.076101515
35.4149 11.9024 55.4534 30.3002561069
25.1274 5.44809 51.2819 28.3835498158
36.0255 0.364064 50.6353 31.553611999
31.2267 11.8979 56.4178 29.6767540604
24.9307 3.89295 49.1323 30.0375730612
32.541 16.3547 49.7377 28.4031187742
36.8034 5.68743 50.6925 33.1803838009
33.922 8.24372 56.1393 28.6118199116
31.0408 31.5132 11.6611 27.3278553813
27.6263 19.3398 5.81706 31.5194965103
31.6945 20.8484 7.67142 29.5062448592
33.641 24.9591 4.18314 29.3906751172
27.335 17.4057 12.1628 28.0272189802
30.0521 30.2062 14.1301 27.6309189125
34.8152 25.2275 13.5259 24.0547942441
31.1719 23.3948 4.04738 31.3348413327
29.7656 16.4027 13.1561 31.5246053514
29.9054 27.3272 5.13888 34.9056430492
27.0115 26.4393 6.38935 30.2293167983
30.3076 23.073 6.78847 31.7325880916
27.2658 19.9651 12.9565 31.5651519312
36.6257 28.3841 8.63379 27.5957607245
27.4731 23.5175 7.1415 27.5420134674
25.9119 28.6618 10.0216 26.2581766235
29.2985 17.8596 7.69946 28.0216306339
32.6731 23.8048 9.12108 27.2291082165
34.1059 19.9447 4.22537 30.3005044994
34.1669 26.7765 6.29773 27.3000204878
35.4654 30.5154 7.47656 26.2423954368
28.3782 29.3802 7.65401 28.3558861164
32.4223 31.3671 6.94805 31.7935646054
31.9045 31.0826 4.2241 32.789300331
29.4904 24.2724 13.7558 33.7176054085
30.6972 19.1376 9.7749 31.6662623012
34.2204 21.3236 8.71288 28.7180570644
34.534 18.1126 8.85914 30.2315706127
26.9111 21.3247 8.99212 28.2307194315
28.7152 20.6189 10.7593 29.1347726219
30.3771 23.0455 11.1885 32.7752521797
26.87 18.3394 9.3828 28.4950458263
35.3994 22.064 6.15718 32.1575306611
28.995 24.7783 9.33763 28.3632595009
31.0306 27.8631 11.4964 28.8679262453
31.5246 25.8792 7.26522 27.4077567657
35.2281 24.7831 8.18966 30.3313122371
29.7873 27.293 9.11301 26.5793631223
28.0559 28.6892 12.1282 24.158429196
35.3386 28.7955 5.17508 26.1135218027
33.533 29.5377 10.7972 27.2215960784
34.9628 31.691 9.97008 32.4982326639
32.5732 28.7258 8.28018 31.6553605214
28.8244 30.6999 10.5873 25.8830197736
27.1309 29.3818 5.24211 33.0419072278
29.3959 16.7703 4.42977 25.6523401931
25.2046 19.2287 6.95423 27.4527342189
34.1803 19.7513 13.2305 30.5075016753
35.35 27.8999 13.105 28.5270029492
25.4275 23.0875 10.5212 32.6040105651
32.6914 25.6115 11.2169 28.9123977751
33.0945 22.8955 12.9252 30.9691792583
35.3613 21.47 11.3026 29.7302692627
28.0981 26.592 13.8778 30.2138254221
32.8363 18.3718 11.3381 29.9656193339
33.1068 29.4223 13.7456 29.9857233351
26.6828 25.6135 11.1463 31.387093672
26.7572 22.8312 4.26437 30.2785031533
35.4474 26.6599 10.3828 25.3466600625
36.7976 23.6449 12.6869 31.5796742237
34.4724 17.4926 6.11803 28.2680671656
31.8696 18.869 5.83888 29.0730574357
36.1902 24.026 4.3632 26.7836470781
26.0325 31.1473 8.99918 28.7295359736
29.667 32.1194 7.55302 33.4021533475
26.6109 32.3802 11.658 26.6083794584
24.7828 26.9509 7.95096 33.11229391
36.7932 32.145 5.7508 30.5667714031
25.2987 26.2755 13.9838 29.1613018901
36.5658 18.9862 14.1128 26.0518609338
26.4771 16.335 5.12291 26.6507333018
26.6579 30.6483 13.8736 28.6036870332
25.1455 29.4992 24.4621 71.1373596703
26.539 18.5943 17.3796 29.2684847874
24.8387 19.5015 24.5124 91.3667846079
28.7477 21.901 24.1592 58.4636236414
25.4953 28.2783 17.9501 32.4625893475
33.0108 32.4205 14.3559 34.6641859599
28.2817 31.5359 16.3039 27.0520202866
28.9184 30.2959 21.3669 26.8702585449
29.175 22.6784 18.1148 31.9730893951
30.7988 16.974 17.6746 33.9367415405
32.0074 23.9999 15.3962 29.1032884281
32.4204 20.7352 15.3133 37.1201429027
28.0365 29.1817 18.0664 30.4562913082
29.6848 26.0054 18.2992 30.8845051266
30.6209 28.3311 20.0317 27.2407617787
27.8982 16.2892 18.5034 26.3719626716
28.1726 27.5896 24.3784 69.3359059413
36.1856 24.7109 15.9091 30.7289744279
33.2416 27.5966 24.0125 57.7507052587
33.5051 30.008 21.2342 31.2203264822
33.7103 27.9842 16.8724 30.0350586066
35.6366 17.6106 24.2964 78.8068741648
30.4702 18.5966 15.2466 36.4356078698
36.2532 29.3195 16.7519 32.6982700908
31.2218 31.7211 24.2191 62.5352932695
28.2073 19.1176 20.786 28.1658918003
35.8405 31.4989 24.6892 117.891628454
25.0546 30.7852 19.7124 27.2683115859
31.275 31.8728 21.1638 32.1804679046
35.2423 18.9169 17.7087 32.3393444141
32.8644 19.1036 21.4664 29.1731847461
31.99 30.0394 18.1085 33.1209964054
28.2341 22.3335 21.621 28.9421242874
33.4487 21.3118 18.0569 33.2720769685
35.6244 23.1351 18.0667 28.1980395148
24.6673 28.5903 15.4169 28.7937456154
35.3967 23.2898 21.0108 32.4263881048
27.5693 24.5639 19.3207 29.9192603251
30.1626 25.9399 21.905 27.6105682687
31.8908 24.019 18.368 27.5406300744
33.0321 27.0606 21.1891 29.7955923891
30.0417 27.6797 15.9154 29.772867346
35.818 25.9939 21.5532 30.2815215288
30.7827 26.2633 24.5008 85.4874279084
26.8723 16.819 24.2789 83.4078666601
26.9642 20.8411 19.0457 27.0550014532
34.3066 25.8191 18.7858 27.4563504312
35.4277 17.7101 20.3355 33.9032188434
28.9058 30.3199 24.146 54.172408478
25.4725 23.9359 15.546 34.5969464964
24.7803 26.0647 19.5505 28.806794445
26.0036 29.2005 21.823 23.7074192742
28.5716 19.1745 23.6864 42.1603714453
33.4982 30.3197 23.9969 48.1450475326
30.6392 17.5298 24.1322 71.670193646
30.7902 18.4528 19.9383 33.7043743686
30.9983 23.566 24.4354 79.2018315251
33.1389 18.957 24.1921 73.8251668698
32.3636 26.5077 15.0505 26.6625723508
26.2686 16.5611 21.3165 27.3537429328
26.0671 24.5093 22.1137 28.1509052447
27.9999 22.4695 15.5102 32.7084542988
30.6784 23.4428 20.9677 27.8327712444
25.096 19.5096 21.4921 29.9979664211
32.9278 21.7122 21.2486 30.2381175546
33.1174 21.8236 24.1529 64.5274715924
35.684 22.9807 24.1891 64.3296294451
27.5308 27.1374 21.2133 26.2053982009
26.6429 31.7565 24.5022 79.4179852073
27.9295 19.8401 15.643 28.4667183865
27.4774 32.0276 19.5777 27.9880418681
35.6207 25.8121 24.3261 82.6986884991
35.6182 31.6288 20.5371 31.7740759507
30.9931 31.8735 16.5827 26.679509275
36.0488 31.8371 17.7271 30.126446902
25.534 32.4266 22.0715 26.8941385886
25.3906 26.3615 24.2829 55.2855596082
26.5922 23.4689 24.9684 114.728134757
35.2709 17.9374 43.2405 27.2008337765
27.5465 21.4473 36.0656 54.6885952931
26.6377 23.7533 45.0063 33.8644136865
26.7552 28.9423 39.6078 30.6673980714
27.0414 19.3101 38.6945 28.8450212324
36.1412 28.8631 35.8206 65.7254617107
26.1976 16.8626 36.1415 56.0092663037
36.6933 25.1553 35.4279 81.952309514
26.1127 29.8311 42.2506 28.6226765782
33.3206 21.5959 35.733 76.5480674785
27.5128 29.4611 35.5296 82.734441951
35.375 28.6401 44.7776 31.780782837
32.3359 22.7517 39.3917 26.3446583187
29.0073 31.8009 35.7664 77.6982612159
32.8497 17.6816 41.7213 29.2292875493
28.3073 26.8105 35.7646 56.6669220064
34.7911 17.7659 36.0227 57.87705129
31.3567 29.7098 38.2381 29.8161770435
29.3735 24.6626 44.2836 29.0522263218
31.5764 25.5037 38.2557 29.3147886036
33.4558 25.5513 35.4333 88.7893595035
36.7447 29.9582 42.5239 29.2496075537
31.1341 31.4657 45.1432 29.3391011285
24.9613 25.4905 43.2252 31.3942214517
31.0869 27.4055 36.0229 55.6236720454
30.5489 17.7944 36.9054 26.389331498
35.4313 20.7016 39.8953 30.4393892742
29.0285 27.7623 43.637 29.7088703414
35.3328 31.8858 35.7393 74.1071818508
33.3663 24.6637 41.4859 30.4571965628
24.6941 29.721 35.7153 68.6323868621
32.7292 23.2357 44.0153 28.7510584049
31.8663 31.162 40.8868 32.9351251574
25.1686 17.6093 42.5775 31.1270486607
35.6643 18.2723 38.6749 29.5951384125
25.404 23.7939 39.9256 31.1847230416
28.3835 18.5071 35.9238 84.1840536883
28.0999 22.3551 38.6413 25.9961073223
28.7315 24.8978 38.7456 27.5266681503
29.071 20.6024 40.702 29.4776972333
34.8471 22.6243 37.7262 28.4208132196
30.8028 21.4823 37.5388 29.0532699336
26.5045 26.7707 37.855 26.4094796928
26.6812 26.1135 40.8852 29.1942035658
29.3335 25.4523 41.523 28.0630935836
34.5664 27.1515 37.5211 26.0910611644
33.218 29.7376 35.8859 65.3076235094
28.6732 30.4322 38.4759 31.8716157781
29.8961 30.4012 42.9524 33.7265678857
31.7661 26.7803 41.8575 29.5874608442
35.0727 30.2047 40.3287 30.6538755987
35.8332 25.7923 41.0181 31.6313918389
24.9305 21.1713 35.9915 65.2476214259
32.8007 27.1311 44.3763 32.7121455491
28.6307 23.8713 35.6498 77.7320748608
36.1619 25.0447 38.3007 26.7335732849
33.0569 28.1241 39.6478 27.8533826519
30.9384 18.9556 39.4726 29.6652386416
27.8764 18.5744 42.1928 31.4990264541
32.4186 19.1183 35.6217 100.1220604788
36.79 30.632 38.0668 27.5543293172
27.5026 32.1254 42.2147 27.2065498655
33.4614 20.6632 44.1831 30.7974700548
29.0011 32.6916 40.0101 31.3711211666
32.8699 20.4313 41.2556 28.514629332
31.3281 23.9898 35.6691 63.5655806722
26.3956 28.0458 44.2333 34.2733175183
36.1734 21.3992 44.6996 29.8783345671
30.327 22.5956 41.6717 32.6154920161
34.4768 25.0019 45.2062 30.893876895
32.1221 32.2317 35.8405 71.8820810593
33.8339 32.3513 38.6385 29.3711330228
24.7966 20.877 38.6432 30.7126879601
33.4792 16.7891 39.1813 28.0229055803
24.9836 26.3594 35.3237 98.3469389701
29.6147 18.539 44.5439 31.6576635828
32.9766 16.8385 45.5231 28.7077131917
26.3747 16.7133 39.0978 27.6799171598
36.7713 32.4825 43.6983 31.5772171289
25.0697 17.343 47.4089 31.8179163019
25.2432 18.5566 56.2325 25.0934755552
28.0068 17.3014 46.9932 33.7013868104
35.1193 19.3984 51.9888 33.181489728
34.655 18.3413 54.5379 29.5536882339
36.6702 16.5713 55.3545 28.72022774
25.4006 31.2812 53.9213 28.3958300284
26.7572 25.4343 56.2433 33.5577678569
31.1154 32.6668 51.6198 32.7116086098
28.1956 19.6211 55.4173 29.5330490343
32.2885 23.7386 48.9218 29.9634914696
34.9531 24.1743 47.9513 38.1902157225
27.2056 24.1127 47.6797 32.4653541283
26.8125 29.4056 52.6422 31.4223800636
36.8545 23.1812 54.4806 30.6981680342
30.9071 25.9211 48.4016 30.0387894882
34.3233 22.1304 53.4611 34.7244188711
27.7922 29.2425 48.4159 30.7853029477
32.3438 21.3253 55.2421 27.8486731548
33.7991 30.0986 53.3889 30.8791642691
36.1625 26.2752 54.4071 30.4988393958
32.9762 29.8834 49.0196 29.0212449331
26.7946 31.1172 50.1765 27.9219605716
25.6316 28.9814 46.8595 30.3902628828
33.3281 27.2036 49.6665 31.6187825127
35.7446 30.0829 49.1536 31.349433754
26.4469 19.3571 50.9765 34.4401778151
30.3363 29.7941 47.1954 32.4676911157
29.2994 25.5282 55.3806 31.0823572691
30.9283 18.8283 55.6192 27.7249864768
28.4698 32.336 52.3891 26.09043208
24.7964 31.4543 46.88 25.6210789206
32.8089 19.7293 50.4553 31.4154360077
27.754 22.7558 52.0102 31.595296374
31.2952 21.0844 48.2655 30.78804663
26.783 21.8562 49.2465 28.7610481972
36.7364 18.2139 48.1375 33.3122495631
28.7498 19.9634 48.7922 29.367679731
33.7466 18.1368 48.2819 31.5336753344
30.7592 23.2955 46.2172 29.6419591379
25.302 26.7358 52.2357 30.1758390248
28.3542 26.6574 48.9975 32.6543874558
32.6732 23.571 51.7403 33.286753918
27.7772 25.4259 51.3539 31.9093791771
36.0587 26.4554 49.1146 28.4499219413
36.8048 26.8477 51.7928 32.1317758719
29.5915 29.0986 53.2996 32.2119928299
31.7723 29.8836 51.6633 31.744395313
29.9466 26.2409 52.8383 31.4094954133
36.3573 29.486 51.8288 33.1224209391
32.6266 26.092 52.2065 28.5527874273
30.6418 21.668 52.4657 32.8396494057
27.7268 17.8712 53.0239 27.8026714957
24.7787 27.0892 54.8553 32.0982864739
29.7883 16.8009 49.3497 31.6582548563
33.4197 29.0991 55.7469 29.3947637212
32.0215 17.0925 53.8143 30.489068845
33.4959 26.4028 54.7043 29.3708229319
29.5117 29.7889 56.0476 31.3839331888
33.9198 30.6316 46.1784 32.1636551111
28.0344 32.1614 54.9114 34.167793057
30.5625 18.748 51.6863 29.5362446668
36.6977 28.035 46.9336 29.1465705809
28.7567 20.8453 45.9081 30.6922800033
28.9816 22.4571 55.0079 29.0274548288
24.8492 17.3205 53.5098 31.9368639904
31.0252 32.4202 48.8057 29.5579130206
25.3102 22.0774 52.8738 29.5176925269
36.7744 30.3892 56.0752 31.5594193227
24.9762 21.0985 55.5458 29.8083014911
27.0477 32.2753 46.1548 32.1876392507
26.1361 20.9102 45.8582 34.3244738754
30.6566 26.8298 45.905 28.8341894459
31.9267 19.3631 46.0615 28.5244464774
32.5273 36.3844 4.99292 29.0078211722
25.5003 33.6365 6.61449 34.0707110982
26.3414 43.0241 11.0157 26.5848407041
28.1171 34.2791 6.38263 33.2550798843
27.4726 41.4037 13.5371 29.0597252072
26.3078 47.3786 10.1596 30.6260227808
35.3407 34.3772 5.11652 27.0249884511
33.585 42.067 11.3904 27.9772575719
27.5926 38.7621 6.69228 31.1050080935
32.0351 38.8639 6.49535 28.9167183759
31.767 36.4524 8.1736 27.2005214466
32.8249 47.861 9.52674 28.3052188935
28.2982 45.4641 11.226 27.9246187596
33.0518 46.805 12.1831 28.1283614467
36.5229 37.9554 12.0783 30.3148688384
27.1993 44.4608 13.7592 27.2150256439
34.278 42.4517 7.22732 30.0516587773
33.4905 34.2741 7.62459 29.5751867785
26.5478 38.6643 4.1389 32.4763453463
25.411 47.1004 6.80647 29.6706547499
36.5628 41.363 5.46752 27.1709800805
35.6882 44.5982 4.25442 27.2722058399
33.1223 44.5761 8.76376 31.6948973141
35.4079 46.5942 8.36564 30.1427887174
32.8147 35.2941 11.7197 28.6583404122
25.3199 34.5955 9.38221 28.4834841793
28.1196 44.0152 3.85189 33.0979433103
30.3266 33.7689 9.74499 29.4652023733
27.9342 35.1448 10.4523 25.5007018456
26.6857 42.3159 8.17495 23.0621829239
34.9506 36.7975 7.33204 29.6058812819
26.2939 39.7514 8.86644 26.8712034066
28.6863 36.5154 8.03098 32.1519507622
31.3791 37.4979 10.5698 29.6717609191
24.7281 44.8754 4.78341 28.9736344604
28.8081 37.442 11.5549 25.168576639
31.9168 41.7424 5.48562 28.7636685371
30.6485 45.0983 7.52647 31.2876097278
29.6768 41.3316 9.70458 31.3200093946
32.4944 39.9777 9.99147 31.4648487703
29.5786 40.5468 7.01871 30.0604364377
34.176 39.7726 8.02964 27.7691087528
30.6598 44.0577 4.95447 32.3647680113
30.7629 47.9246 7.76988 29.7561437181
27.9571 39.879 11.0506 27.7339288802
27.2519 41.9956 5.59804 27.9397760495
28.6612 44.0433 8.9671 30.1786064627
36.1568 40.6183 11.2442 30.8655931002
35.5993 48.7337 6.05706 29.9068396153
30.0563 47.1599 12.4773 29.2379561962
31.5083 44.0716 11.5157 30.8845329218
35.8064 48.3601 11.0226 27.7519574168
26.6428 34.8403 13.1516 25.6437359895
34.6902 34.4655 10.1079 31.473089966
34.9358 44.7626 12.0959 27.5229336331
28.5139 48.6315 5.84732 31.9778524853
30.7602 33.7377 13.0226 29.0258273468
25.8705 37.4876 12.2009 31.4014455667
34.425 36.7667 13.4181 31.7758184755
32.5088 47.7281 5.41086 30.0150834534
33.0986 45.3852 4.00521 31.2793510182
30.1288 42.9831 13.8939 28.6293258689
25.0095 39.6562 13.9261 30.6874400336
36.8315 36.4452 9.8658 32.4549811127
24.745 44.3191 7.59311 26.5083028251
28.733 34.6245 3.7323 35.6057587039
25.78 47.6036 13.8799 31.5735708624
32.2429 41.3671 13.9665 32.0321397134
36.0466 34.82 14.2046 32.9028891193
32.2374 38.622 14.3198 34.8892363968
30.3405 38.5223 24.1347 65.6126691178
26.617 36.9087 17.7048 30.6105160977
31.0526 34.2789 17.8214 32.5996482659
32.7072 47.752 15.6736 32.4902594842
34.5091 33.6448 16.2019 30.6038629821
29.9825 45.9542 14.9053 27.9131863227
29.8361 43.1634 23.9417 58.6569706102
29.1863 36.2729 17.1869 28.8083349618
36.1472 36.6802 16.5243 28.0031427143
33.1653 38.7253 17.1152 30.0230520199
28.1888 34.1447 24.2367 53.0012235067
28.2105 46.3334 18.149 28.9939608683
34.7199 43.0082 14.6062 32.1601884724
28.6656 34.2896 14.6636 27.0162551763
34.6726 43.7506 17.2303 29.0732823891
27.7968 47.9232 15.5902 30.9115037368
26.2545 41.9857 17.6581 32.4576406765
35.8619 34.5329 24.0306 51.530094931
28.1467 43.5953 16.7047 30.7782417168
26.3315 48.1955 18.7541 29.1091182125
25.7604 39.3652 16.6162 29.7616834506
25.6637 47.2554 21.6478 25.5810942425
24.7283 35.2931 15.4615 26.3149335439
30.8543 47.5468 17.9198 27.9459231429
26.8593 36.5442 20.5454 29.7046127577
27.796 34.2068 21.4755 27.2704483934
27.8058 45.9225 23.8388 40.7699852787
30.5377 34.3567 20.7138 31.843760573
33.593 35.7612 17.9096 30.0622467487
33.1347 35.7395 20.5668 28.5341274202
27.7264 38.7461 21.7977 30.0934690502
30.277 38.6952 18.1251 33.4246649828
35.7725 39.0998 18.0114 29.4148085208
26.5372 42.4799 20.5029 29.3901097944
29.9114 40.017 20.5508 32.1956674399
32.5733 40.5404 21.3884 27.820597276
30.4641 41.8061 16.8596 28.0398774488
29.3075 42.7381 21.2582 28.7666361753
34.9415 45.6449 21.4607 29.2391248864
36.2603 41.9417 18.9352 31.8091538845
36.3096 45.6349 14.6118 29.9294807014
28.5664 39.6669 15.7287 30.4375014005
30.83 46.8015 21.3063 27.5011301415
31.6257 44.3604 17.1406 28.6737395789
33.1412 46.6735 19.5248 26.0806812968
36.0801 43.4916 24.1553 63.3091431932
26.1695 36.2144 24.3991 76.0889973941
26.7464 33.8661 16.9061 27.5959063175
31.924 36.5844 23.1995 30.583350792
31.6704 40.9159 24.0441 61.6177835353
34.4443 36.8709 24.3342 84.923013721
35.4624 34.3083 21.0934 31.4543618154
27.5167 38.4944 24.6969 98.7178898109
32.9857 41.2396 18.2239 27.8673674949
25.0279 47.5453 24.247 85.9938935947
33.998 38.2052 21.193 29.0926626771
34.0561 42.8282 20.5992 29.2468560744
36.3965 49.0299 21.7841 30.8989038795
31.44 45.4604 23.9303 67.5031201924
26.7878 43.3395 24.6165 104.7274450882
34.9276 48.4305 17.563 29.6667593942
31.5487 43.994 19.7786 28.6582219928
31.0286 34.4406 24.7807 120.2882093999
34.5424 41.0174 24.5986 113.8387146329
36.9304 37.8818 20.5135 30.8490301241
34.4275 45.5249 24.019 60.561351485
28.3256 45.4616 20.9462 28.6099313215
29.612 47.9529 24.2898 86.8157491637
36.3022 46.151 17.5767 28.4655566094
35.7855 38.9668 23.4413 28.5989626835
33.4688 48.9228 21.3466 29.2963944691
25.8779 40.6618 24.4145 55.3619441469
25.6725 40.2175 21.5008 32.6371842214
34.9216 48.254 24.3751 97.1118461628
29.6483 37.3048 14.232 32.5883996779
31.9916 43.3782 35.3144 119.439118972
28.3138 34.6577 35.8798 75.9750432086
28.0894 34.4179 38.5114 30.2356378572
32.4322 48.9754 43.344 27.4082575353
34.9142 36.1197 35.6982 85.2178898678
34.1386 33.2114 44.5497 28.3375769699
27.036 39.4013 36.5728 47.4490571375
30.604 46.4249 35.7216 70.134462728
28.9132 38.3598 38.313 29.2963316511
26.9606 36.8845 40.0493 32.7092946696
29.3159 39.4749 41.774 29.1455630679
30.0209 41.0815 38.6081 26.985457412
32.5517 35.1858 38.8373 30.8741213595
32.9722 48.715 38.3055 29.9717716396
34.9019 43.139 36.2395 45.5956119782
30.0709 41.3823 35.915 68.5695722995
28.9083 36.6907 42.0539 32.1801422304
27.7271 34.1261 44.1948 27.9542943171
32.3329 43.4581 38.2443 27.3831754837
36.5181 38.8862 35.6942 76.162135116
24.8032 37.6069 35.6417 104.990187983
25.9459 41.8744 44.8982 30.5176061251
27.8333 46.3177 35.7398 71.2604578591
25.3324 43.7351 38.3586 26.2177272313
29.8919 45.055 38.1032 27.7799160394
32.3335 38.9591 45.2136 29.1860433245
25.4567 34.5015 38.9491 31.1141515716
33.5092 45.898 39.29 24.6641371908
36.1436 44.7941 38.3072 26.3042877156
30.3073 36.7094 36.0868 71.4806174292
25.4051 34.8785 35.8915 62.1913751136
25.6353 41.9735 35.9467 74.9773547057
35.3412 48.3553 35.7751 74.8420790417
31.4258 35.2446 42.0196 31.4120929682
33.5759 46.1147 36.1323 48.5075430759
27.2639 41.1541 41.1963 31.1008733413
31.8011 40.2884 40.4797 31.5736270195
35.7126 43.6499 40.7424 27.1327470043
27.6208 43.3782 43.301 32.3810865268
27.9842 43.2161 39.0988 28.4296190296
33.2332 46.3003 44.2436 26.8043023137
36.0296 40.9893 39.4214 28.1349182877
25.6593 40.7407 39.0004 28.7285639112
27.6662 37.4956 44.6243 29.8992282945
32.9363 42.8656 40.9909 26.539119875
33.9594 47.2128 41.5544 28.4186239845
27.7738 46.721 40.0234 29.2961664407
26.0351 46.5679 37.6907 27.4461302527
33.621 33.2955 41.8205 29.6535055584
30.7899 45.8803 40.8826 33.0379319773
27.9347 43.4059 35.994 57.6001357461
31.9788 39.1942 36.0566 73.1447471888
35.233 43.67 43.8553 28.5434591049
30.6653 33.9191 44.6827 29.7734374324
36.3322 39.9139 42.0554 32.4595784483
35.3383 35.2037 40.1927 29.378926824
33.6683 35.6141 45.4047 26.4622415459
35.772 37.0804 42.4241 33.4137009308
34.0295 41.0692 43.0703 29.9229542658
29.862 40.1244 44.3874 31.1971334271
33.0362 37.1068 43.4275 31.4264309228
30.654 47.1288 45.4752 34.2400866254
29.3244 47.8688 42.8011 29.72479371
32.0203 38.1098 38.8318 29.2918364416
26.7394 46.9438 43.7138 30.1752267484
34.8335 37.3696 38.3693 30.4485178513
24.9853 33.2338 41.4106 28.6798875526
26.1335 45.407 41.5343 31.2477238425
31.8313 44.2116 43.068 29.1412496584
30.1967 42.9477 44.7621 29.9013678831
32.493 35.0835 36.1549 48.6608449751
28.1827 45.4685 45.5824 33.4838896508
34.2877 40.0785 37.0464 30.1662752437
36.6774 47.7246 38.9998 29.0445921444
24.7635 37.7215 43.7617 29.3281993409
32.5623 46.2849 54.0336 32.0422299629
25.5892 35.2713 45.967 26.3998517001
26.6935 35.6527 49.3289 31.4007166633
25.688 46.5524 51.2975 30.2857984662
31.5087 37.7374 47.6888 29.7500041658
34.0092 37.3456 49.7636 31.5614612673
34.5 39.3963 47.794 30.2165673302
31.2628 34.9433 47.3101 28.2183201699
24.8391 38.5583 46.6833 28.9125787795
33.548 45.2077 47.8365 31.9514155786
26.8637 41.0479 55.2383 34.8606241968
35.1866 46.8201 46.154 28.7133479223
33.3496 33.309 55.9541 28.881153035
35.5989 42.9611 47.249 26.4333127845
35.9686 32.7893 47.574 31.8871435927
25.844 46.3105 47.02 27.6359807705
36.8858 46.694 55.0623 27.2917234084
28.9556 36.7039 52.7544 31.2402182123
24.8274 41.8454 53.4345 31.4286893769
28.6729 36.2016 47.1742 30.6508191796
33.3429 34.3636 51.6116 31.9327221638
31.5678 36.1506 53.0248 27.7856704329
31.284 34.8773 55.4903 29.6085645252
31.5575 43.2195 47.3055 33.4981862091
33.7474 34.3518 48.8561 31.9938988444
28.0212 39.1488 51.9084 33.3860303582
29.7754 41.3351 51.7388 28.2856346533
26.1771 38.6135 49.2145 29.7544610575
31.3645 38.1834 50.699 32.4212498325
32.0276 40.2617 52.478 28.768673086
36.8251 39.0212 46.4814 30.1660671682
36.7192 37.0608 51.5746 31.7587546365
28.4635 43.2238 53.6205 30.466859729
26.4784 44.051 52.2875 28.9333595455
34.0258 42.1452 51.8146 31.6675091877
32.3119 43.9365 50.6064 32.2255739813
29.7138 42.0638 49.3055 33.2819566708
35.343 45.2088 53.0758 30.0982598612
30.3574 48.9037 49.4957 29.2764864341
27.3059 43.3039 49.9051 32.7685559354
35.6981 41.3805 49.5915 32.2664689755
27.3412 34.6565 51.864 30.3782680217
28.1479 33.0912 48.7875 29.983894498
27.7339 46.115 49.2319 32.0323072694
24.9885 34.0039 53.1739 41.1181436047
36.6465 39.1769 53.1083 28.522741064
34.9323 42.0992 56.0821 31.9165794362
34.42 46.34 50.4661 29.3169515152
28.3691 48.0363 54.1436 31.1607427542
26.991 47.0227 56.4296 31.7257801926
28.686 37.3246 55.5592 34.1593406152
28.8578 39.1597 48.5141 29.9925934493
36.0122 35.6965 53.6125 28.9818853653
24.9659 39.4518 52.046 34.5020447698
35.1251 37.0198 56.1444 30.8412709525
36.2175 42.2006 53.4588 26.8135717135
32.1918 40.9935 55.5371 37.6182580322
35.8072 36.0794 47.0049 31.3012306733
33.6532 38.2563 53.6328 30.5246394731
29.7776 45.7497 53.4896 31.9005397939
30.5561 46.1044 50.9443 33.0658083791
32.6544 48.5767 50.6473 26.3040407218
25.9162 48.7516 53.0702 30.275464566
31.326 38.3536 56.0276 31.9521410998
35.3365 48.823 56.1089 26.9394582683
33.3245 41.6313 46.03 28.3665089184
27.4746 40.0542 46.1497 30.4051867656
32.983 48.7397 54.7455 26.1891967798
27.3393 49.0075 48.5652 33.7000066166
34.5214 32.9029 53.7123 30.59871168
41.4809 14.7057 14.0229 28.7173020099
43.9133 13.0232 11.1053 36.837281336
44.9992 5.52168 6.68976 29.9170326017
45.622 2.57564 6.75305 25.4222797618
43.1216 5.83743 9.02345 27.3702916958
39.6451 7.89324 6.99918 27.3340118427
42.7558 2.12121 5.00456 28.8532962908
46.8665 6.54464 4.22373 26.7042286107
38.7295 9.19003 4.91564 29.3826181332
42.2982 15.8508 6.73228 29.8954762892
40.8524 0.524566 11.6463 32.9873848
37.3999 11.1309 6.41844 26.5422960247
41.8989 12.8544 5.96692 29.9595194664
46.7946 13.6406 10.3218 30.4121232511
44.3327 8.00417 13.5797 29.8928124682
45.3111 12.7105 13.6414 34.6829417749
43.7622 2.38356 8.92864 29.1590285751
46.7701 3.6667 4.11962 29.8316366423
37.0192 12.5488 11.9981 29.5040850273
40.3526 11.0469 10.8198 29.0071844291
37.9009 6.03565 13.9754 28.0384417583
48.0113 7.26299 7.45364 27.3445648979
41.931 6.41292 6.58519 28.3769755255
39.7667 15.3225 7.94262 27.703899451
38.5103 9.16978 9.44539 30.2243407525
45.4955 4.5653 10.6107 25.9715939289
40.8034 6.62279 12.4971 30.316483755
41.6074 3.18478 7.24134 28.6013592709
40.493 4.90421 9.50939 27.0611823024
46.669 1.39168 10.4738 26.8991340533
38.2513 6.6447 10.5282 29.4764023812
38.7434 5.3038 7.05975 27.064056619
41.0779 10.3529 7.34134 29.8815101549
44.6457 7.92635 4.95259 26.4448532436
44.3274 9.81778 7.18533 30.9304453451
47.5669 0.992054 7.96617 30.0864218142
46.0427 0.345809 13.9991 28.4266196898
39.2753 12.3973 8.05513 29.0613331972
39.6719 13.6885 11.645 31.0531758871
48.3122 6.58883 12.4036 27.6965614313
47.3623 10.8579 10.7852 30.4972248884
48.4499 0.424651 12.3902 29.5093911836
37.0958 14.2717 9.40588 30.1909430742
42.6376 15.5032 11.3257 31.5374628506
47.1076 13.0573 7.17671 29.5486565608
44.5269 12.3557 6.0902 29.3283868117
38.1658 15.4047 5.71873 29.4170616912
38.0617 1.04991 5.93536 33.896421069
40.241 10.663 13.689 33.7983473516
45.5609 10.4676 3.84156 29.4715963236
44.3857 14.9763 4.37579 30.2269733696
43.7048 2.96533 12.1351 29.2318792954
47.9589 3.88181 11.616 25.6162292861
46.1594 10.3027 13.2006 31.3073973837
47.5018 4.69151 8.30187 26.8700583242
42.9875 7.84035 11.0053 30.226705657
42.8578 10.4247 9.96219 32.853068649
46.005 7.48925 10.7534 30.3351643129
38.9921 2.22334 8.73812 29.9885859827
47.5144 14.2281 4.50976 31.7714444158
40.9888 3.69152 12.1934 30.2906880569
46.752 9.387 8.47428 28.2497786986
48.6279 10.9011 6.63291 29.5263211027
38.6806 4.27348 4.44676 29.9532345965
41.5469 4.81381 4.05836 31.0327144799
47.9551 13.6222 13.1728 29.7726718866
49.0449 8.24108 4.63858 29.9793907607
37.0089 2.68639 13.8354 28.326713494
48.9902 3.52604 5.82883 28.8378496883
48.3128 11.617 3.93918 26.1011523978
38.7756 2.98468 24.4893 77.5597746363
47.9976 0.332822 17.9149 28.8588181917
48.7086 9.79534 24.1391 77.2377607757
39.8268 7.6569 23.2757 34.2951361785
47.8767 13.4141 16.0618 28.6973346225
37.494 0.599976 24.2375 63.0378716905
47.9071 8.00539 21.4134 27.8486223624
40.8959 6.56261 15.1835 26.9973460805
38.3423 4.28302 16.2815 26.4768266657
40.7422 12.8372 15.5814 30.702375512
48.889 7.31975 16.4727 28.9453151082
44.0545 1.87634 20.2502 27.1992309163
41.3885 6.90604 19.0622 27.9112875333
38.0012 5.35536 20.089 32.2695525253
39.292 6.77281 17.5366 27.5028478533
44.6849 10.3612 18.8335 30.2715496955
42.8783 12.5339 17.6045 33.9362087786
45.2921 6.65063 16.9684 34.6360007645
41.7632 4.01889 15.9444 28.8614666916
46.4176 12.4023 24.4923 78.5966508075
39.3253 3.14073 21.5577 29.8489889181
37.6833 12.7124 16.3216 31.4730554006
40.1922 14.7427 17.6566 28.9398349424
48.0389 10.5521 16.5238 30.0853168814
45.0663 14.0837 16.5113 31.7447755835
48.8393 14.0862 18.7521 29.2175221968
39.6519 1.40663 17.9951 30.4815067902
47.4934 5.54557 23.4007 43.6973755951
44.0569 0.985364 16.8668 27.7863894579
45.0551 3.60023 21.8352 25.3602884301
37.4672 8.47733 16.9698 31.2272213477
48.6611 4.83094 14.8249 26.7388622889
41.5587 4.6771 20.4668 28.8768998068
39.3175 14.9117 21.791 30.7750898889
45.6274 5.64921 14.3836 29.9408404977
37.3857 1.89892 19.8986 31.564214065
41.8027 2.89089 18.4123 28.4409535578
47.0679 2.52768 15.8653 28.4777297372
42.0034 6.1074 24.3398 90.4852345918
40.8422 9.12277 20.7365 32.5037374065
43.7749 5.95587 21.787 27.2159221698
46.4523 5.20998 19.5702 30.1520338788
44.8687 8.44579 21.2365 30.2518958311
43.6113 14.3932 21.6608 29.235777596
41.2172 13.2103 20.0021 27.1250863831
47.0637 8.58169 18.4863 25.7179688983
48.1673 14.9428 21.6443 26.9917219766
46.3058 13.1671 21.6886 30.3251967124
47.9676 2.88876 21.3594 27.4681437724
41.035 0.641069 21.0818 29.5743327043
42.8997 15.792 18.7985 29.3352613948
48.8703 9.29379 14.1359 30.4510291812
41.7918 0.305191 24.0976 62.4384734344
39.405 11.16 19.7177 33.8334285901
48.0117 0.133688 21.7383 27.7734154837
46.386 2.51478 18.7523 27.9276772526
40.2761 15.0026 24.2475 77.594336936
37.6121 13.6246 24.166 70.6190536876
37.1079 10.8414 18.1657 26.8915370429
37.0674 8.01883 24.5563 82.1254109764
48.4411 1.07857 24.4899 84.7141513706
37.6887 10.7717 24.3169 66.461426272
42.428 9.02477 15.1393 35.1911237759
48.2826 15.3174 24.4243 65.8223512951
45.9225 9.404 23.922 49.9428070762
43.0296 11.1024 21.386 29.5830246327
43.4813 11.3838 24.0208 58.8700982572
44.1793 3.27698 14.7721 28.7831140587
47.4063 11.5828 19.5274 29.39420155
43.0678 14.0857 24.4134 78.150181783
44.2281 2.28705 24.2035 80.8028120131
43.2607 8.29337 17.6273 29.6937355629
45.6795 15.3094 24.719 78.656708958
40.4408 10.1548 24.2677 93.5343986269
37.1098 11.7081 21.4266 30.7682930049
41.6327 3.4745 24.2109 58.5777887609
37.373 15.1095 17.6217 32.8453340967
49.1076 5.60847 19.9526 27.5929376899
37.1105 7.68919 21.5296 33.5125299073
43.566 16.1462 15.3195 30.9654972648
39.6906 0.0745188 15.2492 32.2496946921
44.9586 6.76991 24.3104 101.5341912834
39.8186 2.65442 14.4416 25.7959976072
38.1625 8.96578 14.4296 31.357606033
37.1835 11.4023 35.3743 108.5501324264
39.2527 2.57357 36.0078 71.5474929859
45.2501 1.77188 35.962 56.0166834685
45.2624 15.1295 38.4121 29.0176491412
47.8868 2.64878 35.7853 67.0175096629
47.8484 2.13664 39.073 32.7188812516
39.3356 0.0573956 41.2531 32.6393485916
39.4094 5.98134 36.011 66.684747902
39.2379 8.65138 35.5536 92.3351307293
48.944 3.79682 44.0341 28.6350227445
45.4546 6.1891 35.9629 49.1015987973
46.2101 8.80156 39.0468 32.2350789603
48.3466 13.8557 37.9507 26.6596810463
47.387 0.286137 44.3533 29.510513214
45.6179 10.43 35.929 69.2909481142
46.9085 14.6937 35.5801 92.3517215833
40.1144 2.89337 41.7143 30.9767279343
40.1567 15.1877 35.5742 84.1050616186
41.9069 13.0667 35.9581 68.1578179712
44.6016 12.9534 35.953 60.6857535545
40.7842 9.67004 44.7475 29.0817956748
40.8034 14.7929 43.5335 32.7299512587
40.7037 0.276523 44.7221 27.0998864275
38.3348 14.3957 42.1922 32.0427351768
48.8669 12.9921 44.7767 31.5727335865
43.5865 4.1648 35.5744 113.4828060138
41.2508 14.1125 38.6156 31.339787641
45.4396 15.358 43.64 31.0281435467
37.0771 10.9063 39.4684 28.1192391148
37.2055 2.016 38.8654 28.633226966
40.2976 2.00915 38.5881 30.247110919
40.1225 6.5787 40.7293 27.3979837377
39.0728 6.15805 45.2382 32.1949159813
41.8123 4.38644 39.8203 29.6495013368
44.4124 4.37443 40.4687 29.2599164049
48.6005 5.02463 38.915 30.3282264626
41.5221 10.1697 36.2798 45.2438379592
38.2949 10.7059 45.202 28.4103240572
41.7368 5.22975 37.0451 30.1808132315
39.7878 10.5479 41.4004 30.0705883945
45.9066 5.96051 38.6939 29.3134758964
43.1994 7.68976 38.2289 28.453787262
44.7069 0.585875 40.9674 28.5840514988
37.0643 10.9879 42.5354 28.6654605206
38.5137 7.14959 38.5239 27.988683851
41.6229 2.6745 44.0757 29.3704386397
43.8419 9.03877 41.171 31.7127464541
40.8394 9.10084 38.9739 31.7691109818
45.0797 11.8949 38.7398 30.806881486
37.9437 6.2805 42.6939 30.5272410004
48.1415 5.67702 35.5549 92.5115312596
39.0713 12.8956 39.876 30.8553213668
37.6328 14.4047 35.6887 66.4385654119
43.3027 13.7479 40.4055 29.8476094446
47.6813 14.926 42.2165 30.3150526854
45.0538 2.23272 38.7779 28.5877324556
46.0208 12.5961 45.1432 28.1064672358
44.3264 2.60111 43.0716 30.6676140567
41.4174 8.03133 42.4147 27.1124075459
45.992 5.02338 42.8467 34.5920911007
48.9561 8.85306 35.8237 74.5451301875
47.0404 12.613 40.7714 27.2311381022
42.4868 11.8602 45.1831 30.0660344286
37.5364 4.00116 41.6632 28.5827803369
45.4688 11.3831 42.7731 28.4316272357
46.3447 2.83049 45.0146 32.0693492802
48.5391 6.31094 44.9961 27.206748671
46.5351 9.02309 43.6263 30.1886807387
44.2871 7.1988 43.7423 30.0926102873
43.7589 8.56678 35.6973 90.5522766594
43.0888 16.0808 42.5069 28.2528381891
48.0871 10.8651 37.8183 27.6629336976
42.4762 11.6735 42.3365 30.1961498792
41.7564 5.42488 44.3746 30.2615729056
39.9468 1.15993 51.3446 26.9655436173
44.8043 0.7216 49.9324 31.0635208082
47.4377 15.8537 52.5948 32.2309568287
43.4511 1.11434 47.2999 31.5109933085
40.8469 4.1781 48.4544 29.2543258455
38.2 3.66459 46.759 32.2956824632
37.827 8.58801 46.6963 29.5863446533
44.745 7.99355 46.458 27.5464787852
42.6133 2.55682 50.7153 30.6452642936
38.8686 12.0904 49.6673 31.5782821003
46.545 10.0421 46.2632 25.8260901761
41.7004 0.545153 54.1738 27.8654750308
48.65 11.2967 53.7485 33.3812709558
49.2404 8.35464 53.2828 28.6555061611
42.8959 10.7261 48.0405 28.8424232027
44.5379 4.12576 47.0891 31.480565983
42.1204 14.7457 49.1074 28.8589879707
46.06 9.8183 50.1565 29.4767246628
37.7517 15.792 46.6715 30.8452667798
43.7458 12.5236 55.606 30.3789833595
43.6086 3.85164 53.0416 28.4219353275
43.2943 12.7829 52.905 29.0060538789
45.5351 0.0748118 54.3322 29.8492631315
40.6613 1.6172 47.1457 25.2955103174
39.8513 15.2438 56.0793 32.0371074006
39.6835 5.84116 50.2426 32.5335897794
41.7606 7.43145 51.1186 31.6780033028
42.3842 5.971 46.9992 25.3322855574
45.5539 3.81161 49.8724 34.9650646492
41.0639 8.21712 47.1706 31.5962490767
46.8887 6.76942 54.225 28.8853349792
39.6065 9.36402 51.3822 31.5038875846
43.6672 8.22433 49.3658 28.2098784908
41.5451 11.6169 50.3438 29.3187147459
44.0689 14.9939 46.6423 34.7716521976
42.0609 10.119 53.1878 31.0924242537
45.4559 6.50784 51.1611 27.8984313939
48.559 6.39864 49.1463 28.656855625
40.7623 12.5005 56.1413 31.615187535
47.1875 13.7966 49.4562 32.8324869378
41.2918 14.3135 51.6802 29.7093878043
48.4542 2.48659 54.7944 29.5377131936
40.9148 13.742 46.2833 30.4729450397
45.0784 14.5332 51.352 32.3403311704
42.8456 7.30816 55.7217 30.6266994055
39.4013 3.65659 52.2313 32.1010674246
38.0012 12.6811 46.8948 30.4622108371
41.0742 3.2329 54.2108 30.9266893684
47.9137 8.19265 50.9677 26.441931018
46.6723 1.6292 52.0595 28.0183655463
38.0138 11.5526 54.6161 32.4650658808
45.2684 12.0442 48.1757 28.8053237202
47.5899 4.42083 52.7937 29.5029658035
43.6393 6.49505 53.1083 26.6181417802
44.3229 2.55386 55.3258 29.697200036
46.7825 6.17413 47.0773 31.2024036718
38.4302 9.02931 54.2466 32.9259863127
38.1987 1.56337 48.9759 30.0577136219
46.0188 11.436 52.6192 32.7441549912
38.9164 16.1761 53.559 29.6007657395
45.0575 9.00323 54.1231 28.3908145047
48.4056 10.0243 48.1532 27.3494774011
38.435 13.2059 52.3465 33.0419175632
37.0374 9.81394 49.2399 30.1217994309
37.1898 2.22109 53.0501 32.7962477957
41.0214 9.51981 55.7273 30.8981645383
37.8018 6.52963 56.2576 33.5975187095
42.0931 22.4445 7.09176 27.6929908411
43.7703 16.5065 8.95723 30.1717712823
44.5423 19.1099 5.35493 27.5615879453
42.6155 28.2051 10.8554 30.9223278771
39.9973 20.9535 5.21389 26.6139440737
44.0016 20.7949 7.70259 30.6986896631
46.0227 21.4995 9.53407 28.9457104651
47.7332 17.129 6.96469 27.1668267758
37.8145 20.6114 6.9292 27.9470413277
41.6062 27.1559 5.8427 29.1013557259
42.3899 25.2251 7.72717 27.457615627
46.4453 27.7685 6.98848 27.3121293429
44.5697 21.9022 11.7066 34.5414693952
47.9467 29.1686 4.96645 28.5910950193
46.4548 16.4891 9.15516 29.8916282528
37.3044 26.7589 4.3537 28.3751594667
41.266 30.2292 6.80202 29.8649587679
39.6428 29.9447 9.27298 27.996487017
41.1632 31.7199 10.9019 29.0240112901
44.0363 30.6676 10.1053 29.4549656932
40.0331 18.4493 7.93902 27.2159585272
46.8906 20.9921 5.26495 28.2903119362
46.5502 31.8073 11.441 32.6572495801
41.5165 18.599 5.6493 28.3863205918
42.8011 18.782 9.2828 27.235414
48.8576 16.4584 13.1748 28.3985945622
40.4106 20.2405 10.3002 29.5967360645
39.7779 22.5455 8.62872 28.1583805052
39.8092 16.663 10.6825 27.5095820881
42.8007 24.1232 12.8349 32.408060651
39.1248 23.5171 5.5505 28.5688504394
47.3467 22.4874 12.7724 31.5788971785
38.8719 27.3085 7.30549 29.5485542907
40.3651 26.8887 9.9579 28.0098540959
44.9623 25.6003 8.48561 31.1720427866
47.1051 23.8963 8.32748 28.6929194762
46.8754 29.2775 9.31156 30.4946131348
39.1873 32.3682 7.16681 31.812707697
48.6658 31.5717 13.4633 28.9271435872
39.9487 17.1603 13.7923 28.0998254236
43.9194 30.5498 7.16766 33.722237182
37.4686 30.7015 10.7308 30.6581069216
44.0842 28.2629 5.18161 28.3840723372
41.2091 27.9431 13.3403 29.8055507609
45.091 17.717 13.4751 31.9383664881
48.6122 20.2857 10.5177 25.6397623881
47.111 23.6155 5.6255 27.2567936745
45.0427 25.6971 4.60674 27.7707045738
47.2022 18.0641 11.565 31.29308137
38.0069 20.727 12.8744 28.2695287768
46.203 17.0396 4.93293 27.4864774542
43.2317 19.1665 12.1388 30.3701883381
44.3126 26.0553 11.075 31.7441685997
48.8607 26.2246 12.0926 28.4171287888
41.4138 24.1554 10.1479 33.4219233979
48.1374 19.9808 7.66039 29.1727880688
45.5387 29.6479 13.2622 29.9108499487
46.604 27.5885 11.4875 30.8875267542
38.1294 24.947 8.0646 28.6813932389
37.8558 25.8564 11.1268 28.8236026978
48.8238 26.1711 6.59306 27.0836226009
42.4571 24.0101 4.67528 26.7506624678
40.7335 19.6662 13.2877 30.7511730843
37.6281 19.8719 9.74335 29.1004802599
38.6738 26.994 13.5449 30.4259754519
37.6733 29.746 13.6053 33.5257703015
48.9922 23.7889 10.6015 29.3535716432
41.6615 31.8646 13.7178 30.3969127879
37.1115 16.5938 12.9577 31.9290173546
40.0872 25.6344 3.79817 30.9324788459
37.0563 16.9861 10.2145 30.030693229
37.0558 17.9246 5.60024 30.188282223
41.2444 30.3007 3.97779 28.7554114938
41.0229 18.3408 18.1199 30.0349746699
43.9456 18.3409 17.3535 27.8365201198
46.2669 22.7234 19.5113 25.9833302162
46.5365 25.3184 18.6607 27.3775624753
48.3878 17.4813 15.9181 27.8179488365
44.8432 20.3744 19.5743 30.8270916703
47.9639 20.1351 16.1352 32.4624998642
45.0843 31.6222 23.6796 40.0131763949
43.9706 22.5239 15.6295 32.955388724
37.9301 22.1961 15.2094 27.9796974932
45.129 27.548 19.639 27.4201916838
38.5474 32.4601 17.4149 33.8922677772
45.4615 24.9648 16.0805 33.0226145557
41.3772 25.3319 18.0522 29.3602590455
46.0697 16.7242 17.6529 28.8134658319
46.8153 29.4117 17.3027 29.142467933
46.7084 32.2956 18.3579 28.8212463561
42.6293 19.4242 24.1519 81.130518541
39.0129 29.7929 18.5876 30.5204130001
43.2281 30.0972 15.1553 27.0294211947
45.0155 31.3261 20.8736 30.4849655017
37.8138 18.6832 21.6762 34.1593016535
38.642 24.9098 17.6914 29.0924368686
39.6611 24.6455 15.2533 29.436608937
40.589 20.9412 17.5815 29.7336624361
41.2367 22.166 14.9514 30.5283364462
40.4591 17.4227 20.8458 30.6701062856
47.0903 19.7205 21.3638 29.5100573588
36.8911 27.2332 18.4442 29.5386976476
42.828 19.0374 21.3367 26.8484552835
39.0198 17.3622 16.3505 29.7644189384
47.9265 22.7518 21.7496 27.12741
42.5697 22.7193 18.5045 29.7729734567
42.3044 21.8301 21.2545 26.1788903053
40.3038 29.1928 15.9125 31.8239501945
45.1782 19.781 15.3345 31.9595816501
42.001 28.1273 18.2393 28.4225496285
44.0331 31.6766 17.3263 30.8516147904
48.7332 21.8156 18.3073 28.2656942345
44.3789 27.7862 16.9675 27.0798923071
47.1084 22.3692 24.5014 86.5873099733
44.4384 17.0246 21.5996 26.4255076714
42.5832 30.6861 19.7301 34.9859519669
42.998 30.0076 24.5555 104.8198300513
40.4653 31.7578 21.3143 32.8045951699
38.1027 18.7051 24.5159 82.7135097189
40.3617 17.672 23.8416 41.5018773109
44.3628 23.8917 21.2436 27.7882957455
38.305 21.9795 18.4708 26.716092574
47.1855 19.3402 24.3407 69.4339350947
45.0571 17.7022 24.2643 57.2446568716
40.4195 23.2374 24.3713 86.7862488675
40.1288 23.1944 21.4731 30.6864059452
38.1004 21.5046 21.0935 32.9652165378
38.0526 21.4688 24.5819 91.974630775
42.836 22.1228 23.9247 49.6063463864
44.9499 23.9349 24.1179 59.2659834261
45.9077 26.7634 24.3876 87.5165800706
46.8011 17.0602 20.2349 28.2313290398
37.922 30.5288 21.4594 29.05186504
37.9408 27.6719 20.897 30.3670803776
40.5126 26.0188 20.7497 31.3985105219
47.7373 29.2145 14.7939 29.1955109736
37.816 27.4458 24.26 79.2279710337
42.9882 27.2084 24.2585 67.8764497488
43.1692 26.3877 21.53 31.7048887754
46.9065 26.0811 21.94 27.8752640708
46.8419 28.9974 21.3993 29.9523407343
46.8077 29.526 24.3078 76.3086974446
40.3747 26.0959 24.0874 64.006988952
38.1212 30.2734 24.0456 47.0842395584
40.6213 31.4959 24.2862 78.2513028059
38.9963 31.8687 14.7783 28.1672041428
49.0532 25.8319 17.8841 25.5402737143
37.3723 19.6248 16.6837 27.5903021712
42.624 26.1484 15.0352 30.7347293822
47.6386 24.611 14.3305 30.6804695361
49.1495 32.2924 19.5393 31.4461405627
45.3613 32.5611 14.144 29.3188302988
39.1871 26.5446 38.2237 27.776098872
38.1474 17.0204 38.8427 29.9102606437
41.9221 28.7627 36.31 39.15703994
41.3467 19.6893 36.1561 48.3629038425
43.5595 21.6671 35.7063 97.535086133
44.2824 19.9403 39.0057 32.6456747961
44.9038 24.2823 36.066 53.6021264813
42.1018 24.7031 45.4489 28.5314409828
39.7367 30.0292 38.4675 27.506607313
37.2914 22.3216 35.692 85.4002321445
38.2234 21.6812 38.5122 30.98591186
41.8541 24.0116 40.106 29.2720734416
39.9323 19.4534 39.1727 27.3267827728
45.0324 17.0498 36.052 51.7777174155
47.6764 24.5098 36.3354 35.6951522291
45.7357 19.8198 35.6547 77.3323418222
48.726 24.4537 39.0763 29.6568103536
42.8066 28.8941 43.1404 27.9398137371
42.4171 17.2361 36.0106 64.0946969967
39.2726 26.4308 35.5332 86.8201937916
41.1109 32.6765 38.5537 27.2897892689
37.3767 18.9216 45.3136 29.8455034495
45.1465 27.2367 35.5476 76.8730544119
42.9998 28.6915 38.9508 28.0421297221
47.0022 27.3154 40.3234 29.3950451693
45.1262 27.2602 38.0619 26.1693799956
48.0751 18.7625 43.1011 31.6610823231
37.1499 20.4768 42.2189 27.2978025796
46.1929 24.1081 40.9671 29.0997184198
48.5207 21.2022 35.269 111.4849386017
48.0331 31.5609 35.9508 87.0908587654
39.4942 17.3833 43.9415 28.0204918485
46.7795 30.1102 39.6921 28.4630202156
42.2197 25.8281 35.834 81.5451940575
37.2497 24.8287 44.3168 28.4210492789
37.5498 17.3697 35.5137 85.4346420443
39.9109 19.7452 41.8818 30.1792200319
45.4054 25.0301 43.1472 31.0467025771
48.4322 32.3264 40.365 27.3628551837
39.6534 32.5023 35.8653 65.5245231495
44.3892 24.7276 38.9384 32.5321606822
