19.9008 6.31512 23.6184 43.0924768046
22.9035 2.03958 22.0768 27.7164684712
26.1437 10.0019 24.3898 87.9594613941
28.3035 16.5497 23.3626 34.9138170242
23.3759 9.39518 21.5445 31.2971643275
21.7423 11.9904 23.5562 37.8950481688
28.3959 9.39896 22.7292 25.5475973594
26.1659 12.8782 23.7724 48.7692327832
23.6963 13.9045 22.9588 34.063994265
28.4868 14.0118 24.3573 107.4994845612
23.8722 16.2948 24.6475 124.8819422583
28.6945 0.695946 23.6651 44.6507658502
19.4502 3.37342 23.3407 40.6087890811
27.2093 2.35469 21.1765 27.4096253857
27.7093 14.7667 35.888 60.1050725298
28.0901 10.4661 36.4443 32.8072698988
20.4089 2.79697 36.1741 49.0743444835
21.1854 11.5768 38.6322 29.8964426102
20.2644 7.73398 36.2186 49.8585727143
24.9776 1.3406 35.3503 103.5058996193
27.8632 0.84749 35.9898 75.9492164186
22.3249 0.941294 35.8567 47.6138222237
21.6352 5.12131 36.6076 37.2737469747
23.8767 4.09181 35.8392 75.7752775953
25.5902 11.3102 35.6665 86.4942261639
28.0519 7.97505 36.036 56.7471102055
19.6697 1.82541 38.6293 29.9805700884
26.7723 1.40433 38.4223 27.703665247
19.8002 15.1573 35.8055 58.2231772303
20.8597 10.5947 36.0109 56.1930467349
21.9981 13.3715 35.6616 80.4794825129
24.3942 8.36187 38.3216 28.001494091
25.5582 6.99433 35.6243 108.7863232264
23.4696 9.5476 35.9454 64.0389600099
24.9677 14.0962 35.6871 81.5030878093
24.5373 3.09802 38.3168 28.0847066049
24.159 11.8657 38.2827 29.4517627391
28.139 14.1513 38.5995 29.2727671082
25.4023 5.59979 38.7575 29.3470001458
27.9406 7.22193 38.6443 27.8479585732
24.3106 1.75906 42.6917 30.6759971712
21.2866 4.78119 44.1855 32.5293246966
29.4528 4.4663 43.8421 29.5934461678
25.3135 14.0999 44.2836 31.1598980742
28.6704 0.928623 40.5322 30.3799404293
21.3924 4.7014 40.9223 31.8597824527
23.5201 6.15444 42.9481 29.1091078407
28.3898 3.87106 41.4323 33.8009187923
19.7855 8.4939 47.2574 34.1809612281
24.8801 14.2827 39.1632 30.1641108777
22.9539 10.1579 43.7939 30.9444988972
28.4241 13.1778 41.4824 31.0170532426
21.1174 2.18035 45.0966 31.2902605737
20.2615 10.5503 42.7707 25.2258510987
23.3695 8.61712 41.4323 28.2207764173
24.7796 11.7951 42.6888 29.6232143383
27.0986 8.15281 42.602 30.0629168248
25.7683 10.1071 40.3334 28.5583228166
28.8255 0.276022 46.3633 33.143618345
22.8211 14.0209 41.8585 29.3454571485
20.4524 13.2267 40.9593 29.4568904914
21.0167 12.0485 45.2562 28.9770743906
25.9992 14.6911 41.5629 25.0595910548
27.7936 10.7608 43.1809 29.1070546503
29.2577 0.0806755 43.2495 30.3370573952
26.3288 1.90714 46.1618 31.713027142
20.9344 9.35938 40.5732 29.8249743903
27.654 12.4468 45.8142 31.8094700169
21.7354 6.41464 46.5531 33.4600660123
25.4037 4.17113 43.9935 34.7169691188
23.8211 7.97288 45.2955 30.0405435868
26.2608 5.82691 41.329 29.360484042
27.4986 5.25365 45.8215 30.1315580024
22.3123 14.5858 44.5057 27.7364455474
29.4832 4.98526 38.9641 30.6796414004
21.7947 16.3742 47.0627 30.2302157938
22.805 2.32084 40.3251 32.6137706545
26.4214 7.64327 45.2266 30.0053291738
27.7136 9.72217 46.7109 32.062817927
24.8955 15.8143 46.6316 30.9144508832
28.2696 11.2352 39.0763 29.0228106787
22.1736 6.48492 38.8118 27.3654058355
24.7687 10.8453 54.6746 28.5517509412
28.2706 7.43736 55.2856 29.792998259
24.4653 0.598001 47.9576 30.9476373069
27.6532 1.16872 49.8502 30.1551397716
28.1454 14.3062 52.742 31.73834237
21.2733 14.7761 52.1739 34.5467618546
27.5693 9.66576 49.3392 32.2217819225
20.9835 3.48325 51.1952 32.0348726968
22.5927 4.93048 48.9305 33.0085674971
22.4957 7.99926 55.7918 28.6909726673
25.5881 4.66587 49.9228 34.1742689505
27.7088 3.89255 53.4138 29.1070035875
29.1579 2.56406 51.6303 27.2465250313
22.3903 5.54908 52.8972 31.3832890468
29.2126 5.62711 49.2831 32.7286655971
24.0484 14.0553 51.1284 32.9286242441
23.6894 9.19487 52.8984 27.4246506441
22.3337 7.31566 50.4779 34.126408852
20.938 10.1555 52.3584 33.706746117
23.4128 3.19721 54.6876 30.3434965446
26.2904 13.8552 47.787 31.859546995
25.0114 10.0156 50.3833 32.969117457
26.067 14.7499 54.6706 27.192559754
24.0994 13.3036 53.9168 27.810553523
28.6477 11.4281 53.4187 33.7748253588
24.2687 12.1184 49.0771 35.7085235975
22.4257 14.9896 55.5922 30.2112381385
28.7405 6.58338 52.6907 32.7181231453
21.9407 1.41701 52.8376 31.378585982
20.8281 12.3418 54.1958 30.9439305881
29.323 11.0567 50.7698 33.7541798719
25.9552 2.09587 54.8893 27.2748672376
21.9596 10.935 47.889 32.4743352696
22.0762 10.8425 56.4054 32.8563803714
25.2764 4.75789 52.5569 30.0157351829
24.934 7.31237 54.3414 28.9218520564
25.5963 16.5097 51.2696 29.7220417802
27.4653 10.2223 55.4812 29.9217542197
20.3437 0.719428 55.0116 32.6496363164
27.2774 3.47612 48.2251 29.6147063069
27.7967 15.3054 49.6712 28.8428497805
26.9108 7.04487 50.3995 33.2785221375
23.3546 8.69759 48.2288 31.6669294739
20.3172 7.56185 53.6917 29.640614375
28.0102 -0.0993416 54.6402 29.0222674297
29.0626 2.71702 56.1248 28.5926565679
22.1391 2.25789 47.5987 31.6858082204
28.2588 20.6854 10.799 29.6965416438
29.0133 30.5371 9.7589 28.1932586865
20.5816 18.3112 8.79976 26.4367387914
27.0904 25.6846 10.7415 27.4319340417
26.849 22.9223 11.6934 29.0049729544
23.386 18.1342 8.09996 27.4251042245
27.7254 16.6911 5.58513 33.8089300562
26.5532 18.5219 8.23985 27.5610227007
22.9961 21.9088 6.72909 29.5729326235
21.3051 24.511 10.9066 29.2039764081
25.2244 22.8781 5.68178 27.9280147649
27.5261 25.9338 7.4793 28.7406148682
25.821 25.6136 4.91638 31.054926025
21.9668 24.736 7.50049 29.7995328931
24.9278 32.5384 10.5041 33.4411349316
24.6168 20.8266 8.95456 27.5013078801
24.9959 17.0455 5.85772 26.2133653981
21.7878 16.9572 5.33565 29.0833788535
24.4172 16.426 10.1585 27.8114850203
21.4921 29.5719 8.83508 35.0473289513
28.3166 16.155 8.34964 33.2857843722
26.6654 30.4207 11.5141 29.742134488
26.0272 29.9043 7.14295 31.5316768196
28.4718 19.5249 4.87939 31.5975552915
28.1749 20.9157 8.18263 29.1452246848
22.0461 19.8286 5.12454 29.8316107755
22.0148 19.362 11.2529 28.551196021
25.5009 27.994 11.3988 33.1529991624
24.8118 19.133 11.8843 27.3128912856
25.2468 29.8129 4.60487 28.3443963985
21.8764 21.8268 9.97778 28.0449503171
27.6425 17.8776 10.9114 26.5132576109
24.7778 23.5482 9.78983 28.574138765
22.1385 31.9485 10.1702 32.2916275825
26.0989 20.8721 4.05347 30.8530563211
20.115 27.0372 9.31878 34.6589920784
23.0305 26.5071 5.58259 27.9619942186
26.8637 23.4851 7.83538 29.2028807929
23.5933 26.5305 9.7112 32.891201607
28.5566 24.9718 3.82803 34.202155538
23.4851 28.4219 7.60853 32.4734618514
25.8293 32.545 7.83663 27.0930965023
28.5435 28.6811 6.89397 32.7511651885
23.5242 32.0385 3.61763 29.2304832808
20.1945 27.6506 4.4439 30.7751800015
27.1021 28.058 3.59452 29.0155753561
20.4499 24.1238 3.76657 28.7883826244
20.4434 31.1845 3.43674 25.8661108368
29.4265 25.7082 9.40319 28.8693341232
19.7778 30.3092 6.44255 30.2545058184
22.6338 29.0122 3.51439 29.7955100306
24.2192 19.1103 4.12614 26.7872977918
21.821 19.7641 17.6042 28.6651344737
29.4288 23.0435 18.6303 26.6162263602
23.1473 18.9784 15.2549 29.4837957974
25.8113 18.6342 14.9143 26.7833031753
26.1355 16.4822 16.6046 28.2559185826
22.6028 22.5374 14.3804 27.7339358057
22.5366 22.4829 17.1102 28.3228293359
28.4853 20.4332 18.2611 32.9388465426
26.5047 21.4981 15.0001 29.3068655194
28.7198 32.8119 19.7802 28.4016124278
21.2711 31.1297 12.8027 36.5637463402
21.6552 24.8995 13.5338 32.3704673819
28.3297 23.7368 20.9685 27.5609627003
28.6273 24.7849 16.8283 30.6226754885
24.0748 26.7834 13.6545 36.4876619528
20.7027 15.81 16.8454 29.6539100774
24.2115 31.7793 17.2402 27.2919700681
22.9718 28.7866 20.9084 27.0048538699
23.2875 29.7286 14.2981 33.554008629
27.6845 29.702 16.0703 27.6586514355
28.623 18.9927 15.8773 30.8881085585
27.9828 28.0138 21.1621 27.6774282864
22.7708 22.4576 20.1947 29.2425809762
21.1506 20.2056 13.7216 28.0512657546
25.7591 20.8355 18.753 33.2705043587
23.7104 18.8608 19.5195 36.6428572297
20.4551 24.4105 16.9646 28.415958889
21.7296 26.998 15.8994 29.5398478953
21.6477 30.8726 20.9291 27.8059152375
25.2206 22.9742 16.8877 32.7888380282
26.0963 25.7217 17.6297 30.258613259
25.6498 31.1577 14.6066 30.5220817863
23.5821 27.5767 18.3568 31.5416066938
25.4293 16.5741 19.2063 32.7678994201
28.416 23.4514 14.1909 29.7737802194
26.3276 27.4139 15.2806 29.2382646293
25.7186 29.2986 18.2779 30.0166623999
28.7366 29.8611 13.3408 28.3756230367
22.2696 29.8252 17.12 32.1073570485
27.8621 26.4947 13.2112 28.4223127508
24.6476 21.6174 12.737 28.0158200348
26.4313 25.7309 20.3284 31.3271041498
20.7368 24.3466 19.715 28.5876063289
19.7896 29.7504 19.1154 30.8180683152
25.8231 29.7769 21.2126 31.0743473066
22.017 17.7833 23.8407 43.701342384
26.1365 17.897 24.1609 74.209554956
21.8063 20.5981 24.161 81.1571617648
24.0509 21.9786 24.2803 69.6169695208
26.5021 20.5138 24.3009 85.7044723356
21.9599 26.4967 24.2452 82.7951198352
24.4143 24.7326 24.5029 84.7661148413
27.1557 25.2073 24.5999 83.6559680925
21.685 26.4711 21.5097 27.9902080961
28.6941 21.7918 22.7653 31.4751419617
22.9535 28.98 24.0151 56.1311666878
27.8951 27.8803 23.965 41.7481050396
21.3518 31.2702 24.1612 73.9750199621
25.6682 29.6472 24.3535 89.8979150098
26.1681 32.7727 21.2583 30.0020897445
25.5236 21.9665 21.4811 32.9601047456
28.8544 32.6619 24.285 72.718266163
26.1142 32.3214 24.1372 64.355430889
21.6415 20.2132 21.0621 27.5463997428
24.1684 24.5471 21.6321 31.354304236
21.6349 17.2515 35.9936 70.016854218
28.4825 17.6458 35.6822 103.7061959645
25.9246 25.1708 38.3096 26.5676648835
27.3462 28.1051 35.3616 96.1817937076
26.8394 24.0026 35.8796 62.5407570802
28.682 21.7805 36.0958 49.8351444378
26.555 20.1924 35.6964 87.3744899593
29.1482 26.0278 38.65 27.5975513047
24.1663 31.9055 38.6512 26.256475272
22.5971 29.697 35.7937 92.9717925491
20.329 22.0193 36.4661 29.8021840498
22.2969 20.3914 35.7561 87.9530239515
24.3203 22.3002 35.7735 66.8646789518
23.1857 19.9571 38.2916 27.581772746
20.5642 24.513 35.7692 91.2894822201
19.891 29.4435 36.1812 61.4166660413
23.3983 24.7965 36.1149 45.4724174303
24.5525 27.3779 35.6902 78.9953009801
28.8377 25.7244 35.8063 56.0055471116
28.1497 30.779 35.6764 84.8880234623
26.7219 28.215 38.1729 29.9855703802
23.8529 29.1777 38.4893 30.441369698
28.1682 17.8795 38.8732 30.9405613052
28.694 30.5061 38.7747 25.6687275536
23.5732 32.453 36.0646 70.892453892
25.7364 18.8076 37.5888 25.3840923843
24.4476 16.4635 37.1309 33.1213264628
25.6139 22.1432 38.5764 27.9924986558
29.0802 20.5596 38.546 26.890675501
20.1213 24.8319 38.9055 25.7123827181
21.775 17.0872 43.9821 26.7684166719
26.3317 18.7837 47.4169 28.0734696401
21.0263 29.9857 46.9275 23.3963152067
26.8514 17.2278 41.5376 27.4069686089
21.75 27.4121 45.7006 32.52980609
23.5199 17.1996 41.6539 30.8622193989
26.6493 32.3774 39.8344 27.3153505955
27.7458 26.7685 46.4655 29.7665006397
26.1126 17.5358 44.532 30.7644455668
26.1116 19.923 40.5752 27.4676947529
28.6282 21.0056 41.6678 28.0555056703
28.2916 23.6266 40.913 30.6843463812
23.2662 27.6702 40.8454 33.0733997492
26.0512 24.3475 44.1047 30.4377783411
25.1853 31.1916 43.4666 32.2706138236
20.6793 28.9681 40.8993 35.421383163
22.8265 22.6584 40.1385 26.1173317198
19.6739 28.7995 43.8078 33.315904863
28.8234 29.3081 41.3219 28.380340953
28.7143 24.8316 44.4376 28.915899491
28.7658 30.9853 44.9958 30.2371887192
25.503 24.3076 40.9867 28.537810582
26.9545 29.0267 44.3859 28.2431299707
21.137 22.719 47.0436 27.2168591131
29.1331 28.9822 47.1539 32.1928378694
28.8608 18.6474 44.6139 27.8678603911
22.2655 23.9472 42.5219 30.374652921
22.3316 22.074 44.6018 29.9828899867
25.98 29.8101 41.1663 27.1545478576
26.3493 27.1902 42.4053 28.1412505817
22.31 19.2193 45.9227 27.0653959202
24.4182 23.4211 46.8125 31.758538775
23.7385 20.237 41.7876 29.240686578
28.8004 21.4545 44.4893 27.4612069919
23.734 26.1791 43.5067 30.3722076377
29.3657 26.1674 41.9928 31.1195081432
24.7443 19.9774 44.2752 28.2425833102
26.4033 21.6701 45.6256 25.4539494527
21.0927 31.6245 40.0448 33.7805234241
24.7442 27.6073 46.1531 27.4334352568
22.4127 17.1658 38.9587 30.3915266783
28.7672 23.5742 47.304 29.6008099154
23.5737 30.4151 45.7408 29.6595311701
20.2304 25.4157 47.3021 34.1041388199
23.0798 25.3152 38.9297 28.8522956299
20.4127 19.8952 43.5206 30.4570187383
20.3656 21.7588 39.0522 25.9613776058
28.9184 18.869 51.0858 29.4003554748
20.5018 18.7776 48.8942 25.8308046274
24.473 19.2095 51.402 28.2254748783
20.3304 21.3261 56.3188 32.3462175993
23.9695 19.4768 48.6226 26.4873024124
28.2961 32.0828 49.9036 31.4668644662
27.9088 20.9738 48.1778 25.84721677
21.4129 21.3491 49.1962 29.71276711
25.0333 23.9968 51.4202 28.3640300319
23.8275 27.7341 54.3025 31.0905320283
27.087 22.63 54.219 31.1642805448
28.4142 23.0434 50.5746 28.7594570627
21.218 25.1371 52.0 32.9744052218
27.6645 28.2666 50.7391 29.1148130374
24.4722 28.6301 48.6345 33.1432282088
25.3402 21.8721 49.2004 26.8569686829
28.8535 30.7782 52.2462 24.6072806751
26.2187 30.1899 52.6977 32.117558458
20.0819 16.4798 50.6252 27.6572671149
29.4086 30.0595 55.155 26.6870049684
21.4939 28.5526 49.6106 28.7883953032
28.0449 25.9849 49.3516 25.5897991974
25.027 25.4191 48.6961 30.1072160885
26.7895 20.8617 51.7432 28.892701686
27.1182 31.7527 55.8342 27.783442665
21.4714 16.8683 53.9941 30.3462827645
20.3385 22.4272 51.4499 28.1560028747
23.5132 18.9938 54.3105 29.0223680281
21.0008 20.8254 53.5711 30.7313678549
21.3476 32.4352 54.1118 27.708337067
26.247 17.4421 53.976 32.9075390637
23.6637 31.6669 52.5268 28.9522933129
26.9522 30.1235 48.6518 28.6199250582
26.6016 27.5095 53.6966 29.517594294
23.5922 21.7871 52.2948 25.9373834516
23.5905 25.2188 53.6449 31.2983956823
27.4651 24.9711 52.6241 28.3566280223
23.0899 24.3112 56.5307 28.7658028495
22.231 29.2182 52.3744 33.9631329263
22.0564 25.8204 49.4463 32.556965767
28.8941 17.8064 53.6671 29.9372203317
28.6269 17.5249 48.5509 26.0207493993
23.0649 16.5918 49.6552 30.2481399237
24.1793 22.0545 54.8915 28.4325796348
24.6498 32.0026 47.9397 29.0634909656
19.7892 33.5262 4.72991 33.344927665
21.9738 41.7187 10.7773 30.3197306709
27.1801 44.8456 8.8584 29.7034094269
27.0659 36.0312 4.12032 30.6371408751
27.1423 33.2114 5.15019 30.8979777354
22.6814 48.9723 8.80487 32.7316661493
27.1467 42.2072 8.33368 31.4434360685
24.1352 36.0049 4.39533 30.4847783034
28.2244 37.3651 6.34185 34.291920675
20.0473 38.7295 10.9995 31.0786691717
26.0028 47.7563 12.3302 31.7332459131
26.0516 38.0751 7.73501 33.3022643579
20.8684 34.497 10.0461 27.2381403734
22.631 40.8048 4.93985 31.3934530229
25.8234 46.6012 4.52346 28.3941928764
23.2936 48.1393 11.5982 31.7771241089
28.1162 42.0979 5.66328 34.3149222452
20.4215 45.6509 5.53944 28.6180693486
29.1679 40.881 10.1347 35.9903131432
23.2522 44.6972 5.68522 31.0542288929
29.0105 48.9294 7.08825 30.0492065093
26.8341 37.5154 10.4244 32.894765353
20.7952 45.6157 9.36499 27.7490158804
25.3019 45.8152 7.43428 29.3668356963
20.7759 37.4101 8.78146 31.3858161435
20.6255 47.5857 7.34606 28.6491667282
22.8649 39.4574 9.24312 27.5746690097
23.605 35.1201 9.40588 29.9707454884
26.5968 43.8654 3.81355 30.7361521247
23.8146 33.6302 6.34179 30.2468357462
28.4125 32.9301 8.57794 27.3763881926
24.2809 37.5199 10.8708 28.5311440904
24.4459 40.5616 7.31271 31.813064928
23.5354 36.7834 6.98493 34.8175336791
23.624 44.6203 9.6274 31.3229649856
28.0425 48.9881 11.2608 30.9327626032
27.1158 34.6084 10.6616 31.4654381734
27.8087 39.4255 12.2031 30.5209730336
25.0346 41.884 10.2006 28.8922297988
26.5173 45.155 11.479 30.6375424973
28.8631 39.6357 4.8662 33.5191326369
21.0787 33.2145 7.08371 31.917713355
28.0172 48.2344 4.40513 29.6297594407
22.323 42.9301 7.69419 28.5238554504
20.0304 40.9765 5.12728 28.1707692983
25.1693 42.9294 13.0843 33.033825264
20.7708 37.3892 18.7251 30.5856979303
28.935 48.6884 18.8926 33.1191422159
20.9696 45.533 19.5996 31.4777726616
26.4701 38.3141 15.3269 30.8317389643
20.8982 40.6711 13.3124 32.9222532928
22.8219 36.731 13.4517 33.8442786986
25.0976 35.6288 14.8301 33.1573540714
21.0985 39.1395 16.518 33.2425183767
28.0564 42.4415 20.5548 27.0965875066
23.1942 38.9123 14.7439 28.7594686437
28.6451 40.7479 15.009 30.1853445518
24.2112 43.3958 15.7153 31.4334263633
20.5318 33.2853 14.3125 33.0318780423
22.4839 45.6926 15.0782 31.465300901
27.924 43.314 14.087 30.7140267313
26.0614 43.2573 18.0164 27.4266813727
26.3064 47.3517 14.918 32.0982872579
21.5557 46.3576 12.4627 30.2741056131
25.1746 38.8508 20.7508 28.4473093383
26.9945 45.0492 15.9653 29.0168297784
23.9846 47.5691 16.6512 30.9897174842
22.8687 48.9559 20.556 30.8503821677
25.0773 36.4191 19.3492 30.1366922696
22.7767 35.2863 18.5141 33.6468057818
26.8885 35.2454 17.4662 29.9575436737
27.0534 33.7987 13.722 35.3413398157
23.3683 41.2112 17.2564 27.7196229519
23.1926 44.562 21.1331 28.4776940284
20.5759 43.5997 13.9089 33.5512291189
29.7636 35.2976 19.6416 29.1452295255
27.9698 40.997 17.8361 32.1591346389
25.4331 39.381 17.7083 31.821824681
23.2031 32.9629 19.9584 32.5848263557
23.869 42.1377 19.9466 26.143827332
21.1573 43.0898 17.9778 31.5597503318
29.1259 36.5124 16.7239 26.3735639788
25.4902 45.3865 19.6148 32.4051138803
27.8421 44.9269 21.3735 30.6943583975
22.9024 34.0509 15.8994 36.5269304187
25.0723 48.2658 19.1166 29.7657153924
29.9897 34.5325 13.9586 29.9244391956
20.346 35.3207 12.5061 30.6339971763
29.6431 37.742 14.0844 32.0675983059
20.3598 46.7764 17.0619 32.254298195
27.1085 32.5403 17.5809 32.7902222878
21.3113 41.3584 20.9194 30.6000344997
25.0783 39.9279 12.7097 29.8669092889
25.4187 47.7074 23.7357 52.2461279627
20.7877 36.7612 24.2887 87.2447680003
24.5021 34.6872 24.1272 62.7901586358
29.2359 35.3034 24.4433 109.5121533276
20.8837 34.06 21.4734 33.9393664467
22.5515 38.5019 23.8782 53.7524459622
21.4113 41.1774 23.7478 55.4481123596
21.0796 45.2789 24.6439 119.4381737935
25.0506 37.4282 24.3518 95.8745747846
27.6387 40.5689 24.5454 112.5042238404
23.0421 43.4208 23.8321 50.3197951413
28.5752 36.2232 22.0209 25.9965625285
25.7259 42.8618 24.0661 69.0172789795
27.2807 45.2533 24.2491 85.8639689319
21.9342 34.0949 24.2844 81.8177031713
27.0896 38.6553 22.9397 27.6472256908
26.8632 48.4461 21.5928 30.7057357511
20.3559 37.005 21.4547 30.750822733
26.1469 41.4358 21.7918 27.5754349367
22.8649 47.0134 22.7714 30.2901574098
20.6328 48.0827 24.2637 60.5984120173
26.1311 35.5361 21.7009 27.8791672954
22.4611 39.1202 21.0552 28.4350475445
21.7962 37.859 36.4126 43.2122645449
24.947 48.5342 38.6029 27.8956951322
23.0738 40.1898 35.4885 121.8203610465
25.1537 47.4487 35.8583 62.9203532104
21.2655 42.7474 35.5732 81.6850561976
26.5278 32.9476 36.5807 35.5199247756
24.3029 41.0756 38.4017 29.9513903949
25.4934 35.6773 35.8652 87.6139440799
19.5872 34.2725 38.7552 29.9522761645
19.916 34.0897 35.8173 92.2350808734
27.5761 37.7605 36.0641 56.5317314724
25.3915 44.9965 38.5764 31.5637370574
27.7547 47.2577 36.7271 30.2477374949
25.6708 41.7176 36.2018 46.1550118794
25.4963 44.4155 35.8971 56.0391687894
28.3826 40.3901 35.8349 75.295785288
28.2179 44.4388 35.4178 116.992196973
22.7628 34.987 36.0767 58.440783336
21.144 47.5892 35.418 95.8967971623
29.0678 34.7919 35.8271 71.6781150917
22.7597 45.2574 35.928 50.5910762657
22.9866 38.5769 38.8254 28.978934696
22.3749 45.0973 38.6806 34.3762656811
28.5815 34.6737 38.7127 29.2049636543
22.1155 49.1608 38.5667 27.5614752071
28.0172 33.5852 45.6251 31.6637130801
22.7086 35.9703 41.948 28.2420899395
20.8682 37.5025 44.7398 29.1410636384
29.1383 35.3144 43.5983 29.5363935652
26.4121 34.7591 41.3228 31.045289288
27.0361 42.6858 39.1005 34.0070475519
24.7742 36.1303 45.9913 30.8735746178
24.7508 38.0404 41.1331 30.0681043929
22.4983 42.4021 42.4396 31.9938038706
26.8089 40.3786 40.7935 27.8595739048
23.5028 33.1634 41.6543 29.4516723421
26.4293 36.8361 43.6926 28.7802840746
21.1966 44.4062 43.5416 34.099703867
22.5576 49.1247 43.9727 32.8257608198
25.2763 41.7508 42.7697 32.4357098988
24.5657 45.0783 46.1583 29.806522232
28.9815 36.9554 41.2881 28.6928656158
20.9176 47.1932 42.7028 36.4801442387
22.1402 42.355 39.6298 29.7907558125
25.9742 44.0666 44.0468 31.8364586877
26.9218 46.0662 42.3467 36.135054022
22.0208 35.4809 46.06 30.4801908254
20.5979 36.6436 40.3714 26.5666501263
26.3867 48.3095 44.5904 28.2687075412
22.0466 43.8962 46.0927 32.3063291604
20.8523 39.4853 40.3148 27.5252006098
21.1157 40.0463 42.8281 30.0440688994
22.6078 33.2295 44.4928 29.3332211328
23.3631 38.3713 43.912 27.2981578333
28.7663 46.4315 45.0891 25.7940780149
28.3624 43.6231 45.2973 32.3795732464
27.4162 46.6289 39.4062 26.8500854781
24.0327 47.6672 45.7804 32.9032352286
28.6589 39.6216 42.7101 30.5183183728
24.7573 40.3633 45.0961 29.6847589089
25.2881 33.4089 45.6495 27.5198099303
27.3943 38.9991 45.1309 30.4340176813
19.7251 32.9948 42.5813 29.648483418
22.7028 41.4724 46.7956 31.4065252604
20.672 47.124 39.8281 30.6508451136
25.8384 49.0513 41.4413 32.9362028313
25.8163 35.9643 38.6178 27.730072828
28.7751 37.8854 47.4181 32.8749353294
22.8594 34.7513 39.0796 28.5914807544
27.5368 38.4361 38.8375 29.1430415363
23.757 33.3624 50.3911 29.5637615651
25.8524 40.9664 48.0791 30.3100518556
29.3385 33.1432 53.6794 30.1590015523
28.2866 44.8776 54.5399 29.4782515613
27.374 45.4294 47.7098 29.6786428729
20.6677 36.731 52.1008 28.4895189651
23.9133 42.8919 56.346 31.5319848502
26.3546 36.7282 48.2126 30.8918657838
24.4724 38.1907 49.8696 29.8697922798
21.304 39.2281 49.4337 33.1547519954
23.4076 40.8112 49.4707 26.0931291894
21.5307 32.3296 48.4889 30.81320533
26.7514 39.8463 50.4998 28.1757815659
19.9296 42.3182 51.7483 28.7996260051
19.7624 47.2022 56.1292 30.4051332679
22.6525 42.5185 51.6575 29.2674607419
25.8215 44.4823 51.3631 29.2923626467
22.0336 47.8981 51.3838 30.7599294043
21.8012 48.4982 48.8187 39.0921687553
26.8401 39.0333 55.9624 30.5125025802
26.4588 46.899 53.4217 29.1734978323
27.3504 46.8891 50.3989 30.3808596043
23.9337 47.5338 55.5085 30.8793768246
26.5123 34.2513 49.8083 27.9950438412
21.7512 34.7332 55.5884 32.805204384
24.5239 49.0532 53.397 26.8554314755
23.0618 45.197 52.1554 34.3075944865
25.9921 34.8714 52.4621 29.8648858174
28.0744 35.9536 54.4308 29.5204005782
22.4342 45.1318 55.0892 31.1991612688
25.1542 33.061 54.4636 29.2468739488
23.0206 37.1426 54.0785 30.2042734482
25.3381 37.4353 52.5211 28.9906642686
22.441 35.7901 50.0035 34.0568730209
27.8594 38.3989 53.3313 28.8958740176
21.5942 39.494 54.3888 29.3100389916
23.9439 41.0927 53.7507 31.1480154557
26.2265 41.917 52.3671 28.6853291308
27.225 41.7202 54.7754 28.1638730469
25.1117 43.7821 48.8064 33.7498701389
28.3757 42.737 48.6296 28.6821304526
20.1492 39.3943 51.8015 27.0695656703
20.0882 43.5273 54.3067 28.9049025406
20.033 34.8418 47.9016 31.7762375605
29.5822 39.618 49.5196 29.0752661868
25.2469 48.8614 50.5568 33.8271403981
23.924 38.6523 56.2853 30.8886704203
19.9962 40.9028 47.7821 30.7675433994
38.0434 2.6002 7.35932 31.2749360194
35.697 1.08041 7.81855 29.6380823096
39.2777 13.9444 7.78116 30.9790791594
30.6833 6.30072 7.30364 33.1050381552
29.6531 10.0819 11.319 31.5168873982
32.1453 5.76213 9.68693 28.8346761601
31.6731 2.76787 5.05864 26.8674211999
31.9851 5.62291 4.55503 26.8603204691
30.7585 8.79274 5.84755 30.2397629977
37.178 5.24022 7.07007 32.50504133
30.4495 3.61064 9.99892 27.7149852615
34.5074 4.13099 8.4336 29.2722059148
32.9961 10.4828 5.40716 29.9918519644
30.5946 12.6157 4.19896 29.8832135197
36.7575 9.9989 6.8999 35.7922958936
34.0493 8.31435 7.24345 32.9335601418
32.5598 13.0744 6.43569 28.9059182461
35.5241 16.3448 6.29982 31.4567575008
36.7856 13.6593 8.74564 30.528189002
35.5959 12.3371 6.33755 32.2894913444
34.6316 6.07304 5.90266 31.5754191989
38.6994 15.3361 3.93982 31.3019281034
39.1547 3.62484 11.0089 28.5557608106
35.9076 4.35202 11.0345 30.8596687665
34.6543 1.31227 10.419 28.3828167889
34.2283 1.38917 4.89455 29.7409592838
33.0916 10.8697 11.3726 31.1564481222
32.2065 12.8353 9.07564 32.5720570473
38.1317 6.13773 9.64389 34.5154390911
37.6575 0.715595 4.6501 33.0466678491
32.516 2.38851 8.06908 27.3994544672
31.2866 7.63355 11.9287 30.9290671374
33.6951 8.17723 9.95862 30.8767081181
35.4966 12.3702 11.0672 29.8920436963
37.4634 10.5659 9.56331 30.2398959267
36.6046 8.25835 10.6432 30.1973970047
32.5008 15.2442 10.1377 31.1583230033
31.9199 1.957 11.657 33.4226069295
32.5275 15.7293 6.23602 30.0230793706
35.2729 15.4355 10.8061 31.3097094463
36.1163 14.418 4.48958 28.9932308237
39.0653 6.5155 5.21452 34.035306803
39.0349 9.20967 5.32947 33.0052426425
39.2922 0.340481 10.872 31.0460501618
31.789 15.3047 3.60127 26.816410158
36.1355 15.1561 19.1083 27.9892326164
32.144 12.8922 20.3839 31.5162343646
38.3217 12.7957 21.0226 28.8546344057
33.9005 5.92586 16.6735 28.4557796736
34.7728 4.26399 14.7679 28.6454631544
36.5607 12.0333 13.5414 27.6129744012
36.101 7.79838 14.7899 28.1436121577
37.151 14.9361 12.9621 28.0672254277
36.3502 0.262146 17.3346 33.586696638
34.998 9.0811 16.9807 30.0209990775
33.0436 8.76307 13.8037 29.3090358545
33.1973 14.2302 14.6664 30.1418167075
34.5783 1.23531 15.5443 31.7723623443
34.6606 6.36964 12.593 30.5091613182
34.0077 11.3567 14.7132 27.5822027808
29.8878 4.67504 19.7277 29.8158444959
38.2453 5.90982 15.1268 32.2318077337
33.3095 15.3572 19.3205 29.7020787321
36.4299 13.0408 17.0769 28.4350124557
30.0179 6.08518 15.8524 32.7307645223
33.7679 11.8209 17.5061 26.6941570602
38.0065 2.54143 17.8126 32.8811286773
37.332 3.34109 15.0385 28.375545199
37.6005 9.45306 13.1101 29.5293967919
31.7053 4.34426 17.4402 29.7582338937
35.6502 4.91223 18.5782 31.8767492324
30.9268 11.9538 13.4717 29.4472045001
29.6389 10.6545 15.4816 28.8348290358
33.4721 3.54982 20.0605 30.5343945302
37.7318 6.95954 19.3743 28.2184781621
31.9743 2.98777 14.5241 30.5927264423
38.1663 14.3562 15.7151 27.3484058189
30.2878 12.3827 17.7666 26.1600744102
31.9029 8.08945 16.6115 29.7087821333
36.6556 9.49054 18.9576 27.7873591045
31.7995 9.96455 18.6655 28.0753837933
37.3947 2.7405 20.5367 32.8238556454
31.9503 14.5053 17.0374 27.9051911612
31.9614 1.3655 17.0257 34.3248834628
36.9473 2.10547 12.2203 30.8631980352
31.2685 0.998788 19.9341 32.5412102724
38.5897 11.332 18.0951 28.3995545279
31.5479 15.7139 12.7489 28.0668935896
35.4622 12.0838 20.3606 29.8623424254
35.109 8.79941 21.5038 31.4972338691
30.373 5.17973 12.9641 30.0985962545
31.2791 2.90275 24.3013 78.0404775089
38.3479 5.12055 21.6906 34.7250649586
33.1512 16.3351 24.2507 107.1849403729
33.9121 2.67726 24.3686 103.7377473769
31.9368 5.71932 24.1277 61.1504148923
35.0401 5.2768 24.1677 75.8430989205
37.6284 8.77098 24.1096 70.4937427462
29.9767 7.95054 24.5589 99.8241262947
30.7021 12.1392 24.102 74.2175753785
31.9308 9.74853 24.222 64.7792811298
34.6624 9.61656 24.1084 79.3583181717
38.9304 0.400904 21.4578 37.637792671
35.1902 6.0021 21.4831 27.7445111033
32.832 13.6161 23.1454 37.0690297112
36.7677 13.9373 24.5316 127.5712127001
35.0778 12.1284 23.1337 32.299086594
32.2452 5.9769 21.42 29.907482644
38.171 6.00673 24.4112 97.3580072881
34.7864 1.96327 21.7575 35.6613937101
29.9023 2.83612 21.65 26.347562876
29.7789 11.4615 21.5568 28.8259890757
39.5343 8.6152 21.5847 31.0389393368
39.1417 13.1782 23.429 33.6072338045
31.9343 8.8397 21.3459 28.9076551962
32.969 0.63151 35.7996 80.6742906227
35.8384 8.17145 38.1482 29.1000666362
36.69 5.02431 35.7982 69.8985857732
31.7582 3.23488 35.4428 110.3647539601
30.3211 13.7698 35.7191 78.0056714564
30.2748 5.95165 35.7568 90.9028095443
33.1585 7.74816 38.7728 23.5127422683
36.214 8.55844 35.52 82.4014458674
33.8956 4.88187 36.3301 41.9090581001
32.6575 7.47332 36.1654 53.9626558591
33.532 10.3129 35.8172 72.7895394546
31.7376 10.006 38.3109 28.1239410366
37.1893 11.0366 35.7833 67.1006638733
32.8898 14.8796 35.9888 77.0973193679
30.8487 0.915318 38.5132 28.9960996897
35.0896 12.9024 36.1473 44.0889855739
38.7552 7.09761 35.4477 87.2396995093
37.3795 14.6495 35.4844 96.577688913
36.9914 2.80565 38.5856 27.8478030494
30.652 11.1279 35.6983 88.0250427556
29.6315 3.05531 36.822 34.498643813
37.4924 2.425 35.9099 74.6125339673
30.9153 14.1449 38.6112 29.9807447045
35.1433 0.774752 38.6869 28.2014685863
38.8875 10.8223 38.3792 28.0316002012
36.5438 5.40899 38.6803 22.9481978418
36.5626 15.2166 38.2202 30.213776471
34.5944 3.49917 43.645 32.1443023834
32.7207 10.6397 42.7768 27.5315990286
29.5971 8.78865 40.2049 28.5006824239
32.3667 1.9861 42.5235 32.7069582569
30.4257 9.48183 43.1344 29.0066526814
38.3793 2.0769 45.4644 30.6748401445
31.2731 6.50912 43.4861 30.5489849069
36.8031 10.3693 39.6772 29.6634126486
32.0821 10.1947 47.3194 30.5872980779
34.0245 4.83788 39.0792 26.7275938819
34.0952 8.80874 41.4284 28.774293681
36.9121 5.73096 41.5827 32.7259036396
33.6933 9.89927 45.0579 28.3260346865
32.4764 12.1517 39.6909 28.2364675152
39.3878 0.428465 40.1527 29.2270492818
39.0095 8.92117 47.7121 29.034078683
30.7568 2.19291 44.6999 31.2609926234
36.367 10.0108 42.5952 30.6020240333
32.8832 13.3142 42.0689 30.4819961216
30.1126 6.39638 46.7353 32.5488321179
30.3782 14.5394 42.9648 30.3745279068
34.991 14.545 41.0508 28.5539607547
30.2391 8.94604 45.9196 28.3806207953
34.7117 16.0407 46.9011 32.7464768984
35.8565 11.9343 45.1603 30.284145775
36.3017 14.2156 43.3372 32.0906571707
34.9494 7.20833 44.8318 29.0809853377
29.8712 13.9541 45.678 32.6135205793
31.2336 6.50989 40.4723 29.3850114683
34.2069 5.99134 42.0786 26.8632783516
36.767 1.86261 43.1707 30.4388134338
38.2134 7.79215 43.1307 30.2712657216
33.3177 2.70864 45.8888 29.496988804
38.3917 11.4274 46.3058 29.0490709777
37.6339 6.80206 46.1595 30.6529873161
32.9062 5.73225 46.0605 31.3474116925
32.9242 2.39561 39.5659 31.6502345015
31.5771 13.1625 47.5947 34.5124098077
38.5419 12.2912 42.9784 31.1407041776
38.2858 2.95254 41.4505 28.4196609903
35.1022 12.7183 38.9025 29.5460872058
30.348 15.431 54.0411 29.5695395868
31.1888 3.76735 50.2659 35.6017009028
31.5844 1.66482 55.0161 30.5340924672
36.7134 8.85483 54.1994 30.9842628496
35.2718 16.5416 54.0533 28.9762557681
36.9601 5.70219 48.5101 29.0432340739
35.1102 3.20188 52.5674 33.5011473069
31.1289 5.70742 52.1698 27.8657184906
34.8583 0.0217254 52.2549 31.2687888076
37.0177 5.11297 51.5141 30.7788818277
30.1456 0.34959 52.7992 33.0219525781
38.7547 7.87121 50.3489 28.3392302162
33.1531 12.194 51.26 31.960943508
38.5703 1.44903 54.157 31.200003199
35.5747 5.91839 55.9777 33.9274743365
34.8477 13.208 47.7127 33.115894565
37.6713 2.07818 51.3398 26.9296978426
35.7572 13.6509 50.347 32.3617717423
38.0879 15.5548 48.85 32.9321173271
36.7865 10.067 50.6328 31.5580967345
34.6215 7.97125 47.6506 34.15323154
31.5566 4.60847 54.7054 29.712610052
30.8263 8.54198 55.8418 28.9028934235
34.1058 9.87825 55.6583 31.3513859469
34.4028 3.41085 55.721 29.8141935728
33.6889 2.61881 50.1867 31.2257768388
32.9241 7.76578 51.6598 36.6355646398
31.8834 9.81004 50.1814 35.17799399
33.1767 7.29434 54.7314 29.0032598291
34.8213 3.85148 47.9839 32.9443483404
30.8954 11.0775 54.8109 30.0333191314
33.527 11.9452 53.781 31.4078580397
37.1974 12.2294 52.1745 34.8039300218
35.6038 7.74731 51.9388 31.1647662165
36.1734 10.2891 48.0464 29.6522288468
34.1918 14.5561 55.466 31.1551273252
34.4369 16.3499 51.4506 30.1376260569
36.5806 11.6088 55.2374 32.454763477
31.9443 14.9347 51.9682 30.0092145669
35.9219 1.07115 54.9221 27.9380726206
30.1454 13.7277 49.7569 29.3978412685
38.3326 6.11141 55.2324 31.1640597127
39.0549 10.8912 55.9686 30.9099195968
39.3576 1.82592 48.9848 28.8349550026
37.0049 1.61545 47.6135 30.8720966806
30.3596 30.9574 6.67922 30.4816152479
37.33 27.9225 11.3332 34.1492205307
30.7017 28.27 10.0699 30.5384232686
38.652 16.779 6.45913 29.2486037272
36.0505 18.8263 4.98758 29.8116438902
32.3721 30.5813 4.74801 25.8305541125
32.2285 19.1975 6.31877 26.478844807
38.235 32.4365 7.56186 32.6567156743
34.9142 29.2734 11.3861 31.7340105135
38.6515 18.1148 11.223 30.9227355693
33.164 30.6038 7.71318 30.8519229216
34.5236 20.3035 6.41437 26.6054608494
34.9291 32.7486 4.64357 26.9314167382
31.9715 23.2625 5.40894 30.8636213764
36.2709 25.3289 11.8579 32.044270449
36.975 28.5633 6.71063 33.3617617357
35.4329 26.0085 6.85441 30.5905207742
34.6283 23.5905 10.4005 31.6039903604
30.4499 21.1335 6.23337 29.8103011135
35.4185 32.0229 11.4269 32.3017309962
35.7782 31.2603 6.77905 29.8868285862
38.7848 25.1858 7.94919 29.2915717276
37.5643 21.8985 6.88185 30.7818223363
34.6853 22.7936 5.32703 28.9377861481
39.5058 32.2144 4.80365 35.0936461663
31.5066 24.0941 10.2459 30.7400267324
32.6582 19.0677 9.41149 28.8091044968
39.0331 19.2237 5.1337 30.7760344214
37.1612 24.2284 5.93704 25.1356213305
38.1981 21.199 12.0963 29.8888851748
37.014 17.0225 9.2284 30.3067823718
35.6371 19.4997 8.83616 30.2408599246
31.309 27.8665 4.4809 30.0361673538
31.1538 21.4926 9.25736 31.8557000851
36.5838 21.6585 9.62586 31.8731086107
38.0183 28.7647 4.10847 30.0604777771
33.1802 28.5321 9.41781 30.8792207391
33.7039 26.0623 4.59547 30.1235027917
38.6238 27.8728 8.8286 32.3063731905
33.6044 25.8399 8.8384 34.5415216563
33.7698 19.5891 12.2684 30.6463848062
30.3024 17.8844 11.065 27.5410536299
31.0224 16.9579 8.29001 28.9039672638
30.9804 32.3106 11.0116 31.7932827129
30.4045 25.4155 6.15067 33.4366085066
39.0314 24.263 12.2217 29.3220911165
31.031 20.5439 12.0858 26.7251721568
29.5815 30.2725 20.214 29.1784397453
30.2819 17.2703 19.9673 33.3900004302
32.633 19.3739 17.0684 29.3392527231
36.4388 18.6574 13.2738 31.7527766716
33.338 21.0178 21.2184 28.9526068921
32.6736 17.9374 14.2001 30.8032635051
36.9636 25.9882 17.8529 30.1610651989
31.496 23.8822 13.048 30.0172529061
30.1004 27.631 12.6484 31.7156666804
39.0345 27.9707 21.2168 29.7651477489
34.894 23.0763 15.4628 35.774215224
35.0496 16.4194 14.4991 29.4623422549
36.9945 30.3507 17.172 27.3823447334
30.8421 17.1431 17.0835 27.7554050161
32.2924 26.0302 14.6186 31.6877357725
36.0741 27.8588 15.5801 26.847001714
33.6422 28.5234 13.6795 32.8864588424
38.0145 24.8113 15.1862 28.5843907522
30.7094 26.6845 17.2629 31.3673694504
30.4916 31.9795 13.521 29.7248557891
30.298 21.3119 14.6669 29.1041060409
38.3719 29.055 13.8832 28.2730710312
32.8797 31.2108 14.5832 29.6105067294
35.1284 18.6972 17.9899 29.3433792777
29.998 29.3305 17.6995 31.6475551652
34.4125 29.736 18.4102 29.0719387629
37.3405 31.7456 19.8154 30.9362644249
32.2754 21.8573 16.3705 30.5821952579
31.4652 25.7523 19.6862 29.1820925759
36.6617 20.7973 17.1333 34.9449757617
38.0672 18.7577 15.5394 29.0730846307
33.718 27.4862 17.344 29.3196818667
36.7321 16.8541 17.1077 29.3141762384
38.0896 22.1789 14.617 27.6431467354
32.0553 22.8864 19.0226 32.3576269213
35.0959 25.6892 14.2568 25.8170675392
32.2068 30.6987 17.105 28.7590212934
37.9597 31.7442 14.8382 27.6246829549
30.9201 19.8392 19.6489 28.2556467431
38.5389 28.5127 18.3342 29.9878489844
34.7781 26.1375 19.7639 32.8099426524
37.5781 21.9844 19.63 33.7471784419
38.9505 24.3955 18.7917 33.0620445366
33.8912 22.4218 12.8029 29.8032037765
33.989 23.8793 21.282 28.073228832
35.1101 18.7568 20.7785 27.9700455192
30.6562 17.7178 23.7797 71.6194360388
39.1437 21.1351 24.3727 82.2847024695
35.5913 20.3503 23.6077 38.185942105
31.0032 20.2528 22.8787 31.9673881262
37.236 16.8439 21.3626 29.8074188649
36.4112 27.4127 22.4951 31.8421738557
33.1331 21.4321 24.6246 130.050620053
29.3798 23.3876 24.7259 101.2426253065
30.7943 25.7781 24.3238 58.7763240117
36.0492 16.328 23.9086 42.5901289785
35.0787 25.5962 24.2157 76.7114747672
32.7994 23.8931 23.58 31.9746778144
29.8711 25.932 21.6245 26.0522698565
37.6708 18.7408 24.5014 96.5650033853
30.425 28.8547 24.4192 81.2615367907
31.1173 31.5434 24.0504 56.1511195367
37.0372 29.4092 24.3745 103.3416146746
33.3086 27.4699 24.3873 71.2064766956
36.4512 22.5602 22.2557 30.371138831
34.5341 30.1837 24.1873 63.935551659
31.5104 28.691 21.8949 28.8621760525
38.0313 23.9087 24.2229 85.1138004403
33.1132 17.2219 21.3378 29.9325907589
34.6504 31.6989 21.2125 28.2807386748
34.273 28.876 21.2337 27.587612401
31.9371 32.1337 20.9458 28.6921958605
35.6717 27.4819 38.3452 31.2073484085
36.3193 30.1546 35.4196 120.2311405434
38.3 32.4414 36.0474 60.76020473
30.8845 30.5371 35.9335 66.6511817136
38.7138 19.8472 35.472 111.2823793738
33.6604 17.7203 36.1283 68.0491375299
34.2505 27.9321 35.8594 66.1160690727
30.9058 19.0458 36.4033 39.1577281101
33.8919 31.4267 36.3471 41.3874891592
37.6991 22.4476 35.7173 80.7760136187
37.7085 23.9301 38.1276 31.1106779862
31.0641 23.9054 35.7434 62.9464450002
38.176 28.2065 36.6974 38.8972530625
32.3697 21.3129 35.6004 97.1883056483
34.3265 20.6026 37.6439 30.1872831638
34.8942 22.9627 35.88 61.8454245999
31.3977 28.0066 36.1326 52.5176108631
33.6095 25.2966 35.6384 82.0351915096
36.7992 17.3255 35.7249 79.0004052149
35.9313 18.1677 38.3211 27.1684980194
39.1494 25.5525 35.7002 103.6397362904
37.97 32.1282 38.7386 29.8994891417
30.6626 32.5136 38.5618 28.9295786047
30.5074 23.6586 38.4655 29.7052820591
33.3177 25.0632 38.3841 28.7259493282
30.7866 28.3355 38.9212 28.8290368288
35.5939 31.7233 43.6887 28.0641298057
32.275 32.6262 46.9377 33.3673368904
32.0901 26.6872 42.826 33.8443783205
31.6042 16.4377 40.1317 31.6566216044
32.1532 29.3005 43.9253 31.497507942
33.4044 31.9741 39.2232 31.1502538434
36.0576 21.2337 41.6049 31.4564392992
38.4128 25.5168 42.4184 29.5562995993
38.5422 31.4401 46.1176 28.7246680281
36.1275 23.8676 42.9227 29.8622044516
39.2478 22.1741 45.452 28.8745414413
32.7801 27.2143 40.0395 28.4100873875
34.3501 17.2492 40.8244 28.1045508962
34.4143 29.4873 40.1754 30.3099941741
33.6583 25.0794 44.2653 32.9971251119
36.1167 27.2781 44.2054 32.3929499771
37.9877 16.2928 43.307 34.3979309968
38.4276 21.7152 39.8612 28.5364577698
35.6275 24.8208 40.1403 32.5725490267
31.2541 19.7028 42.3883 27.0164507598
31.542 21.3913 40.4087 31.0296616838
38.1323 30.3527 42.8904 29.0348747269
38.9724 17.5552 47.1326 33.3321715488
29.544 17.3367 42.2303 28.1769998512
37.3842 25.3713 47.6535 26.9942103629
37.2279 18.1791 41.6118 27.8631795461
30.7193 19.7894 47.4991 32.5816238743
30.191 16.7471 46.2265 31.369191673
30.3091 31.042 42.6801 32.6001278824
34.1755 22.1146 39.8345 31.1048853819
34.8279 21.507 46.7146 31.3794543537
33.684 18.3514 43.1095 28.9967284131
35.5135 31.1444 46.4812 29.0136147542
36.8452 23.3367 45.6493 28.8163717708
32.4295 20.8932 45.0522 33.7911531667
35.9521 19.652 44.4372 31.1762605125
37.3762 29.6233 40.1289 33.4785439526
36.9439 17.2385 45.7107 29.3040054542
35.5037 28.5249 46.5272 29.6999263116
31.4268 23.4201 44.8997 31.6438560335
38.9249 19.6798 43.6649 29.9208995498
34.5437 29.4452 42.9375 27.7598217793
31.6915 29.8165 46.4917 30.9080415091
34.3709 25.0423 47.264 28.0023223962
32.7023 16.286 44.6954 36.1878158016
31.8482 23.777 47.6171 28.1833673994
39.1412 27.9216 43.8687 29.8648527408
31.959 18.9765 38.9994 27.5029402301
38.4067 19.0481 39.1769 30.9228002304
31.5722 16.8312 49.9065 31.4816164806
32.7312 31.9676 51.2559 32.9451411521
34.702 22.0645 55.5274 31.5788959015
35.3861 26.8032 55.4781 31.71874165
39.2288 23.5401 54.6889 32.6146209496
34.6032 19.186 52.0381 29.4346945451
32.3115 18.1981 56.6564 31.3596119846
30.8174 22.3405 52.0698 32.2837226335
31.5916 19.4807 50.9871 28.1951871085
34.3434 24.6557 50.271 29.3883373398
35.2101 20.5193 49.1079 25.4949452252
36.1355 22.6873 50.8503 32.0085087117
36.7224 30.7818 52.6534 28.5041969589
29.9761 19.484 55.4818 29.9647473374
31.3709 29.5626 51.9534 29.8205725683
33.7557 28.8525 50.567 32.4012964806
35.9027 26.821 51.1006 32.4861033299
38.0593 19.5592 48.9371 31.3540576149
32.0642 24.9228 51.6439 29.4723610026
36.1115 30.4603 50.0226 25.4730958145
38.0315 25.5353 56.5942 30.2856534811
30.7696 32.2473 56.2638 25.4993729459
38.2105 23.5357 49.4609 32.3424981864
36.7903 22.6006 53.7632 33.3834915971
34.9779 18.7624 55.3614 25.4973796508
30.9039 26.1368 49.153 30.0985414694
32.4227 23.6935 55.2621 31.6213592839
39.1618 19.0254 51.2832 32.2229278471
32.409 21.4687 49.3175 29.383871496
32.5997 26.46 54.2094 30.6067351141
32.9198 20.3325 54.1887 31.6734504682
37.2562 28.0263 48.9118 29.6655959367
37.8785 32.2145 48.9584 26.567241291
38.1185 28.8042 53.8902 28.1510880879
29.9371 26.7802 52.146 28.0098933428
37.0726 19.6392 53.4247 26.4373014222
32.2267 29.6856 54.622 26.4662919849
37.6213 26.198 53.3495 29.4120203032
37.3205 31.3767 55.8738 30.8424188131
34.338 31.5241 53.92 29.6372782879
29.735 22.3168 55.1272 31.634077855
34.9267 29.5396 56.3238 29.2450132204
34.221 32.5708 49.0866 30.3668251959
29.9863 27.081 55.3634 26.1271526594
32.9009 27.6798 47.9928 31.6744669288
34.3876 17.8904 48.8879 32.8032187054
38.0107 16.685 53.3746 33.9662392783
31.9496 45.3989 7.36371 26.6977150614
37.1235 36.2501 7.16652 28.2441722175
30.009 34.7801 10.9438 29.4360913462
36.4129 38.227 4.40501 25.7795595846
34.7667 34.4437 6.97239 27.6413218472
34.7303 42.0158 8.38859 28.1364884547
32.5346 40.3813 6.54939 33.7404017422
34.3016 35.9048 9.415 28.4490495275
36.2415 38.4386 8.98426 28.520551836
39.1035 39.1228 4.26877 33.0108580887
30.2546 46.1655 3.52841 29.8470893937
35.2847 42.9398 12.5134 32.9559009312
36.9823 43.095 9.9706 31.9617963378
30.1593 44.231 5.5523 32.8743595453
35.1914 47.5454 10.9574 28.2050277532
34.2568 46.4068 5.96382 31.9909027224
36.8537 42.8224 4.24272 27.0567021265
29.5984 46.4964 8.32738 31.1137203001
32.6755 43.4779 9.36297 30.0997169448
36.2609 47.2422 7.7832 29.0705874188
34.6918 43.3711 5.63715 34.0005999071
37.9985 45.571 9.1736 31.9717014066
36.0766 35.3662 3.8196 31.2811611587
32.4869 35.5679 5.94298 32.0749233435
32.0712 48.3997 3.79055 30.122806207
32.1944 42.5089 4.80339 32.2450672044
38.0109 46.8923 11.8113 29.6520993942
30.4123 47.3357 11.0341 28.4393601311
38.4812 34.7142 8.96971 29.6198698652
33.4003 38.1176 4.8919 32.3428067536
34.1241 39.6946 10.2411 30.4039915093
31.5526 39.6252 9.14702 33.7550160119
36.3676 35.3365 11.0875 29.0909358177
35.9542 39.8325 6.59627 29.0949687405
38.6489 39.2374 10.0849 33.4008109529
30.7221 42.8629 11.202 29.7689794566
29.9726 33.7013 5.73397 29.4987459793
31.9156 48.8629 6.91556 27.6459361502
31.7353 36.9889 10.1694 31.5086740494
38.0698 47.2474 5.76261 27.8995820716
30.0545 35.6542 7.90772 32.6467186953
38.3778 41.2407 6.0119 30.4421929555
34.1047 44.7708 11.1877 26.9306231175
29.4792 44.8871 12.2899 30.1481983948
32.7934 47.5162 9.30299 29.3584407104
33.497 32.8849 9.47289 33.2373313062
37.2225 45.5395 3.34749 31.1299101677
38.0401 32.8643 11.885 28.3998437861
31.6375 35.4499 16.112 25.8027099571
31.963 33.3424 17.9023 32.2231930397
38.9241 35.0167 16.7598 25.6935644965
29.8144 45.7149 16.781 35.4518355813
32.918 37.7353 16.7891 29.4321960903
32.0913 40.4221 17.4173 29.0584933188
35.8071 36.4763 16.0005 30.8896223464
36.333 38.5686 18.4689 29.7678579816
32.1484 44.324 15.6689 34.0361958607
34.8023 44.9786 16.2255 32.3746321624
31.4617 41.7026 15.1292 31.4739913595
32.2945 45.3524 13.1594 28.221441164
39.1803 40.0668 15.1281 32.1063194196
37.4832 42.0889 14.2933 33.7777060179
33.7691 35.0805 14.2695 31.3528250361
38.8987 43.8501 12.9082 30.7836891167
38.5468 43.4961 18.431 38.2645342415
38.5606 35.0157 13.7886 26.3276799062
32.2714 34.9851 21.1607 28.596865922
36.5359 46.0734 14.3619 30.7630262333
29.95 45.7394 19.6096 38.1028609757
31.3791 48.5095 13.5054 29.4881930975
32.4826 44.9239 20.7562 35.9270433165
32.1631 38.6802 14.1216 31.3905946184
34.6743 33.7461 19.1477 29.9344392304
32.2954 42.1989 19.9005 33.4607864845
38.4345 46.3203 18.537 29.5469553726
36.4133 42.7154 16.629 33.4930622289
38.208 48.2634 15.4406 29.3850303911
38.695 38.7152 12.8354 30.7523832077
34.9063 40.6516 17.8251 35.7438575893
38.7572 37.7741 16.9001 30.8009651722
38.7312 38.069 20.2835 31.9503482654
34.2774 36.6888 19.593 27.709416373
36.4962 36.5526 21.2414 29.3012092416
35.6971 46.6629 18.2168 34.4465263796
36.6862 37.0378 13.2163 30.6002055965
36.4681 33.8265 16.6457 28.9630224986
30.2573 48.381 15.9925 30.1265471001
34.1793 47.8578 13.8741 32.7120512266
34.9182 32.6576 14.2117 29.049372578
37.8054 34.1891 20.9438 29.7012537708
34.7174 46.5702 20.7898 35.0340321293
32.8681 41.156 12.4815 33.3308959504
34.3076 40.5018 20.903 30.3857175481
32.5303 38.3613 21.1112 27.7401981183
37.597 47.2335 21.1212 29.9586761622
29.5963 38.8008 18.2 31.6196507289
29.8354 38.4898 21.1896 30.2386774791
33.727 37.2457 12.2951 29.1062565097
31.9623 35.1301 23.8698 51.8980687989
38.48 33.758 23.5342 32.9694777021
36.1547 34.7241 24.4346 105.0799172823
37.3563 40.2068 21.5069 32.6629020397
33.038 37.7816 23.8361 50.1935275139
32.0891 40.1815 24.5559 122.0913387358
35.671 37.2973 23.8453 48.8228325947
30.6167 47.5033 24.5767 106.1193549324
37.8601 39.0592 24.2096 78.4137604477
33.1637 48.753 21.5478 32.7839814813
33.0393 48.4771 24.2284 66.7101832894
33.9149 41.6119 23.2726 31.6037102781
36.5685 41.5602 24.3108 97.5500436876
30.3899 41.3987 21.3644 27.5047374682
32.8806 44.1712 23.4883 36.9202132847
34.6292 46.0481 24.3052 99.5014003699
37.3691 46.2661 23.8701 65.3587167364
38.2672 43.5645 23.7918 46.1116902758
34.0157 33.155 24.0817 61.6758760602
39.2029 42.5625 21.0771 34.2086886878
30.2673 44.6598 24.4188 82.1440236922
30.0029 41.8868 24.0093 40.0748507755
38.3172 43.0514 38.4069 30.5936218303
38.3311 47.0319 35.6782 86.3129950632
30.3828 37.4501 35.6747 92.54727864
38.947 39.0436 35.3761 105.6709219562
30.0923 39.8544 38.2776 27.2465640536
38.0539 36.1917 35.678 89.1321573436
35.5187 46.3848 37.8353 27.2621383585
31.6738 33.8255 35.8528 80.4353267398
31.9238 37.6497 38.3062 30.7342788591
33.3565 35.778 36.4152 56.0639910841
35.5504 33.7391 36.0041 68.1682455123
39.0454 44.459 36.1031 38.1679613579
34.5208 38.7741 38.2545 29.2368587037
32.5255 45.7698 36.1433 63.9261739454
31.6031 40.7308 35.8219 78.4949208257
38.7455 46.756 38.5897 30.7392408212
35.6856 44.6466 35.5431 96.2856311018
36.3492 36.4537 38.0543 28.726797291
35.8144 39.4959 35.9775 75.3584938854
34.2495 42.3387 35.8736 63.3848497338
37.5195 41.8244 35.7556 67.5060908281
30.8583 47.9748 36.4087 48.2760646268
30.8966 43.5208 36.0032 53.6687236038
37.8882 40.1022 38.4899 28.1863929725
35.8176 49.1037 35.9554 68.9594788299
32.532 47.0236 38.886 27.5738379445
31.6966 35.8715 44.5867 30.5648858456
33.6727 42.6112 44.356 33.5384819004
35.7731 47.4891 45.3306 28.9699428923
33.4857 48.9255 46.3488 30.7856844505
35.7412 48.3546 42.7466 28.3873692905
36.2185 42.2705 42.7501 36.9202379965
35.9031 37.8198 41.9731 28.7551617793
38.5889 46.1668 44.8422 33.2790606565
34.1696 44.9892 45.5995 29.3139399685
38.7395 46.0458 41.8207 26.7675661052
33.9814 41.7324 38.7215 31.597225916
38.2781 37.1517 40.1429 33.1609827239
32.9738 40.3416 46.1017 33.2572902479
31.2584 41.6923 39.8281 28.5642972271
31.6008 42.8088 42.3685 29.7333972719
31.3762 39.7049 42.133 32.8680968246
37.1009 39.5099 46.2407 30.6063654533
30.1217 45.8303 39.8851 30.2997834066
33.0479 33.914 41.6598 27.8634827724
33.3332 48.4067 41.4609 27.4058671427
35.9159 45.0954 41.7753 28.8872490729
33.2039 45.1624 41.1151 31.0179023667
36.8936 44.222 46.5653 27.8024535024
31.6231 47.35 43.3277 29.800361943
37.5579 42.083 45.1457 31.079472907
33.5541 33.8765 44.3217 29.4185596936
33.2749 37.8845 43.1207 30.2147995219
37.1787 33.9473 42.6669 29.0681328763
31.3397 36.2131 47.312 29.6764984829
34.5631 37.8545 45.9185 29.2423467141
35.988 40.243 40.6716 33.3663558211
36.001 35.2587 44.6692 26.5390864724
37.8971 37.6421 44.3881 34.5338288928
30.0652 41.276 45.0629 33.0245768475
30.1567 33.5194 41.3742 28.8512147845
29.9311 45.0053 42.6829 30.9137526513
35.3974 35.2929 41.144 25.6392471367
36.6075 47.9378 40.1279 25.6540913907
35.7749 43.9281 39.3197 28.5279881225
31.886 36.3318 40.9345 30.2819988125
30.8496 41.6104 47.8071 29.8506024619
31.9247 46.6011 46.2016 29.8839964468
37.4272 34.2637 46.7864 28.5227192226
29.7178 43.5381 38.3969 28.6170548007
35.7361 33.7191 38.9473 28.4878516815
32.6397 46.5896 50.8717 28.3574802005
35.6862 34.9209 48.7849 30.4622833199
37.9331 45.4891 53.6952 30.971178719
34.6973 34.3303 54.5231 29.7904359614
35.6677 44.7859 52.3768 28.489706497
30.3135 45.8446 48.5835 29.3819730378
36.0992 47.9287 48.1977 28.8035867349
38.1052 35.0091 54.2124 28.0331442321
35.3673 36.3849 52.672 31.5012346165
37.3828 48.3272 50.8375 29.3862443356
32.1602 38.8501 50.4942 29.9581856318
36.1345 38.6427 48.8889 31.6750686068
31.106 34.2615 51.8046 32.0509821554
30.1485 46.3722 51.9695 26.9392651591
