6.7888 3.10081 24.2685 81.4899414834
9.42061 3.57544 21.2948 32.3959473621
5.10152 0.359221 21.3535 29.4284084851
0.308161 7.54804 24.6253 97.5124384997
3.17661 6.89486 23.7989 41.2495856944
0.232001 4.78307 24.1203 59.9981616305
5.60962 5.65578 24.3689 83.0636746288
7.51508 7.76383 24.3526 91.4137538754
6.75029 4.66974 21.4953 29.5034683466
7.6952 7.35913 21.5078 26.5897219919
3.69812 9.81335 24.2347 77.9100053561
0.535534 10.5763 24.0638 47.6840220033
1.89785 12.1475 21.737 26.35084034
6.39974 10.1779 24.1436 69.7886064212
6.87729 9.84077 21.4218 31.458090841
3.95189 16.0322 24.167 73.5373657143
0.943918 15.0339 24.3257 76.2561825612
3.63793 12.7508 24.0056 75.5259097737
4.33454 16.0463 21.2655 34.0979069964
7.97631 12.4925 23.6309 49.9520161844
6.8686 15.2267 23.9705 73.3536011806
7.11584 15.561 21.2639 31.8815745983
0.679986 0.900927 35.7676 89.5776711787
5.52878 2.16122 35.5024 110.6712295411
9.49653 2.06316 35.411 119.7857599142
7.76804 3.79692 36.5774 35.4825067831
3.98963 4.3452 35.9073 63.5993968415
1.05208 5.74061 35.7298 82.5866375557
0.340244 4.61314 38.4257 29.4683566112
4.68816 7.14491 35.8273 72.3431428638
3.29105 4.09727 38.659 33.3630673687
7.504 6.6278 35.8911 80.5314332589
6.51874 6.96265 38.7127 30.6202915067
0.106903 12.084 36.4282 56.5102083805
1.71699 8.35868 35.972 67.5523970775
2.12479 8.5366 38.8015 27.5666177029
3.00317 11.0783 36.7345 38.5876252787
5.62461 9.7732 36.0748 71.5904163039
8.29818 10.8354 35.8577 75.688314952
3.50756 13.8069 36.0343 84.5159689422
0.367825 14.4534 37.6363 30.2908360984
6.25938 16.029 38.7463 32.3600456939
6.25222 14.5662 35.9237 75.4828917917
8.95252 13.5783 35.6575 86.7686721778
9.74361 13.5889 38.5703 27.5143894787
3.69842 0.074374 40.6287 27.4649108017
0.17249 1.45627 41.6902 28.9228793239
3.23249 0.978376 43.2235 30.235355422
1.7192 1.51023 39.2637 31.6546162795
5.58614 2.99594 40.2985 33.2908099415
9.30023 3.8419 42.796 28.0283821504
6.12849 0.367575 39.6165 28.439365362
9.26819 1.68271 41.1805 26.7618619303
8.45897 3.88986 39.2942 29.7611565209
3.89166 6.79343 39.8664 29.9566987003
1.3724 7.27412 42.3909 30.0116131258
4.16283 6.53814 42.983 31.5101535077
6.39575 4.37456 42.6604 27.6938736737
8.45798 6.38776 40.849 29.8347338259
1.15569 10.2152 42.3599 31.792247446
4.70278 9.61037 41.8872 29.3903297513
4.86492 12.228 40.6853 32.3801164162
2.0296 11.0884 39.7992 27.5364252814
7.14872 8.41831 42.6436 31.445997022
8.4792 11.0801 42.2417 29.9970063309
5.94334 9.5871 39.089 28.8835967513
8.50147 10.6674 38.9501 29.5381559078
2.8348 14.3978 39.1625 30.7690225648
1.64279 14.8262 41.7915 30.6001491159
8.03001 15.5545 42.1888 28.3225106807
7.62521 13.3235 40.5713 28.7633486497
9.32792 16.2559 38.9599 24.4728002307
1.26544 3.13628 43.6443 34.8158660427
1.79791 1.51302 46.9723 29.4053767568
3.71953 3.55207 46.0334 29.5009809757
5.34742 2.45343 44.1167 28.0841206742
7.29636 0.963377 44.9478 31.4924441036
9.57915 2.75681 45.2364 36.1374372088
6.206 0.318334 47.5992 30.3087187678
0.651042 6.03628 44.5035 26.4182808557
2.24241 6.09941 46.7316 28.0272375188
9.61156 7.33672 45.2027 32.7440992045
6.86258 6.42308 45.0595 28.5763618313
8.26879 4.68176 46.6861 30.1283607173
0.675326 11.6333 46.5293 32.852760788
3.18084 11.0413 44.4596 29.4117716281
3.50938 8.29156 45.2709 28.303672909
5.64733 11.8564 45.9628 31.6535987713
8.69108 9.84684 46.0904 35.5175116714
6.10623 8.6735 46.3399 27.7405892103
2.62733 16.0682 44.4158 31.3335298684
4.10668 13.6681 43.2952 32.770655052
6.68082 13.9929 44.6154 26.4044101772
6.81525 16.1845 46.2594 30.2694415278
9.01427 12.7441 44.638 31.1204028341
9.6456 15.291 46.5097 30.9287745677
3.63279 1.91925 51.3387 32.5862718931
1.53959 3.49231 49.2966 27.1401773037
0.0452375 0.756704 49.395 26.2850672639
5.85675 3.44708 47.8345 30.350848709
6.87336 1.57456 49.9251 30.0977879197
9.42861 2.42677 50.3479 30.6848473358
4.18719 4.61293 49.7837 29.7982340677
3.49184 7.23672 49.3341 30.7927586849
7.56947 6.47683 50.2067 30.0595987754
9.3953 7.64154 52.0159 31.6610569463
9.67737 4.93967 49.1691 30.8587873104
2.34527 8.80942 51.6098 30.1803825883
3.4331 11.0627 49.8246 27.5572926269
1.9894 9.52593 47.7666 29.35837702
5.98099 8.18015 48.9953 30.1535114433
5.96768 10.5344 50.4868 28.5409746257
7.73909 12.1723 49.6566 31.2810867583
1.05615 14.0071 50.1446 31.807209103
1.6591 14.9696 47.6528 30.6899312847
3.48837 12.8774 47.7097 30.0727824771
6.28091 14.1711 48.3053 31.8667447335
5.45669 16.2033 50.0638 32.3306101795
8.539 13.7205 51.8236 30.7366356311
8.70604 16.3229 51.643 30.8941408535
1.2036 1.53149 55.4193 27.9739189217
3.54095 2.5741 54.2456 31.2873972367
8.43607 3.67114 52.8103 31.3299429144
7.14712 3.00137 55.4496 33.1249605664
8.10547 0.835861 54.0052 31.254018098
6.03477 0.175613 52.2312 30.4609421443
0.562161 7.40155 53.3676 32.668667711
3.15239 5.67916 55.5073 33.1432896151
0.890701 4.63909 53.92 31.5895347454
7.52435 7.81844 55.7249 32.4393322008
5.98035 5.25352 52.1529 33.4599236121
5.38544 6.94652 54.189 31.7491629117
4.4677 9.19092 53.1362 27.7901626926
1.70638 8.18716 55.8958 31.2694287028
2.83843 10.6515 54.7397 31.2071162082
6.54095 11.1769 53.1332 32.7348389368
9.00104 9.81972 54.0689 32.0954363431
4.20507 14.9395 52.425 30.2394096407
2.65057 12.7684 52.057 28.6112701222
0.878402 15.5597 53.1222 27.8430548293
1.233 13.0001 54.7163 34.3552905692
3.09354 16.3138 54.5017 27.3588632273
6.34191 13.8945 53.9592 31.3603747787
8.28311 16.2304 54.659 29.3834215677
2.84771 17.0865 5.50354 31.6762696235
1.47917 19.4011 4.29039 34.5597583864
4.96459 18.0422 7.56548 32.573065718
5.64106 18.4609 4.80015 36.6328941514
7.12144 16.4019 5.67146 29.3592112589
9.6163 17.4886 5.85806 30.079171818
0.269545 21.3531 7.73903 30.2948559341
2.82199 23.8467 5.863 32.1305725011
1.74243 22.1544 4.03455 33.9074786218
7.94073 20.5005 4.86057 34.1690173582
8.06136 21.6228 7.66782 37.709466973
9.498 23.8628 5.61666 30.9993325095
1.31395 25.8092 6.94533 32.1564815667
2.74048 28.4066 7.45893 29.408162858
5.29747 24.9999 5.73979 28.2434410601
7.41238 24.6022 3.80321 30.4376459656
5.411 27.4922 6.92421 28.0409255699
8.61031 26.0851 6.87633 31.8662353834
2.67624 28.6514 4.63378 30.619213695
3.48128 31.5449 4.9847 33.3076791251
0.077174 29.5352 3.81505 30.7349041449
6.98668 29.6093 5.83826 38.2517476406
8.55157 32.4354 5.16152 28.5653312387
6.11498 32.5047 6.36798 31.2405871459
3.71422 19.7576 9.42689 31.6373817135
1.36461 18.6023 10.5202 28.8586840334
2.05684 16.9162 8.35678 30.1400906055
6.14137 19.0189 11.2605 33.4531770211
8.70908 20.2884 10.0988 34.385467455
2.85098 22.1362 8.12856 32.0638788997
4.46588 23.7569 10.2452 30.4393237951
1.6984 22.3328 11.0971 26.8201169373
0.803671 24.296 9.70968 27.0572484795
6.56674 23.9016 8.07088 29.984445928
9.1805 21.5426 12.3151 30.7986670093
7.00176 24.4122 12.108 28.9065301367
3.26311 26.3735 9.88678 29.041170546
6.04381 27.4441 9.5317 28.9601254076
8.02848 25.4346 9.80316 24.8440188264
0.708109 29.4618 11.7262 26.5168223779
2.62071 30.1554 9.84611 29.8454081473
1.77114 32.5752 9.25767 32.9142243976
6.14035 32.0935 9.31248 34.1252953012
8.8389 31.6812 10.0847 27.1411923426
8.34691 29.1205 10.4222 29.1610423128
5.12053 29.9554 11.1589 27.5265941498
2.88317 17.2852 16.7193 31.2493951695
4.90027 19.0612 14.076 29.5290373072
2.11568 18.2301 13.6496 28.9707668867
5.9446 17.7603 16.8034 28.031070661
7.47316 17.4665 14.3544 31.9641873794
1.54754 21.2245 14.5389 29.1230457481
3.97593 23.5566 16.6849 31.2350065741
2.63428 23.7752 13.9607 27.1445241756
4.45132 21.5426 12.528 29.8421389986
7.06449 21.907 13.9333 30.0162816977
6.52498 22.2468 16.5714 29.182499507
0.0423338 24.7761 15.3918 34.0569905252
0.607796 28.5568 16.6637 31.9548572195
2.33499 26.4123 12.5826 29.4169369282
7.99545 28.5801 13.2115 28.2279716071
9.08033 24.6764 15.7017 28.7164651203
5.10141 25.3096 14.1065 29.8069715733
5.06874 28.2613 13.4427 28.0872982867
9.1452 26.064 13.3133 29.9179707189
5.53843 27.2846 16.4065 30.8188011895
2.50391 32.3807 14.3379 29.9667679967
4.85908 32.4082 12.7924 30.3921697512
2.40562 29.1336 14.0064 30.81569216
7.03785 29.9467 15.6813 29.0821065826
7.35167 32.1209 13.9917 31.8529369459
0.749825 18.8327 17.9412 27.2624088474
4.89549 20.2948 17.8988 30.8543542316
0.820472 18.9637 20.752 28.8963654656
9.15525 17.53 21.1562 28.4237521381
8.24274 18.541 18.509 30.0533997987
2.16653 21.0864 17.121 30.6583353211
4.79936 23.4251 21.1811 29.6856827648
5.37663 20.8388 20.5256 31.7378647699
8.97469 24.2002 20.8843 31.0156817088
9.1122 21.0157 17.316 30.0273409732
2.90922 28.3901 20.7862 28.3396015857
0.554288 25.5836 18.2797 26.6589368845
3.1523 25.5584 18.6916 29.7674061775
3.4516 28.5754 17.908 30.6295927318
6.94488 25.2548 17.1764 28.2330145407
6.52141 25.1311 20.1139 30.9366873041
0.901179 31.7076 20.6016 30.171439635
0.89043 31.1853 17.8853 30.4786230962
3.34138 32.0941 17.0262 32.6950411105
7.04152 29.7563 20.7409 29.2620208984
8.71566 29.366 18.1741 29.2407697916
5.6349 30.7805 17.8811 28.988493511
7.8748 32.5546 18.4505 27.9786345624
3.04926 18.8366 24.3512 90.6217237947
0.409269 17.6948 24.0282 53.0833288431
3.52412 18.8886 21.6055 33.6935418753
7.8292 19.6779 24.464 100.260310066
9.00181 17.1614 24.2052 80.7659553459
8.17256 20.2791 21.4835 31.0757195776
2.08969 23.7306 24.3689 101.3612664107
2.07141 24.385 21.3288 29.2911921998
0.812031 21.1279 23.9938 58.4310506642
0.481527 22.0584 21.5523 30.7666798331
5.47121 20.8563 23.8468 50.1491214595
4.96324 23.2792 23.793 40.1656715895
9.45391 24.1644 23.6249 40.4893453617
0.134344 25.9685 24.2932 63.9822314074
0.732094 28.5882 24.6211 96.2822352962
0.869169 26.8074 21.481 28.1080848972
6.88824 25.011 24.5428 120.8957748568
5.88226 27.6053 24.0329 62.1819136622
5.48116 27.346 21.5056 31.0541784617
9.44378 28.4012 21.2647 29.8316099558
1.63342 32.6187 24.0593 51.1116261089
4.25473 32.4271 24.5306 101.3740814403
3.47322 29.3887 24.0767 60.2383836638
3.05729 30.8984 21.8029 27.5180897035
8.17634 29.3263 24.1844 91.2369542463
7.44042 31.9727 23.8248 53.9360650283
5.71447 31.8688 21.7144 27.9098907629
4.70122 19.687 35.8039 69.2908627368
2.9144 16.9401 35.8807 69.6990443894
1.7757 19.746 36.0213 58.0056886983
3.56611 17.2544 38.6673 31.2007144479
6.57188 17.6139 35.8686 77.1361458067
9.3754 16.7545 36.1804 51.555653893
9.56371 19.33 38.4571 27.6737578768
2.73205 24.0622 36.8227 28.603740676
0.798548 22.3267 35.6272 90.3776736444
4.19608 22.8474 38.7966 29.335756351
9.46963 24.1573 36.2071 44.0427517534
5.36435 22.3613 35.7209 86.8316035961
8.08821 21.7 36.2793 47.5261113264
2.23762 28.2044 38.6664 28.3278819409
0.768773 27.6051 35.3238 112.3317108761
4.66545 25.7954 35.6102 85.4140258486
3.29331 27.8928 36.1981 39.298866623
7.47864 26.0783 35.4676 86.1638067034
8.77242 28.284 35.4581 101.4958778968
6.37674 26.7663 38.5245 32.7353807253
0.84071 32.5467 38.3908 31.514964683
0.0934022 32.5414 35.8077 61.8662465731
4.40674 30.5752 36.2374 62.0089858717
3.67758 32.1653 38.5101 29.8431653725
8.11834 28.8345 38.6821 31.4478701183
7.37813 30.6383 36.1922 63.9679614448
4.75973 19.898 39.091 30.2814944142
4.02584 19.4277 41.885 31.8522273095
1.74982 17.8203 41.3423 28.6891496417
5.9848 17.4159 42.925 31.2500107697
8.8945 19.4483 42.4349 29.2872997899
7.22407 18.3846 40.3806 27.0832681747
2.32577 23.3549 40.72 31.6638883078
3.33522 21.7808 42.872 24.8424562697
8.3353 22.3503 42.314 27.2728787434
7.23145 21.4319 39.0025 27.3808244529
9.5468 23.9539 38.9316 29.3135804654
5.67557 22.9906 42.5467 30.2488167025
6.57958 24.0875 39.9501 28.2413010442
4.08971 27.9937 40.2412 29.9252950616
4.85275 27.0115 43.025 27.680165283
1.96743 26.5065 42.4033 38.697522527
1.71954 25.4766 38.8923 29.6578189436
7.46647 26.5695 41.6252 34.9508804588
9.47703 24.9056 42.4453 26.7224922716
4.34177 31.0001 43.2133 29.7431518426
4.60645 30.675 40.4524 29.778621336
1.53176 31.709 43.1429 31.9036336235
0.0953068 30.0849 39.0021 30.9925313302
8.50776 32.2397 42.3864 29.1302492623
7.21946 31.2794 40.0023 31.5493951714
4.41082 17.7492 45.8705 31.712153544
0.605229 18.4678 43.6634 27.9058866238
9.59205 19.2394 46.7015 27.0307148811
7.49176 18.8818 45.0746 27.9334791267
2.4972 23.5027 47.2563 30.0330593502
1.06721 20.9942 44.31 26.644128235
2.31057 24.206 44.411 28.892852618
3.60543 21.0104 46.0943 33.0524081973
8.40876 22.7886 45.0745 27.9828995552
6.52414 21.0743 46.3423 30.8890896429
1.00181 26.1402 46.1805 29.0558433847
3.58111 27.7242 45.8187 28.2472978854
0.23176 28.0811 44.1462 29.6084743128
4.6458 25.2227 47.4091 28.6291229175
5.49445 24.9633 44.552 27.0439925596
8.12591 25.417 45.5201 31.4587851871
1.98356 30.1698 45.6056 27.7294533975
8.61492 30.2976 44.1447 32.2927078573
6.19694 29.16 44.6758 32.9866953839
9.76711 32.0379 46.1078 30.7468661745
5.79354 28.7193 47.506 28.5977997406
1.0355 17.2649 50.7245 29.9822011814
1.63238 19.5873 48.4434 32.658473225
3.22097 17.095 48.3271 31.7732534611
8.41444 20.1504 49.0359 32.4655628779
6.8354 18.3387 50.9959 31.6231408961
9.45592 20.0687 51.991 28.6876095624
2.23188 21.0867 50.8641 29.1114567676
3.36967 24.304 50.1196 28.8288141282
4.66431 21.4788 50.9742 31.5939804796
6.35824 22.6553 48.7964 32.7204911726
8.29302 24.3601 52.0065 31.4902440341
9.13458 23.8457 49.4276 27.557244639
1.73828 25.9809 51.377 26.380229195
0.506679 27.7383 48.7152 31.840444285
6.28519 26.6203 49.2893 33.571988299
5.42036 25.2376 51.9322 26.9903141264
8.76484 26.2943 48.3926 31.4061437949
2.52013 28.6448 50.6406 31.2968180472
3.67902 30.4067 48.4116 30.6675503216
0.856304 32.2688 50.6773 30.1587154437
1.65053 32.6053 47.9984 27.7425241327
7.91488 30.4522 48.2515 32.5636545181
4.98086 30.7113 51.9443 31.3399499291
8.03025 31.657 50.8834 26.3705421956
5.34633 32.4682 49.6046 28.930805251
2.38904 18.9255 52.5274 31.4837028183
0.281529 18.8432 54.5386 34.7121426779
5.55935 17.5045 54.7419 32.4869519451
5.36629 19.5731 52.9783 33.0491846344
0.816 23.0512 52.1118 30.7734963295
2.51362 22.9837 54.3657 31.1854953775
7.31647 22.3516 55.5625 31.8986518952
9.00688 22.322 53.4883 29.5532289749
5.24877 22.8777 53.7375 31.973371372
4.2918 26.3309 56.3067 31.2470373939
4.47188 27.5881 52.8748 28.5021472252
2.39907 25.827 54.0938 29.8899583708
9.20479 26.9511 53.1486 33.8687500272
6.86457 26.8271 54.7099 29.6181068806
0.409724 32.2493 55.5385 27.5146316997
0.129049 29.0899 53.5488 35.1625521491
2.46219 30.9568 52.9116 27.8556222708
4.29846 29.5835 55.0845 28.6335353326
7.38745 29.4337 55.8955 30.369456987
9.81957 29.8316 52.3303 30.1663732063
6.76458 31.3718 53.941 28.8015132405
3.41082 36.265 3.99784 31.4409794295
1.28758 35.9105 5.43176 28.8964159695
1.17908 32.9278 6.22767 35.6695836046
5.38571 35.4033 5.91925 33.0193231399
7.57148 36.6932 4.96171 29.1288894883
9.5091 34.9892 4.72345 28.4404218632
1.42488 37.0351 7.89617 30.9330218284
2.02486 40.0067 4.8762 27.0277687308
2.11433 39.6448 7.46378 27.3838169646
6.82641 40.5766 6.6386 27.4719444919
7.17592 39.4307 4.10846 32.8894934469
8.41406 37.874 7.33882 29.3769330183
4.02443 44.3098 7.35974 33.9158069698
4.91538 42.4835 5.34612 35.3272397981
0.704868 42.3761 4.76208 31.0888624452
1.2983 43.7502 7.04037 33.9708002524
8.89835 41.5023 4.04894 29.8774592714
3.73746 48.7048 5.81578 27.8014920815
1.06465 49.0167 6.74275 32.991211624
2.47529 48.1295 3.63912 29.1577987044
7.91396 45.781 5.19885 28.9958499492
5.40672 46.5858 6.53771 29.8376081345
8.73093 48.5944 7.11663 29.7954912511
6.10248 47.5664 3.73833 30.3820376896
0.159084 34.1128 10.7189 35.5271585826
4.07341 35.1399 12.0995 25.8483020294
4.38336 36.5847 8.23248 33.1636061178
4.03097 33.9464 9.71456 31.1251558379
8.71113 34.41 11.1488 32.3837203939
9.6907 36.1319 9.29637 31.72164226
4.51991 39.631 8.25939 30.4831510605
2.13401 38.6157 10.8196 30.0124012287
7.77298 39.2642 9.86117 27.8079686694
4.95679 37.8421 11.041 28.4225593453
8.28484 37.6973 12.3055 28.1972514327
0.335507 41.5371 8.80668 29.6451719286
2.38716 41.2564 11.3565 25.7841789661
4.54641 43.7613 9.98158 30.323738994
8.66008 44.8142 8.11845 29.7041474894
8.24366 42.11 8.2509 27.6006480802
5.47775 40.9801 10.843 25.6460370221
7.74709 42.6559 10.8908 29.5179066858
1.30062 47.1117 10.0952 31.1235366271
3.45495 45.9391 11.1951 29.2620094368
6.56716 47.7827 8.63289 27.5003553503
6.63721 45.5854 10.3383 24.4160559696
9.83687 46.3419 10.0703 25.975017588
8.33215 48.5619 11.1548 27.3075496983
1.6108 34.6697 13.0284 29.1889709499
8.16382 34.0384 16.0743 27.973397668
6.77716 35.1603 13.3141 29.4371494498
1.45865 37.7269 13.7936 30.7319317987
4.68898 37.0999 14.503 29.299203613
2.549 37.0785 16.5766 29.8467987211
0.402231 40.5092 13.1546 28.0636539516
9.11108 39.6987 14.393 32.2559409292
5.91917 39.3782 13.4873 28.499964049
1.97565 41.3824 15.8842 27.5382388028
3.83466 41.7405 13.6564 29.3894287655
2.0088 44.1776 12.7453 30.579398528
2.66537 43.8421 16.7313 32.6388461451
6.90166 40.8597 15.9316 31.0670376916
6.34953 43.2046 14.528 32.4670382874
4.86651 45.3458 15.3705 28.3614560376
4.10059 47.2645 13.5661 28.8299727819
1.2562 48.3067 16.6418 26.8192653837
1.76621 48.7829 13.8697 32.8875143774
6.90026 45.7772 12.875 28.832190215
9.09772 47.8426 13.8295 28.5396189294
8.12178 48.8309 16.2241 30.5624782861
3.97286 34.7119 18.0687 31.5785660492
2.28253 35.8468 19.9439 31.9238134838
6.11809 35.9913 16.8337 32.8063056305
6.14942 33.9044 19.8638 27.2753281058
8.6644 35.9076 18.9019 32.0162833066
3.03382 39.5305 17.5427 29.0058067788
2.30987 39.9066 20.2731 29.0677628772
0.0651344 37.0303 18.7121 27.962526044
6.69174 40.0233 20.0893 28.2608418362
5.63812 39.0394 17.7978 33.8072984501
7.79473 37.7929 21.1067 28.508154883
0.458528 42.3067 20.0299 27.403280805
3.01808 43.4537 19.6422 33.9745266361
8.26471 42.1984 18.122 27.5525929472
6.38448 43.4139 20.035 33.1606068137
8.43491 44.6462 16.9272 27.5249317629
0.031227 47.4064 19.8169 27.4808910813
2.89378 47.7755 20.2091 28.5069544262
0.378197 45.5758 17.0358 29.5886385224
3.88041 47.9665 17.6043 31.0606538949
8.25762 46.1114 19.7606 27.5778923615
6.40902 46.7324 17.2153 32.1627511039
0.865312 35.7035 24.6092 102.6733760442
0.65433 34.3823 21.8061 31.8934858224
5.88988 34.9553 24.1675 69.1808207374
9.0128 36.0962 24.6077 101.6414381065
5.83607 35.9215 21.6639 28.991870995
9.4408 33.7102 22.9789 31.4735699688
2.4094 37.8434 24.1695 54.864057016
0.344668 39.6033 23.618 41.8651405356
3.63799 37.5258 21.6384 31.0637665372
5.01638 39.069 24.87 122.7765635183
7.32336 38.1962 23.9994 37.4104778241
9.27646 40.2607 23.8143 55.0937403479
4.78933 41.6222 24.0054 37.9614861964
2.68406 43.0374 24.734 109.2845819349
4.4901 41.0971 21.4294 30.1689013267
7.64741 42.717 24.1042 83.2113398937
9.80741 44.4468 21.5141 28.3194556841
8.97727 41.7955 21.2795 27.7456927062
3.58428 45.8313 24.5585 77.1597639774
3.51584 45.5155 21.634 32.507924337
1.63168 47.5992 24.0902 60.8110723108
6.24531 45.1883 22.4194 29.3976653427
8.44316 47.391 24.125 52.2590315933
5.72607 47.3161 24.4864 88.7999584222
7.58663 48.047 21.5085 29.1570280084
4.13614 35.2573 35.9718 57.8184093231
2.77105 32.922 35.5685 99.5814878255
6.89333 35.592 35.9698 78.7255436015
8.34101 33.0836 36.4385 46.9445151109
6.55738 35.8023 38.5737 27.1000564821
9.69693 36.5289 38.1507 27.328508393
2.62703 37.1792 38.4077 30.2599738883
2.49251 37.6295 35.6864 80.9890592281
3.36357 40.5699 35.7104 86.57886459
0.267662 39.951 35.9482 66.2228396304
7.49364 38.5439 36.2461 47.2681332304
6.09184 40.7445 35.7244 77.807658569
2.44123 41.7508 38.1528 29.2479110117
2.24304 44.7332 38.3777 27.0692509396
6.61299 44.4139 38.0848 26.4017155202
7.54626 43.0978 35.725 78.71020776
6.37165 41.5032 38.6798 29.0782205174
1.42787 47.7691 38.3317 27.4163247985
2.91419 48.1548 35.8632 66.5607100688
2.85757 45.4149 35.731 77.9064638105
8.33633 48.8039 36.4105 43.3182965328
9.21576 46.1548 36.4537 42.4643003415
5.78471 45.8568 35.7765 88.9230488299
5.56668 48.6901 37.0258 31.2009734299
3.68871 35.0331 42.0079 30.880666773
4.05595 35.004 39.1556 28.9659111969
8.06608 33.5985 39.1104 29.1959637793
5.50556 33.3838 42.9298 29.5439956131
8.56986 35.1276 43.0874 27.5002826938
4.3124 37.8143 42.2232 28.5222819407
4.20469 39.0651 39.8586 29.9454706258
0.462759 40.2215 39.8235 30.6471848692
7.8246 39.1691 41.4748 28.8243046075
6.94958 38.4108 39.1539 25.8320047522
4.64524 44.7455 39.6427 29.5417056854
2.80061 41.8577 43.1146 34.5429486493
4.03114 42.0666 40.3171 30.1792234198
8.91162 44.8901 39.7796 26.6837684746
8.98176 41.6106 42.2348 27.9791839753
9.00417 41.9781 39.5615 26.9997033143
2.30945 46.6767 41.11 33.0915112581
0.247426 47.5976 42.7886 29.3600077273
7.52769 47.1274 40.7108 27.4613524662
5.21122 46.1094 42.2036 32.852066844
8.44159 48.6079 42.8634 33.2298192656
9.40535 48.6842 38.9312 28.1506096058
1.35836 34.6927 43.4237 27.0939349571
2.77859 36.1748 45.1497 25.4189694472
3.43093 33.3849 45.7809 30.7547076964
6.26313 34.2428 45.6698 33.5700660471
2.40153 38.7844 43.8034 27.9377424326
0.892276 39.8696 46.7234 26.4060563751
3.62744 40.637 46.0093 29.9223458917
1.21112 37.1494 47.2321 26.9725203435
9.60373 37.5844 47.3267 28.2087371128
5.23492 37.1986 45.617 28.5905316589
6.88729 37.338 43.2963 26.8570406302
8.07696 40.3883 45.7412 26.8708100785
6.10503 39.545 47.2448 29.1379336424
9.21251 38.3601 44.5779 26.4009895029
1.41427 43.6502 44.6473 28.4693452192
3.25896 43.24 46.846 30.287378661
6.4897 41.2402 43.7943 31.5238246878
8.24263 43.9826 44.6585 32.7273519346
5.12386 43.772 43.9017 30.6963461734
3.79662 48.4842 47.0321 27.9155870148
3.65155 47.3066 44.6074 29.3264261339
1.11337 46.391 45.2475 33.1463002192
4.93824 45.2813 46.4648 30.7061188624
7.6965 45.2181 47.2401 33.0241052889
3.59403 34.7303 49.4432 29.7296575683
4.77405 35.7304 51.9553 29.6313948261
0.45337 35.3361 50.5334 28.3999780746
7.29356 34.1952 51.7769 27.8634731289
7.7922 33.4572 47.868 27.7311081251
7.93886 35.8164 49.4606 26.1159330953
9.82126 36.4238 51.5969 29.1630512532
4.45078 38.5618 51.4248 26.3261368797
2.15789 37.4829 49.714 26.8156836389
1.18271 40.4074 49.5759 28.5882685498
5.52055 36.8472 48.6355 29.745251767
8.34341 38.9712 49.6496 26.6280676595
5.49131 40.6505 49.9683 33.0570809571
3.04741 42.3784 49.3597 28.729680226
1.43539 44.141 50.7001 28.9041077448
8.94241 43.9507 49.5804 29.3244377155
6.49534 43.1014 51.1793 27.6061223379
8.74758 41.6506 51.9269 31.1222374654
4.74679 45.0532 49.9678 30.5484503114
2.80749 47.0209 49.2013 31.470554183
1.83728 48.7556 51.0784 28.4288424735
9.68681 45.8728 51.6778 30.3733253318
6.777 46.3548 51.7541 32.8775098574
8.56544 47.6637 47.7992 33.96528209
3.12543 32.6896 55.1037 27.352331695
3.05816 35.3681 54.1475 30.8909106984
0.321195 35.4434 53.4435 28.6889672351
6.77867 35.5077 54.6068 28.7773738465
6.07409 33.1918 55.6614 29.7567920497
2.90898 39.5339 53.1829 37.0482979547
0.515689 38.2915 52.3735 30.5895976081
4.1712 39.1426 56.089 29.3129768022
8.52127 38.8847 52.4928 31.3556901075
6.07606 38.2033 53.9889 31.1351058383
1.42176 43.7032 55.0684 29.6263927136
3.06391 44.873 52.8065 34.1257162349
3.5064 41.7735 55.4704 28.783889686
9.15015 44.6283 54.4808 31.2962408339
5.57326 42.9763 53.9327 34.0875530987
7.08768 43.5958 56.3593 28.7199368178
3.56097 48.3538 53.6783 29.6836985454
0.636561 46.1696 56.3068 32.2746512151
5.36444 46.1325 54.2394 30.5798238152
11.9365 1.92387 7.81707 29.1304866396
11.6458 2.65809 5.23637 29.1692920069
14.7067 1.08907 7.47937 30.3044693045
12.9315 0.590958 3.70836 28.4916302738
19.3232 1.61607 4.62597 28.3156726845
17.5553 1.5564 7.04703 27.8285136536
16.2141 1.76867 4.54697 32.6388520526
12.2902 5.59706 5.29246 33.2874435529
10.2387 6.38407 7.0043 31.7941947831
14.784 6.80884 6.37092 33.9262857743
17.7918 4.20388 7.94441 29.1886012886
18.9135 5.39631 5.98989 30.3386782983
16.491 6.22343 3.94238 32.3709718886
12.7646 10.7776 7.06048 31.5141482141
12.2784 12.1638 4.68141 31.5480301794
10.1652 8.53247 4.25341 30.4328634171
10.3253 9.62517 7.08412 30.7626001024
15.4509 9.40639 6.44136 32.2220866205
18.7278 12.0499 6.81359 34.0052779739
16.0738 10.8243 4.34342 30.5980107278
11.2754 15.1305 5.60824 31.0832425416
14.0131 15.7071 5.88784 36.0914186703
18.0146 13.0946 4.10921 33.7705420061
15.1192 14.588 8.01836 33.0898800892
16.093 15.0169 3.85938 33.8130722906
12.6114 3.83594 9.82456 30.021584664
11.4457 2.41385 12.1485 28.6112626778
19.0957 0.263335 12.2194 32.849463656
15.4551 2.9199 10.9655 27.1981258328
18.0007 2.87664 12.1481 30.7997937811
15.2147 0.261615 10.0121 32.1084700696
19.372 4.02049 10.0575 31.6753468019
14.4713 5.63596 12.1846 33.1848316779
10.7109 6.18596 9.79905 29.5103320645
14.9346 7.43055 10.0591 31.6079793638
15.1807 4.9088 8.55431 31.7527950303
12.1443 10.2219 11.3386 31.1829343258
12.3126 8.3581 9.19329 30.0076272598
18.3514 8.19864 12.3308 28.8772627651
17.8268 9.31363 8.05301 34.761215912
16.3192 12.2208 11.0827 30.7045953631
16.7381 9.58688 10.4105 32.2604488162
10.4685 14.0362 8.03205 33.6247468174
13.7092 12.6127 11.6937 29.8116391083
13.181 12.9685 8.93291 32.9190911537
13.293 15.9017 11.8708 32.8528417936
17.5102 13.4153 8.91265 34.5634541252
18.9467 15.1317 10.7059 29.9613032634
13.3681 3.0706 15.9211 29.8807376167
10.1489 4.00983 13.8903 30.2520836731
14.0523 1.99377 13.158 29.8707508136
15.9233 0.989073 15.3969 29.4794943095
17.4507 3.15596 16.2473 32.2738138154
11.2942 4.71654 16.44 33.1930374128
12.6969 7.73931 12.9338 29.4797116805
11.9411 7.36454 15.8153 27.7319016693
10.0902 6.41175 12.4831 29.5542119406
18.5378 4.61645 14.0583 31.5019916432
16.6261 6.80631 13.6556 32.8867011092
11.5154 10.4597 15.8217 29.39077111
13.8019 10.4163 14.2864 30.8534375376
17.4985 12.1172 16.2645 26.4887772193
15.2413 8.30101 15.533 31.2485024001
17.7442 11.8779 13.6868 28.2376346219
19.6363 9.26902 16.2776 30.1607540714
10.6102 12.8135 15.0016 29.4814905623
13.1782 14.5191 15.1069 26.6876369292
14.9139 13.0295 14.4253 24.8483576573
18.7377 14.4539 13.4607 27.6501332936
16.442 15.4019 14.3022 27.8472289812
10.0867 0.519146 18.2341 30.566849002
12.841 0.767834 17.4189 31.1643444851
13.8909 3.22971 19.4989 31.4477989962
14.3643 0.411786 20.0437 30.7501436598
19.3852 2.37034 18.0847 30.4323964972
13.0853 8.16947 19.7287 32.3720930072
11.6931 4.85696 20.8275 35.8328982165
13.8342 6.95801 17.4695 27.1255177804
15.1916 4.40648 17.4376 29.3739943044
16.7361 6.64017 19.1051 28.569246575
18.7021 4.33262 20.1414 29.8357048162
19.6819 6.52239 17.9613 32.5463135206
12.082 10.6788 19.3628 29.4659553199
10.3811 8.20119 21.1631 29.1005485601
17.2298 9.21872 17.5212 28.577095415
15.5125 11.9462 18.5927 31.5653777592
17.2949 9.69837 20.323 28.0912173828
13.403 15.2863 18.827 27.6819379831
10.3152 14.6961 18.4308 28.3400111584
12.8641 12.8195 17.6078 27.0557798855
17.3472 13.576 20.2877 27.4297983026
15.453 16.1084 17.1232 29.1761866255
17.9869 14.4189 17.7638 28.8261668367
15.0782 14.8234 21.1452 30.7668294686
14.6016 2.77232 24.3729 91.849585647
10.0209 0.4249 24.3978 82.2893879417
9.8726 3.16778 24.1026 77.5561727435
15.9646 1.92026 21.81 28.3061143459
17.9895 0.315063 24.8494 122.8219793769
19.1283 2.9313 23.9939 65.7053535737
18.5997 1.44845 21.4588 28.3520338712
12.5098 4.35439 23.668 39.9273391717
14.6733 7.37442 22.3017 27.9449044881
12.7183 6.98668 24.2499 113.4835975418
16.6278 4.44985 24.0592 64.1745672824
16.8795 7.24123 24.0303 78.529730541
15.6192 4.75554 21.3196 27.058877454
18.5284 7.28915 21.577 29.3341612376
10.3932 8.46025 23.8051 50.7320176458
10.786 11.56 24.3207 124.4056551491
13.6455 12.1529 21.2854 28.3609229265
19.5624 8.75279 24.0875 81.0137647361
18.7378 11.5846 24.127 70.348844212
16.1007 11.2869 24.4445 111.891144167
18.8418 11.6141 21.4533 28.8697273519
15.3649 10.2216 22.1126 29.6945969419
11.7194 16.0826 23.9521 67.4412826679
11.6621 13.5436 22.8457 25.41765354
14.4297 13.575 24.0639 88.704965031
19.4884 15.0629 21.3868 29.5460568806
12.1566 1.99715 36.0989 41.0615080694
10.9431 2.74342 38.5076 28.0030544782
17.8219 1.43842 35.7443 73.0158196148
15.1394 2.39235 36.6055 34.4766358187
18.3401 3.91893 38.7519 29.5538887673
18.2316 0.904232 38.8261 27.5293480499
13.1838 4.61702 35.5817 109.7942986507
12.4649 7.14446 36.3664 41.1160683706
18.0733 4.23237 36.0353 61.222417424
17.5891 8.1509 36.2817 48.0984705611
15.7934 5.99903 35.9027 71.8531881917
15.4473 4.78755 38.541 26.7368460011
10.9325 9.16379 38.1404 29.0105709458
14.5995 8.96186 36.2106 61.3462429537
12.2928 11.7712 38.7855 26.1320901855
9.93269 8.33242 35.8283 93.7456962272
15.2535 11.8047 35.7733 68.6386234987
18.196 11.2075 35.3559 116.4860860036
17.5706 10.7115 38.212 28.429699601
14.7233 15.8658 35.28 106.0958726488
11.851 14.854 35.8659 61.8230695319
12.5506 12.3561 35.9838 69.3003426233
12.1285 16.1613 38.5733 29.2420205144
19.6335 14.0101 36.2223 48.3229617871
17.5261 16.1441 35.6607 80.8675731193
15.001 13.9858 37.248 29.8803225
12.0495 0.882483 40.799 28.8812969216
14.5646 2.10664 39.621 27.3309601337
16.3095 2.96023 41.7603 27.259754132
17.8277 0.237777 42.0268 31.0359017437
13.6274 7.22909 38.8482 28.5752774505
12.4456 4.62697 39.829 30.8380852426
13.4342 4.33774 42.6488 27.0312964354
11.0306 7.65518 40.81 28.0616873858
11.2441 5.96889 42.926 27.0466613518
19.0424 4.62997 41.5906 27.4110406247
15.8054 5.83605 41.3891 27.6612298815
18.8442 7.50547 41.6617 28.5497993823
12.7592 9.16482 43.017 28.9490576736
10.8544 10.4934 41.1854 26.7428045603
15.0533 8.74783 41.5509 28.6795191746
17.2585 9.49664 42.9743 28.0114080491
14.8939 10.4783 39.1642 29.9533586151
18.778 12.0946 42.8318 31.1907466406
15.7227 12.1193 41.7882 33.8487063572
18.9314 8.39084 39.2541 30.9648042906
12.5761 14.0869 40.3255 27.3845129044
10.8533 13.5245 42.426 28.0554594097
19.0034 16.06 41.997 32.4537437165
14.9302 15.3229 41.3852 30.5060075025
18.5432 12.9814 39.4945 30.6878391159
16.7637 14.9169 39.4851 26.8313380324
12.6749 2.81746 45.7908 33.4050518172
14.151 1.61182 43.6395 28.9413839361
12.8258 0.248604 46.9457 30.4885366362
16.5137 2.00858 45.0239 29.7844246393
12.441 8.0077 45.4446 30.6931316599
13.8792 5.64841 45.0506 28.9075021463
18.2868 4.29502 44.4337 31.1551988579
16.4892 6.45311 44.1019 29.7949884263
13.103 11.8705 43.3462 32.7598739046
14.5069 9.21223 47.447 33.3985081705
13.7015 11.9973 46.0776 35.3114039686
16.7075 8.79561 45.5513 32.5480014938
10.4923 16.1011 43.8196 29.5644137224
19.2461 16.15 46.2294 28.9511423159
15.9014 13.5739 46.107 33.2461610174
16.0227 15.9497 44.2084 30.5502496134
18.6927 13.539 45.5816 29.4892881848
13.7187 2.66976 50.5498 32.1373583908
13.0486 0.0679834 49.5752 28.9589119947
19.2138 3.74757 48.3257 28.9068605923
16.5184 2.85324 51.0155 30.2804132077
16.5844 2.73794 48.0587 28.7555658098
18.5749 0.937145 51.341 31.2699634231
14.4448 4.40711 47.6955 30.808389516
11.8634 6.52216 48.5757 30.8881716194
12.9674 5.43078 50.7582 29.4977970739
17.7694 5.95712 49.5309 28.6633123206
15.1489 6.90981 49.341 28.1974900075
10.9825 8.85013 50.0349 31.2850345315
13.793 10.1374 50.4796 30.4807579552
10.1079 11.117 48.4915 32.4853150965
18.3841 8.45476 47.7515 30.3161208166
16.557 9.4398 51.5119 30.7642320508
18.2275 10.7823 49.1174 33.1510612721
13.7437 15.8672 50.0184 27.6302716103
13.1659 13.0283 49.9185 27.206002221
11.1901 12.7541 51.9762 32.3909028972
11.5316 13.184 47.7333 33.0065648359
17.4141 15.4387 51.9617 27.5455554133
15.7552 12.5855 50.0145 27.677483992
16.0099 14.8059 48.5578 26.8876671203
18.8249 15.3541 49.3893 29.7628524102
11.7819 2.2433 52.699 31.55283654
12.4998 3.55172 55.2097 33.0186401363
15.1814 0.0423263 54.6013 31.5819469341
16.3605 2.82902 54.4282 28.5562080463
18.3175 4.05705 55.93 28.4626280852
19.0928 1.17941 54.3396 28.7959968166
11.8467 6.86812 55.5751 30.0978124449
10.8718 5.43181 52.9069 30.9955220032
17.2363 5.26704 52.2454 29.1996063136
15.209 7.25558 52.3708 27.6543271682
14.7991 5.27676 54.8296 30.4518148602
13.9779 11.1732 55.5517 34.5974458774
11.5832 10.1384 52.492 28.4538387829
13.2273 8.43382 54.2065 32.9989550038
17.6219 8.8269 56.2883 32.8896434221
18.4304 9.08394 53.5876 30.1432785483
19.0451 11.7238 53.3969 29.882148579
12.1393 14.6646 54.15 34.0324673422
14.7351 13.7509 54.5849 32.5706498152
9.93378 14.2158 56.0799 29.6765265448
16.6645 12.8105 52.6484 30.949439034
18.7737 16.0566 54.1277 32.4784887109
10.2155 19.4426 4.06286 32.1673681675
13.0884 20.2057 4.86692 37.2560042975
15.3449 18.5789 5.5455 36.54200558
17.1018 19.3563 7.68079 32.0800460674
19.5728 19.8609 6.55339 35.000380388
13.3962 22.7278 4.53828 26.1308527572
15.7628 23.1476 5.9915 29.7207258092
18.0906 21.7192 5.02343 32.5228301381
12.5314 24.5225 6.626 28.5494845837
11.4085 27.107 6.14889 28.6466054778
16.2489 26.0677 3.89764 32.015917782
15.3336 25.8267 6.57539 28.4042859205
18.3893 28.2406 6.13572 29.9386462987
19.0188 26.1675 4.14452 28.763547482
12.0524 30.1666 6.72158 31.0121378819
10.0053 31.8664 7.50806 32.5077920414
13.1524 31.7005 4.15536 28.5268296993
14.3868 28.6049 5.81991 28.9080273982
16.5588 30.4559 6.45019 30.8047257209
18.4166 32.5808 7.24864 26.7242716006
12.9532 20.0209 11.2735 35.3952643947
9.88722 18.2087 8.50002 35.9559571363
12.7348 17.6454 9.67442 39.674367022
15.7986 16.9983 9.3685 32.8555128483
18.7971 17.4212 9.39143 32.388134295
15.9439 17.1153 12.3351 30.1685825316
10.2566 24.0238 10.789 33.3195739937
11.6716 22.7454 8.6225 37.9375504742
14.0055 22.2288 10.008 34.8212684859
16.3364 21.9152 8.44773 34.0466151109
17.907 23.7656 9.61469 29.5499352702
19.504 22.2128 11.5664 34.5294727457
10.4662 27.5986 9.20479 30.0796658966
13.4001 26.6169 9.03818 30.2207170434
11.6523 26.6536 11.9063 29.3723719165
14.1198 24.8274 11.368 31.2651578351
16.7864 27.1501 8.77842 27.8296626068
16.7955 25.6135 11.245 28.4060945092
12.7964 29.7179 9.85796 26.7317857692
11.8149 32.3569 10.9058 28.6427940881
15.7018 29.105 10.4452 28.0364441019
18.518 29.9721 9.28771 28.6307171962
14.9051 31.5269 8.55731 28.1915210587
13.4474 17.4542 15.2273 28.7949351526
10.0354 18.7797 15.419 29.3265380331
10.9023 16.5363 13.3783 35.3307351437
14.5298 19.3643 13.6337 27.6761990771
18.7013 18.2515 13.3213 30.0360639246
17.1065 20.4063 14.5021 31.3422516408
19.3604 18.232 16.3186 29.581866231
11.3141 20.5817 13.9264 29.3218897918
10.9368 22.8156 16.0185 31.5213233059
13.9048 21.893 14.6072 30.9802616371
18.1932 23.0896 13.9671 28.7488688983
15.5656 23.548 13.6229 28.0712627024
19.1239 23.0858 16.5261 30.7966588611
13.1226 27.0001 15.3701 30.1409449954
18.1953 27.0026 14.5587 27.5000907265
15.7055 25.7502 15.0882 26.5804915103
15.2511 28.1239 13.18 31.2671525553
19.5782 25.6908 16.6711 28.9754746631
10.5736 30.4891 13.0685 26.5255539112
12.6017 29.0984 12.4706 22.3116945353
11.5911 32.4613 14.7625 30.2454250003
10.9154 28.8226 15.4341 27.520041266
13.8928 31.4744 13.2486 30.1433626033
16.7486 31.006 12.8665 29.8588418928
18.2339 29.2581 16.5083 31.2231148617
19.1575 29.7686 13.7082 29.5255306041
10.7805 17.1812 17.9957 29.6430050848
12.9854 19.1278 20.5156 30.1934837985
13.0218 19.62 17.7765 32.2265776086
11.7043 16.6105 21.1093 26.5685575128
17.0176 18.4437 17.2946 28.1866675646
17.4535 18.6522 20.0978 30.8599901412
12.7702 22.644 18.2483 32.1446844589
9.96758 21.9192 20.0335 30.4752284559
15.0248 22.4841 21.0853 30.0272128645
15.6792 20.7956 16.9331 26.651723214
17.1081 22.5941 17.97 27.0400583786
17.5878 21.4303 20.6317 30.0011721141
10.6954 26.2818 20.1562 31.6176550613
13.525 27.1348 19.7547 27.2228699054
12.7169 25.3839 17.5667 26.4866601551
10.0296 26.876 17.315 28.7508073642
17.6511 24.5113 20.4555 27.0537797395
15.6328 25.1387 17.6375 28.3227269836
16.7336 27.6947 18.5818 28.4323279366
19.3027 26.6187 19.3685 29.5293974627
10.8494 30.8935 20.0883 32.6592107234
11.4723 30.9446 17.3626 27.9200910062
13.3266 28.7577 17.6068 31.3007214727
17.1633 31.6208 17.7622 29.762038498
19.4695 30.3257 19.4717 30.0921203765
16.0722 29.0953 20.9597 26.8477781956
14.9676 30.9324 19.0516 25.9287248577
12.5186 20.3956 24.408 104.2525944855
14.0102 17.6192 24.1101 84.5062315612
15.223 17.7071 21.3972 28.9001664969
16.98 18.473 23.6471 64.2504144323
19.6332 17.3443 23.917 80.1145932679
9.86469 21.3683 24.0855 63.5690510412
12.237 21.3424 21.8055 30.8399039496
14.7798 22.537 24.023 77.6716881694
17.4225 21.2373 23.7464 62.1420864564
14.1982 25.356 23.9955 62.102400964
11.6006 25.7316 23.9472 82.6244410614
14.1283 28.1932 22.7013 27.3097378965
11.0777 28.5151 23.6334 54.2636808234
17.7197 26.1948 22.9358 27.8221269892
16.1393 27.7669 24.4586 97.5264103058
14.9124 25.1747 21.416 28.6097272379
19.5221 25.3886 24.5162 90.9357420655
13.1198 32.2396 21.6841 28.810994329
11.4254 31.8028 24.1412 89.4524892766
14.3102 30.7667 24.1373 67.2380475135
19.2329 28.8049 24.3636 87.0400366181
17.0159 30.6659 23.7858 46.8206811365
18.8189 28.721 21.4814 29.0341215219
14.1441 18.9153 35.6511 78.9495000048
14.35 18.2891 38.44 28.1203250675
9.91149 19.71 35.8823 85.9608355761
17.2517 17.2831 38.3942 29.776282388
19.2444 20.1909 35.8771 74.6920050119
14.6647 23.0001 38.2036 27.821938326
12.2124 23.5607 35.4354 105.5562144148
12.409 20.9488 36.449 32.2953990866
16.4042 20.4406 35.6113 78.7962084792
16.8067 20.53 38.5491 30.1686537236
15.6225 23.3276 35.5522 81.8327034735
18.1414 24.3242 35.9732 64.5358575231
17.6881 23.144 38.5029 27.1998667348
10.8083 28.3492 38.8284 31.4084157015
13.2332 25.7497 38.593 30.1538325763
13.658 26.191 35.5714 82.0244654424
11.4458 28.0141 35.9501 52.2970609748
18.4795 27.0164 35.9009 68.6581063639
15.7324 27.6483 36.1181 53.0560094237
19.2502 27.214 38.6494 33.3375028589
12.6789 30.5414 35.8756 85.0409678221
15.3656 30.7316 36.2876 47.2539027824
15.1455 32.5013 38.611 29.6137650982
18.1365 30.2203 36.1237 62.2767552575
13.9355 18.3147 41.5911 28.7483017502
11.043 17.769 41.3728 29.121479067
19.6323 17.674 39.6886 32.7491662898
12.8046 21.6009 41.9641 29.1077891289
10.5321 21.4915 40.0292 28.2013560089
13.0297 20.656 39.0139 25.5581738905
15.5595 20.5515 41.4158 32.0078923714
15.2987 23.6192 41.0272 28.9754891696
10.8214 25.8132 40.2101 27.5906524196
13.358 25.8042 41.8812 28.6055036413
17.2946 25.6014 39.8582 33.5809795024
18.6296 24.6406 42.8164 37.0696706682
15.2228 27.5292 38.988 32.4146922561
11.5906 29.797 40.8434 31.1883615643
14.4076 30.1531 40.1619 31.7097848285
11.2911 32.6144 40.9751 29.6523510233
15.6918 29.531 42.6808 36.6263772732
18.6539 30.0749 39.2826 34.742294537
18.0296 31.1928 42.1873 33.360806638
13.6109 16.8044 47.0106 29.808306294
13.2543 16.871 44.1193 30.8526628052
11.9841 19.7776 43.957 30.149632962
16.3496 19.9148 45.037 28.6071892105
18.2609 18.1429 43.7237 35.4701984336
16.753 17.5716 46.5013 26.6917463875
13.8641 20.7185 45.9885 30.4025115608
10.6949 21.7356 46.3162 27.7755294602
12.6146 24.0385 43.6426 28.1013152538
11.3447 24.4828 46.9513 29.1757756353
16.8847 22.2935 43.4422 30.6293105745
14.9156 23.5415 45.3175 30.2045197399
18.5437 21.6561 46.7228 27.7629270299
10.9688 26.1817 44.7639 27.8304754259
13.4168 27.3323 45.7556 30.522720656
17.0272 25.976 44.9042 34.8069158628
14.9936 27.0027 43.5815 28.9162767462
18.8308 27.4247 46.8335 41.2560816371
14.1665 31.2265 44.4831 34.7109342798
10.7996 28.833 43.2664 32.8484339847
12.2508 29.8029 45.5638 29.8368314465
18.2465 30.1298 47.3739 27.807002861
16.5243 32.0243 46.0459 30.366532492
19.3503 31.1877 44.9805 35.6429511905
12.1339 19.6608 51.3568 25.0463239469
10.901 17.1686 47.862 28.7177028206
11.3485 16.8639 50.8059 29.2900338761
13.0115 19.2281 48.4525 27.2214884336
14.9749 20.3569 51.755 27.1336253065
15.2188 17.3063 52.0198 29.4785604947
18.6186 18.1749 50.2093 27.5849922585
15.9443 18.7209 49.2004 28.5949586952
13.8509 22.3933 49.7195 28.1217304491
10.8678 21.8453 49.4011 27.2671814579
16.7146 23.2613 51.6749 27.5424377355
17.4461 21.256 49.7626 27.4962537406
16.1527 23.0646 47.9001 28.1322651423
12.8918 27.9144 50.5638 28.8176750406
14.4692 27.0642 48.4323 29.9549342871
12.5248 24.913 49.4236 32.4811124939
16.813 25.7201 47.9466 27.8426211634
17.7926 25.2019 50.4616 28.6656342814
17.4877 27.6421 51.9026 31.8193237857
13.7096 31.635 49.4581 28.1435824857
10.3744 28.6292 49.4525 32.9640415457
11.4115 30.7461 48.093 28.7860991688
16.9989 30.3551 50.988 27.2632674543
15.6904 29.7764 48.5894 31.7236150576
18.5976 32.679 49.0769 29.5575530915
12.6452 17.4888 53.7116 31.2760983362
10.0891 18.4651 54.3988 31.1660538578
13.6233 19.8831 55.0876 29.1049278037
17.0405 17.5094 56.1686 30.167477769
16.3285 19.3756 54.2981 26.53515865
18.9397 18.8511 52.8852 29.4326750947
13.9998 23.8933 52.3594 27.1799346183
12.3632 21.9585 53.4992 29.7265008712
11.0278 23.4971 55.7522 30.148696349
14.8777 23.8324 55.317 30.2610226468
19.0028 22.7101 53.3767 32.1310329839
16.9983 21.99 55.0871 31.6052125559
13.5009 26.4673 52.827 28.2184685
11.3535 25.778 54.3731 29.0538477155
11.5499 27.5668 56.3678 32.2850972191
19.1992 27.1247 54.4341 34.3615183234
15.5761 27.3305 54.0438 29.2812881748
13.9492 29.1982 55.9312 30.0657127809
10.2568 29.6211 55.0566 30.1351407285
12.9925 30.404 52.0425 31.1449902636
10.7303 32.3571 55.742 30.7380540725
15.3673 30.2553 53.5628 28.6026682505
16.887 32.1128 55.1472 33.6017826325
11.3597 36.0093 6.25133 27.9932971378
13.8493 33.1104 6.57427 29.7276165439
15.2085 35.6057 6.74122 27.3866920213
17.9148 35.6038 4.68263 29.6927268535
17.9445 36.2402 7.53098 27.1174444202
18.2548 32.9327 4.63649 29.095913928
10.9142 39.1655 6.80976 29.1182550236
14.5664 39.9288 4.88756 30.5582289577
13.6267 36.9451 4.85086 28.2263076506
11.8107 39.7357 4.17784 29.5446880234
15.7552 39.6469 7.55579 36.1669676958
18.4544 39.0161 6.90902 31.82975236
14.3293 42.784 4.94342 30.3811290644
11.4236 42.4132 5.39473 29.2354809433
14.6804 44.3909 7.36396 41.4103397868
19.0523 42.8261 5.0095 31.9725709718
19.3944 44.1938 7.22577 29.391737337
10.7347 45.3377 4.20884 27.7906549996
12.5221 46.2377 6.29458 29.230746746
14.3013 48.143 5.41317 27.5742914365
19.0241 46.667 6.41946 28.1328268006
17.0999 47.7169 4.90513 29.7303161529
11.678 34.1482 8.3041 28.2056981387
14.4082 35.7958 9.74893 27.3706531491
13.2314 34.536 12.2103 27.9811458892
16.4874 33.6345 9.06372 24.9520605339
17.6327 36.4741 10.5024 29.5348133047
18.2773 32.7096 10.9862 29.6384807973
16.034 34.5851 12.2987 27.6222583041
10.0198 40.5332 11.5783 28.8682186821
13.5828 38.6917 12.1315 27.7531280211
13.2133 37.9202 8.36795 29.2716417696
11.3606 37.9456 10.7498 26.9523724566
17.5385 40.3265 11.916 27.7983860855
15.805 38.7638 10.2333 29.412796718
11.7467 44.0068 8.23591 29.1807460248
12.7902 43.1377 11.1271 33.2111703586
10.8501 41.4065 8.54187 31.6511212032
10.5385 44.3219 11.9812 29.6273750918
17.9476 41.2142 9.43382 30.0666383215
19.6086 44.1652 11.7728 31.5655358087
17.2339 43.8694 8.80375 34.0542837813
12.8172 47.5525 10.4702 31.3479819228
11.3666 48.0457 8.13625 28.5225483842
14.2687 45.4851 11.6692 30.8180116859
18.6313 48.4246 8.44478 30.9215340133
17.3037 47.6672 10.6731 30.8940839669
17.1022 45.0739 11.4805 23.602464752
10.7342 35.8015 12.749 24.2938402383
10.291 34.9489 15.1666 27.8315129746
14.8479 36.0502 15.0152 27.9810960755
17.9747 36.2149 14.0431 28.6122094223
18.311 34.0895 16.1043 29.5457735778
15.8839 33.0698 15.1038 30.5789727154
12.4583 37.4308 14.2357 26.529582741
11.1742 39.1256 16.3276 27.4126396097
13.896 40.0521 16.095 29.0278107706
15.8219 38.5338 14.5038 30.2218313685
18.6458 39.609 14.5198 30.6801475614
13.288 41.3066 13.0555 26.4876653575
14.0156 42.9999 15.7546 27.5687028011
11.0013 42.0375 14.3212 28.8966999977
16.0794 42.5466 12.913 31.0675573156
17.0067 41.9806 15.7156 27.8223478703
18.8988 44.0824 14.7486 31.4527272861
14.6191 45.8318 14.4424 30.688528463
11.7443 48.6498 12.9851 30.1535792055
13.4236 48.4717 14.8652 31.169229301
10.0102 45.4337 14.438 32.5052317418
18.6321 48.5753 14.7258 33.9749880632
17.2713 46.4388 13.9502 27.5615223612
10.1504 33.8282 20.4699 27.9952410176
13.5457 32.878 17.5975 30.7091314202
11.029 36.4678 17.2426 30.6710384799
13.0468 35.3806 18.4683 27.1231765522
12.5105 34.96 20.9926 27.4004109218
17.2389 34.7002 18.6712 30.2010243229
15.2398 36.4437 17.8113 31.0850917344
15.6394 33.3241 20.408 29.6021518549
19.4824 35.9714 20.0687 33.6016212572
10.6568 40.4029 18.5544 32.9986659182
18.1538 38.0677 21.0093 31.8081025325
15.7099 38.6502 19.5611 37.6090473104
11.1599 43.0195 16.9285 29.4405405735
13.2371 42.0552 18.9798 28.6643480217
19.1072 41.446 18.5507 33.3636663088
18.541 44.736 20.5433 28.2860795377
18.7645 44.3613 18.0515 28.5066807559
15.9732 41.0324 18.0479 29.9671521274
12.0994 45.9508 20.3231 28.1441477193
14.0122 45.0251 18.0243 31.8010920946
10.4693 46.6864 17.9806 32.2273436216
18.5672 48.7658 18.8038 27.5194442369
16.6025 45.7405 16.8727 29.4795846852
16.1381 48.4487 17.9793 31.4247740209
15.2513 45.1311 20.6685 31.9117911548
14.5227 33.816 24.5877 101.4429139676
13.7619 36.0733 23.4779 37.3303322202
17.0893 34.3925 24.3573 95.0154468657
17.4948 32.8181 22.3085 28.6115939098
14.5334 40.289 21.6665 29.440860624
11.5549 37.3042 24.5231 88.0781173125
10.6617 37.1817 21.8824 30.2421643692
12.291 40.1368 24.1406 68.10792183
11.4113 39.9024 21.5161 29.2654692804
15.4493 39.1046 24.1821 80.4672836598
17.4578 37.1687 23.6956 39.4745025371
18.5194 40.1272 24.1691 56.3225681106
19.4344 40.4972 21.2629 27.5298798785
13.8447 42.7157 24.1975 71.6521504721
12.841 43.3667 21.5143 28.5953747295
16.6461 42.1638 24.1434 58.0555393237
16.5649 42.5397 21.411 30.2483958614
12.5002 45.6038 24.5055 91.7838272398
12.5331 48.363 24.2521 63.0100282077
12.1543 48.4004 21.3845 31.3065344701
9.86692 45.0206 24.1431 69.2160062452
15.5268 48.682 24.1055 52.0597638754
19.1605 47.3942 21.3781 29.5509658453
18.0202 45.0084 24.5807 100.4313243677
15.3859 45.824 23.519 36.3218507755
14.4306 36.3164 36.1754 45.7560717624
11.121 32.927 36.0704 61.5055382417
12.5827 33.0607 38.5727 28.4746966667
12.4877 35.642 38.1928 28.7986341158
10.9705 35.7566 35.352 109.2374376732
15.5165 33.8523 35.7149 91.6677193651
18.1461 34.4512 35.7834 76.4754238423
18.6747 34.3864 38.8301 31.1529941316
12.2248 38.1827 35.4937 78.7803408971
9.87403 39.5672 35.9588 57.6717103256
13.7698 40.269 35.9773 47.2895481316
13.1826 40.5926 38.8147 27.1556873365
10.3231 39.2958 38.6925 30.1775282899
18.8875 37.6784 36.0406 66.5368747502
16.1734 39.1028 35.695 80.8559030966
15.7796 38.2254 38.6455 31.1139573743
11.3913 42.7142 38.3932 25.5449381412
13.3829 43.2941 35.5976 87.4707396078
10.4187 42.5888 35.741 71.7068168046
17.021 42.0562 37.6555 31.107023365
15.1158 44.1255 37.5853 30.7589158101
18.5173 41.0208 35.5314 101.3525616198
12.3487 48.4649 38.4713 25.5883402092
11.9201 45.6871 35.5415 90.5087241306
12.8463 48.2515 35.8314 65.1754494632
11.2493 45.6823 38.5369 26.3777234105
16.8188 45.7285 35.7684 79.1602582934
15.741 48.6736 38.6927 26.5016540557
18.384 46.7282 38.176 27.6416701088
15.6114 48.2645 35.7962 71.337691999
19.6498 45.8907 35.5909 77.6285587477
13.6428 33.2577 42.4346 31.3881996395
9.91868 35.2592 40.8226 28.0962197483
18.8975 34.3974 42.3362 28.1353768993
14.9367 35.8576 41.7194 30.1899977148
16.381 33.4072 41.0 29.3527951783
11.3774 37.2901 42.3503 30.4745229373
13.4387 40.6608 41.5007 28.4081926656
13.3075 37.7895 40.2779 27.2735881284
17.7283 36.8711 42.1339 26.7253455235
17.0665 40.3537 39.8698 27.3325190509
15.7758 39.3516 42.6604 28.4595129073
18.6144 37.0895 38.9967 29.158361257
13.218 44.2175 40.0566 24.7166797123
9.90247 44.7958 42.416 29.3994627033
12.5124 43.5517 42.734 29.4828254545
15.5938 42.7002 40.6494 26.6285085796
18.2838 44.1043 39.6086 27.5349336108
18.7546 44.09 42.5511 27.5987582545
19.5889 41.394 40.7199 32.3676116037
14.1635 46.7557 40.3652 29.0877640086
13.1793 48.0572 42.6597 29.7363870841
17.0842 46.7053 40.9973 27.8081923742
19.0088 46.4423 43.1668 26.182220684
10.2492 34.7561 45.4458 29.9111812124
13.7816 35.4206 46.9181 32.8998611201
12.4043 35.3102 44.127 30.2951710583
18.3396 34.0157 45.2504 30.105397054
17.4958 36.6425 45.5476 28.4975157846
11.025 40.2752 43.3158 29.2175373995
14.1768 38.5159 47.152 30.9073558365
11.3867 39.5927 47.1964 30.0440958935
16.8005 40.5903 44.8499 28.4241548796
15.0698 37.2547 44.3214 30.0106705157
12.2869 42.1192 45.1357 28.5948756613
14.4462 44.6074 44.8346 27.087581612
9.90212 42.6216 46.5433 28.1655571105
18.8031 43.5144 46.3099 27.0550700312
16.3022 42.744 43.3709 29.4344566812
14.8615 41.4563 46.4034 30.0015245839
16.1344 44.5619 47.314 29.0557689127
10.7196 47.0339 43.6704 32.364416965
