10.328 34.2346 12.9452 31.8428976754
18.7514 33.9715 16.3576 29.1107156746
19.2688 36.7513 16.1156 30.6579410428
15.3244 33.7981 14.2479 30.6199792802
13.1106 39.1264 16.4635 28.474017725
10.7996 38.6696 12.8392 32.4613542739
10.5325 39.0628 15.6093 32.4560580775
17.3671 37.9286 13.3723 29.5451435995
15.9149 38.9288 15.7266 31.3269563169
13.6753 41.1823 14.2153 30.3413303419
11.4432 43.136 14.045 31.3517887641
16.0733 42.5043 13.6431 28.0474947883
16.9652 41.2829 16.0167 27.3364376575
10.5443 47.6 16.0485 36.3549105995
14.0034 47.2517 13.4209 29.4485030483
11.1387 45.9723 13.6696 31.9006747573
13.4267 48.6747 15.53 30.8420722867
15.8513 44.9884 14.6016 28.4761916536
18.0021 46.5882 15.4859 31.6614805352
14.297 33.5572 19.2895 28.644907177
12.5857 36.6781 17.8527 30.2818257286
10.1442 35.8085 18.7863 29.3574303251
18.7165 36.1962 20.0068 28.9598411738
15.1078 36.5251 19.2833 29.6436569202
16.0485 32.9076 17.0425 32.532292117
19.4635 33.6921 18.9952 30.8429806482
12.231 40.013 20.5375 34.585627903
17.2327 37.4501 17.7485 28.2259462075
17.3632 39.994 18.7976 30.2978267452
12.8916 41.2429 18.0772 29.7113624513
11.0557 42.8026 16.8618 34.3911002114
15.3143 42.5925 17.9158 28.9526070867
17.4649 44.1961 19.1248 29.9815560979
19.2454 44.6099 16.9083 30.171084508
12.4048 48.9736 19.653 34.5249592681
10.7425 45.0114 20.1302 34.5636403747
11.6302 45.2433 17.5149 31.6376546294
14.5295 45.2196 17.2423 33.0769575962
15.779 47.7534 17.0028 26.7584488526
17.9442 47.1098 19.5142 35.0465964221
10.9115 33.7121 23.8594 40.7713509005
13.744 34.7452 24.2234 74.7343007991
12.1425 34.0946 21.5669 30.1976931253
18.0425 34.051 23.9577 58.4410898746
16.6931 35.5179 21.6666 26.8201581241
15.4456 32.9122 24.3031 70.2458048617
15.8035 32.8602 21.4909 29.4573780112
11.5133 37.168 24.1439 63.9476476327
11.2789 40.0983 24.2971 83.0003825847
11.52 37.0419 21.4079 27.9560703064
14.2673 38.1129 21.3677 27.288971038
15.0684 37.1599 23.6924 39.6407182073
16.26 40.3751 21.4577 29.7639944229
17.6948 37.0611 24.2288 81.4338446278
15.7475 40.1745 24.2472 86.6884073063
13.3273 42.0236 23.9412 56.3230240533
13.2507 44.8213 21.5105 31.159183965
10.1454 42.6183 23.8698 60.9612459659
13.9849 42.2009 21.2699 28.7061626111
18.2139 42.5788 21.5839 28.8983532974
17.1467 44.3039 23.8805 53.5994697828
18.5303 41.0275 24.2497 64.4818586021
10.9468 47.3953 24.0464 51.103069699
12.0977 45.0219 23.9775 55.3583730869
10.3058 47.8312 21.2655 32.1532753333
15.0956 48.585 24.1711 59.5892721603
15.8936 45.1917 21.3906 29.6266349128
14.7707 45.8075 24.6532 115.19559798
19.112 46.5892 24.2439 79.3402856503
16.3931 48.3426 21.5512 30.4777900388
11.4632 35.0707 35.6687 82.5769067261
14.2683 33.8579 35.8002 83.011972523
14.6018 33.4324 38.6832 30.8735608402
10.0161 34.9959 38.6159 28.9886050871
16.6591 35.3257 36.4248 45.4600072755
19.4637 35.8016 38.5605 26.9725777308
17.5678 33.5248 38.5248 26.4562594408
10.6385 37.7926 35.8691 62.4965288207
13.0226 39.3863 35.993 54.6940566056
11.3029 37.3826 38.5374 31.4510091278
16.4387 40.0571 38.2458 28.4244254469
15.356 38.1063 35.6375 93.1570506626
19.3621 40.3467 38.5622 29.3090455804
17.3399 39.9636 35.5046 94.0588914882
10.7316 43.4087 35.9251 62.1463441414
13.1726 42.1219 35.2942 123.3072641067
11.8051 43.6827 38.7071 34.8566318693
15.8333 42.412 35.918 54.9379305211
10.8906 46.1908 36.6941 33.4313892039
12.9036 47.8824 35.5834 114.5637854341
19.3912 45.3838 35.632 84.1277366938
17.0317 44.9656 36.0472 62.9265760267
15.9808 47.3468 36.6051 39.5169563362
17.9805 48.8959 36.4913 35.8167923869
10.4376 34.8868 41.5433 29.9588182031
12.3556 36.5216 42.7927 28.1839723501
13.6538 33.9693 43.0782 25.5358522841
12.3575 33.0002 40.3655 27.4226546874
15.2228 35.8581 39.7569 30.4594011385
17.829 32.9979 42.7366 32.7454152526
15.8391 35.1185 42.2868 28.2623575248
13.0592 37.8911 40.63 33.8269423875
14.6557 40.054 41.3769 30.2205631398
18.4013 38.5102 41.5488 31.0265307588
17.318 37.4439 38.9723 28.2954714416
12.2588 41.7656 42.5892 30.347436761
14.3181 43.3923 41.912 30.37539209
14.7623 42.6046 39.0274 32.3100042594
10.3895 41.902 40.4356 33.0624778514
18.3162 43.7166 41.0111 26.4890935109
17.4782 41.0646 40.8297 27.588201708
16.595 44.7405 39.1183 35.0136678416
12.6272 47.9086 43.167 29.8046603096
13.2294 46.006 40.8458 30.0235068577
11.089 46.4177 39.5129 27.9311076477
10.6559 46.0253 43.004 28.5290193249
17.5303 48.5973 41.2919 31.8761672487
17.6623 45.8857 42.3559 29.7153219644
15.2613 47.6538 39.4243 32.3075486051
14.4463 36.5329 44.9971 28.4422765487
11.0597 33.1908 46.924 29.8073516178
12.7565 35.3395 47.4372 28.5521364984
15.8753 34.4514 47.0148 27.8296335923
18.6997 33.9146 47.0365 33.9140839777
18.8954 36.4627 45.8102 31.803224727
15.2982 32.703 44.9473 30.1866586617
11.5417 37.631 46.1765 27.7478275807
12.8246 40.2975 45.1424 29.9036737387
17.5463 40.3263 44.832 30.0937263223
16.3384 39.7786 47.4235 29.0961307201
17.2793 37.0531 43.7206 29.1534374389
19.226 38.7974 47.5047 33.7910824079
15.1047 39.3006 44.007 26.9917814266
12.4904 43.5187 46.6342 25.753574692
10.8502 43.6254 44.3693 31.4318887441
18.6856 42.6463 43.812 26.9086301891
15.9968 44.119 44.0808 31.5910191304
15.0219 42.1735 46.0382 29.7578833883
11.7367 48.3455 46.063 30.8908715345
13.1888 46.0287 46.6168 31.7629512095
18.2428 48.7821 46.5704 31.0001571518
14.8971 46.9216 44.4759 32.2440704232
13.9455 33.2363 49.0382 32.1703271811
12.1887 32.7625 51.8428 30.8123744816
19.3111 33.3533 49.7788 31.1591587711
16.6664 34.1112 50.1211 30.5629231406
16.8454 36.755 50.9697 26.3886118929
12.9083 37.0903 49.8389 28.1580121338
13.3144 40.4018 49.9877 28.9175720572
10.4575 38.1079 50.7721 27.2111093637
11.609 40.3377 47.7902 27.149955461
19.0898 38.3213 50.4808 31.5740975911
14.8637 38.5441 51.8342 30.4764675052
18.2863 40.776 51.5487 30.0595930084
15.5309 37.2208 48.4389 31.2133095229
14.3643 43.2044 49.4289 29.2363651588
10.6987 44.5928 51.136 36.1629063117
10.672 43.1362 48.5625 29.5333176201
16.7277 41.831 49.1105 30.7073015101
18.2048 43.8072 47.7272 33.0895186847
14.753 46.042 48.8002 34.5025957254
11.8283 47.3577 51.7267 35.6552113033
13.7724 48.7366 50.2504 35.9445104264
17.5258 46.2795 48.4352 32.3034536552
17.411 47.0158 51.384 30.0437979004
10.6704 35.4915 53.7094 29.7119581934
14.6875 36.2742 54.4525 30.1805033632
12.911 35.6318 52.2736 31.3489331524
11.024 32.8411 54.8688 26.8021396833
17.4173 35.7536 53.3335 31.5460696227
15.061 34.4204 56.2761 28.3126001447
12.0458 39.7043 55.1913 30.5612214541
14.6977 38.8758 55.6265 28.2782899641
11.4903 40.4409 52.2226 30.2085598963
10.5457 37.5178 55.7972 28.7336053052
18.4094 37.0112 55.883 26.8627139018
18.7394 39.206 54.3779 29.8464857364
16.1628 40.7643 53.1783 27.7930342538
14.5323 42.1417 56.0098 27.5100446616
12.1433 42.7946 52.7246 28.5580447585
11.666 43.157 55.3234 31.2285479338
14.8746 42.9977 52.2172 30.6576883746
17.2411 41.1922 55.9433 27.412096688
14.9708 44.6519 55.8038 29.7484441023
19.3621 43.18 56.1354 29.0690776557
9.9232 47.622 54.4415 31.6598070319
13.2467 47.2954 54.2928 30.2691798534
15.6679 45.575 53.1198 39.9060027248
19.5764 49.0188 53.8554 29.7388984951
23.8014 3.56856 7.65654 29.8278940025
23.9801 4.00357 4.76478 29.5778178732
20.1044 1.3745 7.68318 28.1980039822
20.0256 2.20789 4.85651 28.6367390848
28.5518 2.64152 5.75477 29.829038652
25.0081 1.34412 4.14723 27.4105536078
26.2603 0.937524 6.78311 26.8846287994
19.6934 6.79896 5.2608 31.5391890133
21.0108 7.50133 7.54735 30.9870527801
21.4854 4.33577 4.00337 34.0059678929
28.1568 6.66341 7.31581 28.4775779798
25.0453 6.29248 6.77125 31.6704759236
27.7536 6.90571 4.67182 28.6015399447
23.5089 8.5952 6.5257 34.5185024236
24.8783 10.5708 5.59564 29.9956324082
28.3253 9.62524 4.08229 29.7891947419
27.5138 11.2226 6.43658 33.0766787731
20.1205 15.6371 6.65008 29.7970440059
20.5024 12.8441 7.67404 29.8538476631
23.1401 12.8453 6.47731 32.1047790253
23.4304 15.3748 5.78443 26.2549565779
19.91 14.5446 3.9494 27.6363879051
27.0099 13.5647 4.50353 32.4015873644
26.2515 15.7915 5.66364 32.5681750419
24.301 1.23096 9.15266 25.5151039288
24.4505 2.43889 12.0216 33.8274749375
21.8261 3.06321 10.9981 31.4218507375
26.6553 3.72719 8.19533 27.2471671297
28.5553 1.90089 9.16186 27.3825831496
26.559 0.211902 10.4273 27.7059622769
21.8041 4.96201 8.84644 29.7636031044
21.7341 6.84548 11.214 31.419144147
26.5581 7.10573 9.55729 30.3615612971
26.5511 4.83226 11.1329 30.2541410732
28.9973 5.11952 12.3544 27.4099042287
23.442 10.0342 9.2105 30.2865667713
24.274 8.3196 11.1639 29.2878223818
20.9902 11.4342 10.1135 27.8073513232
19.7326 9.26143 9.00028 30.2235379226
27.8716 9.57273 10.8053 30.4280588695
29.1983 12.1234 10.9445 30.5250181414
25.9549 11.3533 9.06054 33.1129991978
22.3356 14.3401 10.5431 33.1119508878
24.6182 13.7425 8.56005 32.9889162647
26.1569 15.5218 10.8501 33.2120901992
28.8773 16.033 10.0389 29.1101120001
21.4286 2.17227 15.2614 34.3378562301
19.7609 0.740883 14.029 29.5222271836
26.4192 2.43124 14.5496 28.6415950735
26.8737 0.106652 13.2438 27.4309728165
24.2897 4.19756 14.4999 26.918296743
21.799 7.38924 15.0201 30.1055520571
21.7776 5.03717 13.3355 28.1994801478
25.4719 6.41983 12.9611 30.6437513098
28.6103 4.3279 14.897 30.0844035003
27.2834 8.0294 14.8328 29.0634453803
27.1666 5.91589 16.6345 32.8384097323
29.0486 7.866 12.7256 27.3646933436
20.6317 10.8068 16.8078 27.7115444967
22.0182 10.1362 14.5225 27.4962787501
20.0949 10.1408 12.6062 31.2122725613
24.7347 10.8347 12.6901 33.8663325378
25.2484 9.84272 15.3494 29.7256830974
23.6852 13.3585 12.9877 31.1994163528
21.9552 13.2295 15.037 29.4337952367
29.1436 13.726 13.1412 28.397012505
26.2829 14.2376 13.6912 28.6797999734
29.2739 16.2915 14.897 31.1421608953
25.5335 12.498 16.0077 30.034328956
26.4346 16.133 15.3326 30.7764479915
23.0886 1.19899 17.3836 31.6432291008
23.1538 3.7274 19.268 30.2318207768
20.5319 2.48247 19.4618 31.8539785544
25.9228 1.14305 16.8868 29.3406699448
25.7389 2.41893 19.9967 28.6271639191
28.3462 2.65739 19.2879 31.7566092788
19.8187 4.76235 21.1897 28.7241167148
23.7741 7.94279 17.0959 30.36380147
24.3495 5.30274 17.0715 33.4281065769
20.5236 8.13746 18.1646 32.4179133065
22.8999 5.86485 21.0906 28.1832615729
20.6178 7.44206 21.0211 27.1154979018
28.5745 5.40704 18.9663 30.8246250054
25.6191 7.0958 21.1207 31.8097471022
21.9858 10.0797 21.2238 27.8496871863
24.2505 9.11595 19.6711 32.1118556768
21.6914 12.2124 19.1917 27.2852080673
26.2339 10.8329 18.6586 33.2363743237
29.2193 10.4442 18.3933 30.3686093979
27.3621 11.7387 21.1601 32.1535393025
23.3935 13.8358 17.2106 27.3725240748
23.9425 13.7924 20.4394 31.6938153828
19.9358 14.4236 17.9009 28.5685046806
27.6193 13.7065 17.9473 32.9596149544
21.8897 2.27179 23.5566 36.1930276092
23.1715 1.0556 21.5439 28.1958394348
24.4074 3.4596 24.3068 103.9955468073
19.7972 0.630892 24.2255 89.1231416373
28.2261 3.45224 23.0219 35.917942084
27.2446 0.997071 24.2643 85.2426488886
24.7089 0.27236 24.1617 70.3972510009
20.4757 4.72297 23.9884 55.0123390935
23.017 6.12467 23.9403 45.6062935982
25.5538 4.27702 22.0959 28.5357678111
29.3438 5.61945 23.9952 93.223815978
28.3435 6.76545 21.5232 30.6142458848
20.5663 8.23142 23.9154 48.934031513
23.3817 8.71547 24.7343 128.2508657203
23.0266 11.4417 23.3835 35.0650634503
20.2908 11.1272 24.3838 87.1317603107
28.7488 8.39036 24.193 80.3373368965
26.123 11.328 23.5742 49.0257554017
26.0292 8.68834 23.7604 46.1649793678
22.103 14.1911 23.8957 50.264928301
24.4054 15.4491 24.4661 96.2653001437
21.5207 14.8947 21.3006 29.508294647
27.0642 13.8581 24.056 52.5311796317
26.7363 14.5098 21.2604 30.8862885204
24.1158 2.29612 35.7682 77.1861660666
21.1891 2.05309 35.8682 66.9796410493
20.8922 1.83079 38.8044 28.6868476252
25.9957 1.60835 38.1358 28.6345973715
28.3301 3.49539 35.3444 104.9108927728
28.6352 2.57651 38.1175 27.3363172595
27.115 0.490732 35.6392 78.038766198
20.8681 6.46358 35.3938 114.8798723654
24.3552 6.8836 35.5695 83.9806404064
22.7326 4.64876 36.9504 28.3846794466
24.3525 7.74621 38.4495 26.5081723541
26.9608 6.05858 35.7621 49.7936101151
27.5538 5.63063 38.2484 28.1800394911
22.6068 11.3008 38.3248 25.5865840246
20.3132 9.42375 36.3925 47.9278263612
20.6663 12.2163 36.2691 51.0111886889
23.4223 9.72087 35.8794 68.1748370757
21.7557 8.80137 38.8146 30.6647682071
26.4993 9.81822 36.6255 34.4506297836
28.0659 12.1251 38.7146 25.8128554777
28.7784 8.23859 35.2536 118.949462478
24.2523 12.584 35.7327 88.4096999681
22.4005 14.7416 35.9558 56.7555400687
22.9739 15.1426 38.5263 27.9636470221
27.4021 12.4347 35.9976 60.5452454234
27.3143 15.8096 36.3089 47.7283532735
29.4134 14.7112 38.5749 25.4669563205
23.4721 1.12416 40.0739 26.9058736126
21.8608 2.05355 42.799 27.3415409894
25.4895 2.89215 41.1648 28.4754475674
27.262 0.557857 41.4448 30.1592317454
29.2051 3.49984 41.4157 28.8606267912
21.0933 4.79608 39.233 30.6971855139
22.0347 4.67593 41.7976 29.5211500948
24.1784 6.5444 41.4302 35.110831799
20.5742 6.81397 43.154 26.7854787298
24.8215 5.12898 38.9607 27.7018958877
26.8394 5.60941 42.2951 32.8634215748
28.5136 7.43477 40.2614 30.7048364747
23.6264 11.7913 43.1579 31.1692341961
20.9302 11.3974 42.1645 32.9339263196
20.3705 8.57115 41.138 34.5427049234
25.6138 11.2525 41.316 30.1924522562
26.5627 9.21489 39.5344 29.976305231
22.3015 14.5461 42.7487 29.4848068476
21.4534 13.073 40.0495 26.8896360037
27.4656 13.5222 41.1881 27.1186031267
24.8159 14.7831 41.242 27.8883992558
24.8611 12.6272 38.942 28.2917423228
22.0213 2.46428 45.4008 30.8468673132
27.0209 3.03669 45.7263 30.8108977504
24.8592 2.44286 44.0415 31.4338384745
27.8224 0.219296 45.3041 35.1836353574
22.4779 5.18186 46.5628 32.6608959167
22.7922 7.26635 44.818 32.1324010571
25.5357 7.90036 44.7317 33.0648072835
24.9267 4.48976 47.5985 30.8486079983
27.988 5.73251 45.0661 30.9603797948
20.1459 10.2109 45.2241 32.5582104564
22.7154 9.88882 46.2191 34.2733504869
25.1716 10.4682 44.9782 24.7881450115
28.0969 10.9837 43.3508 30.5620600196
28.4865 8.85577 45.3116 29.0742169697
26.6031 10.182 47.249 26.4605799989
23.497 15.4916 45.1777 28.8868734516
25.5023 13.9105 44.5084 27.2178458165
27.3907 15.9022 43.4554 25.7444775887
28.6806 13.6919 46.8676 32.6152455166
28.876 13.5289 44.161 28.8253894257
25.9383 13.1048 47.2021 31.1125934766
29.4909 16.1935 47.575 31.9643296907
23.288 1.86265 48.3236 30.8547240991
21.3431 1.04247 50.0229 29.4853500985
26.4681 2.9261 51.7969 28.2842546036
25.9004 1.42823 49.7362 32.7611031908
27.9268 2.44802 48.2195 30.3211024974
23.9638 4.95221 50.722 29.9963978824
21.5103 5.69261 49.1549 28.3240727749
21.7095 7.14965 51.6605 32.105004991
28.643 4.89982 49.6903 27.7577104567
28.7986 7.13597 47.7357 26.6362381157
26.8161 5.79773 51.4616 27.6824044742
25.938 7.03013 48.6236 30.1810501174
24.6829 7.94998 51.8697 26.4650659651
24.3879 9.40282 48.865 26.6003805802
21.5962 8.94898 49.0802 27.3011007565
21.5451 11.1617 50.8823 27.5981489263
24.7253 11.6509 50.3391 27.8926456031
27.1515 10.5489 51.0353 29.3249717862
28.8435 9.53932 49.094 26.3105875706
19.8351 13.5028 48.7743 30.3651810377
22.4598 14.0176 50.009 29.2022676152
22.2678 15.576 47.6556 30.5547434924
25.147 14.8487 49.0273 27.1740700692
26.868 14.2744 51.1876 30.1375430569
28.9144 12.5853 51.8367 28.202283545
21.7824 1.31691 52.8142 30.0484212989
21.2833 3.5861 54.1711 30.6869631111
27.5549 3.51214 55.8425 27.3629674362
25.1768 1.89011 54.2955 29.2447924522
28.6521 2.58522 53.3955 28.4512591955
29.3699 0.701625 54.9037 26.1566755816
23.8218 4.49826 53.4987 28.132531997
24.2071 7.16621 54.3417 28.6560472774
28.5063 6.89852 53.7641 28.327643531
25.7462 5.65248 56.1461 28.7423656335
20.381 8.50618 55.397 33.0330071144
23.4721 11.1412 52.9353 31.3961445751
23.1368 9.34876 55.622 32.0016951145
20.4668 11.3572 55.7279 31.8655075807
19.7289 8.78135 52.8217 29.1913002789
28.8239 11.3771 54.1572 29.1273953107
26.7824 9.12743 53.55 27.2186669423
25.5403 10.9319 55.4611 29.3905872526
24.5407 13.9377 55.5582 31.3188430482
22.2491 15.9364 55.9349 29.4928492774
21.9246 13.3843 54.147 29.1444535282
21.8654 15.2857 52.2915 27.2638716957
29.3714 13.5901 55.7441 34.6932580651
25.7288 15.5478 53.5076 31.2606049999
29.1295 15.3065 53.5273 29.6302668656
22.7244 18.5381 4.32067 31.5790997643
22.7405 17.583 7.45145 29.7370048171
25.3649 19.7496 4.75443 26.9336290067
29.3436 19.4524 4.65508 33.182031936
26.9729 17.8926 4.00747 29.78950671
26.5436 19.8728 7.25607 25.9380942071
28.0155 17.2956 7.57533 33.2785182261
24.1649 22.7402 7.43256 30.4270678659
21.0368 20.8163 3.99968 28.0912870081
28.9125 21.6829 6.5188 31.9819958525
24.9799 22.614 4.6756 33.2895735813
22.9322 26.933 6.13191 29.2073799649
19.9035 26.8547 5.97423 27.8909722051
27.0689 26.7122 4.83691 28.2799515755
27.4241 25.6282 7.24497 32.3602865955
24.5716 28.8558 7.06071 31.550852311
20.0835 31.7655 4.33072 25.5592715717
20.9325 29.6082 6.03258 28.3680457275
26.003 29.8658 4.85174 30.2308749189
28.8729 29.7231 4.48895 32.228045686
25.4033 32.4404 5.92709 32.4676099899
20.2929 18.5442 8.69688 29.7009804335
24.2174 19.8943 8.44341 26.6054891359
22.5198 18.9004 12.2076 31.0607745889
19.8604 19.049 11.4139 29.5274179385
24.6057 20.4064 11.0593 30.8435744123
23.5959 17.0491 10.1743 31.4679177004
27.8343 20.1612 10.08 28.6221185045
26.4476 18.2154 12.0681 30.9213400018
20.0608 23.0205 10.5371 32.1508329774
21.6393 21.5377 8.22697 32.9108461392
22.2822 24.3645 12.2601 34.5645113546
26.6102 22.9606 8.34143 27.7335246615
28.4534 22.5608 10.7933 24.8555975914
22.5288 25.1213 8.10319 29.9749190642
21.1676 27.7495 9.69592 30.5232435353
23.4701 26.3604 10.2743 26.7656741306
24.4222 28.4508 12.3062 30.9479965867
28.7177 27.986 12.4038 30.9479141732
26.2497 24.5102 10.9442 30.9500476317
25.9606 27.3537 9.18053 30.1089648013
23.4992 30.9586 11.2131 33.1173364853
22.4347 30.2243 8.36619 30.2338738302
20.1988 29.0545 11.9508 28.9334083178
21.0924 31.7471 12.4108 27.0288879746
27.6212 32.0137 9.52266 34.0626093175
27.9881 29.1416 9.62369 34.00117524
24.2152 17.8563 14.1339 28.5341080997
19.8299 19.3492 16.1444 31.3351474132
23.0111 16.4445 16.0658 34.4959782398
24.8216 20.0008 15.7366 29.4747697289
28.967 18.9896 13.5871 29.1687285345
23.3671 22.1264 15.1667 29.3674871676
21.2983 20.6868 14.3955 30.9540873698
24.538 22.8411 12.6803 30.323049491
28.8451 23.0304 13.4017 27.8094400244
26.4131 23.7491 15.0731 28.9983670142
27.3817 20.9637 15.5249 30.4463011751
22.2416 28.3356 13.8622 28.9403005789
21.653 25.6508 14.6438 29.8196990603
20.3216 27.8036 16.7869 29.6852023553
28.7999 25.8143 16.6022 34.6481942459
26.4139 26.258 13.3561 31.2153315701
23.5449 30.9484 15.565 30.8899084744
20.6587 31.7489 15.4528 30.6937306738
27.0705 30.8673 15.4577 34.5184555101
25.4348 28.6171 15.0779 30.4979011605
29.0077 30.2353 13.5524 32.3814337369
23.8753 18.8513 21.2146 29.5409927863
20.8439 18.8084 19.0562 27.3845012521
23.4666 18.9184 17.8938 30.5108055252
24.1363 16.4294 19.0103 30.1022179858
27.0447 16.3407 18.7384 30.2740438866
25.7456 20.3086 19.591 29.4765699893
29.2134 17.9697 17.5059 27.4007884942
20.7679 24.0154 19.3256 29.3589120911
19.8422 21.3059 19.4926 27.4266395909
22.5077 24.3523 17.0795 31.2579129169
28.151 20.4409 18.0673 31.2128749507
25.6913 22.8995 20.0484 32.5981023953
23.3166 26.6469 20.6923 30.9050467154
22.7572 26.9728 18.0098 32.2892525495
25.2161 24.5274 17.5933 32.0954238189
26.6729 28.1632 19.5195 29.371494832
26.3236 26.9721 17.2785 29.0981979023
20.983 30.3383 20.0063 31.1220499996
23.442 30.9344 18.3769 34.5126698285
27.9433 32.3013 18.013 31.7510889688
26.0573 30.9017 19.5167 29.9797708044
29.2895 28.7685 19.9423 30.1874980225
21.0598 17.7868 21.7973 26.3407776093
20.8741 18.6318 24.5465 97.3932715282
23.606 17.923 24.035 44.9723597797
26.1636 19.3999 24.1081 53.7830228909
27.7168 19.5038 21.7174 31.2588441418
27.3717 16.6278 24.4122 88.0195560445
28.4532 16.9011 21.5 28.5358444348
21.5045 24.0069 24.0523 60.6313474036
24.2643 23.9975 24.0249 44.8077454223
23.7519 21.2868 24.3525 82.4631793126
22.0596 20.9185 21.4328 29.7535444781
20.8671 21.3552 24.1378 56.0513485671
23.5386 23.649 21.3804 28.1520603145
28.1197 21.6051 24.5683 105.7279074994
27.1066 24.2351 24.3274 72.5234837914
27.1066 24.3838 21.8393 29.2912820349
24.1995 26.8443 24.3129 76.5004355654
22.07 28.5801 24.2779 71.6734617632
21.1585 27.8942 21.825 28.2204323596
19.867 25.0726 22.0532 29.087630754
29.2328 28.4973 22.7332 28.1955536536
26.7795 28.2371 24.2813 74.7582402415
25.8617 26.8629 21.7481 28.7959410908
22.7759 31.4059 24.3877 82.9450596454
20.858 32.2513 22.4633 30.8935345829
25.4575 32.0289 21.705 31.6736794079
25.751 31.046 24.2904 73.2230861277
28.4134 32.3966 23.9508 39.9900178191
24.4213 16.622 35.7115 103.9713806737
23.9292 19.2403 36.341 53.6159972249
21.4413 20.3939 36.7869 34.9041414773
29.0086 20.0251 35.9448 65.0774116328
27.2753 17.2171 38.6515 27.5371630122
20.8159 23.9989 38.6541 26.5474197507
24.4819 22.9462 36.7052 29.0483463223
21.7796 23.1805 35.8754 80.1345715345
26.2002 20.8976 36.0079 76.004369102
28.7734 23.0455 36.3698 38.7716101275
26.2801 24.4821 35.6274 119.0135839162
20.537 26.0879 35.4189 105.634739
23.2099 26.2419 37.167 33.1590286246
29.5285 28.443 35.3746 125.75833791
29.272 26.9711 37.3139 28.0174997066
26.4414 26.2659 37.5721 32.7581927717
21.5317 30.1505 35.5446 106.8603466015
23.7182 28.7352 36.1409 63.1209627764
25.6858 31.0075 35.9194 76.773772552
28.3173 30.748 36.3782 35.7340162445
23.7612 17.9914 38.985 29.3307765685
20.9838 16.4703 40.2639 27.4813216457
22.4206 19.1443 41.4881 28.3769789223
19.6907 16.3951 42.7724 25.7180934396
25.7658 17.3893 41.21 25.8956721887
28.996 16.5615 41.1661 28.7723929926
26.9107 20.1931 42.048 31.5310266285
26.1073 19.9947 38.8795 27.931885507
23.0166 21.6958 42.5756 27.1813617623
22.8285 23.0014 40.3204 26.2554153378
20.9087 20.7354 39.7448 29.8783077269
25.0266 22.6413 39.2438 29.1259338386
28.9599 21.6937 39.1725 31.6265928692
21.4169 27.1997 39.2787 26.5225665263
22.3008 25.6387 41.4212 30.9855298933
24.4373 26.9198 43.0126 32.8474079616
25.9883 27.6489 40.4609 32.9955762297
27.1822 24.5495 39.883 29.2476591541
26.4112 24.872 42.5781 31.8011759238
29.2176 28.0595 39.9951 29.1703728065
21.3593 32.2414 39.0214 28.0514211254
21.5917 29.5706 40.368 31.2015200191
23.9687 29.6086 38.9579 31.1279740583
27.0777 30.1627 41.9486 32.338684939
25.4821 31.8287 39.0472 26.5999954396
28.2774 30.9218 39.1927 28.8386930082
20.1372 16.4122 45.3899 26.4873064068
21.6909 18.6358 44.6982 27.6941356008
21.6646 19.8325 47.1339 28.1340197079
24.7355 18.0124 44.0844 28.7918179353
27.6132 17.5899 45.7388 27.3348991279
27.9818 20.2532 45.7104 29.0771753932
25.2661 20.412 45.4621 28.4301611746
25.1352 17.229 47.586 31.3593143741
29.2719 20.0626 43.2881 33.9399554389
22.9287 23.9671 46.6749 33.5855965085
23.7818 21.6135 47.3463 31.0310428668
21.5955 22.9153 44.4402 29.1240947206
25.5097 21.9859 43.3077 31.4889455026
20.384 25.0847 43.3084 28.4809809312
20.4012 27.3257 44.7626 33.5844260423
19.7452 27.0926 47.4052 30.6771248786
27.8735 25.7273 44.7068 29.485557196
25.6292 28.1726 45.8686 29.8211736759
25.6161 25.4475 46.4171 34.4184727197
21.5764 31.7175 44.8951 32.585669333
22.5848 31.0119 47.2406 28.0839729608
21.964 29.3116 43.4152 33.3258165672
24.3082 32.5233 43.8034 27.4209316779
28.4801 28.7794 45.6286 30.5349464013
24.7978 29.886 43.7422 29.1841594812
27.7056 31.4346 46.5092 34.4804580383
22.0108 18.1004 49.0061 30.3678922395
24.7023 18.3166 50.2158 28.3674907417
28.5224 16.5792 50.3859 30.4367272242
27.4664 18.9726 50.1764 29.0377888939
22.6609 22.125 51.9672 33.3775862561
24.5824 21.3123 50.1484 32.3972173302
20.9843 24.4542 50.9777 31.0474731469
20.4358 24.2223 48.1512 30.9572526208
27.1164 22.6251 49.8583 32.0075556408
28.5381 20.8572 48.262 33.9292337409
24.4312 25.7859 50.7629 32.6187478702
22.1603 26.7029 49.1639 28.0488650031
26.8294 25.3727 48.8727 29.6194659381
27.6982 27.6991 50.194 30.0853450776
20.5657 30.9089 48.6083 30.212648091
21.5356 29.1269 50.4891 26.9267705821
23.9218 28.8396 47.9898 30.0058835135
25.461 29.5011 49.9954 29.5292130332
26.073 32.0171 50.0716 28.3176498717
20.6948 19.9446 52.3085 30.3955294136
22.9629 19.1017 54.1337 29.9311582387
23.7042 17.1316 52.5595 27.6227012819
27.2639 20.0997 52.4623 29.7920225471
27.3884 17.5925 54.2375 29.3966402722
25.3239 20.3163 54.7209 31.3815816972
24.4831 23.0868 53.8876 30.3219161222
22.3508 23.1345 55.935 33.1829549818
29.1964 23.5036 55.4154 35.8469301343
28.7553 23.8859 52.1779 29.508882429
23.5544 26.1255 56.2824 30.991986245
24.0034 28.5059 52.2969 28.2039383002
21.5743 26.516 52.667 31.5688805899
20.5932 26.1249 55.9699 28.3226118765
26.8054 24.5345 56.0257 28.6515937651
26.2181 24.9916 52.9426 28.1628547802
27.8023 28.3366 53.0522 30.7116121345
25.7327 27.5196 54.6195 28.3122447077
29.3995 26.2954 54.0795 28.5338160967
22.6736 30.9569 52.8066 31.4380067197
19.7852 29.9573 54.8183 27.1972605192
24.359 30.3409 55.5929 30.3431700583
21.9805 28.9197 56.0215 28.6172189986
29.2841 30.8635 52.5796 31.4294384444
26.883 32.4669 52.8772 35.4341833405
21.0052 34.0646 6.08211 25.4910009293
22.2112 36.6714 5.61127 29.747053181
23.0603 32.7324 7.31147 31.4600304597
28.7017 35.0402 4.00776 28.7343645478
25.9726 34.5756 4.14541 32.7966286598
25.7493 36.6575 7.81927 33.5841690118
28.1391 33.0495 6.78386 28.7536756856
23.5889 40.6523 6.88213 31.5668699787
21.7673 38.6739 7.81098 26.2170191891
20.2741 38.7566 4.87132 30.0468953657
24.8472 37.0058 4.79167 30.5735439144
26.1222 39.3556 6.88212 31.5528431283
28.4983 39.0506 5.21999 31.5284705465
23.5424 42.4166 4.52749 29.8120868603
21.3368 44.4044 4.80332 29.7864041812
19.9733 42.7733 6.90649 31.273714653
21.3315 40.9336 3.77676 31.1276361871
25.5648 43.6827 5.84584 29.9446800086
28.2261 43.3355 5.46054 30.5698568841
24.4986 45.7915 4.07639 28.3758205064
23.0905 48.4466 4.29641 28.1681653037
20.4385 46.4777 6.4312 27.1120026688
20.2275 48.9208 3.72699 28.907833861
22.2093 48.3445 6.98374 28.5181950102
25.0834 46.9945 7.04505 30.6350284378
28.7954 47.9517 6.75304 29.0640071568
27.7572 48.9585 3.98351 29.2195927716
23.0536 34.189 9.73153 26.9589311398
20.1846 33.2892 10.2413 27.0266774518
20.1617 35.804 8.5904 29.6490424695
28.1072 35.4937 8.10774 29.1308775789
25.4307 33.1572 11.1932 35.4229355037
24.4954 37.2325 11.8935 29.898068982
23.3415 36.9065 9.35757 29.6345801396
21.7047 40.7327 12.3883 33.5769918612
19.7182 38.3946 11.8139 31.9649541607
28.0639 39.5389 8.98211 28.1416639257
25.8526 39.4387 10.753 28.574166907
29.4142 37.8703 10.9857 30.8459360093
19.7245 44.6522 12.1228 32.9121384153
20.9453 41.4141 9.61177 27.9943333039
23.9868 41.2032 9.71133 34.7818970102
20.4975 44.6758 8.86561 29.0559849947
28.1642 42.584 9.10112 30.1609985283
25.529 43.6653 8.52825 26.9668830588
28.5552 43.7157 11.8202 27.4434616931
23.441 45.3736 8.7162 34.1054575942
20.3505 47.987 10.9247 26.3846962942
23.001 48.167 10.1494 29.6790399642
25.9289 44.9837 11.2158 30.3718989932
24.7119 47.0774 12.2989 32.0394592609
27.2652 46.8213 9.25874 28.1767312017
23.7883 33.8479 15.1569 34.4039240826
20.5983 36.0148 13.6709 28.917976141
22.6432 34.5185 12.5728 28.2764610053
26.7218 35.4001 12.7748 30.3406747234
26.5863 33.5564 14.9078 32.6846421496
29.2208 34.5023 12.5233 30.3164618577
21.6777 37.994 16.6122 31.6049849779
22.7281 38.3604 13.7584 30.6182304466
24.5596 39.8658 15.3044 31.8951536428
26.6538 38.2654 16.4243 32.9795019445
26.3098 40.5554 13.2058 27.7550400909
27.7564 38.1332 13.4585 27.1859495873
19.7795 42.0806 16.0743 31.0933035795
21.0979 42.8127 13.8093 31.5091357433
23.5707 43.9547 14.7537 30.9986636611
25.9811 43.3057 13.6546 29.7695884195
29.3502 41.9683 15.8047 28.9929624378
29.0756 41.3692 13.2341 27.2399868771
27.4979 43.9704 16.0183 34.4831256294
20.5631 47.1161 13.2959 30.9919824903
23.2406 46.5894 14.8303 30.4289517449
25.7591 47.9207 15.3764 27.2023141107
28.1608 46.5988 15.0003 29.8131767119
22.9371 35.5759 17.4306 34.4546674253
22.3198 33.4959 19.3515 31.3252622602
26.2881 35.2166 20.4871 31.1489766397
27.5361 35.4555 17.4178 37.5724185281
19.8549 40.4951 19.7404 29.830974496
23.6265 40.5564 17.8806 28.8390204861
21.2516 40.6483 17.591 27.1871689259
20.402 38.1651 21.0851 31.2423480274
29.0232 39.7453 17.0326 34.2383235706
24.9472 37.1792 18.4414 28.5335907095
24.7902 39.3533 20.1641 31.3952828594
23.7234 43.2999 17.4025 29.1080677306
25.9387 44.356 18.2437 35.8285331463
23.0336 47.1489 17.5026 28.7431188568
21.6911 48.5678 19.8651 31.3988831753
21.6069 45.0691 18.111 30.4077432444
21.5541 45.2988 20.9505 29.0355866276
28.0578 48.7575 18.6661 28.8066323421
25.6806 47.1665 18.5418 29.2030832935
21.5341 35.8822 24.7022 104.1321104867
20.2316 35.1245 22.4187 26.7315434429
23.7938 34.1346 24.4931 65.1747212698
23.7817 34.5815 21.627 26.1966038653
26.3584 34.6474 24.2533 56.98726804
28.1946 33.1117 21.3526 27.7742892348
23.807 37.6466 24.0646 41.4580477579
22.8012 40.4994 24.6653 85.729544253
20.1304 38.4591 23.9308 42.8731681367
23.0108 37.2912 21.3732 30.1182498789
27.7869 36.9811 22.2296 30.2654931806
26.6399 37.4122 24.7786 116.3123132657
27.4432 40.0978 24.1715 64.036745372
27.3828 39.5577 21.3053 35.2256907988
20.8264 42.231 24.6517 81.5429824683
24.0838 42.0582 21.5107 34.3557643102
21.2234 42.6633 21.8432 30.7247103537
25.1767 41.8081 24.3082 70.7670708687
26.2881 44.5291 24.1274 66.1650861556
28.775 44.7149 21.41 32.0545549665
25.8887 44.1639 21.3403 29.9770759185
21.5089 45.038 24.3117 68.4866465272
23.9573 46.3206 24.2861 83.4091086756
19.8355 47.3656 21.7613 28.2710634726
24.2226 46.3124 21.6123 28.0668662793
28.6766 48.1725 21.5807 27.1852364368
29.0494 45.003 24.1426 56.6466721573
29.018 47.716 24.5046 92.3088506271
25.7971 48.6536 21.4155 27.6180680021
24.1324 33.4977 35.6143 101.3214659014
24.2512 36.1309 36.4782 32.9840924302
21.5549 32.8422 36.3545 37.3543239546
19.8445 35.1904 36.0724 67.256953447
26.421 33.8989 37.4228 26.8563470243
28.9978 36.1026 35.6426 88.9074489282
28.8633 33.4404 36.0813 59.7990113866
21.7311 37.2618 35.4347 113.9538889098
22.639 39.9945 35.9343 45.6034111864
26.5702 37.4391 36.1873 51.2612933483
25.5543 40.2374 35.4666 104.6782245629
29.4062 39.4421 38.3501 28.0354966676
21.2211 44.6668 37.947 32.6677355051
20.1401 41.0481 35.7939 60.0895366161
24.1862 42.9826 36.1018 46.2778808698
21.5513 43.356 35.3842 101.4417289891
27.5045 41.8228 36.3482 39.5349162721
26.7339 44.7657 35.741 101.2456480846
20.6616 47.999 35.9027 65.4966448563
23.4061 48.682 35.7566 86.2491741625
24.0534 48.0898 38.2722 25.5665782548
28.7796 46.364 38.3473 30.8394194936
26.354 47.1436 37.2767 29.3928279192
23.301 33.9173 40.28 30.2207477519
21.8412 34.3454 42.8478 33.2163166847
19.7629 33.8473 40.9249 32.5989399089
23.4658 36.2665 39.0143 31.1149513008
25.9369 33.1858 41.5982 31.1033052098
26.8518 36.2746 39.1495 28.404065999
26.8203 35.6668 41.9056 30.5416623807
29.4037 33.4554 39.3283 31.3508258592
20.911 37.9804 39.5423 30.1759242079
24.2671 38.5932 42.5235 33.529540196
21.3756 38.8679 42.7483 32.5223827303
22.7895 40.1416 38.9017 30.9271890108
27.0538 40.7708 39.0585 30.9741663283
29.5129 39.8016 41.2795 36.2239777805
25.2729 38.6725 40.1033 31.6832650193
20.6291 42.5978 39.8575 30.5962208358
21.9091 44.074 42.3615 32.2004636956
23.6472 42.6437 38.8514 30.5025843652
27.8604 42.2555 41.3403 30.9047273831
25.7303 44.1636 40.3079 33.101159866
24.8559 44.2883 43.0705 31.6233459763
23.0285 45.7281 40.1071 27.477794651
23.5091 48.0522 42.0392 29.5863411402
20.1427 46.1702 43.2094 27.4042690351
20.4666 48.2925 41.7071 27.2550710533
20.9949 47.7678 39.0839 31.1097017305
26.1889 47.309 40.7008 27.8058480965
29.2346 45.9875 42.9763 30.6956532868
21.1667 36.633 44.3351 30.7544881584
25.8336 33.1894 45.8347 30.0479471905
24.863 36.0161 43.8857 29.4394215471
26.4155 36.1343 46.4903 27.6634094169
29.402 35.8224 46.1938 28.9273414387
29.322 35.8134 43.4087 37.8261407107
23.2219 36.8822 46.143 31.2147811139
23.4907 39.4248 47.0271 29.3602392055
21.0777 40.6663 46.9879 28.7969821296
28.6738 38.566 43.715 29.673818607
25.0052 40.4596 44.5718 30.1008857575
27.1076 38.8016 45.939 27.8466378301
20.2663 44.1541 45.6244 30.0664665471
23.4412 42.56 45.0832 29.2931348876
21.0371 41.1556 44.2902 28.7361508806
29.0877 43.8518 45.0293 26.8269570701
26.8204 42.5723 43.8298 29.1374404541
20.6802 47.4029 45.7421 34.2753857537
23.3815 48.4465 46.7409 32.3427461723
27.9115 45.4744 46.7864 34.0960005333
26.5163 46.4698 43.4989 29.1094231495
24.9767 48.8007 44.4751 28.7913505631
21.3908 34.8364 51.0246 30.5713756544
23.7411 33.3677 51.6029 29.4521992758
23.1841 35.3564 48.7132 33.5743937875
24.339 32.9854 48.0928 29.6293014694
28.0692 35.9982 49.3853 27.9812624456
28.5579 33.0904 48.9032 29.8991668861
21.4582 37.8491 51.3746 29.9317292298
23.5196 39.1513 49.9106 27.8409297599
25.4032 36.8092 49.4034 27.6291831721
26.7917 39.706 48.7953 29.0163502477
25.3348 40.8366 51.2631 30.7713670178
29.2093 39.9514 50.395 29.0336600249
20.0114 44.7737 50.0194 31.0436279436
22.1233 41.6712 49.6575 30.6989196443
20.2922 42.7547 51.7962 29.0131633144
23.0018 43.4594 47.749 29.1605519804
25.7149 43.8922 48.2912 30.0477585208
25.8086 43.7592 50.9951 27.4847425802
28.541 44.3857 51.5691 28.5994756908
27.8876 42.009 47.6905 28.7069475603
22.2107 47.4403 50.6796 29.9783484148
21.6798 46.0015 48.0178 28.4298980757
24.2027 45.6924 51.9858 29.7163676425
26.2289 47.6665 50.542 28.9808314026
24.8506 46.5931 48.524 32.1540331657
28.7657 46.9165 50.5953 27.6208892795
19.9782 34.3909 53.6877 29.7982272002
22.0257 33.3117 55.8366 31.3244204123
21.3785 35.9826 55.5755 28.9169810865
29.2551 36.417 54.2984 31.9548081562
28.0456 35.188 52.0964 32.0019824513
25.2008 35.794 52.1609 34.9824992652
24.7945 33.0306 54.8379 30.3418621488
21.4597 39.7259 53.7034 29.2232192292
23.3011 37.3809 53.9686 30.8358605329
27.736 38.8299 54.9592 33.0871657363
25.0436 38.6462 55.3786 37.6119305833
20.3294 44.455 53.8477 32.9074636473
22.9968 41.7793 52.603 28.0080271567
27.2782 43.2543 54.1071 30.1646198117
27.8501 40.9005 52.7008 31.5450611198
24.7081 42.9414 54.4076 30.5950456001
22.8654 48.0743 54.2363 27.5632719486
22.7392 45.0807 54.5221 26.998040658
19.8074 46.9545 52.3457 27.2488844896
26.8061 46.5395 55.4393 32.7898610258
25.6081 48.0054 53.398 30.3959004231
29.3388 47.1386 53.4233 32.3198502534
30.9762 2.25095 3.86215 30.5989146412
32.6059 1.28488 5.99256 31.2587861774
35.2056 2.73412 7.31862 32.1326312683
39.0405 1.63729 5.26545 28.9653669638
36.1646 1.11266 4.61452 31.6762412055
38.1372 3.5338 7.18776 29.918165449
31.5657 6.98009 6.46626 29.5517597876
32.3951 4.53183 5.90162 31.2435806219
34.3939 5.08396 3.90699 33.1405072463
29.9623 5.2455 3.77026 27.6268009562
36.3663 7.01254 4.53065 30.15734411
35.936 7.51595 7.27116 30.6096998119
38.9694 6.31211 5.92553 28.24110825
30.3573 11.9542 6.53607 30.8612134117
33.33 10.9565 5.30265 27.7654912311
31.0195 9.29284 4.89656 31.3182344064
33.4184 8.50511 7.98142 29.1969705894
34.4966 11.6612 7.67749 29.8404133707
38.9266 11.2659 7.8894 33.50582778
35.6204 9.74173 4.01221 31.4958164259
32.4279 15.8485 5.2723 33.2859407111
31.9071 13.3016 4.19709 31.2425712001
34.0926 14.6933 7.09878 30.5018998188
36.7199 16.0905 3.93565 31.5520988391
37.1039 13.3239 7.76187 28.2955675139
36.3779 13.3573 4.58755 29.898130346
38.777 15.932 7.84802 29.0728702953
30.8317 0.440034 8.07647 28.2094268714
32.5418 0.806139 10.5342 29.3463214553
30.5106 2.83363 11.0687 27.2004245099
37.7516 2.05572 9.59486 26.3840340819
34.8395 2.39251 10.4967 29.2669414983
30.0491 4.50666 8.03208 30.4159256915
33.0815 4.20629 11.7472 31.4381816985
31.0149 5.98261 10.309 27.0665466623
33.9009 6.7577 10.5136 29.0260043052
35.983 5.32238 9.04524 30.7798178108
38.4131 4.85884 10.4403 28.8219109962
31.814 11.107 11.2513 27.2949281368
30.0185 8.42365 9.09501 29.1137359829
31.7267 8.58893 11.9633 27.3798567117
31.7657 10.6442 8.41587 25.1463722035
36.2892 9.99651 11.3075 31.6197649866
37.5928 8.88224 9.02225 33.0242948611
30.0988 13.6394 9.00446 33.2878877156
32.5515 15.1903 9.45161 30.5052578271
30.9971 15.5073 12.2059 27.868786941
32.9297 13.4582 12.2028 26.1529119178
36.9922 13.9354 10.4058 27.2632960322
34.8644 12.2827 10.5184 28.5648959831
33.2471 0.0876555 13.4157 32.6476682228
31.6024 0.760465 15.3855 29.6239649457
29.8202 1.03853 13.1556 36.2321412891
31.0596 3.62552 15.9371 31.3736270918
35.2282 3.48673 15.3671 28.9090569684
38.1733 2.52056 12.6649 33.1687682718
38.1907 3.51439 16.6539 27.0287800318
35.7737 1.78422 13.3912 26.8629594961
37.4079 0.633969 16.1333 31.6823130742
32.8946 5.00252 14.5097 30.9342139816
31.6818 7.59961 14.7376 28.626935279
35.0492 8.06263 12.7546 27.5264461926
39.0985 4.59353 14.1349 27.3395607464
37.7818 6.65138 12.8493 31.2689868407
35.9681 6.04622 15.0497 29.5473980681
38.3481 6.59493 16.6994 29.9165389531
33.9336 9.16493 14.8875 26.9667581458
30.5305 12.0332 14.8237 31.4369965899
33.3387 11.7779 14.6445 32.1842773189
29.5808 9.77 15.8918 31.0299743735
38.0038 11.2035 13.3242 29.8215823994
37.3095 10.7465 16.1778 31.3569804611
35.7405 8.63539 16.694 32.0701303273
35.37 12.9491 16.3382 27.5490099593
35.0062 14.6308 13.9952 30.5265549515
38.6071 13.9376 16.2082 29.4278758457
37.5527 13.9767 13.497 26.8665071041
33.5653 1.93341 17.3275 34.0765067504
32.2399 2.72703 19.8998 31.6754854361
35.475 0.0815334 17.9554 30.7320531042
31.3553 8.05058 17.5579 29.0808273886
32.8924 5.36943 20.9633 33.1886138456
31.075 5.55231 18.4614 31.8391021688
38.4952 7.03214 19.5837 30.7445728439
37.0357 4.40501 18.9585 37.0761755845
30.5464 8.65077 20.5235 30.7877047504
33.665 8.99302 18.8811 32.3918793867
34.3217 11.6255 19.0758 31.970480245
31.7415 12.3182 19.9795 28.3950171086
31.8611 15.476 17.5402 34.3425882459
30.3688 13.079 17.4709 30.1622661935
32.1745 15.0499 20.881 32.3097384862
37.1916 13.2901 19.5014 28.5436555448
35.0712 15.231 18.0585 27.2803267724
37.5082 16.2548 16.991 28.1456913849
33.9009 1.02823 21.2345 27.4170423359
33.9465 0.856691 24.3606 86.5617938843
29.9106 1.65678 21.4349 33.3044416236
37.5572 1.88697 21.6463 28.7175509745
38.3195 1.52958 24.6331 95.6056454404
34.5647 3.42655 24.3266 73.8338702215
35.2645 3.53996 21.3713 30.7438012797
32.3126 5.23466 23.7653 59.9185775938
33.6158 8.05945 21.5648 29.5329652426
37.3218 5.29889 24.5275 86.0173235201
34.6723 6.96927 24.6011 91.8299909082
37.4092 8.10879 23.9808 49.3462596173
36.5683 7.9374 21.3055 34.3407941192
30.3411 10.9953 21.8095 28.239452273
33.6203 9.61227 24.3197 68.8303215266
30.8222 10.1975 24.3744 76.7975315672
33.901 12.1229 22.2526 29.1743076545
39.3605 10.6898 24.0959 45.2353694356
36.1667 10.862 24.3198 86.0420818538
36.6542 11.0191 21.6963 29.8414004835
32.2232 14.3351 24.0091 66.7031685969
29.8058 13.0869 24.5552 102.312869592
37.9441 15.7617 24.3176 59.6801602307
35.1528 15.9472 24.2865 87.3623237245
34.7378 14.7615 22.0044 27.7014178233
38.236 15.0582 21.6167 29.9148588912
31.7045 0.909681 36.1571 41.8508985994
29.896 0.117297 38.7941 29.3391830008
31.0663 3.50594 35.886 67.1681788231
38.6542 3.03724 35.8762 40.5245384013
35.404 1.01691 38.0338 27.4751319364
39.3526 2.71265 38.5108 30.5382007176
34.5867 3.59377 38.0406 30.0222999563
37.1669 0.610163 35.6686 74.3512603469
30.6445 6.6169 36.6097 31.9286624446
33.1891 7.19798 35.7942 83.8091747912
33.7335 8.03909 38.3355 27.1831709425
36.5744 7.58342 38.2387 32.3540500259
34.4974 4.87011 35.5861 84.1894384246
37.2976 5.3512 35.3979 92.7682607035
37.0948 4.80254 38.2702 30.9169198029
30.9252 10.8089 38.0928 27.9836133336
33.9704 10.746 38.2889 28.9261486022
29.7499 11.1955 35.6027 76.8254522504
35.5398 10.5357 36.0201 57.4501383129
37.0836 8.54018 35.5138 83.0157323993
34.4535 14.5686 36.372 44.5189455256
32.7391 12.5154 35.8715 80.6120967708
30.4435 14.0833 35.8689 62.0212405274
36.7598 16.2396 36.0583 58.7336414365
37.0442 12.9301 36.0047 66.2156462251
38.0531 15.8588 38.4443 29.3935604272
33.2555 1.46718 40.6051 30.0836682635
30.4921 1.13966 41.1773 28.3293842513
38.5505 1.95795 41.5121 31.4330504713
33.2452 4.20122 40.3143 28.9462010506
30.6849 4.88611 39.2802 28.8830235495
34.3797 6.83825 41.3666 28.1420069786
31.4041 6.67102 42.0427 29.6362992685
37.3238 5.45632 41.4415 30.1228112179
39.1385 7.54668 41.1453 27.4741898189
32.2963 11.024 42.8079 29.7378393411
29.8119 10.6261 41.1977 29.589360526
31.1815 8.17487 39.2391 27.624627209
34.898 9.81917 41.9265 33.8265932817
38.0774 9.83891 42.7646 26.7900138245
38.6323 10.862 40.0919 28.3722111856
33.6471 14.1165 39.1067 26.8651740455
31.1618 14.1751 42.6702 27.3098003026
34.2977 13.1047 42.1167 28.9687408492
31.2749 13.1554 39.7445 26.0926981752
38.0938 13.4166 41.5691 27.4796425255
36.1178 15.2663 40.4621 29.4316481616
36.5826 12.3172 38.8653 30.844653891
32.4406 3.09353 44.688 31.1465511221
33.1542 0.305154 43.8443 30.1895400405
31.962 2.7238 47.4823 29.9496245485
36.9435 3.12274 43.7114 29.8501604861
36.8853 0.617802 44.7085 29.0751984836
30.1933 4.50028 43.6595 32.6863764173
31.6621 7.84314 46.4799 29.524010612
33.3114 5.61632 46.2933 28.6418432956
37.6569 7.24664 44.1703 28.0422942991
39.064 4.5176 44.9086 27.580096997
38.6119 7.61765 47.1054 28.2405394495
36.0168 6.08547 46.9929 29.8509335438
34.5225 4.36235 43.3159 29.736784388
34.659 7.27802 44.2195 27.0958861048
33.1586 10.406 47.2072 31.4174268076
33.7331 11.7466 45.2592 29.8710308985
31.2204 8.54772 44.0771 30.0691991032
37.8658 10.2704 46.9209 29.5880947851
35.8872 9.89669 44.977 26.9192378931
33.2077 14.3692 44.7419 29.8789897326
32.2272 15.7898 47.071 32.8697546126
35.688 15.838 44.7158 30.9135932574
36.7502 12.789 43.7013 27.4638303949
37.3877 14.0378 46.3277 31.270450549
31.5955 3.01138 50.7983 29.7223805009
30.1047 0.585865 48.1034 28.430121762
30.5422 0.139262 50.7743 29.413640125
34.3726 1.47643 48.199 33.1429666574
34.6415 2.26651 51.0316 27.4761630974
37.4317 2.70874 50.9305 35.7284135804
36.707 3.44666 48.0931 37.4744545133
31.5634 5.33799 48.5332 29.3482410475
33.4023 7.04835 50.3749 33.1673289933
30.2213 6.34827 51.6275 26.633177817
35.7713 7.69838 49.247 31.0404762876
37.5695 6.7991 51.1116 32.2853150629
31.0363 8.97552 50.9439 30.6474554602
33.45 11.4175 51.2987 32.4712818451
30.417 11.4092 47.9802 34.4633842192
35.2099 10.6312 49.0946 32.4088597449
39.069 11.8965 50.5695 32.6161737039
32.8914 15.0253 49.7865 31.4928657666
31.3329 12.7674 50.3723 32.88723976
37.1103 12.5315 48.9049 27.9025087153
37.2614 16.1701 48.6639 30.3067204394
35.4721 14.5637 50.2185 29.1551482623
31.8323 0.372269 53.3086 27.8726442757
33.0799 2.92293 54.1861 27.5232723999
36.5473 0.0923695 54.3383 27.02308134
38.1809 0.246284 52.2757 32.1124668561
35.7899 2.86054 55.0627 30.6047288884
34.6572 0.0355285 52.3418 25.6931963896
30.8245 4.40801 53.5131 24.6051238593
33.697 4.99748 52.1562 25.412494026
33.4142 6.39206 54.523 28.7059146632
30.8078 7.61122 55.0787 26.479126168
38.5437 4.85529 54.7868 31.6596099944
38.7927 7.54519 55.5696 30.4807746375
36.5489 4.63742 52.65 28.1915156827
31.2966 9.84639 53.5262 29.6213814176
33.624 11.0743 54.208 30.7294502067
34.9808 8.67573 54.2799 31.1982887283
38.1008 11.4783 53.2617 28.3437618382
37.5192 8.65464 53.3912 31.5214916174
37.8251 11.2832 56.0843 26.7690255468
33.8949 16.2105 54.4022 28.8654194879
38.2403 15.0959 53.746 28.6872090517
34.5688 13.655 55.2224 28.5459227681
35.8074 13.4076 52.7591 30.1404082645
30.5326 17.5745 6.46719 32.9320174696
32.7913 19.4427 7.43777 33.3683801221
34.2567 17.6951 3.86076 29.2379858837
36.1063 16.9717 7.90601 29.8984021915
36.0245 19.1985 5.86701 30.0837055059
38.6106 18.4572 4.93041 30.8758595235
39.126 20.1328 7.3914 32.1835856675
30.5727 23.7708 5.18232 30.7173889797
32.941 22.4107 4.29712 32.559668405
34.6142 21.6251 6.49359 29.4403809245
39.2202 22.9227 6.81542 30.1292837561
36.6571 23.632 6.86889 28.5251728085
29.568 27.0967 3.78776 27.919904759
33.0764 26.5447 6.9391 30.5032657499
30.2991 25.8387 7.57169 28.3671823183
32.4291 25.9667 4.17578 33.0817570624
37.3438 26.1246 5.46676 30.5204128521
35.6205 27.9552 6.56847 27.7690380071
34.2985 30.9872 7.87339 30.9829461963
30.537 31.5064 6.55033 29.7964132993
29.8604 32.6445 3.94841 31.6735351189
29.6428 28.7202 7.46077 32.2035069578
34.6343 31.3175 4.99551 33.263652199
36.7089 29.2319 4.11912 32.426112859
38.5692 32.472 3.94688 31.2926297735
39.2531 29.9428 5.50638 29.4671737365
31.1783 17.8181 9.52058 25.9279921372
33.9042 19.0202 10.6398 27.0163310005
30.4893 19.767 11.1918 23.5339062688
36.7181 18.5862 12.0557 28.9465742842
37.2674 19.5351 9.22194 27.0941200974
35.6535 16.4941 10.7249 30.5030236525
32.2378 21.7724 12.1342 27.8380431451
30.6506 21.7768 8.68944 31.5547501232
33.0983 24.111 10.3318 27.7533136156
34.0838 21.5835 9.26245 26.6880593222
37.841 23.329 11.942 30.4955729637
36.9492 22.2081 9.62027 30.6115442783
31.0599 26.7192 11.4412 29.4259665308
30.3473 24.6948 9.91405 28.2720812843
33.3613 28.5616 10.9579 28.8724663143
34.9224 25.0745 8.39766 28.5798190151
36.1302 27.1157 10.2574 29.8935992831
38.4765 25.4638 9.85961 29.8433315308
32.3902 30.8859 11.7399 31.7178637337
32.6365 29.0288 8.23103 30.3816117441
29.6366 32.0652 11.4268 28.8914955219
39.0338 30.1309 8.27262 31.4431435366
36.3905 29.1366 8.5303 32.4179594232
31.465 18.6653 16.0375 27.0843964136
31.9633 18.0937 12.9646 27.0469529708
34.2003 20.2266 13.2763 30.4182935281
37.8589 18.0136 14.811 30.4056818392
34.8165 17.3877 14.5213 29.4297531776
30.8682 21.3013 14.6054 27.6186959881
30.528 23.3191 16.5012 27.5206416132
32.9467 24.3222 16.2977 29.2633446379
34.6139 22.3741 15.419 27.9090329271
37.333 22.993 14.6133 31.8788446178
38.64 20.6997 15.5706 33.2704802524
34.6297 24.3789 12.7322 29.3881296239
29.8062 25.5191 14.039 28.6048649172
32.7457 25.8878 13.7113 26.2484890165
32.7358 28.2736 15.3423 34.8045708101
36.8846 26.245 13.3147 27.5586974678
37.4403 28.0526 15.5477 28.5239317119
34.889 28.0557 13.1956 28.1656617253
37.0271 25.2007 16.4987 30.199034785
31.3453 30.5113 15.1273 36.3822697318
33.7686 32.0155 13.9498 33.6141216273
38.0034 31.7293 13.3911 33.9507658141
36.0169 30.3775 14.6079 27.374042753
34.0353 17.7969 17.1614 28.7423913052
30.7585 17.1753 19.832 27.8560565047
32.1665 20.3129 18.422 28.3327152714
32.2765 19.1874 20.9799 28.3557434303
36.3424 16.7002 20.2893 27.4504423179
38.3935 18.0903 18.9176 33.4190500878
34.913 18.7997 21.165 31.1275801072
30.3864 22.2716 19.0715 29.5228007337
34.8632 20.6306 17.385 29.3476857147
34.6814 22.9139 19.6118 30.5275893649
37.6477 20.6823 18.2355 29.416105264
33.0288 27.068 18.0125 28.3878544533
30.204 26.3484 18.9852 30.3422549015
29.9811 24.8365 21.2291 28.2361447891
39.2428 25.2984 17.9826 28.9991922293
35.442 26.0382 20.8219 26.2510542188
35.0575 25.2135 18.1746 26.0305155832
36.6399 28.4618 21.1145 25.6071195274
33.4966 29.5001 19.1177 29.9628964183
29.9655 31.3239 19.717 28.7682505624
31.5152 32.2159 17.6572 30.0121706959
36.605 28.9564 18.3056 29.4500473147
36.2061 31.3468 17.1432 29.1623297059
37.5698 32.1516 19.898 30.2671779982
30.3753 16.5071 23.8262 53.9734393244
32.2352 18.7353 23.9649 68.5484832937
34.8841 18.6198 24.1253 74.6562798063
39.1352 18.1295 24.3202 79.800856825
30.0788 21.1987 21.6933 28.6429943357
31.0367 21.4504 24.1231 71.1873260847
33.2023 23.2581 24.0416 75.0995554888
32.5615 23.5427 21.3297 29.5735769729
35.7363 21.8301 23.9039 54.6460874689
37.6461 24.4487 21.3951 31.3489915766
36.4795 21.2632 21.2589 29.0867665751
37.7003 23.8146 24.4426 89.4497608146
38.9601 21.128 24.4378 91.9522657401
29.5911 26.016 23.9956 68.2960752893
32.2881 26.6014 23.9247 54.802299193
32.5233 26.6416 21.2595 27.3030128321
35.4113 25.7496 23.8972 61.7903016523
36.8066 28.194 23.7815 49.0403341564
32.4799 32.2466 23.5318 37.4513324738
29.999 30.2602 24.4886 86.1087759002
32.1014 29.8607 21.4132 27.3140356981
32.5588 29.2581 24.392 86.2636446567
39.2862 32.0776 23.9375 42.4567601521
35.2641 30.4263 23.9832 51.8544313743
35.1989 30.8937 21.2911 26.3897860927
29.7564 17.2662 35.4832 109.863521087
33.8054 18.8642 35.7805 84.0494913495
32.4417 16.5525 36.2844 41.7558207763
29.5866 18.3688 38.467 30.5609965216
36.8858 19.3586 35.5699 107.0757799196
36.2266 19.8705 38.086 33.2525564093
31.9816 21.1109 35.9747 57.4302862686
33.0777 23.5669 35.5044 119.8992468196
31.5612 21.6289 38.5504 27.7118279612
36.468 22.856 38.6405 34.2802097425
