4.21255 15.4458 38.798 28.5368417152
5.67424 12.6149 36.0462 53.5881429957
9.16507 14.5869 35.6418 85.7182774223
8.58612 14.7473 38.4826 27.907319629
12.1178 13.7389 35.8778 74.0831192649
2.46887 2.44244 39.6351 27.2760737048
3.68899 0.745905 41.5858 26.4251191475
6.00891 2.16357 40.5547 24.084193622
4.59892 4.05134 41.9747 29.8559598145
9.46134 0.453537 40.4588 25.9005165877
12.1089 1.25252 39.7001 28.2712342214
2.00837 7.2487 40.1217 32.2095805185
5.67685 4.40857 38.9123 29.4352336915
6.21838 8.01308 42.13 30.0550340657
11.4478 6.62987 39.4262 27.5142165937
9.15686 7.07579 41.5063 32.989257189
11.4027 4.51368 41.5225 30.9294759665
0.0827111 10.0037 42.176 27.7184162682
6.43589 8.57781 39.1408 28.3612302811
7.784 11.0481 39.2875 27.0081479101
6.45709 10.7477 42.0872 33.1191585797
10.3271 9.80792 40.6669 32.2332488925
2.65379 13.8494 41.2812 30.0576165538
0.331603 15.6508 39.1003 28.3416385681
6.42058 13.3122 39.5232 27.5030606332
11.1937 15.6812 42.126 30.9523298774
11.3362 15.0661 39.541 29.1407692602
1.85167 0.0198031 43.7231 28.2400573102
1.78014 3.48647 42.4325 28.2224360112
2.80919 2.85973 45.0219 29.7754920962
5.7489 2.74536 44.4213 29.1444741787
8.24803 2.45393 42.8202 30.8455389672
10.7433 0.975195 43.4819 28.1419461537
3.79972 6.90794 42.5006 27.9483712401
2.09027 5.6333 45.5405 29.8124929135
6.46717 5.29337 45.4863 30.6633352554
4.52768 7.1533 45.2417 36.1512692964
8.103 7.18198 44.298 31.9750404934
9.63268 4.55869 43.686 28.995085744
1.51392 8.79836 45.4356 29.184737203
2.46516 9.45329 42.8666 29.9551128957
3.86512 11.8364 42.8828 32.3363147947
9.28422 10.5614 43.2852 31.5039897194
9.7124 9.31704 45.4867 28.1312088971
0.857931 15.9608 42.8348 29.2368678516
1.95496 14.2693 45.8546 29.430363755
4.5924 15.1408 43.3737 32.9160450799
6.93643 14.332 42.3609 30.4150715477
4.27631 12.898 45.6015 33.0342266219
8.46718 13.1729 44.1017 30.1179814542
10.7616 14.6829 44.6414 29.2332898357
2.308 3.19175 49.3151 33.563738179
1.48753 1.51829 47.3578 27.687017912
4.81218 1.6653 48.6201 31.8323026704
6.43349 0.678903 46.246 32.0289205541
10.4993 3.84148 46.2 31.0521342786
10.9923 1.12141 46.2225 31.8464934591
8.83679 0.0758108 47.6806 35.7283455696
1.25185 5.48815 48.2957 34.1866132574
7.6001 4.74203 47.9462 32.6060449063
5.88954 6.57527 49.1319 32.6760686796
9.93185 6.30678 48.1158 31.1517693586
11.893 7.81481 46.2229 33.4120074408
0.883588 11.1982 48.619 29.015076666
3.0866 9.60964 47.6742 33.3077082458
4.65061 12.1762 48.3389 30.7811986109
8.55736 10.5342 47.4926 31.2763840949
10.4704 11.918 48.5732 31.8778834231
1.99936 13.9303 48.8612 29.2528674124
7.22494 12.784 46.3426 31.1791254309
6.54691 14.7641 48.7282 29.608334621
9.35305 14.363 47.782 34.506404334
0.761896 1.44303 50.8482 25.9083017439
6.78075 2.93858 50.3487 30.3776373794
4.89423 1.10846 52.0471 28.9842994138
8.91618 0.983532 50.3719 30.9864348375
10.6694 2.75295 51.2217 33.5955696605
3.44747 7.64307 49.485 34.4425278042
5.99185 5.28872 51.6438 33.6212465916
8.21195 6.32989 52.552 29.6928181913
11.7348 4.77248 49.6228 30.1607165534
9.57212 7.93678 50.6822 30.796329646
3.82583 9.16159 51.9096 30.5306563987
2.27546 11.1887 50.8989 27.8792051698
0.00474388 11.9283 52.5313 27.6505710618
7.39216 9.11602 49.448 31.5378139319
6.04312 10.8427 50.929 29.7675756956
11.1654 9.87896 51.5378 32.4183289561
3.73687 13.2498 52.2632 29.3313584726
4.62652 15.9195 51.0122 30.0538235789
7.69008 13.301 50.9619 30.7450915478
12.125 14.5484 52.1885 33.8279309086
10.2525 12.4422 51.1533 34.0292716937
3.71145 3.83701 55.4122 30.673734752
1.77673 0.482248 54.0305 31.0912000963
2.94342 2.6221 52.9304 30.1161426425
7.24076 0.499188 52.9321 28.2627460288
8.69146 2.40106 54.982 31.4252809823
12.0437 1.32065 53.1361 31.5802868073
10.6623 0.116111 55.234 27.3058182568
3.74083 6.61569 53.2099 33.0539904537
0.71441 6.16238 53.3317 34.2376030418
1.12595 4.69093 55.8798 28.6365656013
7.55063 7.76552 54.7449 28.370774232
5.121 6.63086 55.7804 31.6540818064
9.89272 4.42373 53.497 29.8512721697
11.7329 6.76094 53.6675 29.9653813965
0.639483 10.5565 54.8073 32.7370362468
3.33342 10.1709 55.7543 32.746579155
5.81826 10.1354 54.0185 30.0864455091
10.0125 8.3138 55.9614 28.3499794272
11.4961 9.93539 54.5453 34.9127078719
9.58674 11.5017 56.174 30.1086696196
1.19434 14.4901 53.0201 32.6900877261
2.99689 15.2035 55.0793 32.6935156315
5.8175 12.8429 54.0027 30.7240960444
7.79442 15.0674 53.2548 28.9601944953
9.30225 14.1108 55.4211 31.8063709537
3.94639 19.9036 6.21378 29.8193081822
1.16368 16.8367 7.0542 29.6111128449
2.36289 16.8183 4.38983 31.3824876726
4.84626 17.7615 4.8697 30.6575560785
9.04925 18.4589 4.03506 33.6751207346
11.3451 19.1 5.25942 31.7778019264
2.54214 23.7938 4.16323 30.0131539959
2.52677 22.879 6.88498 30.8180905044
7.97211 22.6647 6.96839 31.1467933939
7.73393 24.0371 4.46552 37.5907116789
10.6242 21.9451 6.38983 32.8983586375
12.01 23.7386 4.91075 29.3695279769
1.12296 26.042 5.85782 27.4651413943
6.89101 26.6189 5.27999 29.7978332625
4.23283 26.0909 4.59899 28.3371216364
12.2538 26.5998 5.48605 30.2574981605
9.44418 26.5485 3.75531 29.0817084185
1.52261 30.1659 5.88214 29.6636135286
3.20958 28.7848 4.18783 33.4526568722
7.13667 31.058 5.8178 31.5184226747
6.04305 29.0638 3.70793 30.379962854
10.9285 28.7627 4.09702 28.2142876345
11.9771 32.5069 5.80852 26.973452151
9.95275 30.5813 5.85545 30.6446600432
1.46215 19.5872 7.65887 29.9296965791
2.32531 19.9004 10.4455 32.5005355774
0.00485172 16.3939 9.70699 35.6867148248
6.34844 20.3482 7.32596 31.9145715821
7.28486 17.1896 9.09402 28.7000070707
9.06322 18.8669 7.72655 29.8477936542
9.72703 19.6522 10.2929 30.6860917392
4.84648 23.4546 8.72094 28.3695935817
5.22039 20.7794 9.80704 31.0667650296
12.1054 22.6728 8.65485 29.5094668628
12.0702 20.5691 10.5198 31.6393655151
3.59162 25.7698 7.63056 27.6510126209
2.33249 26.3215 9.95282 28.4785774247
0.245 24.6701 10.3151 30.9800024252
6.21627 26.5727 8.04525 32.7438205781
8.1943 24.672 8.581 32.7810794675
11.1081 24.9467 9.21741 30.4234474352
1.88428 29.0767 10.1982 30.3995874594
3.22682 30.429 8.04543 35.790151146
5.92738 29.488 7.72261 32.4492603942
7.94197 29.9504 9.36452 29.9096707964
7.7524 32.6638 10.0274 29.6053507878
10.2924 29.4576 8.19958 34.5923057836
11.8801 31.4083 9.16029 28.2173277642
3.34059 17.4449 11.9186 32.8298309947
6.08229 18.1552 11.5983 34.7194477441
10.2326 17.0832 11.766 33.2896020182
3.46882 23.5464 13.7292 29.5841024035
1.65463 21.1515 13.8064 29.1456614285
2.49434 22.9763 10.776 30.2481783127
6.9721 20.4963 13.7301 31.0299975275
7.0425 24.0657 11.0376 28.2479957991
7.59544 21.3872 11.2969 30.5667791608
10.7752 22.7537 13.7119 31.1023135929
0.827915 27.4832 13.013 30.6574156695
7.55987 25.0826 13.7422 29.1802314672
4.39363 25.2819 11.6555 28.9540697618
5.7144 27.2363 13.3082 29.4098840976
9.59777 27.3229 12.9857 30.7362120801
12.2374 28.1773 12.7865 32.0794657221
10.2071 24.8644 11.8443 30.1311437016
3.27041 29.1888 12.6534 33.7764284947
3.9752 32.2332 12.3265 35.3868495948
7.86802 30.9519 13.6355 33.4652407769
7.52593 28.9935 11.8903 34.4028907695
10.5046 32.2916 12.9591 30.8876172774
3.83045 18.474 16.8133 30.673416923
2.19437 18.4473 14.2686 32.9680192598
2.10804 16.4861 17.5872 30.3242846272
5.78188 18.2697 14.7296 33.1098540282
7.68861 16.489 15.7237 30.8733254698
12.0321 16.9997 16.5148 33.3650770857
10.0058 17.635 14.645 34.4802000028
3.34194 21.5195 16.51 30.6013363086
0.0104217 21.888 16.0364 30.2937646421
5.97454 22.9942 14.7532 31.7072275202
9.44396 20.4474 17.3611 36.2358869518
9.68102 20.5043 14.7629 32.4172686474
2.67292 24.7902 17.5262 29.6044805037
1.98428 25.6817 14.973 27.6433238022
4.17347 27.6199 15.7305 31.3285490865
7.03705 27.9341 16.6041 31.2005001918
5.48493 24.5587 17.069 33.7126207673
9.68275 27.2635 15.8788 29.176431873
10.5595 24.5189 15.8697 30.6593938541
3.24619 31.937 16.5665 31.8756725564
2.39592 29.7465 15.3804 30.1616423571
7.34614 30.6298 16.3979 32.839037303
11.618 29.4168 16.7238 29.4493490266
11.8582 32.0067 15.4425 28.5817407143
2.01472 17.4804 19.9893 32.8494838979
5.84006 17.5248 18.6217 31.5377750307
7.11265 20.0902 19.3534 30.7326792028
12.1546 19.416 17.7758 35.1548932816
8.55286 16.5997 21.152 31.4434333844
1.25037 22.4734 18.6321 30.4690152645
3.1829 21.734 20.8674 28.7789676933
5.09005 21.9194 18.6848 29.6992223603
6.25533 23.6889 20.9153 31.0896460891
8.14861 24.3325 19.3565 29.7815521303
10.5183 22.975 18.1862 31.5678457431
1.12223 27.4907 18.5139 33.101067169
3.88428 27.6386 19.8516 33.0983417932
8.19072 27.074 19.2012 31.8147844263
10.8624 27.0124 20.827 28.2830376187
11.8209 26.7239 18.2575 28.3140571449
3.58051 31.3799 19.9958 32.1236949294
0.844929 28.6741 21.1948 26.22244497
0.765859 31.783 18.429 32.7836885742
5.57138 32.4061 17.8488 35.1814826182
6.57927 28.7075 20.9535 32.2482924403
8.56206 30.5076 20.4095 30.3510448271
9.45275 31.1813 17.8865 27.224390552
12.2803 31.4711 19.0942 27.9390065538
0.84319 18.9018 24.2798 77.395906251
3.95739 18.1095 24.4093 78.732196512
0.815605 19.5465 21.5428 32.5138640744
4.42161 17.578 21.4122 29.8525898518
7.96259 16.4184 24.0392 53.548384637
5.627 20.2348 21.6385 27.672975919
6.12595 20.3109 24.5192 84.5821089132
8.70767 19.3838 21.7351 31.4837295746
8.47228 19.0417 24.4486 75.6310667351
2.26336 24.3104 21.2999 30.3606736102
2.75652 21.3905 24.0121 69.6395883864
1.65901 24.2191 24.2099 82.2916589278
6.91765 23.2405 24.0995 52.5110156383
10.6895 21.3898 21.6669 32.9281672038
9.82227 24.1224 21.696 33.7075068754
10.8147 20.5518 24.3613 61.5243163797
9.6309 23.1507 24.5905 88.1877008647
2.97636 26.896 24.0696 65.9026368217
7.57827 27.9692 23.6743 47.5482313521
4.44719 25.7575 21.6916 28.2353881321
5.70551 25.9005 24.6121 114.8615254026
11.3786 25.4922 24.5638 105.4297898971
10.4667 27.9755 23.8383 45.5170519523
3.23894 29.5268 21.94 26.6019538169
1.5461 32.6353 22.196 26.458687283
3.51664 31.5572 24.2363 78.640789685
0.572836 28.805 24.0042 69.2247153929
6.23527 30.6376 24.4979 104.186261743
11.0164 29.932 21.7513 27.6549452174
12.2614 30.1116 24.6188 112.4336877265
2.65691 17.732 36.1363 58.4783569928
3.2519 20.3536 38.6281 25.0464698846
5.4145 18.3923 36.217 47.4394951427
8.44503 18.2491 36.1086 57.9783548803
9.54116 20.3393 38.6323 29.7747715529
11.098 16.8678 36.2258 37.2441735278
11.6291 19.4793 35.5508 101.2810654175
2.47809 24.0539 35.8217 87.1665985035
1.3722 21.0929 36.6623 39.4674232132
4.41597 20.83 35.8686 85.9578447538
4.17597 23.8133 38.2586 27.8184950883
6.64545 22.071 36.396 29.1910458742
6.72559 24.4392 35.4882 109.1339161529
9.09535 21.2214 35.8397 73.5365711878
10.1603 23.6691 36.4177 44.1709707936
1.54821 27.9423 36.1417 53.0117462373
4.35346 26.3459 35.5629 76.1107382502
5.5478 26.1498 38.1752 26.9420931825
9.70847 28.1133 35.9956 65.1593282051
8.59164 25.9876 37.309 28.1487721882
12.3023 27.449 35.7214 78.3624197461
0.244557 30.9188 35.5992 103.6872233318
2.89298 31.0392 38.7979 29.3921212099
3.13082 31.2007 35.8765 58.7305748979
7.6854 30.3812 35.5988 87.6874201443
5.40225 29.1508 38.165 28.9026318039
4.91122 29.2588 35.509 83.2996454012
8.50579 32.2176 38.2265 32.610432779
12.2674 30.5355 35.9798 58.9242482115
10.3165 30.0063 37.9229 29.1290704012
2.32572 17.5708 39.067 28.5659868518
1.67119 18.5337 41.8612 28.0052721821
5.6027 18.0101 38.8822 30.068687104
8.2986 17.3924 39.3891 28.3907424779
11.371 17.7434 38.8466 26.9453481093
8.65264 16.422 41.947 29.3371792282
1.68566 21.5049 40.3908 27.273554349
2.30743 24.2235 40.2571 29.9115127627
6.62838 22.5825 39.0022 28.3546055254
5.68972 20.4272 40.465 29.5041662435
7.73086 20.6462 42.3545 30.1424097906
7.76168 24.2595 40.9762 28.4244610506
11.4055 23.3808 39.0386 27.8167814994
9.71736 22.0041 41.0573 30.8110252279
1.80311 28.5644 39.1228 33.2758645346
3.80331 26.8766 40.31 30.8374514355
6.2659 28.0788 41.5555 31.1900482815
9.649 25.7808 39.7401 27.9068607928
10.8215 27.5041 41.17 28.6085909756
0.187779 29.5013 41.3276 30.8982262631
4.47781 30.6356 40.9953 32.2234638922
7.96339 28.6809 39.3582 28.080078974
7.21969 31.3876 40.6041 30.5334160254
2.64932 17.0971 45.5697 28.6305513119
0.476989 18.6943 44.4817 28.3041123561
4.04932 20.1586 42.779 28.7725885482
4.70929 17.8924 44.0665 33.790477735
11.1918 18.9682 44.1858 31.3882536494
8.54398 18.4168 43.7783 29.5848180913
3.457 24.4525 42.8873 27.5774961407
2.01785 22.1426 43.436 30.0670112356
4.54067 22.1194 45.2905 31.9311690277
6.79521 22.6636 44.2444 28.2385327338
9.91164 23.7723 43.5502 29.1734453885
1.88626 26.6976 43.7322 31.8021810801
4.69111 26.7704 45.0748 29.079090053
7.4395 27.7374 45.5071 26.6827023912
6.07164 25.1047 43.0536 27.7957032003
9.54062 26.8061 43.4051 29.2739020886
1.69634 30.5354 43.3482 30.9624577664
6.65742 30.6732 45.7592 28.7898921297
7.93444 30.002 43.2097 29.2668059147
4.24582 32.1867 45.0572 30.8573667396
11.3151 29.3379 45.1134 31.3307416004
10.5232 30.8633 42.9964 29.7057548346
2.5543 17.1963 48.2747 28.0382654875
7.388 18.7053 46.1982 28.7393475731
5.49849 17.2621 47.6081 30.0148778481
9.17831 17.3434 47.5578 34.5767678496
11.3636 17.0521 45.9491 29.0673693543
1.90042 20.7768 48.684 35.3679086234
0.186784 23.0413 48.8313 29.6398671802
4.96143 21.7055 48.3762 33.4400578584
7.6716 21.0162 47.5986 29.9403296505
9.13054 22.6736 46.1033 37.1651640513
4.05884 24.6585 46.4223 30.1445571919
1.2955 24.8919 47.098 33.7146516272
0.284643 27.4382 47.8531 29.8058319433
6.18415 24.7713 48.4381 31.5663479322
8.31783 25.387 46.8909 28.230552733
10.2388 25.6291 48.9678 33.7604588167
11.2443 26.7093 46.402 30.4528421293
2.9536 31.6701 47.4867 28.2585952987
1.92981 28.9579 45.9473 29.252129889
4.68893 29.0002 47.1508 32.2552186939
5.97353 32.6711 48.1243 29.0797548019
11.9109 31.368 48.0462 28.5021167781
9.08745 29.1038 47.3582 26.9740441962
11.589 29.0041 48.9478 27.6951513215
9.19129 32.1981 47.0803 28.8219713385
0.963517 20.3965 51.5993 32.0130575605
1.7099 16.3682 50.94 30.3016282901
4.68901 19.1619 49.4033 28.451879716
7.6518 18.2069 49.8191 28.5337719035
4.63214 18.9003 52.4195 30.4187470141
7.0916 20.3469 52.6814 33.2719461101
11.6594 17.2651 51.5175 33.9566962355
8.97503 17.3836 52.1803 31.092744725
0.254066 24.0768 51.3993 30.6427061049
6.86975 23.1575 50.8858 30.685676455
8.69863 20.8997 50.3752 31.2449674045
11.5109 24.2955 51.4965 31.4314963494
11.0718 21.6384 51.3014 31.9625397684
1.48167 28.3008 50.5897 32.1265462431
1.91687 25.8537 52.7966 31.0839268435
4.65636 25.6252 52.1497 31.2057571807
6.49859 26.8639 50.26 29.204411438
8.80209 25.2631 51.492 31.9848898525
1.51366 31.1926 51.123 30.867860165
4.06166 31.6883 50.3485 26.3889325806
4.15986 28.7483 50.2519 28.2303470588
7.80641 29.5388 49.982 31.4791380112
6.33555 30.9828 51.8531 27.9614207695
4.67555 28.7542 52.9222 26.5803949844
11.4302 32.4303 51.599 30.8691245616
10.2804 29.79 51.2157 30.9709291688
0.871775 18.6335 55.6803 32.2217695872
2.80724 19.9987 54.3669 28.3839952708
5.40363 16.4368 53.9138 31.0310681702
6.36898 18.8794 55.5144 33.1287168544
9.63628 19.37 54.1591 31.5657790473
1.98953 22.5446 53.2917 28.3826457654
4.83646 22.9761 52.988 31.5039646555
5.20322 23.7182 55.5386 30.8546215153
4.30285 21.0455 56.3419 32.2664549775
11.5101 21.5237 54.0537 30.6182608737
10.5663 23.6652 55.5791 34.1744700671
0.0660244 27.4231 54.3332 27.9246316068
5.88214 26.5246 54.6447 28.5262794427
11.3048 25.9026 53.9173 28.2500373544
8.50304 27.0303 53.8161 30.4885058862
2.47823 28.9725 54.3266 27.9690840485
1.55637 31.54 53.8447 32.8893976049
5.7429 31.2394 54.7393 28.8309675861
9.78776 29.5753 54.2245 29.6854249044
8.35592 31.7924 54.6407 27.3517773839
2.4025 35.343 6.29206 29.2532382947
2.11258 33.5919 4.27019 35.3863395537
6.53438 33.7598 3.94269 32.2147256777
8.22078 35.0705 5.967 30.1094206015
11.5969 35.9467 4.2009 31.2015983125
10.8487 34.7018 6.88956 24.2513953842
3.8352 37.4542 5.06764 32.7160819426
0.299674 40.2834 7.13469 29.7359028493
2.59264 40.5116 5.18003 31.9547706758
6.41516 38.6688 6.45759 29.0912428351
7.14236 38.1907 3.79134 30.8762078298
10.3414 40.002 4.36904 34.2140460095
11.621 39.287 6.87126 29.7298993086
4.09218 41.7805 7.08032 31.6532847193
1.0333 42.7653 4.24692 31.528925289
0.340732 44.5383 6.33826 27.6331414696
6.42133 43.0567 5.96624 28.6557681514
9.66617 42.8541 4.97434 27.4669801011
2.41944 46.4319 6.31207 29.1922060602
1.85207 46.0163 3.67159 26.7471631548
5.29281 45.6541 5.52142 30.5625571619
7.56427 47.738 4.69246 28.2370222485
9.22059 45.7008 4.31711 27.1356104409
11.8758 46.173 5.13349 27.5406855611
0.268057 33.0542 9.73786 27.9047272831
2.83684 32.7149 9.92458 28.2117208746
3.42074 36.6473 10.0644 26.9390308437
4.11874 34.6986 8.3591 33.0695759788
6.58688 33.2879 7.47727 31.9088579349
10.1293 33.5987 9.31088 27.4912129199
1.51699 37.9178 8.36421 27.6172689704
7.83132 36.7829 8.0529 31.457448023
4.13469 39.0112 7.87698 26.1727422788
5.3342 39.5968 10.3444 30.2664622797
10.5968 37.3486 8.3751 28.173911905
3.19296 42.7487 9.65886 28.0102191379
0.205086 42.7593 8.59138 30.8390225338
8.04637 40.93 7.16906 29.6389046569
7.61042 41.055 9.87593 33.1498136269
6.14446 43.5945 9.21455 30.4556606684
10.7922 43.8348 7.41083 28.2794181364
10.8293 41.385 8.47384 27.9697422799
2.15939 45.569 9.15093 29.2373780884
6.04043 48.059 7.48078 31.4247358119
8.10474 45.0504 7.34884 28.3644836755
4.89286 46.0894 9.38978 27.7333824063
8.20274 47.1142 9.33269 25.5918840169
10.8641 46.3079 9.65829 27.783578332
11.4126 48.234 7.34627 31.361918191
2.2501 35.0879 11.8918 28.6391091016
7.95452 36.1913 10.9354 29.3065018853
6.59351 33.1469 12.4853 31.3878399
11.284 34.8455 11.4242 27.4631291454
9.52589 35.2789 13.8353 30.4476320122
0.180662 36.8573 11.566 30.0238387244
1.03758 39.6236 10.6766 30.2400066837
3.75517 39.3811 14.1515 29.0940803666
5.54292 37.2156 11.8951 27.2672230826
7.45629 38.2668 14.0718 26.6938425743
11.5554 37.7512 10.9717 29.3062850602
8.94905 38.7406 11.6773 28.2634435596
3.13524 40.8626 11.6592 26.252349773
1.11664 41.7508 13.8198 28.0411704365
3.23317 44.1473 12.6614 31.1515903052
0.312959 44.555 11.9321 30.1276001452
10.3621 41.7024 11.5816 27.7371688908
10.4324 44.3663 11.8381 28.7425110803
1.71621 47.3278 12.2357 30.3931322542
4.68543 47.1075 11.9545 27.2750868979
7.65319 45.47 11.5014 35.2027914735
11.3694 48.0773 11.9877 30.8573377588
1.19989 35.7676 16.275 29.1480491347
2.55797 33.881 14.6684 29.1611371839
3.94568 36.605 14.4559 28.7020506838
6.9504 35.1897 17.3627 29.3521491027
4.20842 36.5018 17.4068 31.4995687699
6.78813 35.4498 14.4688 29.6781264143
11.3659 34.6216 16.2145 32.3263890016
1.71937 40.0688 16.11 28.505464755
6.05912 39.8274 15.5838 29.23960458
10.1794 38.129 14.8608 26.6212362827
10.1873 38.2545 17.3779 29.3253645759
3.60457 44.1088 16.4009 26.9887999343
0.857392 43.9837 16.5669 28.4270631828
7.0192 42.4126 15.0958 33.537456678
7.98784 44.8641 16.4226 29.2592117331
4.17419 42.5182 14.5171 28.0039322956
10.3022 44.4161 14.7648 27.8830924742
11.0842 42.2874 15.9924 27.5873227296
9.51479 41.0413 14.2725 28.4113009349
3.90629 46.4349 15.1942 27.0995020671
1.33731 47.4981 14.9779 28.5929674447
7.77353 48.9068 14.7075 28.9727616526
6.67653 46.2864 14.1996 30.7099376466
4.74764 47.9848 17.3061 32.2668895777
9.77112 48.3916 16.3608 30.3114596573
11.634 46.8783 14.7153 27.2069369784
12.2971 45.4907 17.5818 27.7583458318
1.97456 35.4468 20.9475 26.9793067678
0.305299 34.6963 18.5899 30.6146992488
4.64779 35.7079 20.2134 30.838375478
9.33402 34.061 17.9372 29.5965896111
9.54965 34.5571 20.5789 31.2233316373
3.04821 39.0191 18.6113 30.137401368
1.54868 38.1273 20.9913 33.5562567214
6.11664 39.2576 18.4853 26.9764854539
8.09056 37.502 18.679 26.3529938137
9.20036 37.5995 21.1434 30.3248558586
3.23047 41.5394 20.025 29.6565168836
3.62619 44.6024 21.021 27.6594082876
0.687698 41.6929 18.0335 29.7916683582
5.20238 43.6074 18.5996 27.0879266817
7.35953 41.7773 18.3829 29.6649271415
7.47944 41.5483 21.1555 26.8158281663
10.3918 40.95 18.325 30.0326297943
0.831768 46.5317 17.8064 26.1174953979
2.89119 48.4923 21.0568 29.9785147357
3.16026 46.7098 19.1626 25.1343582767
6.62859 45.9446 18.8369 29.2158255325
9.65782 46.0457 18.8415 30.299436568
9.81932 48.8199 19.8187 29.4241659002
1.98315 34.6942 24.2123 66.9546491342
4.60574 33.3963 21.8738 25.8488072904
7.83544 33.0398 24.1719 71.3910851232
6.32551 36.7328 24.1888 68.6483186325
5.18109 34.3425 24.411 77.8087329718
7.43943 33.0149 21.5021 31.3229443793
11.5803 32.7351 21.6543 27.2383466683
10.3848 34.6301 24.0554 61.123418837
1.51095 37.6396 23.8264 43.4721679374
2.59293 39.883 24.6888 116.4292696749
6.28296 37.5633 21.469 29.4591830548
5.2146 40.2217 21.5247 29.6912982979
5.4635 39.6546 24.2671 70.3660132944
11.5571 39.308 23.994 49.5313986197
11.3032 39.29 21.3956 28.1579837372
9.52969 37.384 24.4059 99.3477058842
1.08062 42.0368 24.1648 50.2914595626
1.50188 44.8018 24.5648 113.4476390844
0.839656 42.3199 21.5274 28.9979053411
6.77333 44.4984 24.4195 94.231374943
6.80425 44.2511 21.6364 26.3023668085
7.52213 41.6541 24.212 73.8714374782
10.2189 42.1644 21.2668 26.8887943081
11.5891 44.6135 24.3318 78.2004867331
10.3635 42.0241 24.0213 61.6723554952
1.00363 45.2378 21.4845 29.0137415106
4.09505 45.6344 23.6766 38.1512247384
3.33995 48.4411 24.0256 70.9141249001
0.551932 48.9212 23.9208 72.3161624474
5.77402 47.1136 21.4618 27.4842956495
6.65105 47.947 24.289 69.2314825196
11.1945 48.2237 24.2185 71.6466889333
9.24708 46.411 24.3676 68.5913147586
9.47963 44.9846 21.6269 29.0597187011
0.0636904 33.4391 36.9703 36.394959993
3.67107 36.4887 35.5628 117.738605741
0.781548 36.2289 36.6511 48.20562677
7.16464 33.1783 35.6729 80.6324320047
4.48674 34.9036 38.6376 37.0691003685
4.41392 33.7811 36.0273 55.251769313
9.51992 34.8193 35.6768 83.0985747685
9.73865 34.982 38.201 29.8654925078
11.9692 33.4623 35.7308 84.8121988983
12.0193 33.3086 38.675 28.0019683529
3.07926 37.3963 38.6824 30.2333865846
0.753864 40.714 35.8294 80.1320421232
5.49057 38.5713 35.911 57.6830792472
5.5684 38.7701 38.7308 28.4536348118
8.21094 37.6815 36.0062 68.6149549233
8.40084 40.7445 38.5129 26.0902459824
11.6094 37.9609 38.5306 30.1254021539
10.1425 39.6473 36.0271 54.9235388684
1.59773 41.6256 38.1722 30.0211818907
2.11078 43.9032 35.7855 71.4007016066
4.3611 44.4471 38.7774 26.9893753575
8.17808 41.6684 35.9451 57.174217594
5.08024 44.348 35.9216 55.4878959392
4.44484 41.4752 38.1148 28.6867293792
5.29702 41.3947 35.5074 97.7796941786
11.9658 41.1838 38.1809 27.4447999247
8.32278 44.3286 35.8015 68.0646655707
10.8326 44.8682 35.8166 62.5735672394
12.1008 42.2265 35.7046 77.1876017833
1.95616 46.1395 38.4837 29.1476222634
3.5455 48.2058 35.7972 71.9602008167
1.13871 46.6345 35.783 81.6197632425
6.15969 47.0297 35.7475 71.5538512399
6.77885 46.5175 38.4596 26.2417774437
8.64524 48.6312 35.7087 79.8902691383
11.3593 47.9389 35.6607 98.1073516402
9.39042 47.8693 38.4866 27.3738567141
11.4653 45.7336 38.4 24.5644763235
2.14148 33.6888 39.5679 31.7938136658
4.77657 36.1555 41.3299 32.0775048382
8.53028 33.3993 42.3177 28.7749636221
9.95263 35.4608 41.2042 29.0252196583
1.92754 39.312 40.3639 31.63889347
6.78994 39.628 41.2552 27.5317164256
8.788 37.945 39.0491 29.2403890811
9.12531 37.8291 42.1623 27.8208603503
0.49103 42.5407 41.8421 27.7973079011
3.47304 43.2672 41.3373 28.9612075246
7.79573 44.0814 39.0278 29.4914689306
6.21039 42.244 40.7142 28.1110658637
9.89902 44.8803 40.6273 27.7075877854
10.2523 41.853 40.2333 29.4223199205
1.41972 47.9793 40.3738 26.9989247095
3.10935 45.7564 42.2197 27.6264210836
7.06072 48.5929 42.0997 28.6447636766
4.9774 47.2946 40.5882 29.2302937058
2.94823 32.825 42.4859 27.1855467082
1.17704 34.6835 43.1588 27.2304033409
5.96816 34.1902 43.0145 30.8342201363
9.89302 33.2955 44.5736 32.6516350829
11.7319 35.347 44.2972 30.0289790516
3.6762 40.2578 42.4089 28.9047030061
3.59512 38.4442 44.9042 24.6248513232
2.5619 36.9693 42.7194 27.7614376961
0.983891 39.5009 44.7447 25.4744606477
6.03755 39.6126 44.281 25.8875328527
6.90024 37.0023 43.5328 28.7348537119
11.148 38.1755 44.5225 28.3202410662
11.093 40.0372 42.4948 28.1124277908
0.544056 44.5126 45.5073 28.8596078866
1.8331 42.2917 44.1905 26.3488188151
4.6566 43.0686 45.5946 29.6096877891
6.90028 42.2497 43.5231 32.0436143243
12.1099 43.2823 44.419 26.9526797691
8.97042 44.4667 44.4345 30.7300548074
9.61858 41.6659 44.3788 27.2202880909
0.574828 46.2013 43.0241 26.50386813
6.75133 47.1133 44.7246 31.5685822544
4.45179 45.8344 44.7743 30.2628422999
11.4413 47.3966 43.5385 27.099892129
9.10383 46.6151 42.5743 28.5033244137
1.54498 33.8419 48.6573 30.023828507
3.66388 36.2387 46.4154 26.2846496177
1.23057 35.1385 46.1694 28.869045219
7.58717 36.5996 46.4549 26.0280328865
5.72905 34.8318 45.9855 27.4665854023
8.86403 34.4831 48.3219 32.6822753434
12.0219 36.1527 47.1919 30.7642324226
3.78194 37.1461 48.8418 33.3385040951
3.12156 40.6645 46.9409 29.4007207
2.52698 39.6059 49.3351 30.0290976601
6.55382 37.9087 48.3934 28.5097416626
6.23932 40.2875 46.9844 28.4184903993
9.76659 38.0129 46.8011 26.1152674581
9.12573 40.649 46.7795 27.8670365976
2.31347 42.7509 49.34 32.2363077755
0.0226027 43.6098 48.1709 29.9644300149
4.53438 44.1212 48.0111 27.9047517381
7.23235 42.7508 48.455 30.3219602739
11.8487 41.7751 47.447 33.3431312282
9.89407 43.701 48.0816 26.2337106973
2.52684 45.9596 46.9978 29.405084048
1.68108 47.9145 48.8004 28.5552925407
3.48351 48.6619 46.0417 29.3462616313
6.42482 46.1072 49.2087 30.4734609828
11.6498 45.3461 46.2147 30.0532087206
8.49578 46.0233 47.104 30.9668362699
3.72596 34.7747 50.3872 30.2105266109
6.84299 34.2778 50.415 29.1228737298
7.26619 36.4985 51.9577 34.8205181872
12.0506 36.54 52.0017 27.5404350787
8.71046 32.8897 52.1509 29.1900705888
10.8416 37.6866 49.7421 29.8653237585
8.24913 38.5635 50.2821 33.8439777849
3.2262 40.9134 51.6382 31.7014414981
2.13495 43.7725 52.4199 31.0157359854
5.35749 44.8079 51.392 29.573980346
7.78232 41.4773 50.8836 33.564936997
5.63202 42.0448 52.4988 32.6199311163
9.75583 42.7229 52.2185 35.1468583382
10.372 44.8887 50.4041 30.6879678817
12.2448 41.1322 52.2628 30.5730244353
3.38912 46.4355 52.2807 27.9862960818
0.890391 47.8474 51.7352 30.9313397915
4.41629 48.2187 50.0294 30.1251050788
8.78031 47.2383 51.1391 30.2452370609
0.305077 35.8241 53.5977 34.8048786885
3.7335 33.3488 54.7883 31.1060776656
2.86133 35.1871 52.9406 31.9636760779
0.337915 36.0927 56.3783 35.0782560558
5.22358 36.1439 56.0857 30.0511309384
11.8675 32.787 55.9114 28.6346531709
9.38783 34.2009 55.7296 27.993333804
9.59216 35.6125 53.2509 28.8072344369
3.84646 40.8193 55.3961 31.9787728891
2.66649 39.2414 53.5572 32.0110880358
0.125411 38.5028 53.6265 32.0269857245
4.76459 37.2395 53.5078 34.9845661681
6.68662 40.4351 55.1044 37.3940239112
9.89947 37.4684 55.4554 30.7849605567
11.8159 38.8318 53.576 31.852423222
2.78588 43.6475 55.0024 29.1231578655
7.51717 43.0823 55.7483 29.6389302065
9.8166 44.3172 54.6909 28.4473099304
3.42959 47.5986 54.9934 29.0764361998
6.13057 48.9394 55.5857 30.9615320457
6.66983 46.4218 53.4359 30.3107815558
5.42145 45.174 55.6283 28.4787897226
9.90661 47.0764 53.5424 30.9400039393
15.3706 2.53855 5.33967 33.1709195712
12.9039 0.84681 5.09103 30.5546638129
19.9063 3.26764 3.92376 35.6003596848
19.0626 0.847767 4.96066 29.0163503334
13.4489 6.99229 4.43794 28.7631869263
15.1176 7.04917 6.98106 28.1653831557
15.5049 4.79467 3.63774 32.8537959442
16.6689 8.0757 4.68993 27.1310072214
21.2832 4.65383 5.98954 30.1078200467
23.7694 4.49467 4.64148 31.0173755284
21.2298 7.39739 5.85046 28.597756426
13.5146 10.5734 5.00861 31.1222144586
18.6456 8.3045 6.60923 28.1291865787
17.7788 10.53 4.13354 26.4478300959
19.1344 11.9842 5.82944 28.8660517149
24.3048 9.31691 4.67069 29.3905133242
22.5226 11.3975 4.82902 29.3266790113
15.1648 12.5711 6.30707 29.9048061179
19.4565 14.7149 6.10194 32.7711859148
16.8826 16.0515 3.83756 33.2704857187
23.8145 13.7956 4.66272 26.4938004379
22.7245 16.3119 5.2119 30.0882909381
14.9219 3.93372 10.2525 28.5601927115
13.0324 2.19316 10.3252 30.476179933
13.837 0.362043 8.3974 31.3024966654
18.2 2.07661 7.43859 32.0624334746
20.1423 3.91462 8.64042 32.6136618764
23.8255 3.29128 10.4495 27.4939994928
22.7485 2.54516 7.80366 29.219660213
20.9487 1.36846 10.0797 30.2306881487
16.0593 4.15138 7.56687 33.6024690541
12.695 6.8505 8.52567 32.4010252612
18.0883 6.24048 8.54647 32.3800836295
24.2023 6.0821 9.39978 32.6898541819
14.9944 8.65829 10.3746 26.7335395071
14.5027 9.65698 7.8178 29.6559277151
14.8282 11.9873 10.1359 27.0973235385
18.7146 10.0542 8.65084 30.000702884
22.404 8.56204 8.10568 30.6139095341
21.7009 11.1677 7.45855 26.9298361316
20.8464 11.9957 10.3012 29.2935680454
13.8778 14.6307 7.5583 29.1421272324
15.6466 14.9193 9.85808 26.9387391506
18.2474 15.1501 8.69611 27.9676234699
17.4109 12.4012 7.94408 26.7693918465
20.1411 14.8548 10.6418 30.1899374263
21.7315 15.7116 8.04082 29.4317338955
23.154 13.3963 7.59948 28.308092279
12.9426 1.54484 12.8319 29.567844178
17.431 0.64815 11.8257 33.1314097805
17.0 3.59025 11.7793 32.3977804291
18.9325 0.322161 14.1558 31.2472614265
21.5644 3.56337 12.0853 30.2351786961
24.1412 0.150789 13.339 31.3726360217
12.3802 7.70495 13.4452 28.6497817348
13.7782 6.17985 10.9794 33.1843343452
17.7234 6.38197 11.1222 27.7671762872
20.3124 6.31066 11.9832 32.7827624449
13.1823 10.0458 12.2292 25.7342299369
15.8719 10.5368 13.406 30.5542208819
17.5958 9.38842 11.5035 26.1246939785
20.1389 10.1362 11.9753 28.3791618214
23.4807 11.2302 10.9415 30.3262048969
22.1152 8.47806 10.9532 28.9068333641
24.5512 8.67589 12.488 27.9190586393
13.1263 13.9514 11.4474 29.259344707
16.7635 14.5935 13.8548 30.0226147356
18.8052 16.2821 12.8798 28.4950023149
17.5472 12.9416 11.3848 31.3289068349
23.9798 15.3509 11.0704 31.6476348757
23.9568 13.8556 13.4387 29.4476978981
15.8128 1.97008 15.4582 28.1161469061
12.6216 1.06023 16.6343 27.1546918508
20.4816 2.78967 14.7487 32.030219901
17.945 0.28843 16.7055 28.1517581361
23.052 0.0226411 15.9889 30.4500431662
22.6526 2.92711 16.7453 32.7098421788
16.2775 4.39088 14.2464 29.9053680844
13.7108 5.85695 15.29 29.8743809808
16.0983 7.67098 14.2665 29.7047006265
18.7146 4.72017 15.6408 28.9597046074
19.2223 7.59072 14.4242 28.6207397517
21.8462 6.92986 15.5608 31.3743705351
23.1838 4.77641 14.1887 27.8749632758
16.2464 8.25605 17.0002 29.7999802814
12.3948 8.85874 15.8347 31.2254633241
18.9707 9.3299 16.7819 28.8180730088
16.7723 12.254 15.3749 30.8502698531
19.8823 11.3024 14.8693 34.5554341626
23.607 8.94801 15.1244 32.1077983379
14.1695 12.5854 16.871 29.11282398
13.6161 14.4867 14.4181 35.7590770224
20.4244 15.7689 15.1698 30.2705817999
19.2833 14.8537 17.4994 30.8940163455
22.7102 12.4061 17.2998 29.2011730376
21.7732 13.4219 14.9948 30.1868800548
12.9054 1.40218 19.7298 26.0278768673
14.8839 2.73904 17.8607 28.0662597653
17.8345 3.02855 18.0744 29.8033368075
19.5273 2.03268 20.4848 27.5571021656
20.9888 0.774317 18.59 29.4523978591
13.5457 4.99136 17.9031 28.3022849172
16.0799 6.45253 18.9294 29.2443291004
18.702 5.91297 18.0965 29.4726545125
17.1208 4.15664 20.8863 28.1860597024
20.7816 6.2481 19.9396 32.93049623
22.7087 4.23449 19.5726 30.7543024449
14.5297 10.405 18.1711 27.8459104478
12.7741 10.1277 20.0565 29.9300911103
16.6818 11.0424 19.8361 30.5673537796
18.7867 12.2212 18.0056 28.3034694216
21.1897 11.2533 19.48 27.70372531
21.3149 8.46357 18.0174 30.4793508715
23.7423 8.38656 20.6042 31.5304854828
12.3899 15.3962 20.0491 28.6020491237
14.8041 14.7336 18.8177 32.5514961968
15.8 13.3887 21.1201 28.0849246873
19.1101 12.6589 21.1507 28.7116753167
18.256 15.4006 21.1255 28.2185061676
21.6034 15.8938 19.1395 33.2791813653
23.6813 14.3157 20.0072 27.8094615192
15.2872 0.308098 21.8503 28.7051511345
14.4117 3.72816 24.2568 64.567583063
14.5702 3.39206 21.3428 28.9781934774
16.5239 1.66832 24.1488 65.924369634
18.1962 3.6427 23.3769 41.1643387789
22.785 2.04475 21.2686 27.4081802249
20.7481 3.02829 22.9794 29.2601544953
21.3158 0.597226 24.1042 75.0407036469
24.1413 1.35682 24.1476 60.7363612917
14.006 6.44273 24.0004 54.8920342721
13.8873 7.97357 21.6156 27.670946607
16.5087 7.19315 21.6028 29.8720781786
16.937 6.17866 24.255 74.4171539808
22.2322 5.29659 23.9986 74.9398627833
21.0961 7.95506 24.0945 46.397375479
23.7163 5.84839 21.8247 26.6331111984
13.6755 9.56088 23.9514 61.9288466113
17.5868 10.9632 24.2531 68.7729126949
18.4492 8.30113 24.7068 108.182961647
18.134 9.71379 21.8275 29.1685563535
23.2227 9.559 24.6979 91.2159999895
20.8547 8.80142 21.3306 29.4442659692
15.0153 12.424 24.1475 61.0446809202
13.0066 12.4281 21.8515 30.5830957868
15.5146 15.2184 24.4283 86.6358143914
18.411 15.9559 24.2682 65.1703006702
19.2415 13.0786 24.0228 56.4658682776
22.8135 12.3748 21.5179 30.093998131
23.3426 14.7668 24.3806 81.366858649
21.895 12.2553 24.2715 65.843621288
18.8722 0.536639 35.2916 105.1633960071
14.6552 3.12753 38.7844 29.3855724421
15.08 2.38865 36.0576 68.3815344569
19.4839 0.900701 38.7452 28.9903823628
19.6846 3.02104 36.2758 41.4589277812
22.4561 2.90059 36.564 33.7033285608
22.2532 0.312182 37.9486 25.3292052794
13.9681 7.22615 36.458 40.6301571971
16.23 7.79289 38.7057 25.8970079452
13.0614 4.59933 35.7931 99.0585412305
17.1445 4.40815 35.6913 77.6586422515
17.2146 4.94572 38.4165 26.9085192443
19.9385 5.67884 38.425 30.288367548
20.1557 6.37964 35.7776 74.0374241132
16.6059 7.20548 35.6415 87.7401727566
23.3121 5.6096 35.7636 88.2526026419
14.715 11.5203 35.8945 84.4398853694
16.3841 10.5743 38.4987 28.1679922264
13.2356 11.6234 38.2842 28.2794199521
18.6909 9.11476 35.8136 64.787216533
17.767 11.8106 36.0633 66.6336479454
19.2213 8.70965 38.6058 30.0818721525
22.4305 8.441 35.8426 67.3459531411
23.065 8.62636 38.5176 27.258704014
20.7336 11.7588 38.5129 27.4865222184
21.148 11.1284 35.8788 66.0888990625
15.2701 14.2378 36.5054 49.5467838683
19.7913 13.808 36.2592 57.8333489356
18.0285 15.463 37.4376 30.4196819336
22.6882 14.751 35.7278 72.8305290432
23.912 12.3886 35.7433 69.4806732919
24.2515 12.914 38.3844 26.1500289006
12.9217 2.08952 42.1342 27.8703440126
17.312 1.28948 40.1735 28.8628831489
16.9803 3.90408 41.0716 28.3155379266
19.5104 3.71363 42.0377 30.0769119041
24.2174 2.6948 41.3383 29.8663538765
21.3958 2.0392 40.5991 27.4911720658
14.3771 5.85773 39.8052 27.4757867294
17.4976 6.96249 41.6557 30.1940799569
22.3291 4.16797 38.9302 26.0608728742
24.4056 5.97313 38.9224 26.3029329637
24.4365 5.37279 42.2963 31.5608633686
22.6101 7.20048 41.4399 29.4220462021
16.3156 10.8918 41.5064 32.1938996908
13.2348 9.20353 39.8741 30.6985242081
21.2748 9.74367 40.4737 26.1851103912
14.3671 14.2067 39.4367 33.2953241249
16.2439 13.699 41.495 28.3872614595
18.2323 13.043 39.3012 28.9998161773
19.2448 14.6643 41.5844 28.4759855871
22.0906 12.3804 41.9242 29.4950655565
22.2553 14.5206 39.3252 27.3955492063
23.2883 15.8639 41.9109 25.9793350061
15.209 0.604988 43.2947 32.5187952653
14.8529 3.02965 45.058 30.1997188534
19.7061 2.65204 44.5751 29.3077927955
20.3192 0.00212692 44.4264 32.5152702136
24.1669 1.68596 44.1247 30.0972084069
22.3004 3.21814 45.4548 31.3936116458
22.2894 0.16367 42.5335 31.6749203605
14.381 4.81084 42.6562 28.3623790955
15.4131 7.12061 43.7639 31.8802015161
12.9526 5.16414 45.6085 31.9861998599
18.9255 5.79652 45.6027 35.1872214292
20.0301 6.33772 42.5904 31.7335761132
23.7577 5.3363 45.0205 29.2381594452
14.3709 9.2966 42.4232 32.781803975
12.5842 10.154 44.2941 34.1755468516
18.7544 9.76787 42.536 29.3211171081
18.7592 9.03381 45.3537 30.4121554617
19.2202 12.1933 44.0157 30.6807567312
24.3717 10.9512 44.7791 28.2640861475
22.0195 9.6521 43.498 28.0125183936
12.8826 12.8581 44.6587 34.9219446003
15.1372 14.3889 44.0032 31.6556155663
19.077 15.9134 44.5927 31.0489332309
17.2873 13.7886 45.4819 30.5665044912
21.724 14.3147 43.9979 26.4301928933
13.6077 1.13627 47.0172 30.0447684396
13.757 3.53782 48.2275 32.8623284002
18.8357 1.2377 48.0336 32.4345427385
17.4436 3.32413 46.4104 33.0212635362
22.6712 2.92365 48.2857 29.3732091475
24.1443 0.736418 49.1057 28.6486138654
15.9077 7.89428 46.6407 32.2709510456
17.4424 5.87291 48.2724 30.9158090229
21.7532 6.77575 48.3268 32.1993026929
24.268 4.92212 49.1526 29.5272209298
22.3444 7.67866 45.9724 28.6077162797
13.7936 9.58468 47.7502 30.602212802
16.8968 10.7148 46.7184 32.8250002997
17.5672 8.93467 49.3962 29.9436131426
19.1174 11.7548 48.2887 28.109954924
21.0678 10.6651 46.2691 27.7522595782
14.5476 14.2201 48.9015 31.2971478311
13.4014 12.2871 47.2742 32.5011270506
18.2111 16.2185 49.2784 29.701645545
17.1246 13.8577 48.3813 29.186661683
22.0381 13.1252 49.2448 29.5429619278
22.7731 12.8843 46.3708 31.7644285
23.3493 16.1854 45.954 31.6575645736
16.2233 3.62771 49.5726 32.6074708046
20.4639 2.69504 49.7767 31.5803858548
16.9444 0.936498 50.1268 32.3123178098
22.9689 0.181209 51.6325 31.6502146631
20.5279 1.2308 52.3254 31.4413102357
15.1122 4.90699 52.1847 35.5500234481
13.0265 6.33485 51.3825 28.6140620773
19.7272 5.27507 49.6975 31.0703348189
19.5183 7.02796 51.8481 28.6669406052
23.6704 5.18776 52.1522 30.7466967017
15.9206 12.032 52.4081 33.4752154736
15.8054 9.2213 51.3879 30.3314695774
13.39 8.81167 50.3386 32.2765746234
19.0001 9.91449 52.7154 28.1282313975
18.413 12.0977 51.0263 29.6100410453
20.5116 9.0335 49.483 29.6831171338
22.4112 10.901 52.9145 29.5521803169
22.5344 10.7945 50.1734 28.2270648275
14.7212 14.2481 51.5538 28.6754946008
20.3355 14.5171 50.6665 30.0042808357
24.5835 14.4914 49.6682 29.1926529182
14.1774 3.17877 54.1396 30.589910564
15.4381 1.0899 55.2847 36.31846078
21.3706 3.09901 54.1929 32.4677897301
24.0747 2.5362 55.3799 32.272618659
20.7597 0.177548 55.5072 30.4467869948
12.4259 4.47532 55.787 30.8593398925
18.3614 5.88547 56.2652 30.7611647321
17.5171 6.09184 53.3739 36.1925597098
20.3722 7.52862 56.008 25.8407561038
23.3058 7.05129 56.1833 30.042424188
21.4324 6.03621 53.6522 28.8579996111
15.7233 11.3717 55.4263 29.0942182386
14.0993 8.78181 55.3506 28.7348301326
19.5626 9.8725 55.2889 25.691076072
16.5708 8.62499 53.9364 26.7116199551
23.3292 8.64096 53.6006 29.5683954997
21.0452 12.1774 55.285 29.5550953393
14.9954 13.7421 56.232 31.3376264966
12.3601 14.5667 55.0788 34.9100617876
16.6439 14.7838 53.932 28.8542611825
19.6288 14.2241 53.7276 32.9617957692
23.1617 14.2909 54.8085 29.8357617784
15.2899 18.1211 4.8914 32.8586478627
13.0906 17.5088 6.87871 31.1091023069
19.8308 16.451 3.97045 29.3678634459
19.8142 19.0638 5.29898 28.2707424932
16.9261 19.8272 6.3367 28.5959499045
23.7707 20.3703 6.70141 27.3674346148
22.4492 19.2433 4.62425 29.0062065234
14.4091 22.4691 3.74308 31.0341895511
16.6369 22.4342 5.44662 29.7074384116
19.2385 24.0601 4.52658 29.4599188743
19.1411 21.332 3.98975 28.1354996413
23.1673 23.7356 4.06799 28.8637324076
21.1624 22.1309 6.58465 27.1241601219
14.66 26.0903 4.0933 29.5025581639
16.5986 25.5392 5.95229 31.0835190803
18.765 27.7432 6.25081 33.3563783737
21.066 28.2125 4.63136 29.1905159845
21.4228 24.8089 6.07385 26.2520079192
15.569 31.9219 5.36428 29.7527387363
14.4571 29.1113 4.33975 27.56890982
18.0452 30.589 5.7505 29.1833954847
22.0481 30.9043 5.13613 31.0923872751
24.5551 31.8259 3.66478 28.6519309782
13.9018 18.6715 9.494 30.0403921717
18.226 18.0354 8.68296 30.666842849
21.9247 17.4458 10.3874 28.1428685961
20.684 18.8493 8.11055 28.0745877555
24.0836 19.2608 9.486 28.7866713195
14.5415 23.2159 7.90775 32.7761769421
15.4284 20.6149 8.36201 28.5912767693
19.1193 24.3349 8.22656 28.9217993603
16.7139 24.3465 9.4718 29.8427301922
17.081 21.4535 10.2512 28.3196529776
19.5893 21.6428 8.97462 27.8577140889
22.8985 22.1054 9.25882 29.71085057
24.4232 24.1606 7.99657 27.8384126987
15.1971 27.9743 7.34666 31.3909530005
15.3571 27.1179 10.043 33.5609382244
12.5015 27.1867 8.15403 31.8688228714
20.1621 26.9433 8.67675 27.8084103437
23.4654 26.7668 7.47545 29.5434095234
22.024 25.2662 10.293 29.1089768051
15.3714 32.6013 8.69197 26.7493562521
13.9155 30.5491 7.22141 28.1150214838
17.8025 31.7588 8.32995 30.6503908625
22.0083 29.2408 7.58761 29.725040348
21.1715 30.7294 10.1319 30.2569221425
14.4619 17.5071 13.9713 33.5191107546
15.5732 17.2812 11.3159 28.8221526486
17.848 18.7043 11.1363 25.3199329735
22.9845 19.6343 13.8687 34.9408130236
20.7096 19.2362 12.2093 29.3778703675
13.3395 21.8193 12.8077 32.4864478227
14.3413 24.1262 13.3393 32.2513686901
17.5566 20.7163 13.4996 29.5769384848
17.1427 23.6957 12.3203 31.1446587942
19.5112 22.876 14.0984 27.7897720996
21.1047 22.1333 11.5688 32.5722958485
13.2619 25.884 11.5246 31.0825334554
19.2556 28.033 10.9925 29.1471243154
18.7071 26.0844 12.812 29.8571500073
23.7066 27.2959 11.2498 30.4055419134
21.1696 24.9775 12.9726 27.3387292986
14.9522 31.6354 11.26 28.8391067861
16.3472 29.131 11.8379 32.1529977437
12.3737 30.7572 11.6966 30.3678537818
18.4427 31.1735 10.9302 30.2300067383
21.5126 29.0208 12.0404 31.5004301106
14.8563 20.2525 14.2649 30.6528928273
16.6677 17.0747 15.7295 30.4267693388
18.7669 18.7599 14.8124 28.5903250195
22.8932 17.2697 15.6958 32.1439671713
20.6033 19.7497 16.5463 33.7961149304
15.4108 23.159 17.2413 31.5842783521
14.7083 20.4787 16.9358 31.5982010596
21.9642 21.907 15.4968 33.6087449761
24.1683 22.0104 17.2845 31.2186309259
13.4308 25.0082 15.8769 29.8369358463
13.604 27.8024 15.1896 31.094672673
18.2567 27.2262 15.2827 32.6914914116
19.3424 24.784 16.2443 28.8036897054
22.6272 26.226 14.927 28.0360259717
24.4112 24.6786 17.061 28.5103937332
21.3434 25.9097 17.4851 29.3398576943
16.1005 29.3093 14.6647 29.7680554543
14.91 31.9475 17.6707 25.6852226426
14.4507 31.6614 14.9758 26.99706926
20.2124 29.0872 15.8718 29.7046790419
18.6074 31.3455 15.1494 33.4913409629
17.3385 32.5818 17.3838 31.3610020274
23.0321 29.0645 14.9955 27.0937059516
23.4891 32.2288 14.7064 29.6913215366
23.6084 31.2939 17.5426 30.2640167573
16.3405 19.3394 18.9774 30.8055976006
16.9322 16.5249 18.2368 31.1781241941
22.802 18.358 18.2354 32.6835243094
13.0299 20.9587 20.2098 27.149617715
13.4391 23.3781 19.1203 27.9277861027
15.3866 21.0372 21.1786 29.3309577552
17.8873 23.2919 18.0059 28.5418423579
18.7784 20.9294 19.0554 34.7753956371
23.1472 22.1148 20.0512 30.5826941404
22.0713 24.4602 20.1767 33.2972350363
14.6741 26.2902 18.5502 28.5494129693
17.5868 24.8582 19.7477 27.94647136
17.7721 27.4406 18.6145 30.2542494586
23.0359 28.3687 17.9244 27.6306288158
15.415 29.3531 18.1235 29.6701415564
13.5465 29.1503 20.3339 26.2644364058
18.6297 31.7147 19.9597 29.2671217034
17.6583 29.4004 20.7936 29.2858857913
20.3104 28.96 18.5329 27.6626902684
21.4567 31.6323 19.4028 29.7883920427
13.2702 17.721 21.2511 36.3262723007
13.0726 19.297 24.499 86.6308453772
15.7104 16.4882 22.1338 27.8755998774
12.8774 16.46 24.2767 63.6700764048
20.3877 17.4632 21.2952 33.346009617
17.7337 18.7559 21.7246 28.4121111281
17.6449 19.0597 24.552 93.47124257
21.0877 16.7126 24.1819 66.0757163588
22.3555 19.2754 24.1854 67.8023238826
22.2589 19.9645 21.555 29.9029269432
15.5541 23.9572 21.3441 29.5627876129
15.353 20.5627 24.1194 52.9455220774
15.5437 23.4797 24.1251 76.0980198085
18.3212 23.5887 24.2186 72.2544169928
19.9113 21.6087 21.5538 30.1464747051
19.938 20.7624 24.3052 85.0115596329
19.5738 24.4023 21.6845 30.3072433772
14.1986 26.1767 23.9977 57.009278621
13.6333 26.0618 21.3104 30.5261466256
18.7054 26.5596 24.6378 119.3843662852
24.2656 25.6932 21.4508 29.6992724327
23.5069 25.7506 24.2815 92.7034551094
20.9228 26.4664 23.3161 34.2901433586
15.2259 30.3836 21.7971 26.8979338005
14.7991 28.9748 24.2049 73.9607438341
12.889 32.6507 24.1475 62.6396339412
20.3597 28.8521 21.8379 31.796812073
20.1756 30.648 24.4799 90.0903096957
17.6147 28.9811 23.9975 54.1278724502
22.8084 30.3883 21.5081 29.2479116174
23.0945 30.428 24.4518 72.6760086129
17.3522 22.5844 35.3047 131.7456576998
15.7567 19.1316 36.044 61.0872594316
13.9598 16.9213 35.8672 82.8808225764
18.7876 17.8851 35.9835 73.5852078745
21.3194 17.5592 35.6197 85.1514772326
22.1691 17.0187 38.3073 26.1499183211
24.5297 19.1282 38.5886 27.5583911303
21.7493 20.1952 35.9766 56.3244540154
24.4296 18.8662 36.0308 62.4812083983
15.3409 23.7381 36.6363 34.8421864962
12.4299 20.9215 38.5336 27.6996304047
14.0818 21.1883 36.2856 45.0858638704
18.9652 20.4756 36.2481 37.5796820409
19.3116 24.2203 36.327 41.1357387803
22.0041 21.1588 38.6255 27.1131177129
22.0238 23.2918 35.6553 106.8303803917
15.0758 25.8046 38.6958 28.5060599711
15.2047 27.2027 35.9718 62.4014338263
12.8265 24.5837 35.849 87.7885924847
20.5052 27.8195 38.4803 28.8095294302
17.9717 26.8438 36.0042 70.7897959443
20.6132 28.5384 35.7021 99.3840857077
24.156 26.3908 37.4229 34.5676937431
15.1027 30.0522 35.8303 78.0339048663
16.1555 31.6562 38.4628 32.4579314071
17.4596 31.8501 35.6712 85.8538948901
20.2599 31.2093 36.262 44.0663569486
23.2846 28.9125 35.9862 90.9224871214
23.2949 31.7055 36.1297 47.7116025624
14.0084 19.9889 40.5392 30.2198062717
12.6699 17.8956 42.0912 30.2336831432
14.3931 17.2059 38.8614 29.0822938402
20.1731 17.6122 39.8679 28.6355045927
17.2526 16.4969 40.0388 27.5102656739
16.4411 19.3447 38.8773 34.8553382661
19.4734 20.294 39.1244 29.1498066894
23.0309 20.3106 41.0236 29.9695815522
14.399 22.2796 42.1628 32.257156494
18.9683 24.185 39.4001 33.5712251982
19.2345 22.0107 41.4793 30.0493120965
22.5178 23.8408 38.9538 27.1843920961
24.1386 23.5825 41.2617 25.3766412674
13.5873 24.5409 40.495 32.2623993515
13.3001 26.7926 42.0739 31.2327850533
13.11 28.2475 39.0948 31.7467821885
16.0849 28.2663 40.664 32.9748880391
17.7661 26.7339 39.1049 29.8549620739
21.2505 25.7656 40.2029 26.1800115799
22.4356 27.4929 42.1607 28.4315231539
13.4991 30.956 38.8771 26.5052934083
12.8949 31.5688 41.6865 34.768926583
17.6356 30.7913 40.3887 34.0289374438
20.2059 30.4711 39.192 29.3886551485
23.9104 31.7406 38.9677 28.8175625177
23.3172 29.0095 39.1553 27.9697245772
21.7121 30.3316 41.5817 29.9265497886
14.9657 17.2105 43.7603 30.5432877205
16.7337 20.3053 42.9319 33.8796155866
17.5059 17.3583 42.893 29.3315672964
21.0415 17.212 42.4546 25.8785813384
20.9417 19.6919 43.5066 30.35509773
23.7908 20.1154 44.771 27.3476306831
12.3481 21.6518 44.2332 32.1829293953
16.3339 21.3673 45.5988 30.6111393764
16.7761 24.3086 44.9729 29.7142629413
17.2425 23.4279 42.5612 31.7413262386
23.4159 24.3875 44.629 29.2705336994
21.9658 22.5083 42.6224 30.1095301316
12.4311 25.0903 44.3101 28.3848065474
15.6899 26.546 44.231 30.6554674305
19.7273 25.3522 42.7305 28.6921546812
17.9988 27.6101 42.784 31.4705642288
20.9307 25.694 45.2002 26.6247258281
21.4221 28.2988 44.9079 26.3528301221
24.5827 26.7197 43.9199 28.9111748938
14.8536 31.7076 43.8006 33.0246794245
17.3564 31.8083 43.13 31.5601129636
19.2382 29.786 43.849 29.0410578811
23.6727 32.3985 45.3674 30.2019126944
24.5763 30.3273 42.8514 27.0472684791
13.5798 16.3907 47.487 32.6113205528
15.6724 18.1488 46.2143 30.4264464319
18.2792 17.6005 47.0264 30.1462130904
20.4322 19.4926 46.0565 32.3738224443
22.1808 18.1644 47.6567 29.158191002
13.1593 21.2404 49.2907 33.6209592763
13.1985 24.1344 48.9794 29.4994143297
13.7806 20.7982 46.547 32.9639154086
14.0475 23.9575 46.1562 30.5523993855
17.748 20.6531 47.8129 30.5344600233
19.0116 22.8796 48.7427 30.4183285562
21.2868 24.0361 47.4462 30.1839902907
22.4819 21.5124 47.1125 27.767864064
14.8895 26.5768 48.4353 35.1680344936
15.6963 28.2359 46.3942 31.6942134483
18.5858 26.2616 46.5226 29.4292460779
17.8175 25.246 49.0571 29.6463643411
23.1114 25.2323 49.0844 31.1302600366
20.9316 28.5903 47.9508 31.8514377151
15.615 31.9933 47.6382 30.487628539
13.8762 30.4696 45.9662 29.9447629746
18.3073 29.512 46.459 29.4256172042
18.2969 32.2093 47.3107 26.9237603933
23.7626 29.7201 48.7847 30.0310358713
21.1969 31.3867 47.0375 30.5272005159
23.6639 29.5244 46.0593 28.8277209101
14.9986 16.9155 52.7806 28.6155867635
13.521 18.1724 49.539 33.3602931689
16.3262 18.0089 50.4151 28.4300123542
18.3184 20.1146 52.0829 30.2819607109
18.4567 17.2855 52.4317 27.3928125121
23.8795 16.643 51.2497 32.0587746702
21.3009 18.8793 52.3131 27.898770278
21.2898 17.0581 50.1904 29.3152362438
15.5781 23.7606 50.4327 33.322195834
16.0763 20.8631 50.0503 29.8810373524
20.3797 21.7115 50.8754 31.4845358122
22.582 20.5458 49.8276 26.7018712619
24.3557 22.8258 50.126 29.0785099881
18.8572 26.6955 51.1077 32.9281277036
21.458 25.782 51.2583 30.8110655527
