18.8811 43.4661 45.8087 30.3603830923
22.813 43.0896 45.3233 32.5840657593
14.3722 45.6423 45.0783 29.7247195462
19.1798 46.2279 46.168 29.9025177598
16.7957 47.1615 45.0012 32.6196009051
22.0463 45.8495 45.4239 27.3039330819
23.2058 48.7325 45.551 29.547755745
12.9365 38.8725 48.6663 27.7223819006
15.602 39.945 49.3585 31.3203215119
12.71 39.2598 51.2089 28.7774915915
17.966 37.1671 49.7335 30.1787555193
16.9624 38.5893 52.0067 31.409173431
24.4204 40.2124 48.2112 29.3593037972
21.1653 38.0188 49.8919 27.5213266234
21.9538 40.4725 51.4264 30.1847272124
23.2687 37.1568 48.7934 27.4402617296
13.7332 44.7874 47.765 29.0828816556
14.4194 44.193 50.5931 31.5634326708
16.6777 42.7305 49.1643 30.2035904
19.9502 41.9827 47.882 31.4188312428
19.3169 43.6687 50.0781 26.0471155094
21.8427 43.2087 51.3097 25.375812899
22.5585 42.6256 48.4799 28.9325776272
14.0575 47.5456 48.6977 31.9448100734
18.908 46.1123 48.9778 30.6591797338
16.5642 47.3343 50.0756 28.2441889898
23.1845 45.2741 48.1605 27.581053183
21.5335 47.0276 49.3937 31.2231008777
24.3365 45.4082 50.9319 24.4525791006
16.1811 39.136 56.2292 33.2360266368
13.3711 40.349 55.4662 29.5530700535
14.6926 38.5366 53.3042 25.7386763689
20.1912 38.6318 54.5285 30.7426935987
19.1347 40.5565 52.3361 31.282619655
21.2017 36.765 52.7466 33.0756793376
24.4116 40.4434 52.2826 30.8016094644
24.5062 40.3248 55.1111 30.3260868344
15.2551 44.4335 56.3424 31.1465129756
15.6313 41.9046 52.2384 31.0902277924
14.0305 42.8515 54.2789 29.8061300779
18.3855 40.8505 55.7562 28.7957027161
18.2884 42.8508 53.2247 29.1935880686
21.3061 41.8515 56.1116 31.868845455
22.1803 43.8197 54.0835 28.4044349297
15.0118 46.5128 54.4993 30.0431660817
14.5388 48.5975 52.4628 26.8250366083
16.5276 45.6859 52.3627 29.8451246619
19.0066 48.7021 52.1951 28.2500178133
19.6736 45.5124 52.4724 24.5474347215
17.211 48.8334 54.3478 30.1538840571
20.1455 47.8705 55.1284 29.165790194
19.9895 45.1143 55.318 27.8581613231
22.9532 47.9214 54.529 30.1201617304
22.0828 46.5814 52.2046 27.4089219689
24.4032 45.2375 54.4541 26.0450068536
26.3112 3.99168 7.01987 30.9244704456
30.8196 3.40806 5.94827 28.1412454826
31.2847 1.02503 7.9122 32.5222153586
29.8696 2.5771 3.79415 30.8018839206
34.2827 1.89534 4.55205 32.2514135777
28.2827 7.62648 3.70753 29.496443612
25.7554 6.19984 4.85004 30.3622169014
29.072 5.53904 6.60707 31.9653329447
30.5067 8.05243 5.51104 33.947443554
32.9766 5.53669 7.82499 30.6327714485
35.9707 5.01543 6.15172 30.4077508825
36.8507 7.85974 7.48798 29.8922751879
33.4991 4.64709 5.09572 29.066829335
27.7867 12.0355 4.84589 31.4227589013
26.793 9.09803 5.39587 30.1069815842
28.9869 11.7036 7.61097 33.0032742364
32.3322 8.38931 7.6434 32.8802124793
36.415 11.665 5.79271 34.6857764787
33.5194 10.6635 6.43641 28.3244786709
34.3419 9.41046 4.01187 30.7652891786
27.4818 1.53579 11.1063 33.2805732678
25.5558 4.01268 10.1941 35.5552495587
28.3399 2.42243 8.36745 29.6864740959
32.1047 2.39253 10.7531 31.8089089398
29.9568 0.285091 10.933 31.3556528996
34.6937 1.28003 10.495 36.6287766111
25.0273 6.02534 8.08083 35.021717768
27.1974 7.92273 7.97935 31.2574752529
25.7224 6.04374 12.153 31.2848122563
30.8756 4.12199 8.92472 26.242999477
28.9551 7.93787 11.538 27.9230053562
31.0357 6.14883 10.6027 31.6642028267
35.6257 5.50465 9.05176 30.5810060206
33.7124 5.1812 11.4778 36.750436485
28.1309 11.0556 10.2743 27.7987660735
26.245 8.2545 10.7303 25.6766006851
25.1446 11.9027 10.7849 29.8591377545
29.8191 8.90087 8.97752 28.0101371309
31.9175 11.1384 10.9527 32.3410619
35.5149 9.92386 8.54524 31.086481673
34.6845 10.1523 11.3815 32.9178352345
26.4725 1.39931 14.1316 32.8929433483
25.7966 2.88652 16.6195 30.1866578703
28.4698 3.31399 14.8044 31.3698261516
31.3872 2.10844 15.1882 30.7994153372
35.0004 2.69361 15.1684 40.9913883668
33.5072 0.115102 14.5849 31.7014963119
27.9933 7.79813 15.7197 30.5326235516
28.1187 6.04904 13.6832 29.7215776662
32.2573 6.58121 16.0668 32.3727885372
30.4462 4.66794 12.8652 31.5415107172
32.6453 4.32086 14.4304 30.478736776
34.903 7.86516 12.6773 35.3309591727
28.0071 10.6527 14.6159 31.1424377748
25.7412 10.0608 12.858 33.2687629355
30.2363 9.89072 13.146 30.6201599769
32.7217 8.87039 14.4982 33.4387442875
35.1831 9.8532 16.1497 31.0398521665
32.9144 11.8152 15.6988 33.0504825544
25.2212 1.11688 19.0531 29.468678374
28.0558 2.43107 18.8643 29.4834472803
32.0034 2.50585 19.79 31.9461374526
30.3601 1.32121 17.8523 30.9200807272
35.0436 2.06076 18.5946 30.946963562
28.0011 4.81299 17.323 28.8461063294
26.8314 5.97838 20.2811 29.2537979404
26.2301 7.3385 17.8758 27.8746390221
30.7705 4.99708 19.0912 29.9179997266
30.1253 7.62342 17.6073 29.7234564333
34.7208 8.14273 21.0874 26.0342904381
34.3777 4.29292 20.3161 28.7789634573
33.5077 6.39349 18.4586 27.8474781437
36.1434 5.28358 17.9429 29.032338336
28.1261 9.64307 18.648 26.7781583292
26.9489 11.5919 17.2166 31.2804959783
25.8191 10.802 20.9709 24.7679075901
31.2944 10.0934 18.9987 29.8143828261
29.3317 11.7344 21.1264 28.0640168631
34.0145 9.33252 18.7468 30.6125502636
27.2946 2.46129 24.1584 67.0240634358
28.168 3.05286 21.4953 27.513276001
26.3035 0.532295 21.7853 32.3263278853
29.9297 2.96339 24.4831 82.5764787465
31.5777 0.914697 23.9781 50.5470984318
30.5825 0.886986 21.63 29.9060838578
34.4573 1.17267 23.9309 49.1442470128
34.2804 3.9906 24.6276 97.1681033771
36.2235 0.989775 21.5632 30.5251950509
25.1801 4.33305 23.9326 52.6713421906
26.705 6.56844 24.32 70.9870340999
29.4164 5.60688 21.7396 26.144293947
32.2949 6.15836 21.7299 28.7984226893
29.8236 5.52118 24.406 65.6877898514
32.4792 6.22157 24.4286 72.8968446491
36.5901 5.67503 21.6676 27.9747810685
36.79 5.19129 24.4569 77.0552682779
28.5144 8.86359 24.3316 78.2110743784
25.7936 10.684 23.6953 38.3046674342
27.6881 8.59176 21.402 26.6014627331
28.6001 11.9228 23.8852 47.805674836
24.6605 8.37397 24.3488 85.8980366206
30.5509 8.79263 21.3135 27.9020133898
31.1557 9.08864 24.0122 46.073541595
31.855 11.7129 24.5438 108.4360501993
34.6624 10.9828 24.3161 75.7239619721
34.3058 11.5449 21.4364 33.4360547854
34.8287 8.41656 23.8414 45.3447581378
25.2482 0.443176 36.1801 69.3107122383
26.1507 2.99974 36.8826 31.4741903134
28.7529 2.73968 35.7454 108.3545537796
32.5079 1.06939 35.9336 77.7268280195
29.355 1.77829 38.7892 29.7013589007
32.6687 3.89638 38.7061 25.6190788292
33.1465 3.90468 35.8447 84.147998927
36.6841 2.60038 38.6092 28.9871122166
35.1408 0.387812 36.4838 34.8423807116
26.746 7.22601 38.6626 29.9234309569
30.4397 4.86897 36.3239 50.2596529018
29.6843 7.40717 38.8112 28.2503028559
29.4226 7.99824 35.8609 99.3847134058
35.0051 5.85892 36.453 31.2105129035
34.0811 8.13129 35.3845 135.5121693571
34.1351 6.54155 38.8113 27.7344536516
26.8453 8.71061 36.1984 70.0450863448
27.0353 11.2574 36.3077 41.2571660882
25.4921 12.1799 38.4626 28.0411654781
31.6093 9.54253 36.125 59.8494042976
31.9857 8.48336 38.7921 28.4128219956
35.8439 9.72721 36.4411 47.0567645485
35.3395 11.5997 38.7665 29.7088117068
27.1699 0.659077 40.222 30.3539831814
26.2924 2.05882 43.0834 27.6018369984
31.9126 1.40533 40.0335 27.5808169225
32.5305 2.37855 42.7847 33.4182944095
29.0454 0.124488 42.2446 28.1036220405
34.5534 0.509958 39.3524 32.7632903956
34.6357 3.62453 40.8211 27.9748544019
35.8986 2.27067 43.2615 34.3068589152
26.7349 4.53985 41.5558 30.672908169
27.3648 4.56061 38.9974 27.5755068844
30.2381 4.69484 39.2225 26.7808178704
32.086 5.6506 41.6301 29.9438155964
29.6467 7.7294 41.7896 31.3770210533
36.2597 6.14342 41.6619 33.5722354695
25.9123 9.89238 40.0049 32.6752114461
28.3194 10.4521 41.8399 37.9556893255
30.5445 12.0476 41.3635 31.5375489313
32.4175 12.0678 38.9875 26.1580770741
31.7939 9.30838 42.9626 33.0481160425
35.7175 8.82893 40.3719 29.7830615011
33.3315 9.88238 40.4092 28.1679931567
27.3085 1.60033 45.4396 29.3748704314
24.8419 3.25371 47.0557 29.158438815
29.886 2.04963 44.1667 30.1001755114
30.9984 0.138262 46.0217 28.2864011148
33.4602 1.11047 46.9466 29.5257556231
35.0709 3.75891 45.8166 34.3087100691
25.0194 6.52771 44.6597 32.1019386875
27.6595 6.51509 46.0541 28.3558576803
28.4718 5.76597 43.4217 31.7419115941
30.2855 5.86502 46.8052 27.6448156244
30.8407 4.88891 44.3234 28.7465130943
33.7034 7.40537 43.2868 28.9116710137
33.3644 5.86795 45.7787 29.7586055981
27.3604 10.2332 44.6024 30.9246717398
27.8868 9.21056 46.9813 28.0152416638
24.7328 9.49898 44.2493 30.2503756739
30.5371 9.86638 45.5932 33.1261944199
31.9214 11.6505 47.2761 28.7677797043
33.3938 8.19626 47.3492 30.417920883
35.0465 10.283 46.3772 33.7032582969
35.8226 9.27 43.3106 32.2831437311
28.5874 1.27924 49.3045 27.4441524581
26.893 3.14931 51.8642 33.2574339762
28.7128 3.41795 47.8118 29.5692960252
29.9127 2.33144 51.5411 31.0339119548
32.1363 0.0529027 49.376 29.3341627739
35.6697 2.0854 49.4639 28.5305886623
33.8108 3.8368 48.6712 30.1016402944
26.5283 5.10182 48.4352 28.6974058481
25.9601 5.83997 50.9743 27.6837088385
31.0432 4.10242 49.3649 31.9240983268
30.1231 6.80507 50.1997 30.5365690144
32.8908 6.78823 51.502 30.9088502728
34.588 6.52081 49.4971 30.0028562505
26.4588 9.03099 50.0281 28.325654657
26.5027 11.5244 48.0037 26.7715820725
31.6128 10.6645 49.7239 28.7512711267
30.8397 8.38068 48.1845 24.1363310724
28.9995 10.0106 50.8219 30.2829937755
34.9241 11.4658 49.905 25.8902177397
33.6743 9.57515 51.6345 28.2958953668
25.6722 2.14234 55.0924 29.9669601115
27.9753 0.613334 55.508 30.4163892701
25.2254 1.07827 52.5987 30.1384686373
31.7273 4.01197 53.8829 32.1226586595
32.4688 1.86194 55.2663 29.3398541653
36.7018 1.35436 56.4094 27.6943299951
34.2938 0.530865 53.2858 28.0047970255
35.3277 2.55709 52.2136 31.6534634348
24.7545 4.83511 55.4337 30.5251213964
27.9457 4.57415 55.9573 31.5861805949
28.2166 6.84656 52.2846 27.9221603897
25.1804 7.01153 53.7288 29.5897519845
29.1029 4.48367 53.5028 29.1895775712
34.5496 5.50001 53.0964 30.0245329841
33.1947 5.91749 55.7877 32.0801851427
35.9124 7.60254 55.4175 28.3842940462
28.4783 8.93672 54.2183 31.9607549153
27.9369 12.0292 52.3031 29.6769142927
26.904 11.2604 54.9341 34.4339225991
31.5421 9.85848 53.6984 31.1552679924
31.9544 8.33492 56.1 33.189797004
35.9653 9.57316 53.4893 29.8846387335
34.0143 11.3788 54.4869 27.9838797143
27.1671 14.9515 4.79889 34.993468935
25.0757 12.6566 6.15536 29.1277361444
32.0459 13.7043 4.92841 33.9628167892
31.3405 16.2037 6.236 31.7239468944
31.7797 12.4192 7.40304 30.6317927835
34.5023 12.8154 3.94299 29.8613705216
28.6151 16.8963 6.44439 32.605712504
27.3251 19.6167 6.4832 30.0379878548
36.0498 16.8103 7.1615 28.6365309146
35.3856 17.5675 4.48668 28.682637262
32.8229 18.4089 5.05736 30.4032386987
36.847 19.8449 3.86248 30.163776842
28.0246 23.5687 6.97076 29.345827465
25.6822 22.2584 6.48225 28.6357349622
25.5249 22.4668 3.75083 26.8357001387
29.3212 21.4115 5.27619 30.559344154
32.2447 21.3345 5.92116 30.6565734023
34.7676 21.4585 7.62358 28.465065613
33.5193 22.7752 4.01133 30.1538628571
36.6816 22.4034 5.34159 26.4801968724
26.8369 13.2906 8.52495 32.1271459274
27.6667 15.8597 8.90617 36.3425417151
32.2438 13.9262 9.62744 27.6601946921
29.9837 15.4937 10.6945 34.2995266575
29.2474 13.1398 12.0121 28.9863509009
33.3723 16.1735 8.41022 28.8701990026
34.7431 16.0458 12.1113 27.3507566084
35.1246 13.7579 9.78317 31.9813064406
26.3921 17.6077 10.7429 33.747310698
27.2206 19.979 9.56867 25.7310581908
24.66 19.6092 8.04559 32.560925007
29.825 19.8503 9.47984 30.4482389549
30.0046 19.8786 12.1211 29.6898767273
32.3024 18.8096 8.24388 29.2943005925
35.5283 19.0822 8.72862 28.7376178235
33.5193 17.9595 11.0073 26.3589369026
35.0455 20.1047 12.0087 30.6276032862
26.1402 21.6224 11.309 25.816080099
28.0148 23.3235 10.9695 29.7180906593
31.7178 21.8683 8.74571 29.0448783734
29.8468 23.6203 8.99418 30.4027528683
35.3728 23.2599 9.53734 29.2163325444
33.502 22.5362 11.4342 32.1251709211
27.2425 13.3375 13.9136 34.6037841937
24.7471 15.4003 14.2713 31.1420228229
28.6649 15.3236 15.3598 30.1682651855
31.7893 13.114 13.2973 28.246284418
31.4098 15.6085 14.6622 30.8825273114
34.5618 13.0589 12.6538 29.0652199267
35.1123 13.54 15.432 33.8806876946
26.8201 17.3908 15.2345 28.4796444913
27.0965 19.2288 13.0001 26.6484457973
24.6999 20.0839 14.0028 30.0683131337
31.2576 17.3736 12.3825 32.9760201994
34.7228 19.2996 14.6456 30.5238973774
34.5409 16.5829 14.6883 25.4376992197
28.1025 23.2966 15.463 26.7108652182
25.4889 22.9573 13.9282 28.8432565979
31.24 21.8855 13.5363 31.1708876267
28.7206 20.7644 14.9126 28.3682323527
29.3516 24.1498 13.3565 30.054416976
33.2753 21.4655 15.5371 32.189992532
34.2405 24.1153 13.5879 30.0934577847
28.6907 13.6805 17.6744 28.0557450918
27.214 13.2081 19.9991 26.8650487361
31.3098 16.297 17.5837 26.6878508821
31.3203 13.1697 18.0863 34.8905176145
31.7227 15.8493 20.123 31.7184850835
31.8935 13.0259 21.1209 29.3015926247
36.8914 12.3844 20.1474 30.2790415575
28.5715 16.5775 18.505 27.7255623033
25.9943 18.3364 17.6091 30.7222822755
24.8381 16.8544 19.9056 31.2050459413
28.9427 16.7653 21.0878 29.3592982835
31.5777 20.4147 20.3095 32.0314853085
29.3342 18.9767 16.9894 30.0231973045
31.8426 19.7522 17.6458 30.7770488896
34.2957 16.6051 21.0851 29.6927828539
36.0899 16.7917 18.9925 31.9888560494
33.8719 17.7109 17.4471 34.4388813999
27.1912 21.2971 18.2376 32.0060263526
26.858 20.7454 20.8629 29.7799856809
24.8756 21.2626 16.799 33.8922432037
29.9216 22.3512 17.7343 30.8321025062
35.1095 23.1129 17.3067 33.3811491889
35.314 23.0503 19.9836 34.1153106369
26.6219 15.2246 21.6033 28.4084703683
24.9133 16.326 24.3084 79.9624712872
26.933 14.2182 24.4582 97.3178217325
29.5501 15.7609 23.7668 48.0289952085
32.0511 14.4827 23.5888 42.1531757619
34.4837 15.9143 24.012 56.3980920427
36.2886 13.5599 24.31 82.9542441029
36.637 14.6814 21.7223 27.043480606
30.423 18.3002 24.5691 109.9464980854
29.2982 19.5258 21.6538 30.591033742
28.7184 20.4076 24.1862 62.660917875
34.0431 19.3833 21.6335 31.7877937086
36.0238 18.0441 24.5096 88.0314163749
33.0732 18.9814 24.2166 60.6692674652
25.4279 23.7328 24.5305 100.1607671479
27.7181 23.8683 21.383 33.7697216434
25.9397 20.8053 24.238 70.1220651533
28.3527 24.4404 24.1048 58.9226129361
30.3597 22.6153 24.0309 58.9384421886
31.2102 23.0266 21.2312 31.6432883137
32.9312 23.6391 24.2444 74.2865985748
34.5183 21.4055 24.2481 72.0045298793
36.6333 20.7781 21.5751 29.7629074274
28.1225 16.2143 35.5927 88.7564520532
25.3645 15.2166 35.9504 54.9636575472
24.835 12.6328 35.3806 109.6389669865
28.8178 13.3783 35.8214 87.5790180943
28.9526 12.924 38.8248 36.2870631265
31.4038 12.4444 36.5269 39.4869369583
35.8483 12.5416 35.8094 93.1486292977
33.4529 14.1847 35.8424 92.9974364491
35.5724 16.1447 36.7124 38.2697104767
27.1504 19.2599 35.6143 90.1074513694
27.3371 19.4034 38.668 34.3421813425
32.6433 17.1417 36.013 66.7763405376
32.006 16.5878 38.8166 28.1350605643
30.4732 18.9632 35.7096 71.7247460479
29.3133 17.259 38.1451 27.8275638829
33.1862 19.2471 38.7953 28.7501815492
33.9222 19.7927 35.977 75.3209244346
36.673 19.9994 36.7824 31.8032173261
24.8141 22.0648 35.8434 77.0321986371
26.1936 21.9384 38.2556 31.2995873171
29.1536 21.7018 35.6907 83.0609458402
32.0085 21.9519 35.7597 70.777778992
29.0166 23.2937 38.1336 31.6121575795
31.4539 21.4038 38.5873 28.045250841
35.8284 23.875 35.8282 69.6957756264
35.5425 23.3462 38.5391 27.9019493605
32.9124 24.4393 35.9898 54.5281271547
25.6324 14.7481 39.6206 29.1714994427
28.1957 15.5367 39.9811 33.4714071265
24.7724 14.9717 42.0677 33.4902290852
29.2744 15.6436 42.605 31.4236939869
35.6765 15.3565 39.381 32.0082419751
33.2348 14.4628 40.0293 29.78782204
33.0691 14.9244 42.8083 36.7202192216
24.6716 18.6657 39.7852 34.1012633017
30.0272 19.702 40.2406 34.0062317213
31.7445 17.5573 41.4154 27.2323514996
33.9441 19.045 42.3962 29.2737268471
36.5546 19.0312 41.5738 35.8263249151
35.7951 20.4124 39.2059 28.2140568525
24.6291 22.2597 42.8141 35.7619553484
30.4711 20.6113 42.7859 35.3121183693
33.2506 21.6691 42.5534 34.2783116789
33.2928 22.9903 40.0871 30.1843604943
27.3461 12.9984 45.8407 31.5062235261
26.8162 15.5713 43.9771 32.2567247214
25.8487 15.2911 47.1265 30.389678184
30.0132 13.5693 46.4404 30.1037811378
30.8864 13.7363 43.5511 32.9704878618
35.0598 14.0875 44.7638 37.1861409021
35.4778 16.297 45.9452 31.8294599487
34.4366 12.8753 47.4236 28.3735969148
28.1677 17.3118 46.2365 29.1208801633
26.0319 19.4136 46.5548 28.1013325707
24.9349 17.6473 44.6179 36.5869089861
32.3363 17.7195 46.3029 34.2629377711
30.6033 19.9952 47.4402 36.4838802614
30.2041 18.0305 44.213 33.4195038131
34.691 18.7448 45.0176 32.3317314176
26.6337 20.842 44.1082 39.4992275745
25.8943 23.3839 45.8777 28.8851410332
30.6434 22.702 46.2136 29.5630887179
28.7683 22.7029 44.3045 32.6581678186
36.1539 20.5249 46.2028 31.3168870336
32.9647 23.3875 44.7355 35.1832547944
35.0303 22.8998 46.7317 33.5009071714
26.1489 13.0709 50.4083 26.4288507679
24.9255 15.3679 51.365 30.7999635229
28.2227 14.4746 48.776 27.8629377671
31.4807 15.6302 47.9221 30.3213112882
32.3208 13.772 50.4902 33.0724230923
29.5724 14.4284 51.3493 32.0609656646
35.4015 13.7993 51.0786 28.9581895126
34.3074 15.6774 48.6196 33.6782524915
28.0079 20.0087 48.5117 30.5302642994
26.0955 19.3541 50.9806 29.5220645292
29.3282 16.8257 48.6744 27.5377687955
28.8225 18.1804 51.1817 34.4056506477
35.971 17.5587 50.397 33.2876320678
27.0719 24.1832 50.9972 32.9011380896
27.2667 22.6769 48.1873 29.4556558166
24.879 22.0335 49.9424 31.5622285907
29.648 24.2654 48.2555 30.7423680703
30.0233 24.0112 51.2164 33.1098637687
32.8399 24.021 49.7446 30.5627313015
32.9326 21.6816 48.5837 33.6683185533
34.8481 20.4306 50.2286 33.0137215226
35.1739 22.3832 51.8466 26.6656863177
25.1135 14.8967 55.7929 31.397241704
30.7006 12.518 53.638 28.8379221424
29.9293 13.5284 56.1087 33.9867243161
33.2282 13.7317 53.3945 30.9357229984
35.9618 15.179 56.1924 28.7615370482
25.7586 19.6956 56.2956 31.3022231183
25.0649 18.9096 53.724 28.8279402818
25.9494 16.347 53.7869 30.2100998693
28.7472 16.4189 53.4137 34.2914008551
29.4627 16.4401 56.0457 29.9389703094
30.3249 20.0039 52.7412 35.2000925947
31.737 18.8599 55.549 31.9950657093
28.7662 19.1663 56.3918 28.3509786424
33.3725 19.5804 53.1161 32.6951951743
35.7055 18.1662 53.01 32.0028155274
33.7964 16.3768 54.7726 37.1148807601
26.3488 21.7553 52.7965 30.9385873743
28.6657 21.0712 54.4119 28.2677008914
32.2275 22.4836 52.6009 30.1380353121
31.9792 23.8331 54.9902 29.9629538197
29.6017 22.9937 55.918 33.4267786484
36.5914 23.0408 53.7541 27.3873354375
34.8323 21.1839 55.028 29.2527656434
27.6715 26.0373 6.05953 32.4432225216
24.9258 26.9342 6.46513 28.9514754086
30.9152 28.0697 3.90758 38.7527839042
30.1453 27.6447 6.72031 36.5990872369
34.8584 24.81 5.22074 35.106175157
35.756 27.2074 3.9998 34.8654217761
28.4031 32.483 6.18761 29.9687336906
27.3012 30.515 4.04426 27.4464550243
28.3301 29.9446 7.53566 34.2477949439
24.9834 29.7898 4.96745 30.6666413354
32.3433 30.6252 4.52977 35.7534277069
32.3565 30.9252 7.3458 31.2868069891
35.9833 31.341 5.37393 28.1422980063
34.9429 30.6242 7.83759 28.7706727571
26.3615 33.6964 4.08286 30.0749889621
25.6226 35.3331 6.21948 28.0066970577
28.197 35.754 7.04867 27.4314435277
30.8569 33.1139 4.86559 27.8012536508
30.1099 35.7551 5.12291 28.3191418216
32.9638 35.2548 6.36473 28.1871937847
34.8853 33.6952 4.63464 30.5477545962
35.6879 36.1489 6.79048 33.0359099629
25.7149 25.0815 11.5057 28.6726337951
25.2799 24.8603 8.65271 33.3955105458
31.3005 25.7993 8.3504 36.4381790793
31.7772 27.2016 10.5658 33.1285023545
35.5266 27.9445 8.00698 33.8113742054
34.4952 25.4277 8.03923 31.2691176809
33.9607 26.5886 11.9585 30.8331531517
36.3213 27.7063 10.6294 26.9075160022
24.8211 29.1248 11.2609 28.2322563796
25.4514 29.2993 8.33171 35.420469575
27.366 30.6113 12.0521 30.3756494823
29.003 31.2077 9.81836 29.2745116016
31.3586 30.066 10.2127 33.3805837733
35.9485 30.1524 11.6663 27.206052381
35.3238 32.1723 10.1635 29.971817511
25.6818 34.9525 11.4193 33.1664793289
28.3768 34.2093 11.5305 29.8590961697
24.9031 34.1663 8.62608 34.2465840641
29.4623 36.6319 11.7747 26.6799772991
32.7935 33.4418 11.1257 31.5437318347
31.824 33.5305 8.15668 28.66020309
29.1715 33.7319 8.74287 27.2407797929
32.1443 36.1366 11.9892 29.254039288
36.8058 36.327 9.31248 35.1920593857
27.2109 27.5758 12.5004 33.2139111408
25.34 26.026 14.5561 27.1639802283
27.3704 26.469 16.1628 31.1145488574
29.8863 26.943 12.6815 32.1664681362
32.1014 26.1157 14.9165 27.7988110768
30.2153 25.0247 16.7444 26.7222413524
34.5803 27.9388 14.2203 27.4109948487
24.8969 29.137 14.378 27.2663788498
27.6486 29.6042 16.1426 27.7025366265
26.0613 31.9229 14.469 29.6199602234
31.4428 28.7397 16.3623 27.4112759342
28.8831 32.611 13.7331 27.180235881
29.7121 29.5733 14.1954 28.9063206149
31.7094 31.4403 12.6899 27.8284760954
34.6921 31.5033 16.6316 30.4312976021
34.1347 30.6109 14.0148 27.5493454445
27.3325 33.4686 16.5096 29.4275095874
29.4452 35.2421 16.0197 34.4266295853
31.4572 33.5919 14.9697 29.305468854
33.7304 35.3129 14.7401 28.6501619392
35.0232 33.2037 13.3436 29.2781546402
26.5968 27.908 21.0971 28.5591377447
25.7355 27.0906 18.4776 31.7105489546
29.6966 27.9985 18.2022 30.5214062995
32.2895 26.3243 19.4799 27.9382098993
29.9144 24.8339 19.6404 28.3197453305
34.2377 27.877 17.1626 26.6920842795
34.4946 28.3781 20.1973 31.7428225026
33.3218 25.2011 17.3073 29.139878655
26.2634 32.586 19.0201 27.9828849256
28.4888 30.909 20.8435 27.3436514507
28.9354 31.1689 18.0034 29.7018946174
31.8624 32.6757 19.6722 33.0811609231
31.7689 31.5063 17.0955 30.0441688009
36.8828 30.846 21.0664 26.054754891
36.4647 30.1054 18.1691 29.5632395583
25.9588 34.647 20.8896 29.4250747914
25.0773 35.3687 16.8241 34.2398078643
26.1555 36.6873 19.1146 35.2891340156
31.7726 36.5794 17.4807 29.9396272789
35.8354 33.6109 21.0119 28.5906547797
34.974 34.2192 17.0902 30.0100360012
33.7498 34.7719 19.6875 29.1564018079
25.1523 25.0741 21.6512 27.768944105
26.2583 26.8127 23.7227 38.78723492
29.4303 27.6988 21.3256 29.454385704
29.7694 27.0658 24.372 87.6397208736
32.5691 28.1034 24.3905 77.816874102
36.174 26.5392 21.3037 28.725732387
33.7325 24.8533 21.3948 29.8264316753
34.427 26.0491 24.2805 73.4255475916
25.6779 30.8375 24.3927 73.0587933518
27.988 29.2317 24.0088 47.75679279
25.7938 30.5033 21.341 27.442665779
31.063 29.7071 22.4297 29.2420620632
30.2213 31.3849 24.5014 97.2066059608
33.7867 30.8841 21.3005 28.7532690591
34.0316 30.3855 24.1259 66.1572989334
25.894 35.2499 24.0039 51.2815114497
28.191 33.3889 21.7913 29.3130365004
27.5658 33.0038 24.3909 71.0293110863
28.5985 36.4589 24.4526 95.1171641977
31.1374 35.2313 24.0381 56.5509257081
30.8566 34.7815 21.2473 31.9997569734
35.1988 34.7776 23.5799 37.4798613383
33.0252 32.768 23.7329 48.9925293252
27.7421 27.239 36.1816 53.9051815744
26.4837 25.1194 37.5489 33.1728943132
24.8842 28.0341 35.9428 79.6404137621
31.2966 27.7569 37.1045 29.3386503763
28.754 27.6884 38.7674 25.8575519722
30.0302 25.3111 35.8499 89.4613426649
34.3234 27.0232 35.7691 93.1217198362
34.343 26.536 38.6951 27.3811891864
26.3273 30.6103 36.6414 38.7530917929
29.8279 29.4949 35.6617 97.960116618
31.8754 31.6373 35.8219 84.9959851072
29.0015 30.5357 38.1477 27.4825898452
33.8623 29.7673 36.6824 31.8329647844
36.2496 30.9627 35.89 81.3866904867
27.8482 32.7595 35.7801 94.7047134812
25.7843 34.9775 36.1242 62.730183959
29.6909 35.0813 36.0947 57.7222049586
30.6704 33.0598 37.9751 28.3036977901
32.449 35.1991 35.8142 72.1727185189
32.3848 35.5366 38.7149 27.9336782492
34.4996 33.3104 36.395 36.9740389948
36.6864 36.6092 38.0484 28.3250059204
28.3865 25.2114 43.0565 33.5336495089
25.6869 28.2663 38.9724 29.2812661797
32.4075 25.8804 40.7947 31.7922532381
29.2571 25.1547 40.4183 40.8741703283
35.583 25.0806 41.1796 31.4337349031
25.5127 32.5057 39.0596 30.7661758558
26.084 28.6372 41.8398 30.3387194266
28.6637 29.8664 40.9724 30.0424210694
32.0511 31.5571 40.2968 29.2669187186
29.5118 32.5133 41.9091 28.5855095868
31.4361 28.7742 40.0168 30.7193564032
34.784 32.4117 39.0658 30.3389498811
34.2439 29.2366 39.4849 27.7490258144
33.1325 32.6568 42.651 27.364273406
36.3999 29.8193 41.2032 28.3733161048
26.981 34.1046 40.6302 33.016610936
25.6297 36.4264 41.9022 32.0240126935
29.9123 35.4815 40.4315 31.9037432876
31.0805 34.9586 43.2667 28.9665236069
34.7006 36.5567 39.9043 29.3256002033
35.5599 34.3211 41.6417 30.9604807975
25.7606 26.0953 46.211 30.0695958101
26.0618 26.5317 43.4949 31.2032107554
30.2984 26.9978 44.2396 32.6094981288
29.8517 26.8137 46.9677 34.9212029428
35.3756 27.4616 43.492 31.780504318
36.4136 26.9849 46.1908 30.3872953607
33.0941 25.9667 43.527 31.6621271098
26.3794 30.8223 44.4115 29.4713546295
24.9357 30.5709 46.7432 29.7606941823
31.2696 31.3195 44.3768 26.8949393451
29.2702 31.1881 46.6837 30.5317674803
29.0734 29.5049 44.0493 30.6437081666
33.2142 29.2775 44.6719 30.5616638396
33.5542 29.5152 47.258 28.7712875465
36.2405 29.3266 47.5252 28.1797802928
35.1326 30.9173 43.5081 27.3533509666
36.7543 31.4619 45.7174 25.7332641875
27.1126 33.5425 43.5043 26.4416394065
28.3404 34.0671 45.8572 27.5844651078
24.6437 35.5408 46.3288 28.0876322816
29.1932 36.6692 44.5566 27.4503545622
31.209 34.3043 45.9762 28.2750143276
33.7336 32.6857 46.0193 27.1395204779
35.6457 34.574 44.5919 33.8811213145
27.3744 27.3873 48.0597 27.8674676405
26.2262 26.6723 50.5204 31.0522777785
31.5609 27.8088 50.9635 31.6906069088
32.5072 27.0752 48.6881 29.7769849667
34.7853 25.7009 47.8464 28.6828036591
36.0898 27.8165 50.017 28.9182195364
36.0363 24.9295 50.5809 30.1491496885
27.1244 29.6847 47.896 27.368273518
27.5373 30.5547 50.5624 31.3352593189
31.4364 30.981 48.2816 30.7736607886
30.3746 30.3941 51.1156 32.5658690912
32.0034 32.5955 51.36 30.5220096577
34.4571 31.3594 51.6415 34.5161041734
34.1987 28.698 51.7777 32.0139445441
24.7823 33.0684 47.7415 30.3557358732
27.4536 34.8321 48.5217 28.0904406817
26.3226 33.0955 50.5688 31.3409993654
31.9635 33.7492 48.8615 25.6527754501
29.9871 35.2538 49.1581 29.5991525918
29.5114 36.5434 51.5619 31.8037417795
36.3299 32.8865 48.1229 29.283299253
34.6399 35.4937 51.312 33.6506994479
34.4594 34.7787 48.5012 29.7468969452
26.0337 26.4556 54.602 30.3018237518
28.4197 27.8284 53.5717 28.9681760716
27.3184 24.7229 56.3822 31.9068996277
28.3248 28.002 56.4434 28.8466100546
30.4982 26.1237 52.6864 29.8132722279
32.2745 26.4861 54.7728 34.418150822
36.8834 25.8623 53.1492 31.1091485635
34.7276 27.6124 54.1765 32.6726788522
26.461 28.7712 52.1157 25.0647891719
25.9717 31.1038 54.6734 31.6276211067
28.7455 30.8073 53.8001 33.5295420332
36.2121 32.1084 53.9261 33.6823223046
34.8409 30.3505 55.9015 36.1327328976
28.1139 34.8028 54.9963 29.5461531801
27.6059 34.8855 52.3689 31.005927208
32.2921 34.1605 53.6182 31.7035016843
30.1259 32.8872 55.18 32.5980152705
34.6128 34.6143 54.8432 32.664330465
28.3208 39.3269 6.43398 29.0765440013
25.9557 38.0654 5.2208 29.96577468
30.9329 39.7357 7.70696 27.808714128
32.114 37.9957 5.60447 33.9133677468
36.2346 38.6171 5.27112 34.5144402891
35.8384 40.5668 6.80103 29.2918907143
34.0101 39.1495 3.95523 29.9755043739
24.923 43.2033 5.98529 30.4106398881
27.2486 43.0698 7.50342 31.6901956848
26.333 41.9848 3.63449 32.5286386081
29.0368 41.8961 4.81469 29.6167862744
29.5743 44.4259 7.70725 28.4804709308
31.5653 42.4936 6.52072 28.805383274
34.1798 44.1512 7.41822 35.779310792
34.1075 41.7179 5.05611 30.2012086302
26.1639 47.5892 4.21477 35.1255023427
25.7906 48.8035 6.59544 31.2382613466
28.4239 48.8607 7.42294 29.5799750872
29.3613 48.2372 4.68464 28.7605958556
29.7454 45.6257 5.31706 33.3923432028
34.8614 46.1106 3.92259 29.8443798579
32.8334 46.0213 5.75588 32.6316145447
33.0343 48.9259 6.25227 32.1951638771
26.9145 40.4056 8.53486 28.1720959056
25.0849 37.7534 11.445 30.2795613146
27.3582 38.8218 12.1826 31.546026274
31.8858 36.9574 8.71741 30.75566869
29.0824 37.5008 9.01461 29.9449426621
28.7198 40.6403 10.4357 29.2180220485
35.8569 37.6345 11.4553 32.2016944078
33.3096 38.5798 10.5355 28.599951041
33.4683 40.8045 8.74163 29.1345515181
36.5857 40.0062 10.1332 25.9917018463
25.7511 42.9632 10.018 28.8922642706
27.8351 42.9685 11.913 31.8215127361
31.267 42.7703 9.86523 30.2020507179
31.7112 41.247 12.0789 29.798744709
34.6009 41.664 11.7656 28.7046254156
35.7816 44.0334 11.7364 31.5628468285
26.8226 45.9198 10.8463 29.1156736049
25.586 48.3889 11.0842 30.4751383345
29.1541 46.8174 9.32749 31.0303940504
31.3965 45.5932 10.5464 33.2451778261
34.14 46.152 10.5027 33.7137080199
36.1028 46.3628 8.4923 29.1104890195
35.307 48.9887 7.98983 33.1084248914
27.2189 39.4074 15.177 32.4704970254
24.8998 37.8975 15.5525 33.93952615
31.9104 38.6989 13.4351 27.4743065468
29.219 37.3915 14.3982 31.2777977518
31.5898 38.9655 16.2942 27.7349888212
34.6608 38.0087 14.4632 28.9136137976
26.5923 42.0156 14.3814 28.5869245239
30.6397 42.0833 14.6805 32.4873080017
29.2137 44.4482 14.8764 28.175156589
33.1315 42.9035 15.762 31.6276300581
34.6498 40.8818 14.5688 26.4506680482
27.8819 48.008 14.4918 29.1944231443
26.8706 45.5859 13.6535 28.436856827
30.3725 48.7031 13.6325 30.5507334272
31.0505 46.0742 13.3496 34.0793469651
33.7047 45.9348 14.8247 29.9780115193
35.255 48.2083 12.4365 33.0471067887
36.1744 45.3159 14.2035 28.2488980565
28.6133 38.328 19.3236 34.5357663223
29.3255 40.4145 17.3768 34.1594647553
31.0551 37.1563 20.0528 30.9637760145
35.8909 38.645 21.1473 29.6176384241
34.034 39.8767 17.3402 32.4851241608
34.4353 37.6227 18.9375 33.5479360274
27.9991 44.5289 17.1617 28.2350295989
28.1036 43.0234 20.9448 26.8305205542
25.413 43.8505 21.1893 30.7456472228
25.8905 43.1198 16.8547 30.5932853947
29.5301 42.8699 18.7215 28.819349056
32.2159 43.7594 18.4104 29.4821120723
34.9337 42.4608 18.6512 28.3114678306
34.887 41.455 21.1662 26.7440314634
27.7808 47.2266 16.9952 31.3333767189
25.1372 47.8996 17.4965 31.6696802216
30.643 47.376 20.9898 27.808929959
30.3126 47.7575 18.3546 31.1262869571
32.5522 46.3939 17.6675 30.5434502375
35.1542 45.3426 19.2423 30.1398949874
35.1348 48.1596 17.011 30.4939292294
34.4544 48.4775 19.8684 31.0431307527
27.3351 39.6005 21.2281 32.5235547344
27.3481 38.6158 23.8097 35.4273718489
32.6078 39.1967 21.4036 32.4102309634
29.4371 40.2894 24.4037 89.7400577092
32.4915 39.3022 24.1082 55.4983583793
36.3082 37.4584 23.6129 47.842558317
33.1831 36.9129 24.3136 89.9984000166
27.1488 41.9244 23.5565 31.1345724074
28.4041 44.9135 24.2266 59.8704091219
25.7114 44.1783 24.2662 74.9261135557
30.7334 41.6692 21.66 31.1952521615
30.3723 42.8897 24.2559 65.3122007174
35.7979 44.5198 24.4343 62.6476714777
36.5445 44.8603 21.8587 29.0042200058
33.1703 43.2325 24.3289 63.5106218065
32.8713 43.5465 21.2867 28.4366768165
34.79 41.0086 24.329 73.3646789983
25.5763 46.749 21.7347 27.5982973407
27.0619 48.2201 24.4443 95.1094618517
28.4016 45.8236 21.3621 33.6214563176
32.8079 46.2526 24.1869 58.967205608
30.1906 47.2843 24.4354 83.3088019987
33.2542 46.4964 21.4397 27.4495739508
35.5565 47.4159 24.4815 83.4116301201
25.0707 40.0843 38.6809 28.1392556756
27.2599 37.9115 38.7172 33.3456233436
25.2967 37.9307 35.5664 84.9917808411
28.2632 37.3369 36.1274 48.6713780045
29.9904 39.266 35.8501 73.0980491345
31.5878 38.0825 38.0968 28.1146846144
32.7333 40.7853 38.7838 34.2338872064
35.9262 37.2096 35.3524 100.8176934396
36.8469 40.1688 35.715 81.8337964905
33.0164 38.0248 35.565 75.5415386663
28.3357 41.4646 36.2081 48.4387030304
25.7828 40.9147 35.753 76.3033827059
24.8805 43.4196 36.4374 40.963590512
29.7855 44.81 38.7849 31.4244166149
29.9487 43.8741 36.224 51.0970213972
32.8162 40.9194 35.7268 77.2758924982
33.2867 43.5138 35.8345 84.8733902269
36.0563 42.9556 36.4395 48.9658108545
27.3593 47.9095 36.0037 58.5054901262
27.4576 45.0944 35.64 109.5109793772
27.1275 46.9964 38.4386 30.0692314233
31.4432 46.6064 35.8719 80.3032012924
30.4309 47.5791 38.7467 30.8705271919
29.8546 48.8622 35.9219 58.2448548065
34.1298 46.5783 36.6357 35.9778060512
36.807 47.4192 35.4536 116.4022331573
28.1256 40.7695 38.9671 30.0449656747
24.8197 39.3194 41.5718 33.083784803
26.8888 40.6761 43.1222 32.8627313821
32.436 37.3353 41.9263 33.1777028388
29.6857 38.3747 40.3811 27.4891328867
29.6298 39.0982 43.0403 28.8203449897
35.3398 39.0074 41.4564 30.8293952149
32.9324 39.8242 43.1947 27.6363298949
27.3394 44.2263 40.2476 29.5478920176
28.6395 42.0761 41.2242 28.0682761592
25.0665 42.9649 39.0488 33.0069689925
31.5405 44.629 41.1308 29.6985076024
31.2706 41.3449 41.2124 27.4922371347
35.2297 41.5529 39.1233 28.266737726
33.9575 43.5959 40.9782 28.7568754354
26.3947 45.799 42.2605 32.2795619018
31.3248 47.6056 41.5187 26.8178470132
34.1409 47.3395 40.8365 30.2096634036
35.1965 45.1795 38.8569 30.9971629994
35.9926 47.3073 42.8804 28.969544211
26.0718 39.2632 45.3402 26.766681187
28.3615 39.183 47.6319 27.9583961242
26.4358 36.8298 44.5083 27.1047135217
32.6036 38.4711 46.0468 34.0686874232
30.1462 37.1901 47.1997 31.7523589083
33.325 40.8391 47.1813 35.8445863046
34.6846 37.4215 47.512 34.2605054406
27.4111 42.7711 45.3004 28.039540479
26.6754 41.7229 47.6474 28.9048760181
25.4745 44.4367 44.6513 31.872157832
29.9329 41.93 47.6782 30.1982093714
30.8215 41.1243 45.015 29.6597437258
29.3086 44.6023 44.741 28.3133512735
29.8817 44.856 47.5543 29.7816512725
31.4527 43.6054 43.6843 28.0483079315
35.2467 41.5105 43.7835 31.4509580819
35.1267 44.688 43.5809 31.265860665
35.9373 41.4988 46.6139 30.2263136599
27.5283 48.0363 45.9754 27.5685069016
28.4328 47.0747 43.6896 28.4994980371
25.2878 46.4784 46.2412 27.6464833965
32.6952 45.7082 45.322 34.8422338548
32.5936 48.033 44.1681 27.0301571373
35.1793 48.9682 44.9571 28.570621889
36.2611 47.8644 47.1306 29.7746667398
26.2968 37.307 48.2551 26.6286738235
28.5479 39.1293 50.6396 34.2521637637
25.6384 38.6271 50.5872 27.2008906076
36.2593 39.352 48.5596 27.7872676883
35.5006 39.8045 51.2009 30.0085972677
27.3892 42.8296 50.0421 28.860753698
25.2831 43.0475 51.708 27.4493350027
29.4148 41.6348 51.8123 30.2927599857
31.9582 41.9051 50.0447 35.1757063261
33.16 44.4409 49.7451 29.803812295
36.0982 43.2834 49.0784 30.6331274525
28.5771 45.4796 49.8692 28.1389557554
26.1173 46.1969 48.9629 27.9287206791
26.1043 48.9404 49.7882 30.8214812799
32.1323 46.4598 48.1655 29.2934348112
29.3909 48.191 48.0926 25.8331740882
34.9004 48.7154 49.3777 25.8970806214
35.2373 45.1261 51.3457 31.8005902075
36.081 47.815 51.751 28.703479936
26.368 38.2754 55.3977 30.5838066034
25.5882 36.7946 52.7132 32.1788644063
29.7007 36.9884 55.6927 30.0209419243
28.7778 39.7845 55.8662 30.9957267087
30.1594 39.6854 53.5651 29.2043545107
32.5504 40.4819 54.501 36.9484697119
31.4585 36.9635 53.5024 27.751133887
33.811 37.8763 52.2873 32.4534123419
34.9401 37.3869 54.7415 30.7348624147
26.6161 43.5647 54.1721 33.6009721704
32.1085 44.8399 52.2958 31.0255977729
30.4941 43.8896 56.2137 35.6988540472
29.2691 44.0685 53.4514 30.9237336838
36.0036 43.4093 53.6577 33.02888864
33.662 41.7535 52.3486 30.5840523847
35.5046 43.4954 56.4018 34.9545016135
25.8417 47.2585 52.5425 29.0624425238
28.3784 46.5258 52.3023 29.8344302416
32.0312 47.9789 52.0977 32.4710860345
29.521 48.7613 53.3541 29.1576869623
31.1683 48.2058 55.5192 31.1668590348
32.8693 45.6889 55.0579 32.971426312
35.9966 48.1078 55.1626 29.1835236316
40.8839 3.79916 5.62985 28.1289926203
37.6262 1.34336 6.82557 26.6739195838
37.9999 3.46059 5.26042 26.9064293887
41.4805 2.22748 7.63703 27.5044821726
43.7267 1.09426 5.75523 27.1564868125
47.6094 1.50913 4.49744 32.3084107624
45.2726 3.56459 5.82348 28.7089741539
39.956 6.60305 6.38125 29.5093824804
37.6223 7.03081 4.86943 24.6863871347
43.2068 5.59345 6.08369 29.1238204069
41.1373 7.9753 4.17227 30.3407377234
43.6618 6.96853 3.59305 28.6243187347
46.257 6.75926 5.00715 27.7634583907
47.1594 5.2443 7.27634 29.0765135673
47.684 4.25242 3.71556 30.0322930657
40.6767 10.2157 5.71007 28.1240392781
38.1182 9.84194 4.41777 31.955326746
43.2262 10.113 7.31852 30.8693467408
44.3767 11.1068 4.17414 30.7422683625
41.5591 12.0119 3.72389 33.3265639784
47.832 8.87133 5.98747 32.3120326018
45.9508 11.4573 6.13943 27.4453455772
38.8689 3.83549 11.4643 31.8186313253
39.2562 0.950617 11.062 30.8964087193
39.6276 0.586855 8.53886 26.7296584731
36.9626 2.83807 9.41281 33.7321572168
44.7859 1.25701 12.0283 27.0020164938
41.9345 1.80542 11.5943 26.9046946407
44.8299 2.73046 8.75353 28.3064167571
43.2391 0.251552 9.14064 28.1865967297
46.5945 0.108158 10.5352 25.4378287089
47.5005 2.12178 9.34768 31.9856372482
48.8165 3.9337 11.0772 31.2445485115
39.5567 8.03935 8.52651 25.9780947274
38.31 6.42835 10.3443 30.6465928755
41.4682 4.13174 9.86471 31.0768952967
44.3187 4.82762 10.5311 26.9149241084
41.7155 7.00362 10.1098 27.0708719318
43.6692 7.30738 8.29681 28.4045485457
46.5154 7.06252 9.09583 28.2097206023
46.9477 6.04746 11.5397 29.4616012808
48.7676 8.13626 12.1602 29.0238952656
37.8236 11.1716 10.0466 31.1515017508
40.3519 10.8166 9.09025 27.7323691908
39.0149 10.013 12.3035 30.5037628406
44.4368 8.68752 11.2106 26.9679061895
42.6762 10.9542 10.5884 25.25754115
44.7508 11.9763 9.36056 26.7873555873
48.8396 11.7378 8.48926 27.5601714194
46.6937 9.89545 8.96602 26.4445482661
47.4826 10.451 11.573 27.3081904464
37.7949 2.33099 15.6697 31.2573912479
39.2204 4.03918 14.1003 32.7060686285
42.8736 0.674024 15.1952 30.0523433992
42.1536 3.07474 14.075 30.2079435054
45.6578 2.60903 14.4642 27.870471189
48.2228 2.65188 13.8564 28.6004940657
37.6466 7.70077 12.6787 30.2046587679
39.2822 6.88815 14.6588 28.1649738168
37.0508 7.28041 16.3464 32.6728671382
42.564 7.20368 16.3611 29.8569646197
41.5355 8.16684 12.6621 28.2957395914
43.7749 7.49326 13.9459 25.6146741393
44.3668 4.75926 13.0796 26.7374705499
41.3525 4.70171 16.6906 32.7331941194
48.4449 7.93011 14.8567 29.7663945504
45.5751 5.50535 15.8347 27.2734082284
48.412 5.09422 15.367 27.7707964484
37.8764 11.7721 14.2604 31.0782140492
40.4717 11.7416 15.1758 31.0172559626
40.5791 9.01902 16.1825 35.7186243797
42.765 10.796 13.3875 31.7041860439
45.9589 8.50638 16.0027 28.9967680652
45.4479 10.2511 13.6103 29.178442155
37.9008 2.97041 18.2382 32.6357563755
44.5838 1.57835 17.1688 30.0035107
47.1594 3.54455 18.5126 31.0942947283
47.3771 0.894957 17.7674 25.6317251504
38.2964 6.74813 19.334 27.2189865939
39.996 4.60377 18.9623 31.0340313381
44.1432 4.43588 17.8177 30.2691433371
44.5848 7.9634 18.4756 32.4353844386
45.1581 5.67728 20.3747 29.2826458113
47.0462 7.85212 21.1716 29.0051099602
37.1781 11.8184 17.374 28.5510267185
37.075 9.54723 20.7619 26.8497272417
38.2425 9.05699 17.7985 29.384634005
44.1629 10.4952 19.9757 35.4593138064
48.2186 8.52557 18.3204 31.7501494157
46.2677 11.7768 18.2105 34.567176224
48.7177 11.1944 19.3337 28.8955940139
40.1804 0.991797 21.5722 29.9681665318
38.3157 3.39346 21.4366 27.1627351919
38.6201 3.48273 24.272 57.0544692022
40.6905 0.264581 24.2306 64.3141066163
38.0064 0.858429 24.3166 70.7210681158
42.3268 2.7846 21.5934 31.2712582205
42.8252 2.17133 24.2965 63.9595808742
45.1792 2.10421 21.6073 29.6057422324
48.7095 1.48401 21.977 28.7517285846
48.0583 0.48905 24.3339 82.6823892736
45.9616 2.58871 24.3576 66.5195647108
37.6705 8.02091 23.9711 58.814627231
40.558 8.01631 24.1529 61.0575302331
43.2703 7.20965 21.7358 31.0783932666
41.1822 5.11241 21.6655 27.7220311227
41.1195 5.17628 24.4924 81.2908038501
44.0889 7.89031 24.3185 73.3383551639
43.9445 4.89964 24.3256 63.3676030535
47.4483 4.09591 21.6794 27.2019957609
47.6677 5.07133 24.3165 71.0340157389
46.7036 7.71815 24.1028 59.8423959739
39.6632 8.18907 21.5258 30.6937265065
40.5183 11.2125 24.3613 93.013493549
37.6993 10.831 23.4872 34.8539102478
41.4004 10.6665 21.6608 31.2581902442
43.5651 11.0627 24.2021 78.713951211
47.6351 11.773 22.108 27.6071758568
45.3853 10.2552 22.2716 27.0785859512
49.1734 9.12558 24.1463 59.9974802851
39.7339 2.00781 36.0324 50.4201243915
40.9196 2.7953 38.7553 27.8552277126
37.2183 2.68155 35.7649 88.5095976324
42.0692 3.85973 36.0003 49.8820716515
43.5685 1.50619 35.152 114.7242101166
45.8573 3.1356 35.7765 52.7066908479
48.5745 2.6955 35.7151 86.8780454492
47.5167 0.499306 38.389 27.3287394855
48.9195 3.08864 38.4489 26.9232379357
37.6623 5.52779 36.1547 58.374033368
40.4073 6.03603 35.7652 75.3731855084
44.0753 4.98336 38.0479 25.3359339883
41.8258 6.67279 38.0952 25.2487818925
48.4512 7.1342 35.7202 102.3055881235
45.7607 5.93639 35.8312 66.7942555526
47.3022 5.60795 38.1472 28.5589680104
40.2018 9.02184 38.173 27.4691741357
37.5278 8.20187 38.1962 31.582405092
40.6245 11.0028 35.774 84.8037088321
44.1189 8.30936 35.8279 58.785029276
41.5975 8.52538 35.4454 95.5027058973
44.1749 9.37022 38.5866 27.6705404197
45.4862 10.6861 35.8833 68.4495881187
48.3693 9.79475 36.2986 49.706749123
38.6761 1.68443 42.2312 31.1490663461
38.8534 1.22402 39.5233 29.0594857721
43.1831 2.20988 40.2422 29.3512078434
42.9444 0.545013 42.3603 27.827147696
47.5081 3.14124 41.162 28.9920600911
45.5542 2.81933 39.1066 26.3092915381
47.1287 0.620421 42.2799 28.0421760294
37.454 5.40253 38.9685 27.3067654199
40.2179 5.18899 39.8825 32.2290308031
39.9227 6.36764 42.5507 28.9191570006
44.5348 4.29596 42.5425 29.7983494884
44.7024 6.00973 40.6 26.0213165739
47.1221 7.21009 40.3417 32.5087377825
48.3882 5.72884 42.6979 29.6894185885
40.2996 11.1556 41.757 31.3271233327
40.9749 8.56485 40.8531 29.8475675809
40.8252 11.7696 38.9378 27.3819022315
43.6023 8.40845 41.2361 26.9457405553
43.6227 11.8828 39.1472 24.8273537405
47.114 9.86026 38.9947 28.7108125988
45.3272 11.2509 41.4567 27.2083729945
40.3631 0.224089 43.4931 26.5921459166
40.9925 2.50481 45.2249 34.754059375
45.0357 0.372998 44.7063 26.4631635551
43.5516 2.89142 44.9352 29.3149832478
47.6725 1.94988 45.2771 30.2537556586
37.3261 5.57985 45.4959 35.7016919512
39.2275 4.11113 43.7294 33.7965697279
38.2898 8.05627 44.3639 33.8774044988
43.5609 7.0125 47.6514 34.5005492112
42.7657 6.37033 43.6592 35.0713714814
44.2724 4.39504 47.3688 29.728461609
46.074 6.33956 44.1205 28.3089495408
46.6815 4.80289 46.5269 27.5983780641
47.9061 7.12925 47.1153 26.9276605452
37.1169 11.638 44.2069 29.9170222738
38.7022 10.0402 46.3025 28.1596658596
40.8161 10.6887 44.9044 31.6420101356
42.9891 8.77941 45.3625 38.7440628779
47.9188 8.86608 44.9727 30.9345620493
45.3712 9.26528 43.602 34.652496205
48.4468 11.4684 46.4817 31.1303275369
38.2657 3.61371 49.6188 32.9014903412
40.2068 1.98552 48.0225 35.6308554788
43.5555 0.821643 51.45 29.3822134953
43.0481 1.82033 48.7839 30.0471670425
46.7074 3.66595 49.9282 30.8358788073
47.3299 1.4928 48.1226 28.0322940425
38.3888 6.10693 48.1716 37.6531256401
40.9896 6.93202 49.6655 33.2014281879
38.8635 4.3938 52.052 26.0881928052
36.9337 7.58381 49.9702 30.557564892
42.7627 4.50074 50.3044 31.993722334
46.0181 7.77219 49.0057 33.7757406795
46.0643 6.26124 51.2729 27.8135264379
39.0918 11.1114 50.4533 28.7780437894
36.9934 10.447 49.0042 27.2600927576
41.2354 9.42133 48.348 34.386991791
42.7026 10.9288 50.4189 29.6751672369
49.1634 11.8737 50.754 28.0734743103
48.853 10.0271 48.658 28.0432176964
46.5882 9.92852 50.8131 27.9987238742
39.5822 1.10612 52.5168 29.2174380066
37.5075 2.87477 53.8854 29.4765807877
41.3863 3.75602 55.4775 28.059353612
41.5677 3.19721 52.5992 29.8201994766
45.0088 0.849692 56.1457 26.6487776719
41.8757 1.27827 56.3734 32.9542567459
48.8689 2.11651 53.1753 29.6215087118
46.1992 2.39926 52.2971 28.0556600808
45.7072 3.34658 54.8909 29.9252186631
40.8901 6.96666 52.6497 29.2025662295
37.0769 6.58523 52.4544 28.5051768823
39.0409 7.1299 54.9082 27.0973836473
38.7323 4.60981 55.7384 28.1280706284
43.6885 6.47685 52.502 26.4628302639
43.6245 5.05199 54.7691 27.3888708924
47.8195 7.67217 55.7814 27.6329327704
47.9765 6.59817 52.9517 32.4708201316
39.8584 10.3902 54.9302 29.1654424592
38.0244 11.4336 53.211 30.4217298473
41.0785 9.72408 52.4758 29.3082355056
44.4946 9.02215 52.6375 30.5188916554
45.2228 9.24205 55.2653 29.771064021
47.6115 10.4351 53.6807 29.2096951209
40.2297 14.9161 6.19032 32.1276563268
38.859 15.6872 3.61347 31.0393773141
37.2306 14.4418 6.5587 31.2862823554
41.5048 12.7984 7.42736 28.7709243248
44.5036 14.2004 7.077 30.4984411249
43.4487 15.4814 4.37616 29.3828019044
47.0027 15.5739 5.69426 28.0624853859
48.3052 12.6719 5.70606 26.9367048795
38.892 18.1404 4.46184 27.8385053535
38.8042 18.2128 7.30082 32.5651655493
43.1753 18.1185 5.28919 33.662621735
41.2856 19.4027 3.72947 30.7223961294
47.9121 18.6734 5.8971 30.0491256685
47.3954 16.5783 7.95294 26.5112121402
40.5954 22.2031 4.23023 29.3763369393
40.7131 22.4546 7.05336 32.3364439951
38.1516 21.0738 7.73247 29.6150625871
43.7739 22.381 3.94777 31.7355811066
43.6277 22.0539 6.79988 29.0542519809
47.734 22.9121 6.22425 28.8516022989
46.3473 20.5799 7.51978 28.9335440931
46.3564 23.6216 4.18201 31.8600953745
37.488 15.8532 11.086 31.2601624345
38.0626 13.9048 9.22866 27.8003531661
40.7311 14.676 9.74724 31.9371547471
42.4553 13.6508 12.0192 30.7450162745
44.5794 14.5817 10.8089 31.7303295676
47.5975 13.2107 10.778 31.2808966552
39.4826 17.9612 10.6243 32.8634286823
37.6604 19.9831 10.8562 29.5463715304
41.3564 17.0034 8.44981 32.9941393416
44.5803 16.3454 8.58911 30.4222499601
43.9533 19.0685 8.05013 31.5173065338
48.0813 17.8959 10.4426 31.5538433291
38.2049 23.0596 9.73125 27.4417586137
40.9772 23.2826 10.898 31.5778432239
43.004 21.1467 10.0771 32.9835654166
45.0111 23.2467 9.63505 26.395255773
47.6092 24.3043 9.92674 31.8614257083
49.1364 22.0032 10.4666 28.5403574805
47.0207 20.4336 10.1542 27.6601867703
38.1974 14.4194 13.5903 29.5231530208
40.5846 14.5225 14.5653 28.6352576346
43.2191 15.5334 14.138 32.0203129229
45.7166 15.142 14.9757 28.1066225078
46.7601 16.0466 12.4544 31.0745880472
48.8963 12.6162 14.4939 28.9535980813
46.4432 12.3781 15.406 34.9600230634
39.9478 18.416 13.4585 31.6064541549
37.2079 16.4913 15.1026 27.4067835144
37.6369 19.5483 15.3101 32.6073448981
40.1532 17.2022 16.1654 26.429322682
42.6463 19.8649 12.6211 37.5747048358
42.8399 18.0871 14.9042 29.7333869058
47.6779 16.7909 16.1638 31.4110705127
46.8006 19.1553 13.4632 30.8451479719
45.6207 18.8364 16.1609 30.4198638512
38.41 21.4301 13.2492 28.5839275721
40.9111 21.9001 13.9361 29.794971384
36.9605 23.9465 13.8964 32.4623951221
39.8248 22.4411 16.6067 30.5651534483
37.3868 24.149 16.6656 27.9938263594
45.0816 24.0023 15.2202 35.5788421085
42.763 23.7532 13.5203 28.3966170339
46.9575 23.4492 13.1413 27.3557070993
45.5356 21.3842 12.4292 29.0112921134
48.1013 22.199 15.9995 31.3378017244
40.9379 15.5114 21.034 30.0214204647
40.073 12.9908 17.8541 35.5312972635
37.907 15.0098 17.372 31.2273286594
39.736 12.8333 20.9213 28.9785839728
41.3154 15.5681 18.1448 30.1407146212
44.0568 15.0906 17.5773 33.4902773097
44.8114 13.8145 19.8507 30.1935463004
48.9713 15.3982 18.4371 31.3057409648
47.0044 15.4824 20.8188 31.3153218555
39.1801 19.8036 17.6568 30.1244733767
37.6877 18.9865 19.798 32.3582655143
44.0164 17.6952 18.1867 30.29370329
41.939 19.7511 17.7494 36.1309340595
48.2923 20.0304 19.3828 29.3630369658
42.0189 22.5909 19.1058 28.4630994744
44.7387 23.2263 18.4042 34.5509972865
46.3639 20.8449 17.8394 31.2681657613
39.0985 14.0378 24.0589 59.6199888568
42.9017 13.3067 21.7134 27.5287304824
43.9362 13.7605 24.0663 85.506587122
41.8089 15.7546 23.9154 60.4694898065
46.5965 14.1438 23.0479 34.9123601626
38.4647 16.4941 21.4734 28.7946441673
39.6834 19.6089 23.9093 51.3755253633
38.577 17.1207 24.1468 64.5586030895
43.7104 18.2335 21.2591 34.1341649335
43.6656 17.9503 24.217 78.9409792207
42.3522 20.2817 24.0962 64.9679339491
46.4537 18.306 21.2509 31.6540201378
46.5165 18.1492 24.0748 76.1995491376
39.0781 23.8922 24.145 78.4535783234
39.9786 20.4737 21.2241 31.1722661617
37.4386 21.0805 24.3428 81.8347235637
39.4357 23.0847 21.5937 29.6245603046
44.7419 23.3574 21.3693 26.942153545
43.1418 20.985 21.565 29.1382503966
44.8554 21.8582 24.6003 98.581882803
46.8552 21.5171 21.5714 27.958700485
48.004 23.9314 24.1593 56.5517392742
48.9649 23.1544 21.292 28.2550954646
47.2642 20.6315 24.3572 61.1712081514
39.2802 15.2678 35.2684 114.2789560421
40.9126 14.73 38.5627 31.4312920197
38.652 12.8701 36.7712 31.8463825754
42.5467 15.0266 36.0665 51.7590259175
43.3083 12.2826 36.1688 50.4208024639
48.9126 15.0596 38.4277 28.9218304336
