9.29645 45.2398 52.5605 31.7799888768
10.5784 46.8377 50.5676 30.4084654143
2.13408 42.4906 55.7822 30.8564820281
9.90175 46.4597 54.9118 28.3227637071
4.74157 38.8541 53.9853 31.9304357642
0.68681 45.2576 46.1936 28.0093461822
10.8798 38.5258 48.2849 31.530063042
5.62257 45.4908 56.0192 28.8025912317
7.9161 37.5081 55.2851 29.6651965916
4.14798 40.4733 51.8913 29.9671206553
11.7537 42.0865 43.2926 27.8570755844
3.00665 43.2474 53.0267 29.9919651227
6.75733 44.2706 52.2064 29.510750938
7.35495 37.435 50.4333 29.0933309594
6.28131 44.2042 44.8793 33.6079099617
11.8692 46.4815 44.3533 28.9227998109
10.4707 38.8679 51.3684 31.9830430856
0.395352 44.5463 56.2517 31.6022752413
10.6896 42.9749 51.7861 29.4062156042
1.67982 40.7547 50.2373 31.9319099424
3.02667 45.5865 51.4546 27.6438002096
11.0828 48.7385 54.4451 31.2503354726
0.329226 42.3794 52.3354 28.2055901635
0.622051 40.2136 44.7419 31.7875536979
11.5435 44.3663 55.717 32.8797510907
0.334395 43.0151 43.8899 34.2116796433
0.571258 40.2498 56.2161 31.0979499087
10.4727 38.2352 56.1029 26.311228683
11.9016 39.3127 43.5208 27.1020758636
2.96649 43.6759 43.2688 29.569409952
14.8597 5.07071 9.45292 30.0409074435
20.9841 5.35276 4.85884 33.4787911927
15.328 6.16452 4.54463 31.3567267492
21.1507 1.17553 14.5332 27.7289999785
13.9974 9.31867 9.99658 29.2896376384
19.5423 2.28855 5.9877 26.328213074
22.58 7.37491 6.61334 28.730483204
23.6325 2.24791 11.1836 27.979138071
12.9995 4.30913 11.8897 31.1983020188
13.9472 5.42929 6.85554 27.447250099
13.4125 2.63666 6.19033 29.1655396504
18.4173 3.38804 8.37616 25.4940926455
17.9123 6.60493 5.50995 31.112774376
17.1518 4.53448 14.7822 34.3751299621
15.8705 1.13116 13.9181 28.9137273734
12.8821 7.62262 7.95982 30.0250506767
22.1785 4.15763 7.2634 27.3803243131
21.6951 4.80601 11.0677 29.1526505957
18.3497 4.23713 4.0297 30.498959752
14.1067 10.6806 4.83308 33.8999763029
20.8813 10.5687 7.57697 29.8454557996
22.7252 10.0747 5.63405 30.48475367
22.8154 9.43431 15.6516 28.7224726399
20.4959 8.03481 15.1947 28.8282046629
18.165 8.46121 16.7297 33.1642145633
15.7436 2.6017 7.93637 25.9838886562
14.7436 11.5781 12.0346 33.1349119697
14.7612 1.45986 10.9786 29.109897645
20.2573 2.61034 10.2945 28.2182320218
18.4912 11.6383 6.44418 30.4794912414
13.1482 0.191492 15.3225 32.4442232743
16.4597 7.55248 10.1282 33.3029015572
23.6637 1.26611 13.7757 27.9129731123
20.6773 6.29883 8.6293 29.1539531977
18.004 6.1053 8.29688 28.9876228621
17.0958 3.60823 11.0074 30.7300132917
19.1213 9.39732 9.61921 33.2381472461
20.9726 8.62697 11.7221 32.2357812509
14.94 3.05413 15.8026 29.1444694742
17.3974 11.567 10.6015 30.0250132231
18.0165 9.20375 4.85842 34.0004364565
18.6847 10.5414 12.7394 32.7079977915
21.2369 1.0811 8.14459 27.1959802257
23.21 8.34639 9.50889 31.6509192376
24.2864 4.64095 13.5332 29.2029987562
23.8676 0.103511 9.19775 27.3774789849
21.8845 10.7738 13.676 31.7492493581
14.8208 6.92559 14.3268 26.9101072287
22.9394 1.52446 5.61979 26.5726593068
12.8875 7.35078 12.5168 29.7651905277
19.8639 6.4195 12.9211 29.0709522651
16.5796 9.54161 14.7247 29.413035145
21.5714 4.14674 13.983 33.2112560259
14.1779 11.2683 7.78359 35.3701903799
13.0233 4.50993 14.7364 31.8077606545
14.1569 10.0376 15.9746 28.1675847746
17.238 6.29164 12.5391 28.977172376
18.7151 1.46528 12.7747 30.9058917941
16.6669 1.86704 5.20212 26.0464587109
24.6787 4.05971 8.43758 28.485017566
17.2098 12.3665 15.7025 27.6944461373
19.9477 1.78966 16.8605 35.6446520768
12.8603 11.3109 18.3965 27.5197137927
23.1903 1.17701 24.2435 57.9767752931
18.5375 5.42321 19.6192 33.1959898306
18.6223 11.2878 20.1844 33.8437303829
20.8887 2.5904 22.0791 28.9417777893
22.1059 10.1165 18.3317 29.1888203456
20.693 10.2282 23.5869 29.2166894544
14.6502 2.90255 18.5235 33.0494234842
12.7142 5.69638 19.5917 28.0870085562
14.991 8.16071 19.6934 34.3582057963
20.6442 9.50388 21.0719 29.8196600231
22.04 3.95592 24.3283 86.619449778
15.7586 11.9284 18.1741 29.4435844111
24.3244 4.84019 22.9669 27.3690528747
23.6753 7.39545 18.4282 28.1929780391
16.8447 5.90676 17.1495 29.6015331692
23.777 10.7583 24.2037 59.7710726791
23.3961 10.7571 21.304 26.0933261025
12.5597 11.4949 21.1333 26.5764471076
18.1812 3.29382 21.4688 32.3260368718
23.2305 5.33955 20.3534 26.6900948758
17.6812 6.87357 24.4233 91.1001484488
17.0151 3.50627 24.1771 76.2787038619
22.2295 2.9318 19.7323 29.1372129436
20.5026 6.20286 23.6183 34.2523501995
12.9533 0.113401 18.3477 33.1105202177
19.4779 10.7356 17.6306 27.4882571058
14.3926 2.35943 23.7262 41.6064849921
13.6577 5.02155 24.3496 85.7290276423
15.4645 5.22636 20.071 26.8007668536
20.8331 6.86456 21.0129 31.819330756
15.7366 5.8077 22.9101 30.5710157015
20.4334 4.22014 18.196 29.9947021197
13.0409 7.76299 23.6967 35.5470392046
15.3507 1.73758 21.0393 29.6665994303
16.0073 11.1434 23.6618 34.5054804239
13.7341 10.2823 24.5943 111.7319897903
22.1132 8.13935 24.8655 116.8566520805
18.1591 9.51072 24.5413 95.9805658014
15.4761 10.8644 20.8456 32.5379711499
17.6585 0.491781 24.3669 64.7580222219
24.2017 1.33569 21.4567 29.2410645947
14.3242 7.39228 16.9843 26.274070919
12.5655 8.40961 21.044 28.8226689054
21.8336 6.22485 16.8245 32.9746584892
18.7458 3.55987 35.7365 67.981405486
20.927 0.775081 41.36 28.2927331948
19.0476 2.16733 38.3272 26.9939603226
21.1042 1.60103 35.664 82.4674367295
17.8364 10.8342 38.7833 30.0186530259
22.5677 4.14158 36.2187 46.341657263
16.6912 6.44689 35.7047 79.4880908746
14.7091 9.10372 38.6021 36.5406359394
15.138 8.71701 35.8847 72.0823898391
20.446 5.89639 35.6876 77.4300757498
19.9186 8.98949 37.9693 26.7046686277
18.789 6.51365 37.9631 28.2646173194
19.7893 4.71948 39.9972 29.2877890015
21.7702 8.4744 35.5899 74.6016705424
13.5469 0.0943527 42.2058 29.8475920534
18.3225 7.08021 41.3609 27.5781967644
16.1677 0.172271 40.9261 28.8707248291
15.1041 4.32219 35.6683 74.2390127475
16.8499 10.8515 36.0361 55.8261100263
19.9417 10.9199 35.5939 95.6042153971
22.3564 10.9739 37.7036 27.5684853036
16.0676 6.48134 39.4843 30.2811981358
16.4614 1.62582 38.6566 25.8552308147
21.0513 0.280899 38.7541 27.2059698052
15.3391 4.00605 38.3229 27.4807347617
16.0932 2.99749 42.2255 30.1674933954
13.0312 3.37902 41.8578 30.6630870806
24.5415 8.2307 35.6338 85.1997021651
16.222 1.26784 35.6244 78.3400475935
22.5993 4.43612 39.136 30.5193292543
23.8175 2.25701 40.5927 29.5732900242
24.0719 0.375328 38.6878 29.0799777236
18.9275 2.54071 41.5331 26.9564750086
22.3386 6.62363 40.9173 27.6476140603
20.2758 11.8372 41.2536 27.3472783261
23.527 10.1384 40.1151 27.4660216086
14.7845 7.38546 41.727 29.0600558467
17.1256 11.236 41.4697 32.7221765434
21.0927 8.88302 40.2961 27.11012428
23.6148 0.0586978 36.0688 45.8454593738
12.905 3.9159 38.8536 28.5074586466
13.3833 0.47747 35.6728 76.5170552136
24.644 7.94647 41.6264 29.4391515536
12.2404 10.3191 38.5688 34.7366685151
12.4567 6.20042 41.2654 28.3457825035
18.8311 9.31772 42.8037 26.3939110379
16.8832 5.51369 43.0992 26.4054085027
16.5038 2.98951 45.3 32.282033943
20.3994 2.36297 53.3526 32.1965324788
19.5352 6.74648 44.3949 26.2848180813
24.0306 0.0565241 51.6634 29.360922192
13.8202 4.09151 44.6439 29.3548337618
23.2967 4.63215 47.5949 30.6717198079
13.7684 11.5117 51.5912 33.6317516393
18.6901 4.94041 46.1825 26.7746614795
15.2987 6.77188 45.1473 27.7996910732
14.4123 9.81013 43.247 33.327992124
19.8904 8.10945 49.6245 31.6735138992
20.1199 3.14172 44.2262 29.4222452446
14.398 1.62758 53.7508 31.3543733181
20.4245 0.863602 46.1786 28.2442575972
23.119 0.213604 45.4859 28.8078625103
16.8234 9.12998 44.7273 31.7743864258
21.0339 10.2742 44.6528 30.5445140143
17.2246 10.3013 47.3542 34.6570438223
17.8765 -0.0403171 55.9878 29.6415146439
20.0853 10.2643 47.5369 30.9643526967
22.6272 6.72801 49.085 27.6322471414
15.2062 12.1298 47.5556 31.684400828
12.4499 1.70405 45.5642 29.853873622
14.287 0.893939 51.0426 30.0964722013
18.9835 9.19214 54.9294 29.1766879851
13.151 3.45372 50.7581 28.7273269776
22.3684 9.51092 51.3189 31.0195733484
16.6967 11.1191 51.8212 33.9365925821
23.5527 11.2122 54.7002 28.6772023607
23.3434 8.9065 43.8751 29.2078685964
14.4442 5.11768 48.9538 30.0027331714
20.6304 3.35142 47.7369 30.471923141
20.6393 3.69748 50.4641 29.8757450491
22.7522 5.28034 51.4252 32.2500625282
23.0535 2.04637 50.0839 27.3876706939
21.4681 7.49121 53.2557 32.1852142737
18.4027 5.81853 50.1299 27.3300123183
16.9071 6.75711 47.6243 28.6580331316
14.454 8.23434 49.4183 27.6046841284
16.9679 9.12467 49.9305 28.5970038533
19.2337 11.5996 53.959 29.181973812
21.7282 11.8586 52.9108 28.8586382545
24.1616 5.56535 44.8578 28.5662055999
12.7888 6.93024 56.0559 29.3130178765
14.3509 6.26197 51.8747 33.4809612307
16.1336 3.76876 51.7021 30.4932274691
23.2597 10.9344 48.4258 32.1509465569
13.0328 7.92924 46.8807 31.3590036758
23.3562 0.734287 54.4238 34.5115353539
21.7244 9.24865 55.704 30.4973883047
14.5544 3.30819 56.2398 31.4216833151
22.201 3.32038 55.6104 30.2706941695
16.2546 8.37239 53.4546 32.8543046414
16.9089 3.60153 48.8832 28.2929709169
18.3748 6.70518 52.7942 29.6851659472
21.3581 7.73105 46.5031 31.6497293072
23.82 7.08921 54.7806 29.1530445326
18.2793 4.29458 53.7444 34.3932799014
16.2357 0.523086 46.7718 32.7252961402
16.6723 1.08351 49.6069 28.3148183233
21.7407 5.54841 43.4715 28.5392038825
12.4745 9.2966 50.9009 29.566152996
12.6462 10.8451 47.2935 32.7336906845
20.5263 0.827041 55.8676 25.3677528866
21.3421 -0.0279299 48.9706 30.1297465905
15.6858 9.06767 55.9913 31.6502281487
22.9643 2.40075 43.4384 30.8766250962
15.8866 15.3176 7.94451 31.1266596876
18.4587 23.9498 8.32161 30.8795707618
23.4836 15.0988 12.9667 29.8791117641
20.1047 13.9563 5.65703 28.7804543308
18.1916 16.7872 6.35659 29.7529904037
12.8195 20.0752 12.5293 32.4574487354
22.0926 12.8109 8.48686 32.4433267676
23.1136 13.4131 5.81269 27.8937317751
16.6378 21.2778 13.0145 30.3219908781
15.4117 16.367 5.14934 33.3729748798
20.9859 15.0713 9.09931 32.6654056144
15.9002 19.9975 6.80015 31.9540719796
23.6953 16.3079 15.4004 28.3404042362
20.9583 16.9055 4.76985 30.7042796407
20.1249 14.7615 13.3745 33.3705647988
14.9456 22.0557 15.124 34.0666273465
23.9141 16.0504 6.09104 34.0774931493
13.3252 17.4787 14.6992 30.1954427944
13.7386 20.564 4.79507 32.9665795532
15.1553 23.0437 5.29912 32.2088374517
22.0748 22.8341 5.99981 31.327989138
22.3779 21.3817 3.92085 33.6485832302
13.682 15.9927 9.24384 33.5949073381
21.1991 17.4787 7.64785 29.7305491519
18.2752 16.2814 9.53573 30.003945211
19.3424 18.6062 11.1212 30.1960747755
13.1393 18.0208 6.23823 30.2888636929
17.446 18.8849 13.1218 26.3702829723
12.5364 20.3798 15.6693 29.0981980744
14.0918 18.9747 8.98962 30.7216598368
18.5924 19.9319 6.50093 29.8253621555
16.6362 12.5731 7.9652 32.853731637
20.8736 20.8434 12.1237 30.1394290003
20.2576 20.0249 8.72851 32.3350719671
22.6078 21.5972 8.40101 33.3850586874
19.7774 19.7108 3.93717 30.8047358966
17.5388 14.2502 11.5096 34.7245071417
19.1184 22.9562 5.79522 29.6592414111
14.7258 21.5343 10.7629 33.5954617318
19.9754 23.7738 10.5653 33.2812781333
22.5024 22.7498 15.173 31.7081311951
19.2264 17.0147 14.7032 27.8181972419
16.1242 16.1261 14.9342 28.9626440669
12.4372 14.7113 15.0108 29.4211292272
21.3824 16.5467 11.5187 28.1258900752
15.7734 22.3442 8.03646 33.7282200778
18.2344 23.749 12.8088 29.8329358046
19.8001 21.7596 14.5824 27.7488003699
23.7481 21.7586 10.9137 29.0485835154
16.2555 16.9574 11.8455 29.296166278
21.4563 18.1612 16.0488 30.1196638799
15.0697 13.4827 14.2957 32.67593615
13.6474 17.531 11.8171 27.2864951498
22.8736 19.97 14.3835 30.0009372507
13.0886 23.9043 10.7987 31.2714605376
18.3022 19.8209 15.8511 27.8253837482
24.0517 12.3426 12.4659 31.407384008
23.1785 18.7644 11.1574 28.0132154649
24.2096 17.419 8.5985 31.2199751644
19.8564 12.5655 14.9567 30.2953112362
23.678 24.3894 11.8933 33.466342461
24.5762 12.5264 9.49236 27.8067537586
12.721 13.3408 9.06153 32.3034819003
15.583 15.6642 21.2701 28.5071515432
15.803 14.8621 18.6049 29.4329189275
17.4283 20.9588 22.0744 23.815599294
20.0316 13.5225 20.639 28.792132853
20.1824 13.9078 17.9584 30.4619885156
23.6285 23.558 21.5177 33.4834255396
18.9691 17.9207 18.1748 28.2034780074
23.9206 12.3895 18.5784 28.9756941549
22.9573 20.3847 21.8557 26.4798794991
24.434 20.373 19.1211 29.7057494416
21.5944 19.6257 18.6174 28.8247782862
16.2779 22.6605 19.0963 28.1369697428
22.8648 13.5158 24.095 60.4072582687
15.9688 20.2922 17.3722 26.5392994392
13.0373 14.0889 17.9728 28.1450339697
20.8322 24.0758 20.3493 29.9329944397
15.0837 15.7929 24.1175 49.27927552
18.3461 15.5096 21.82 30.2491958551
19.4228 15.6244 24.3428 80.9720419376
16.77 13.7694 24.3602 88.307128471
20.173 12.9384 23.8937 52.8634448217
12.9727 19.2469 18.2726 27.1323836611
22.7897 15.0488 17.7467 32.0120565166
16.211 21.8045 24.6693 101.9251029619
15.752 18.4154 24.5896 93.7319662265
12.7086 18.4767 24.0542 59.7642437587
17.2066 19.3778 19.6772 28.2800575291
19.9377 17.8162 20.9764 28.9970000962
18.5568 18.9432 23.8192 48.0567678548
22.0916 16.1266 24.2823 85.9845291731
20.2459 21.2699 24.2446 81.977220753
22.6265 17.4905 21.6194 29.0462325529
15.3136 18.6052 21.6649 26.4610728168
22.8027 13.4494 21.3154 27.2594348186
18.4699 23.6079 24.0835 43.505385176
18.8765 22.9352 17.4105 31.5336705021
20.4824 20.7872 21.2129 27.9187811804
21.4268 22.2307 17.7772 31.36684089
22.6659 22.1572 24.2601 76.2574205114
12.7007 18.5853 20.9077 27.2323228734
12.9963 14.5926 21.3978 31.222831141
24.1912 16.4005 19.7877 29.4079631461
17.9857 23.7857 21.2627 30.2272910733
14.5216 21.644 22.2975 27.2204310778
13.5228 23.6618 24.1104 60.6152895163
13.0191 22.1742 18.5387 28.7424979135
13.274 23.7484 20.6301 26.6533967671
14.9452 17.42 17.4082 29.9836950418
24.5042 18.1112 24.0425 80.0548953914
12.3611 14.6243 24.237 79.0741024507
18.136 15.4754 17.0461 26.5812891768
12.7896 22.6571 35.9003 51.5204806541
14.5309 17.1371 35.6792 81.0732524958
18.95 18.3353 41.6086 31.443348329
17.2412 15.8524 36.0143 54.9015516874
18.7614 18.2018 35.9833 60.7598348663
17.2067 15.407 38.866 27.2257431049
15.2618 13.0879 35.8036 84.9440985458
13.6757 19.7787 41.2272 28.4651455226
21.7377 13.449 38.4477 25.8233876657
16.8675 20.2619 35.6589 74.8608356418
17.6915 22.7266 35.9541 58.9046613692
23.7946 14.6445 40.1267 30.6509685061
21.857 18.3872 35.6697 90.1289703362
12.8265 22.6712 38.857 31.2800198034
14.6287 17.7321 42.6409 31.3474614327
14.8946 14.2564 38.3267 30.7310525041
15.6797 21.9508 40.6715 31.6345957362
18.9505 22.236 38.4783 27.8779659561
13.7312 15.1103 41.2817 31.2181467061
18.3985 21.4293 41.3891 31.5850929212
21.767 24.0628 38.9765 28.4644504646
15.9987 24.1665 38.4804 29.4737295239
22.8996 21.3992 35.8718 74.5421348286
12.6755 16.33 38.6946 25.8979081988
21.6789 15.2101 36.3111 38.2926798219
18.8731 13.4011 38.8295 27.6149637533
23.1503 12.2299 41.5486 29.7381299717
20.9832 17.1924 38.0741 28.3629649502
19.3227 13.8888 35.8191 79.1146428848
23.3202 22.0273 40.0054 26.6947762802
23.9375 13.9891 35.7238 82.9926867578
21.355 19.8191 42.443 29.6876125796
18.3433 18.0697 38.7844 27.7818198444
16.35 19.9598 38.2603 30.5291468745
17.0523 14.7352 41.5799 30.5618380967
21.1164 20.4892 37.779 30.5929118672
21.7335 16.3036 40.9526 28.2639439435
20.0227 14.3468 42.4612 31.707120746
13.5532 18.868 38.7518 29.4898899615
14.0942 20.1303 35.5572 76.2002459688
22.7656 19.4096 40.1926 28.8153155739
18.7478 24.2111 41.9181 30.5739943892
15.1252 12.5344 42.7834 34.9889383528
22.1719 24.1206 35.7767 80.8441343523
23.8975 22.8809 42.4275 33.4854618863
15.3085 24.0362 35.6022 80.4973903103
14.8895 13.8156 45.2812 35.8130615667
18.0604 18.5374 51.4669 29.3331163979
19.4946 16.3572 45.3721 38.8796846002
16.0829 16.1777 45.8466 30.1820359181
20.5029 13.1117 48.6119 42.7375378059
22.9255 23.0474 54.4204 29.7104843275
20.5931 23.6224 44.8103 30.6931065723
18.0464 13.8746 51.7294 33.0033526749
13.744 20.9832 44.1991 29.5583713633
18.2563 22.4283 44.2962 28.6029287447
20.8416 19.1673 45.742 31.2590246056
22.5821 21.3766 44.8047 29.6264100041
14.8872 13.5612 54.9331 33.3259164161
16.5238 18.3672 54.3694 35.572498308
22.0635 17.4411 43.5621 30.0480807431
18.7428 21.9252 55.0374 33.2567412861
14.1128 21.7275 47.2197 26.6780037313
14.5378 19.9452 49.2838 26.2501863876
21.0347 15.851 54.3563 25.8699493131
15.9959 23.3008 48.5979 32.391505391
18.1676 19.9894 45.5957 32.1619829009
12.366 21.4315 52.9697 34.143173458
15.6322 23.0708 44.8666 29.8712242133
16.7303 15.415 53.7059 29.0929887463
21.0771 19.5984 52.2769 32.8708657065
19.5908 18.138 54.1875 26.6594878083
18.2625 15.5573 56.204 26.4701547291
23.9894 23.5068 50.2834 36.5655581643
16.2261 15.8872 48.6376 30.1593228557
15.1284 13.4553 49.8782 29.194066849
21.2855 13.3531 55.6729 29.010005711
13.4679 15.314 56.3683 29.6259841355
15.4855 19.1178 45.2933 28.2738908927
21.1531 23.2941 50.4465 32.7976405252
18.8492 15.5959 48.2793 33.9260689424
20.1127 17.4481 49.7924 30.3900421805
22.3067 20.159 47.8823 27.678013927
23.2021 17.8755 49.7321 31.7741918448
16.7369 20.9557 50.6275 29.7065925084
14.0345 18.0812 47.4823 29.0817457738
18.2916 21.4756 48.1344 30.9439797029
22.4386 22.8683 47.3007 28.9712633065
20.6036 20.5614 49.7821 26.5770077463
12.415 14.5034 49.0508 33.1021196782
17.4718 16.9706 43.2521 26.809796221
17.9936 12.9981 56.1115 32.3789026341
19.7054 23.8165 47.7517 27.9190852763
22.0734 13.8865 50.9684 30.0486375604
23.79 18.8773 52.1193 29.313357805
21.4455 13.0555 44.3126 38.2559060561
20.1849 15.5372 51.8009 26.3978437053
15.9379 21.579 53.5659 33.1009401053
20.2386 24.089 54.1606 32.2525710961
13.6563 15.8613 52.4219 27.3208645734
15.4212 17.5781 50.8101 31.7132222347
16.6391 23.937 51.5597 31.1491789327
23.502 17.0773 54.0925 29.4699879263
13.7007 19.7078 54.8036 30.7355757684
12.5849 17.3522 54.4037 30.7085533867
24.3622 13.4008 44.2349 29.3865840232
24.4989 16.4759 44.1377 34.1894408039
24.3366 21.6926 52.5646 31.0123616897
24.4627 13.6034 48.178 34.1187335133
24.2541 15.3759 50.5247 29.2971902059
13.0791 24.3513 53.4444 35.4942530774
17.2424 23.8119 56.3544 26.6965471492
19.4868 36.2673 7.7222 26.9432436731
23.4187 29.2356 7.8761 27.7985679975
23.3644 30.0273 15.6398 27.4931263375
18.5923 26.013 4.82402 29.4960440763
20.4354 29.8814 7.82596 32.5800695195
22.894 29.5508 12.2024 28.5111562995
23.6763 25.0836 5.65065 34.581057694
23.279 31.256 9.89899 29.6614449453
22.1905 34.3082 7.06213 29.5053933547
16.3261 27.6944 4.75838 33.1428525963
15.8131 29.031 7.48438 30.2568224253
17.6503 30.9775 9.06278 30.1787982708
20.7736 31.6318 4.2086 28.9535422211
15.1173 35.7536 14.2778 31.8353059515
18.7247 28.9096 10.895 26.5789165292
19.7991 26.4569 7.27069 29.9031590052
13.0972 24.7086 5.70786 30.2147626804
17.7347 34.6897 14.978 26.2914486009
12.8256 31.6684 9.03151 27.8401285948
15.8353 34.3671 7.35949 31.2826184822
14.2474 36.0877 5.69389 29.5716832918
17.5342 35.9959 11.8626 31.2833507346
12.7065 28.5833 11.4424 30.0289724609
24.2479 33.1868 16.0867 25.5940186602
13.5754 25.4908 8.46295 30.4407788078
14.3863 30.4312 13.2504 26.7498426713
12.5761 32.0622 14.8308 30.6988058165
23.8225 30.2442 5.5586 31.8877277563
21.7999 25.7778 10.2611 32.1034654517
13.503 28.1399 8.6895 29.384641016
20.731 27.6765 12.1869 26.9566068669
14.8141 31.7136 7.04743 31.4271252207
16.2508 25.4574 9.7971 33.2922138219
21.074 32.3057 8.68082 28.5081329975
17.9365 27.577 8.67127 28.0962450776
16.6008 28.383 12.4541 30.388297506
22.3179 34.8853 11.1448 28.3989747526
20.9794 29.4911 14.7322 28.1335411217
22.6593 26.5607 7.67818 33.8128518942
14.4221 32.3906 11.0949 32.4777774759
18.1481 29.1938 14.4395 24.9466306845
14.9231 28.4963 15.7024 30.4367251107
19.8014 34.6463 9.91862 32.5250633658
18.4469 31.4376 6.19582 29.3657818034
13.0951 34.3751 12.7757 31.4845816571
16.0702 36.3218 9.29241 30.7451589078
19.899 31.4135 12.5322 29.1138248327
17.6293 29.9876 3.74422 33.5553026035
19.7453 25.8853 14.0998 29.3548167611
17.3734 32.7138 11.3452 31.0021557871
13.2821 35.9807 10.2941 32.6828761882
14.3838 25.0981 14.8094 29.4335711368
16.8527 31.6287 14.2236 26.9943803743
22.5746 25.5215 14.216 32.872594933
19.9924 32.7047 15.2274 29.5021563396
17.8875 34.0086 5.18093 29.7165674252
16.4953 31.682 16.8769 26.7672575172
22.4873 32.5655 13.0191 29.1027400229
23.6433 35.6755 8.85353 24.8634832631
13.3016 31.4994 4.40914 32.7853513216
20.4016 35.4955 4.77564 26.974592271
23.0834 33.2344 4.85212 26.7437058007
16.3026 25.6513 12.826 30.7135558178
12.378 26.0615 12.4395 32.7695926069
22.0103 34.1278 16.6359 28.2652024399
22.9954 36.8452 12.6561 27.7439193016
21.9742 36.6196 15.1962 27.6208777065
17.3147 27.4288 16.5905 28.5558617132
13.8158 34.4177 24.2988 83.7748052051
15.8991 25.8345 21.5447 33.9862301227
13.0046 28.3473 24.6592 99.8990475002
14.0131 30.8077 17.078 28.8317344953
14.2341 26.3398 19.2481 29.325852428
14.733 26.0461 24.2295 53.3935677381
16.898 30.3657 20.5533 36.429152707
20.4259 36.6791 24.6281 103.0352694295
16.822 34.2496 17.3627 27.8425968586
16.7366 33.1379 21.2976 31.1504341842
17.9462 29.7852 17.9421 30.538589977
19.2052 25.6748 16.8758 32.6162265716
21.0846 33.1357 19.2247 28.6220764337
14.3219 35.4533 17.7891 32.1983103695
14.4441 34.4946 21.5474 27.7481630721
13.3264 29.2889 22.0585 29.5173537809
18.6899 34.4433 19.6751 27.8338176019
24.0706 26.7459 21.287 29.7551142646
17.5625 26.0966 24.7815 106.9191331009
19.7291 28.3202 24.4416 92.4116129442
20.4579 25.4345 23.1942 29.5202776109
23.1391 29.8441 18.5148 27.434498342
23.187 35.2725 24.348 81.4793515318
23.5067 26.8875 18.3002 35.2101322466
15.5692 30.2508 23.82 51.1077141139
17.3775 32.4543 24.1287 78.9670290575
21.4541 27.9317 21.82 31.7408860104
20.5486 33.1552 24.1052 67.8233747936
19.0052 35.4685 22.5074 25.5406711506
22.096 31.0037 21.1335 31.8821886362
21.2458 30.54 23.9952 54.2294161872
13.0854 31.8114 24.1571 55.0153739201
17.4466 28.2468 22.7931 33.3535893225
20.4887 30.8674 17.4471 29.9626090536
16.8246 35.1495 24.223 72.2547343555
15.54 24.7792 17.2659 30.9784341218
21.8217 34.6712 21.5967 28.3094893712
24.0367 29.4652 24.061 54.4475512338
20.8439 26.6835 19.129 36.6113660829
14.627 28.9766 19.3737 28.9525605425
23.9876 35.354 19.739 28.2945467327
12.4227 34.0878 19.3889 28.622343506
22.8078 24.9222 24.3834 87.7170042358
24.1778 32.5885 24.1842 74.069518195
15.6642 29.3227 35.9887 51.8503440628
12.9357 30.6833 37.8337 28.1643335463
19.4151 25.252 35.8424 68.1672642804
20.616 32.2682 36.1017 59.9506185759
19.8567 27.9704 35.5376 86.5494902342
22.7491 28.4379 35.5963 88.0899245401
18.4419 30.1591 35.6902 72.0227680957
16.3594 25.7131 40.9147 27.4354511109
14.239 31.8357 35.6946 86.5674249216
17.1528 32.7549 35.9935 61.1710672096
23.6766 25.9424 38.4872 30.6760945396
13.8619 36.4247 41.3662 26.6284030422
16.6213 33.5615 38.7502 28.2450359821
17.3881 28.54 42.7371 29.3058559185
18.8518 24.9864 38.5292 28.7714019913
23.31 31.1059 35.9262 80.64114597
18.169 30.0547 38.4207 32.0991666579
19.9937 32.1421 38.9175 29.0943142465
21.098 35.1468 35.9865 77.8620113861
14.0271 27.7825 40.6262 29.514089666
22.7993 30.9184 39.0026 31.6539834061
24.4182 26.2204 35.7212 84.8934025905
23.303 28.324 39.7741 31.2679993578
14.7591 26.9114 35.6136 87.9942185647
21.2859 24.7152 41.9837 31.6791785596
17.0757 36.6621 41.2858 36.5833799094
13.5934 34.9359 36.2107 55.339019649
12.436 30.2366 41.9638 28.5583282775
22.3472 32.8915 41.2728 28.2120423931
18.7199 34.6189 39.9172 25.0540061698
18.0339 35.6599 35.8593 74.0160574695
15.3724 29.9474 39.068 29.7710327351
18.5504 27.604 40.1398 31.3830751917
14.7952 32.1665 40.7632 29.2648191202
23.9351 36.4018 36.1759 54.4804145025
21.029 27.749 41.1721 30.670371878
14.1602 34.9327 39.0193 27.0706204881
20.8288 30.5876 41.9339 28.0690094559
20.2711 36.3249 38.6116 29.478190642
13.2453 25.9754 38.5028 29.1099634007
14.3695 24.4759 42.7512 33.4035197676
24.0002 30.2161 42.3686 25.9320180316
21.175 35.0348 42.6988 31.0156532943
16.4523 31.0642 42.9211 31.7228329621
19.0893 32.8597 42.1218 29.8041414869
24.4344 32.8638 43.1218 24.3929040601
19.2739 25.0196 51.5547 30.114107371
20.7466 26.5181 55.8126 31.2519357079
14.403 30.9922 51.0721 28.6314280582
17.3072 34.2954 55.0508 28.4743149003
12.4971 35.4323 52.1637 27.3333127775
18.1432 26.2468 47.0212 30.5586567869
18.7811 27.925 44.9923 29.2426553858
23.2495 31.7446 45.7135 29.22732128
13.0808 28.9639 44.234 29.7628135022
17.5747 28.1968 49.2343 31.0909098747
15.678 30.344 54.0262 27.1655983353
14.3573 35.7935 55.4995 27.7973329571
18.8516 30.1558 46.8484 30.6687586185
15.1179 27.1983 43.5856 28.8542282994
19.1817 31.9276 50.0545 31.0564082125
20.7321 30.399 44.8474 31.233559292
13.2948 27.0659 49.5571 32.4254488628
14.2524 30.0763 46.7227 35.2623373324
17.308 33.7758 44.3353 34.4854905186
16.6204 31.8056 46.2999 30.294675789
18.0021 35.3701 52.4756 28.6953778991
22.4 29.1308 56.1015 31.7682907162
23.5452 35.0963 44.6396 27.396147063
20.1267 35.158 45.711 31.9064346188
21.7317 26.5087 47.6013 35.8859261128
22.217 34.2386 54.8792 25.5115290953
13.1112 29.011 53.4956 30.8811118492
13.7365 36.0961 46.3794 33.1941570278
14.5713 32.8097 55.2173 29.4881843626
19.3073 27.4119 53.3539 28.3256810446
20.1765 27.3775 49.9202 28.2535411485
23.0066 28.7406 45.4877 27.8193565635
23.9576 28.4093 48.3441 31.1703106881
15.6298 24.6366 54.0791 29.7129004206
13.1338 29.6909 49.2583 30.4326697969
13.6792 28.6033 56.1668 32.4114815261
19.5096 32.7768 54.633 27.8088358732
15.7503 26.1924 49.646 32.4279528624
17.1021 30.2711 51.1878 32.1116545496
13.6784 32.3258 43.8389 30.5789496631
20.9784 30.034 48.8236 30.2878861485
21.4546 31.377 52.4749 26.0644459867
16.9691 33.1813 48.4936 30.815562294
12.7124 34.4351 48.3917 30.8664357168
14.8517 33.884 50.1086 30.3589586013
15.316 25.8429 46.1892 32.1596603162
19.9978 34.1769 51.3526 27.6704776267
22.7251 34.5011 52.1148 31.4526661031
18.4717 35.4862 47.909 29.1992444583
21.2208 26.9798 44.2869 33.7585633885
23.163 31.5189 54.5756 28.2929867505
23.4788 25.5995 55.5666 27.2932890229
16.4748 36.1452 50.5076 25.8078140971
18.725 30.0397 53.6462 26.9809846557
21.4194 28.5458 52.0834 29.9466351728
24.0191 27.6257 53.1392 28.8409738852
22.3888 34.5023 47.1483 31.2414447721
14.9551 35.1588 43.697 30.479683234
16.2827 27.4068 54.2688 33.4260978434
13.1502 32.8586 52.8792 30.1156708673
23.6689 31.4042 48.3639 27.1910684394
12.3919 25.7637 46.9139 33.4374194848
24.1241 31.6161 51.0996 28.3063409667
22.4655 36.7086 48.818 27.9731847087
19.9902 36.5306 49.8414 27.9318705437
13.7892 38.5582 4.46369 27.3247248713
15.4268 38.5141 13.0177 30.8509860118
18.0688 39.1077 12.1477 28.6280204522
18.081 48.855 7.6467 26.035653754
16.0999 40.0274 5.69606 28.0974858548
21.7882 37.9742 8.04687 29.3256162311
18.5518 40.7984 7.25871 28.2333480237
22.8417 41.8384 5.05646 25.2449976278
22.3774 46.2531 16.4265 30.6652441183
20.3447 47.1961 6.7146 27.3638617728
16.5412 45.5016 8.20176 28.4528178613
12.9919 42.0506 11.475 33.4959208961
23.2601 39.5196 10.8433 26.2978152913
14.1002 46.3919 15.1214 29.1028082682
17.7954 44.1148 11.7443 25.9169077714
24.0207 43.3521 11.5597 29.7059068343
18.8743 46.2531 3.73107 29.9591412389
22.6887 46.648 8.35475 29.521205643
12.6683 46.0181 5.64406 31.2390570237
20.1832 40.705 4.88046 29.5253867375
21.8799 47.929 4.59643 27.1420958014
14.4636 48.8959 5.14232 27.7331763619
13.0125 48.2154 7.49219 28.4898186591
13.277 43.9194 8.87861 29.1215919737
18.3937 38.7714 9.03255 28.5189612663
16.7917 46.4805 10.8607 28.6199171665
23.9029 40.0 7.23114 28.574318382
18.8586 40.164 15.8171 27.7026446599
12.8328 42.3302 15.7352 26.9469323471
16.767 47.1797 5.90443 25.8909197824
15.6256 39.6851 9.1575 29.2200663044
17.2853 37.7917 16.3145 27.0186829051
21.7951 43.7028 14.6443 28.045363975
21.7253 43.0102 7.52087 29.4710979046
18.4305 43.2583 8.76565 29.5014277603
15.5953 42.5512 9.92405 29.5745414309
19.0659 42.8936 13.9387 27.9237175594
20.9708 47.3543 14.2848 29.7174246322
18.2896 46.7922 13.5902 27.8581379436
21.3351 44.2598 11.8491 29.5339141278
23.6715 48.0168 12.6297 27.223097686
19.8508 41.666 11.2248 28.175441287
21.1768 38.1878 5.19433 26.38926741
12.4428 47.7086 11.7697 26.019266068
20.9438 39.2163 12.8786 28.7812712034
14.974 47.6585 12.7185 27.4478433832
21.4624 46.779 11.0939 31.649261385
19.4338 44.7798 6.48718 33.4286903152
21.0022 40.7806 8.93805 26.1290678144
13.7606 39.3532 11.0749 28.741606619
17.1456 37.202 6.11182 28.4615240709
12.5764 44.5272 13.3912 33.4735836995
14.8278 44.2743 6.27608 31.1198773552
16.7538 41.0337 14.2382 26.3747910279
18.9282 48.3547 10.4849 32.1665799599
21.6487 40.8327 14.9678 28.0687955206
15.4628 43.3354 13.3319 29.5881439884
24.5328 43.418 15.2818 29.5269316297
14.217 41.3221 7.26869 28.7025738693
24.0837 43.7526 8.72724 26.920257032
14.1041 37.7064 16.3319 30.6572495944
17.0273 45.2089 15.363 29.2693973862
15.4135 41.5043 16.5511 28.8970475642
15.3699 49.0004 8.73687 27.7668205398
18.1596 49.0726 15.6012 30.5884634544
19.2366 36.8583 14.3312 29.9002614962
23.7723 37.7212 4.49952 28.0934698753
23.9064 41.0977 12.9634 28.6524458326
24.1602 39.3535 20.7087 28.02259178
21.2048 41.2058 18.3914 28.645174253
18.2292 41.066 18.59 28.012966838
18.0225 40.7638 21.2465 26.1255052182
23.7977 47.5815 20.6544 29.3775786619
21.4574 36.8823 19.4084 28.7170581201
12.9475 44.2872 24.4206 82.4991865873
22.0196 38.7261 17.1666 27.1910685451
19.0036 45.632 21.7084 28.5774624253
15.7741 43.5207 18.625 28.599828623
15.6768 36.859 19.8611 26.150062294
15.5434 39.195 18.37 26.5940227279
15.4307 47.7494 24.6795 100.5157053858
12.5486 38.6788 24.2319 80.1390374606
15.6903 47.7833 20.0617 29.6080398218
20.3814 48.8559 24.5434 91.0905019198
21.2222 44.1325 18.1842 31.275912832
16.7269 47.3861 17.4222 32.3712673945
24.2596 39.2467 23.9 59.2171661851
18.3761 44.1431 17.929 30.3916464304
20.8152 48.6317 21.5862 27.4701803025
12.5233 42.6129 21.907 28.6473373381
23.7043 48.3566 17.8955 35.1958810964
15.4555 42.0805 21.3018 28.535840831
13.3714 44.7118 17.5264 29.9852726187
21.4483 39.0489 23.7436 37.7581736674
21.3049 39.6339 20.848 28.3985717414
14.9813 45.3437 21.0844 28.884042626
16.2096 41.3884 23.9508 57.5039268856
15.5902 37.9308 23.8761 54.9592977891
13.5377 40.2115 20.2121 31.3781999641
18.2138 39.1549 24.2722 66.1848142444
19.9932 41.6807 24.5851 95.4267671445
22.9121 42.1568 24.0442 56.6153964408
19.6644 42.9103 22.0271 28.5277741071
15.4631 45.345 23.9159 33.9948154875
22.4588 42.5836 21.1011 26.4841192153
17.5578 43.5745 24.5143 84.7672707742
21.7381 45.4599 20.7619 26.9912931919
22.4253 45.4704 23.7678 51.2206408429
19.6229 46.2368 24.2517 68.3792279997
18.7774 46.8021 19.0225 29.3112053965
13.5585 37.6382 21.5116 28.7046099594
17.9139 37.881 21.4232 28.0908851178
21.099 48.8114 18.5174 30.6993739389
12.3481 45.9624 21.5754 27.820416995
17.9228 49.0036 21.7225 30.5550658002
18.9263 36.9902 18.6533 29.628227759
24.395 47.9208 23.9295 52.7049344746
13.045 48.967 21.3907 26.2153310296
12.9394 48.8239 24.2105 58.44482202
17.0548 39.1402 35.3884 84.7077729837
12.9456 39.3123 40.8583 29.3765999268
16.2023 44.8016 38.6937 29.5603414255
16.253 39.8176 38.4267 29.2206059762
22.8609 40.2461 40.969 25.5588925693
18.7988 42.0196 35.9411 54.9652385988
14.3882 42.8176 42.7661 30.2335148107
22.4961 38.5984 35.907 66.9449219488
15.8278 44.8171 35.9583 55.3080899297
15.8899 41.871 35.4574 94.1056267493
17.6649 42.296 38.4443 29.2052707383
13.7723 43.2136 38.3977 30.7468833455
18.6015 45.8668 35.7885 69.0130423923
21.2291 44.8235 35.455 91.4109087096
20.4917 45.2286 38.1774 29.3181373136
21.7084 41.5663 35.7676 69.9279185855
22.23 41.7331 38.5557 27.646067719
23.0082 46.2981 38.3682 27.0562848269
23.0237 42.3348 42.7095 27.6755245957
15.2368 45.2935 41.8123 30.0132920355
14.8458 37.5365 35.7054 75.124812608
14.431 41.4353 40.4665 28.7161576454
19.0179 47.4238 39.2303 27.7042954772
20.4335 44.1848 42.401 29.4192105136
19.6406 38.339 35.9155 55.3381303242
23.6034 38.9752 38.4239 27.6556979039
22.6286 36.7612 40.1711 30.7096218624
23.5077 46.3517 35.6528 71.2945337899
19.5357 40.1726 41.4445 29.9118423228
24.3862 43.8462 38.8939 30.560840281
12.7784 46.3136 41.7131 30.2134202873
21.2666 46.9466 42.6644 31.0467383988
24.5061 42.5234 35.9389 48.206258346
13.6783 48.0898 38.7882 33.4516323705
18.1813 45.8601 41.4436 31.1840904888
20.0827 42.7256 39.876 28.3622186438
19.1168 39.1033 38.8435 30.1924438242
21.4233 38.2534 42.5592 27.280509873
23.4661 46.5474 41.1224 29.6161218976
16.3698 47.7904 37.5834 27.0534083145
12.7592 41.7145 36.1672 60.6438245725
16.5603 39.3795 41.5158 29.4769145799
13.5523 46.5687 35.7226 84.3843318033
18.3931 48.3713 42.4024 28.9220767333
12.7526 38.9319 35.9914 60.3429143266
18.7785 48.7671 35.8449 65.1829495202
16.6797 36.8655 38.0723 27.6120972101
21.6587 46.804 46.5028 26.8319333128
20.4301 37.8478 45.2093 29.9265798424
13.2364 45.9119 46.7746 28.8756988507
21.2344 37.3323 54.7776 32.0664598466
18.1338 43.7432 54.4007 31.8245125085
22.0237 47.0755 52.4425 26.2858629376
21.2562 40.8525 44.6454 25.5815600567
12.8768 41.7183 49.1981 29.3672824506
13.6177 40.8829 45.951 27.6523835381
24.3312 43.0964 50.4488 25.5614664938
13.4889 43.4881 52.5689 32.5421600027
23.5948 46.7637 48.6165 29.2668343868
18.3877 39.5972 46.0586 29.9149933815
21.8087 42.6448 46.7963 26.3574434996
13.1274 38.9142 50.5097 27.5637338028
15.6993 45.3919 44.6758 34.2471130312
17.4478 44.7513 51.5937 30.4979736435
17.6657 43.6504 46.0525 27.3538934663
16.6968 48.874 53.3398 30.3810283558
13.2429 47.5197 51.1298 30.1399298816
18.576 40.212 55.1769 29.0208259605
18.7642 45.8887 46.8245 31.5933999327
22.2554 44.8167 44.8846 27.8741996736
18.3575 48.4317 45.4154 31.2235218725
14.2369 38.7344 47.8138 29.7230664923
18.7562 42.1819 43.9496 31.3955837852
14.8717 43.4067 46.954 29.1618750386
17.2835 37.9481 47.9208 29.9237271894
17.9391 38.9443 50.6433 27.3286458215
19.0184 37.9488 53.0915 27.1697107091
23.9559 36.7666 51.064 25.7510015505
16.8277 41.7523 51.1109 27.9008060313
15.9279 37.8564 54.3925 27.5435853231
20.4559 40.0874 49.4723 28.7117369005
17.4262 46.3125 49.0868 30.6131141041
22.6549 40.8004 50.6977 26.2701267292
16.0415 40.6652 44.1522 28.7284194511
14.7578 46.9359 49.0002 31.0663011904
21.819 46.0966 54.8977 28.9244495176
19.2647 41.8479 47.7201 29.6903654936
14.6318 43.9245 50.1765 29.128882948
22.1994 44.4805 48.9287 29.4051920082
13.7989 45.5157 54.9854 27.4849980002
14.5659 40.8189 52.1313 30.0611415479
14.6063 38.1636 43.8899 31.0656759942
24.4314 45.6331 51.796 27.1352453285
19.229 41.3632 52.7927 29.2770059383
21.1074 43.1535 55.6505 31.5800183007
16.3239 41.0782 48.3986 28.6330134691
21.6473 42.8518 52.6426 27.8069928976
22.8594 38.9947 52.7558 32.4635077981
20.5709 45.0086 51.1267 33.1910505302
24.397 45.5002 55.6945 28.8272588113
14.5455 40.398 55.0465 30.9493662269
16.4674 42.0638 56.2313 31.8206481259
23.6027 38.3293 44.4525 28.9552422124
13.724 48.3341 55.1966 28.4508147525
14.602 37.0718 51.9831 28.1074570347
15.3529 46.4769 52.683 28.7000586686
24.1398 41.2106 47.6558 28.1743487237
23.9089 42.7212 54.5476 29.5290319923
21.9972 39.164 47.2268 26.8119525918
13.9714 48.5013 45.0651 31.4882493322
18.8762 48.6668 50.1351 30.5791776004
19.4347 48.5698 52.8094 30.7948886031
16.1102 44.9045 56.332 28.5934027792
18.1086 37.1464 56.0057 26.658855089
30.9332 6.69929 14.6911 30.5474728049
25.0439 6.29223 10.0364 26.1222064456
31.3974 1.07787 9.06337 33.8133736651
25.5948 9.69291 13.4985 28.9289177936
29.2771 1.4913 7.60785 34.7964708619
25.6658 8.93572 5.88335 28.8404656391
33.3851 3.15456 8.59162 27.4548930827
34.4634 7.05277 5.71018 28.9700036443
31.0748 10.872 5.45165 29.3264084665
24.9163 6.13919 5.53459 29.4912573866
29.4501 8.08483 7.08373 27.3434710758
25.2182 1.0525 6.83899 28.59748584
29.4418 3.40288 5.02458 29.3107448923
32.468 8.57261 10.0215 32.2226723077
32.5831 5.47734 7.37133 29.0666806165
35.5606 8.87988 10.7958 31.0028815744
30.9597 10.3671 8.28774 30.1211186001
27.6449 8.79539 4.0532 30.0395085235
28.1968 10.8718 14.8458 29.9603115843
35.5118 0.0974208 11.6362 32.7631529965
30.6505 7.62142 4.43251 27.267797387
34.2855 11.2083 8.97928 31.1133245848
27.9912 12.116 8.66657 28.0158084276
36.186 5.27644 7.61341 26.6511657441
25.3276 9.92407 10.4897 28.8095321818
25.5003 7.78696 16.4174 30.2320256895
34.9477 2.9068 6.40056 27.6658185285
29.4976 4.4609 14.7134 27.862415981
33.9203 6.72935 14.885 34.4177734011
32.9847 8.95083 4.2107 30.257726599
25.9048 2.1346 15.2635 31.9835392577
26.0465 3.57683 11.321 28.5730953102
27.556 4.02718 8.28787 29.9102150342
29.3284 4.83308 10.2753 27.9187345903
30.534 2.68987 11.4503 30.02435599
30.7821 6.69678 8.93447 26.9026403328
33.8193 0.300324 5.42983 31.5204882773
32.8249 5.09678 10.9569 31.7761813223
35.6276 5.9425 10.1938 29.2784557397
36.0016 9.64916 7.00125 31.7227444402
25.8458 10.5691 16.4133 30.764369607
34.5956 1.23019 15.1515 37.9271630948
35.4455 2.83189 10.1413 33.4557685985
31.4154 5.07312 4.89383 27.1137611137
34.9704 11.6488 4.76139 28.4534839301
31.6465 9.87071 12.4839 29.9739692018
25.5242 6.84013 12.5911 31.2831490497
33.2141 9.5721 14.4551 30.4773133007
28.1808 9.74319 9.88191 28.5927888697
27.8992 2.63884 12.9703 28.7281164903
27.7429 5.70382 6.26214 29.3206886862
30.976 10.1709 15.9198 29.8504131301
32.4067 4.25976 13.5285 34.1017182263
35.3455 10.4959 13.0894 32.2785087781
31.2668 1.8035 14.8208 32.4274682592
28.4264 6.14192 12.5618 31.8887738183
26.7502 7.80546 8.32144 27.7336287091
28.9285 9.0863 12.66 31.172379383
25.7462 11.7742 6.9245 30.7401499732
35.1677 4.83424 4.10993 26.8999468896
31.0461 0.981442 4.84498 30.6271768262
25.381 4.53566 16.4535 33.6140529132
27.5804 1.18719 19.1879 31.998639794
29.4442 10.9293 21.5125 34.9708685493
32.306 8.60357 19.383 26.5838519677
31.2271 1.02528 21.4471 27.1034154087
30.1519 3.66143 21.8346 26.1907391399
33.9385 2.12236 19.9861 29.9234303405
30.01 10.8143 24.2617 69.0256307688
36.1634 8.69127 18.2961 29.6682412469
36.0985 4.79714 17.8252 28.6361883694
24.9132 8.20342 21.2734 29.3382426034
30.0814 8.28733 21.1043 30.5532273971
32.5846 12.1468 23.9903 42.2551887086
31.6369 5.06112 18.6955 28.4959654564
30.5039 7.53601 17.412 28.7866099323
26.5439 10.8085 21.3437 31.7954828371
35.535 11.5422 17.7961 35.1853023776
33.5352 12.0733 21.2089 29.3739470504
31.0588 0.953532 17.7453 32.7216772023
34.6327 0.129604 24.0746 70.8756143994
25.5692 3.32117 19.4041 30.8645083956
27.7301 7.34199 18.0169 34.6996505742
27.3997 4.40027 21.2991 28.9607539074
26.7641 11.2385 24.381 76.6845913589
26.9513 0.613002 23.0994 27.3673406303
31.4097 1.28168 24.2546 78.3077247057
28.7752 2.37825 24.13 59.6233331517
32.9594 4.96575 21.1946 28.4360098978
25.6993 3.0833 24.6304 103.8377697164
32.6085 3.78453 23.8982 49.3141372508
27.4707 7.14068 20.7412 28.7677790274
27.6581 5.39997 24.1178 55.3922693206
30.3635 5.54813 24.3225 87.4956024774
27.6227 8.32206 23.9612 58.1551952305
34.0836 7.48507 21.2439 27.1237237654
35.9811 3.47562 21.2112 26.8918639834
31.0727 8.14008 23.7387 41.6193830966
33.7928 7.80897 24.0415 50.4351646046
35.5319 10.3112 20.7077 29.241194465
33.2856 3.05614 17.4415 30.1886306386
28.2466 4.60141 17.183 30.498023278
34.7606 10.4063 24.6574 117.7201676022
24.627 7.46062 24.0772 55.6570006198
35.4187 5.70261 24.4999 88.5033809853
32.7441 10.8609 18.1002 28.6477290869
34.1572 6.73856 17.6015 27.4925928966
29.9057 2.94339 18.9462 25.1432081322
35.7713 2.92718 23.9726 52.5840015796
36.4779 6.21324 20.4129 28.4509776342
36.7125 1.72195 17.0799 31.1775689567
28.3828 2.3881 35.9438 59.5610099252
36.1714 3.44848 38.7709 27.007848882
31.6057 10.3961 42.8556 29.1807929953
27.3407 10.9624 36.1533 43.9958079981
31.2975 3.42396 38.6345 27.7931636789
25.7642 8.58416 38.3226 28.8124315288
33.7112 2.29975 39.6498 28.8667752594
35.3032 10.1196 42.456 27.9584975894
36.6628 7.70701 42.6137 31.4511468384
28.8258 8.183 38.6775 28.8103912866
25.2349 5.19283 36.2113 48.2505465815
31.6751 2.73368 35.7652 75.2403870124
34.1884 2.3249 36.4318 33.2566644692
33.2986 9.60371 40.7131 27.8595805245
24.7237 10.9004 35.8138 68.6742635139
35.4793 4.71516 35.6731 102.4844275623
33.1781 6.88864 40.7758 31.0686606873
28.2932 8.59841 36.0279 60.7900934873
28.1563 5.43747 35.8681 70.0585268017
33.2264 0.875737 42.9387 27.5967094909
30.9602 5.42531 35.6853 77.1024456745
31.3345 11.3665 36.2806 38.7242082356
33.6589 5.9804 37.4989 29.56098479
35.0064 8.1867 35.9422 71.5681897672
26.8976 11.3759 38.6347 28.0294766435
27.5814 4.57207 38.558 26.9754215665
29.1735 10.4249 40.4309 31.1136853916
29.6654 2.44226 40.5733 26.8637768979
34.1992 3.41964 42.1756 31.0020065558
25.0785 5.84353 39.2348 31.794417086
36.0412 11.222 35.7154 73.0112653968
31.0969 6.31851 38.819 28.6945575809
28.9668 5.30166 41.0263 27.3480505066
25.1438 2.06874 35.6369 98.0484233973
27.7934 7.87833 41.637 29.9876036254
35.0199 10.1105 38.2929 29.2258316147
31.8041 11.3985 39.0362 29.1168920907
35.5781 5.8441 40.0531 29.2440112603
31.4394 8.50673 35.6548 98.9839085625
26.6948 1.85293 41.2755 31.9484965826
30.3631 0.886215 42.7776 28.8220074234
31.5798 4.99865 42.6577 29.6761306018
26.877 1.95627 38.2155 28.5482267057
29.545 0.413844 38.3462 26.6565240015
25.9709 3.69668 48.4748 26.757856376
24.8124 0.984053 47.6222 28.3419331159
24.7308 10.9865 45.7245 29.1374383746
35.4968 1.42814 49.7158 30.7414201823
25.5998 1.71072 56.3032 31.7916468397
28.6917 1.78052 54.7113 29.6003558559
33.151 0.562145 48.4744 30.3960235408
29.4519 0.218662 48.1347 28.3089324315
33.5401 1.86892 46.0883 28.7565945932
28.8957 11.2145 56.3708 33.5938020667
35.4773 11.4817 45.4369 28.5159818528
25.5499 3.60516 43.7711 29.9169266333
27.199 9.87898 44.0123 29.159546189
28.4339 6.62086 46.1392 31.2541218694
30.6139 4.60483 46.5429 28.896103178
31.9821 6.7124 44.7641 29.8176615659
33.6988 4.68511 46.4624 28.0249138167
27.0268 1.92006 45.75 28.0181361651
28.8097 9.92867 46.7566 29.5222249723
24.9643 9.87883 51.9054 32.2011816091
35.8912 7.44363 52.67 29.5567362033
36.4544 1.68955 46.7589 28.3693936334
33.5701 9.56822 44.6421 27.2815163815
25.5672 7.91848 45.6093 27.3606387685
28.2729 1.37597 51.9038 31.131872631
34.9946 6.8688 44.7594 28.4108154916
25.7689 3.07573 51.1087 32.3159763937
31.9475 6.25268 53.4498 35.0061404649
34.3318 2.46643 52.1105 28.6132267533
34.9073 11.2468 54.7522 32.2568510054
31.9298 2.25455 50.6919 30.4321143758
28.769 6.72131 50.488 29.9416074934
36.7427 5.24282 47.537 26.9642937697
32.2362 4.83366 49.2413 30.8273508242
28.6798 2.83701 47.6504 26.5413747325
29.3403 3.67616 50.2216 32.6380032909
31.8119 7.21636 50.6693 30.877099419
34.4627 8.02183 50.0115 29.3846450757
35.0494 5.42308 49.5291 28.2771831872
26.7735 6.27781 48.6752 30.8436270327
25.6753 8.94109 54.5053 30.5832212314
31.0405 11.0745 51.2237 30.180961134
29.7282 9.39266 49.76 30.2797043804
31.6348 10.1266 47.0522 36.9171027771
32.6392 4.23614 55.1791 28.7020285715
35.7982 9.90752 48.3792 29.7397303861
27.814 4.18082 55.3303 31.8741959109
33.4487 10.1034 51.7849 31.0820906849
33.7437 8.38579 54.3154 30.4683731101
34.9479 2.29582 55.1142 27.0426205244
26.9677 10.3693 49.8974 29.2232495194
25.3109 5.19755 52.8642 31.9995848986
36.4633 4.49948 52.1748 27.9695736879
29.7801 3.4803 44.1326 28.751108079
29.4493 6.5494 54.694 32.1467907528
27.5502 7.08574 52.9149 33.8777568692
29.7815 11.9544 53.4887 40.7938712545
24.9863 8.47267 48.4155 29.149483416
31.4222 1.83988 54.9026 28.6796015794
27.6743 5.32408 43.6483 28.9899714449
29.8904 8.61873 44.1318 28.6145314673
35.7112 3.83094 44.6392 27.2444544301
27.1814 12.1922 52.1188 37.4186409011
24.7158 4.56352 55.8926 27.8774350051
28.4783 15.0718 5.08387 30.1765512824
32.6853 13.3406 5.20778 29.1730506582
36.7056 15.203 6.61369 32.2025349296
32.2112 13.4478 9.42913 29.451096004
30.2833 13.2909 7.13554 29.2111872049
31.0311 15.2779 3.76976 29.9830360872
35.6641 13.4471 11.8744 29.7943178942
34.0026 22.1225 13.0743 28.5192014881
29.0529 19.2862 11.3495 35.090581307
24.9279 17.4961 3.79578 30.4133450681
32.0014 19.9757 8.77649 34.2645292297
29.086 18.3415 7.03692 35.0091162127
34.888 20.4353 7.7938 31.5339256031
32.4126 24.3968 4.94245 27.5002079026
32.0868 21.6067 11.4653 30.7646965414
34.3221 17.8877 15.9602 29.4192434839
36.1626 13.1252 9.2235 28.3230943878
33.76 23.7285 7.53163 31.9845076484
26.4882 21.6181 10.7365 33.5505959056
28.1894 15.5735 8.16157 32.5488161328
26.1728 17.4058 15.7926 28.9246855643
26.9296 12.8424 13.3579 27.50294588
28.6829 14.1102 16.9117 32.0195685248
36.719 15.9142 12.3474 30.0513691465
25.8148 15.1212 9.54319 31.8403637362
28.6411 19.1607 4.1897 33.5666324933
31.8076 16.3272 10.0697 27.2709249839
28.6453 13.2428 11.2588 29.8559085016
31.4431 17.3958 5.61736 28.8866494914
28.0013 23.2373 5.06895 27.9006391339
25.3104 13.5704 15.8516 32.3771972811
30.9529 19.6608 14.2653 26.4592034539
32.3345 18.6437 11.7193 26.2102543593
29.3682 15.8987 10.8132 27.5920014945
33.5123 16.8391 7.9321 27.0425610126
36.3211 20.6463 12.534 30.9294095166
27.3486 20.4998 8.36953 34.0960195775
31.637 21.6786 6.14868 28.921507226
24.6288 21.5634 16.6383 31.083924117
24.7054 19.9108 7.55208 32.1680734022
29.1251 22.3159 7.2451 30.0250599087
35.9495 23.8581 9.11468 34.2351208879
27.6277 15.4439 14.5218 27.1325594095
33.9254 14.274 7.31313 25.8503418769
29.7415 16.9579 13.399 30.6889545554
26.8567 12.8316 4.50524 31.7236776214
30.2793 23.6208 13.2354 30.3790724039
33.1741 14.7755 12.207 28.4039030108
33.0519 14.5075 15.7272 29.6649294663
31.0468 18.5812 16.852 27.9262807694
31.7739 19.6789 4.26102 29.1862577011
26.8435 20.0275 15.2044 29.3215458663
31.862 24.0971 9.64284 32.9298949364
33.2689 21.0055 15.1602 29.8007121564
36.8404 18.4495 14.7639 28.2933926045
32.6308 16.4966 14.2662 26.2799830831
25.6967 16.6273 12.1974 30.9268132794
35.0742 18.1422 11.7391 29.9170383
27.775 24.0333 11.3889 29.9440336487
28.6196 21.0898 13.3796 29.1014699224
35.807 18.1854 8.97229 28.3900105365
24.7576 19.9767 4.8234 32.5393441112
31.4635 23.2603 16.2504 29.7630593578
31.1653 12.7561 12.7854 30.6941328629
35.0202 17.1848 5.42995 27.0775558628
34.4144 20.0 5.14497 27.550317724
35.899 13.936 16.123 33.3343258811
26.9111 21.2615 3.68682 31.4259384704
25.3188 19.2158 12.8394 28.5446844781
30.8289 12.965 15.355 28.2323392525
29.9736 24.2709 3.654 27.9229886018
26.729 23.3838 16.726 32.8720476738
34.8961 22.9648 4.26425 31.7425030923
35.2381 19.7397 24.5712 91.9468029168
25.7105 14.4529 21.234 27.3973297406
36.368 21.6223 19.8712 27.5881496457
33.5324 14.5277 24.4525 92.0206701308
30.8606 15.3319 21.3187 27.849166278
33.4104 23.2531 18.3985 29.1229420918
25.7714 13.8653 23.805 48.1067049429
28.9871 13.5136 24.6992 107.3926473916
28.1518 15.9413 21.1382 31.9930169085
28.8963 20.0809 21.4585 28.4689723387
29.88 16.2447 18.0095 29.8331845146
26.7163 24.4101 20.9805 28.3113978774
34.6525 17.8872 21.6643 29.4888688267
32.6156 23.8946 21.6978 28.8277461874
32.4421 14.9506 18.6314 27.5647895462
34.206 14.7918 21.4782 28.4032814691
26.2669 21.3304 21.1946 32.455425168
29.4431 24.338 20.9198 29.8136953261
34.5548 20.7841 17.9756 26.1888719266
35.4441 23.4539 21.4919 28.9037425859
35.7585 16.6074 24.1835 76.4517040672
25.8739 17.9804 18.4882 30.5483534188
26.9354 16.6073 23.7285 48.4050639236
31.7742 17.9964 21.5253 29.3615403075
31.074 18.5163 24.2511 68.8625820862
29.2739 22.9104 18.0592 31.4849204769
28.3778 18.1018 19.4811 25.8903966946
32.5336 19.6828 19.0642 27.5324084535
31.0853 15.4876 24.1247 50.837571328
36.5145 15.6485 18.1722 29.0451516176
25.6433 20.8345 23.9567 57.3013509448
31.1101 21.658 20.3816 27.403666538
28.3825 18.8783 24.1683 74.7463468586
30.5834 22.111 23.2405 31.020092172
33.3566 23.6871 24.8062 119.3048282348
32.7409 20.5945 24.4182 66.4601586156
28.0487 22.5502 24.4514 118.5989256988
35.8878 22.9955 24.2182 60.2513910429
26.731 12.7274 18.8939 35.9623458548
31.4097 12.6362 19.7676 30.6083744419
34.1032 17.083 18.869 27.1261260787
28.9088 20.2313 17.5996 31.1825784094
31.2771 15.4446 35.5465 65.9725007004
34.3471 22.3366 41.9354 31.8778414335
30.8035 13.9194 42.019 28.253841895
32.2103 16.0631 38.1256 30.8381941152
34.459 15.6903 35.4686 90.4243380404
26.3836 19.0916 38.042 32.2715057595
26.8522 15.9456 38.1646 27.0956042633
31.4972 23.3423 38.5352 28.7498551219
29.3774 12.9864 35.6148 88.9769407918
