31.9047 23.3696 7.97383 28.8383647368
35.0388 22.7645 8.5054 31.1837940561
28.4183 27.8229 8.1117 27.4078184518
26.6386 26.3109 9.76671 32.6264509535
30.2839 27.6533 10.1447 31.8722368808
32.0377 26.0693 8.48188 31.068450817
35.8859 27.9086 10.1752 31.9504245293
34.4398 27.5139 8.00684 29.1165533713
36.6489 24.8272 10.1762 31.1373151983
25.501 30.5539 7.28263 27.5362489418
28.0422 30.5331 8.33634 32.1471640716
30.9719 30.5649 10.5877 34.5610480375
31.6571 31.6585 8.28809 33.8535074846
33.8002 29.9841 7.44771 30.9047656033
35.8337 31.508 7.45884 32.26105749
26.7166 18.2728 12.2055 26.9371760674
24.6769 20.0857 12.4349 27.7475666452
28.4258 19.8273 13.4747 30.7298515241
31.0484 17.3318 11.1593 35.7596033185
30.4818 17.9933 13.8439 30.510858043
34.8556 19.1393 12.6395 37.3019223619
32.736 21.4316 13.6569 33.2431878942
29.4443 21.7535 11.7057 31.3238682969
31.3812 23.8841 13.6696 26.7517595263
28.738 24.1559 12.9492 32.6030554966
33.5832 23.2447 11.2184 28.7949155029
36.4659 23.347 12.6832 28.7296526134
26.2764 27.4209 12.3464 29.5042635346
29.0401 26.6931 12.4017 37.2218751016
32.311 25.7659 11.7033 31.309370649
34.1752 27.8656 12.5481 34.2994165979
36.847 26.7582 13.9573 28.5062377117
28.4053 31.6938 11.1744 33.8738571248
25.8941 30.4177 11.629 33.9849041169
32.9112 31.861 12.3618 40.0840052507
28.5224 19.8513 17.5236 32.0355769168
27.3759 16.8447 14.6488 29.6849836639
31.1259 19.2009 16.2425 31.6419846584
36.0784 17.1046 14.553 34.5185105284
36.2087 18.389 17.5547 29.3310585289
26.7476 21.0767 15.897 30.8403637864
27.4134 23.7884 15.4914 32.0416251288
24.6586 24.4106 14.5705 32.7180935154
32.7596 21.7121 16.3505 34.1538791009
29.264 24.1372 17.7101 30.4526111989
26.8557 26.7138 16.5712 30.5971056825
25.7149 28.455 14.818 27.8411922518
32.618 27.7939 16.4089 35.0095822688
31.7468 24.5771 16.1872 34.8297179481
29.4137 28.0582 17.0946 30.1770469227
35.5134 24.6858 16.7794 29.7458297977
36.4203 28.2543 16.3638 28.4564358633
34.3023 24.9431 14.2888 28.8429621442
28.4032 30.0596 15.0962 35.5135082972
26.8908 32.122 16.6603 29.853062584
30.9371 30.9133 15.5617 32.6276723736
35.6413 30.8827 15.1819 36.9203684103
33.2554 29.664 14.3278 29.3201657529
27.1715 18.2455 19.1519 30.744654432
25.378 19.4745 21.1624 30.3802171927
29.5584 16.9999 21.0536 30.4320841573
31.7115 16.7156 17.9904 30.7241158823
33.6251 18.9536 17.7692 32.7645372683
36.2356 17.2948 20.3305 30.8425525776
25.0804 21.8658 19.0094 32.6711988847
27.1272 22.6552 21.1088 29.7517230453
29.379 22.0888 19.2704 30.0337948003
31.5628 22.1085 20.9739 32.1762979938
35.0175 22.2689 18.2947 29.7506532122
35.1442 24.4716 20.3166 30.3210219523
33.8745 20.6092 20.3462 28.5267491326
26.4651 27.9317 19.3355 29.151087436
28.9641 26.1367 19.1909 27.5047936839
31.4229 26.6241 20.8172 33.7947807268
35.144 27.005 18.3856 26.606332758
36.7799 28.0047 20.3634 28.973036363
32.8467 28.3885 19.4521 30.1079770907
26.4567 30.2499 21.2027 30.1511472728
28.2584 30.1528 18.5438 27.2826812163
31.1474 30.7933 18.5496 31.0508077506
29.2929 30.838 21.2474 31.8193053637
35.8909 31.6744 17.9553 32.8693552745
33.2006 32.5574 19.1631 32.012974244
25.0912 16.6842 24.0306 62.8233730915
28.6107 19.125 24.6125 107.2980492473
24.8491 16.5865 21.3801 29.3515309205
26.0076 19.5494 24.0763 48.2468266884
29.4957 16.4251 23.9994 55.963355808
28.793 19.918 21.606 31.2008243344
32.7176 19.5112 24.1585 73.1718102057
32.3101 16.3934 24.1917 85.1324273195
35.7488 17.9171 24.2422 74.3999050853
34.0046 18.2746 21.7736 27.438976594
26.6059 22.5225 24.0829 49.5830316518
31.7653 24.501 24.3735 78.4107178994
32.7572 24.4459 21.609 30.1963262458
30.5953 21.3855 23.4845 32.2963897907
28.92 23.3713 24.6405 97.8108987273
34.3642 23.7414 24.4065 75.904241858
35.211 20.8836 24.2716 75.6346115212
35.9311 21.9696 21.5326 30.0769435171
25.2257 26.9797 21.8681 25.9882591783
28.3955 26.4986 24.2583 74.4571231127
27.8951 25.4978 21.6261 32.1579827053
24.743 26.7363 24.7003 100.5720911914
31.1181 27.2593 23.7663 43.4879638841
36.5809 25.402 24.4709 74.7770240532
26.7373 29.0408 23.7641 42.4366592419
24.9245 31.6546 23.8875 42.3217582947
32.3728 31.4704 22.105 28.4596987521
31.8595 29.7732 24.4412 83.1474790135
29.2267 30.7726 24.3091 80.8560921135
34.5353 29.476 24.0678 58.9349655757
34.6341 29.6392 21.4153 29.2079005158
35.0786 32.3772 24.4332 80.9599121984
35.7025 32.293 21.7057 27.2688008159
25.1819 17.3427 38.4096 27.9805643242
25.3618 19.2492 35.6379 89.2751605586
26.6053 16.5609 35.8974 81.7652414108
29.3324 16.534 36.2001 70.1365901108
30.1348 19.0627 38.6828 30.3708564605
30.2679 19.578 35.8448 88.5661125225
33.1485 19.992 35.7006 93.9389184027
35.3256 18.0261 36.1526 70.7752331536
33.1467 18.711 38.5405 29.7771913001
25.4739 20.6869 38.2848 26.8844864755
26.6467 21.937 35.7242 68.7193593551
24.7086 23.5956 35.3147 107.0498158713
29.2393 22.1479 36.2953 48.3781048716
33.7264 22.6775 35.8445 58.9360547232
32.8763 23.1816 38.6897 31.9106523284
36.4643 22.4377 35.6339 77.8614566626
28.5296 27.0316 36.1559 55.3787169382
25.7924 26.1167 36.0799 56.9536727611
32.6898 25.3561 35.5001 100.7288448984
30.1108 24.9289 36.1261 56.5016476384
35.6038 28.4423 35.494 88.9212195828
32.8757 28.2842 36.0399 45.8714434601
36.6218 25.6648 38.3413 32.1630093962
36.7858 25.2659 35.7296 65.6963528584
26.0428 29.2606 37.9923 26.3831806718
25.2149 30.1393 35.5386 104.4567568912
28.013 31.5164 36.1851 52.1222389442
30.9335 31.5336 37.8106 28.046010479
30.195 29.3012 35.5507 108.7120931082
35.7179 31.0882 36.0829 36.7106733984
33.0393 29.6288 38.2132 27.9687482323
27.3107 18.6028 39.7573 28.7718139455
26.1374 20.3513 41.8111 27.1885955673
30.8388 19.5664 41.7644 30.1736819678
29.4348 17.0686 42.0289 26.8660068809
35.5959 17.8538 40.0576 32.4858313655
27.8857 22.1815 38.9641 31.7003062634
28.6628 21.3891 41.9379 30.3389738944
29.4118 23.9204 41.2804 29.1023813208
33.2002 21.1514 40.3084 31.0444000611
36.2703 21.8702 40.7657 30.9145294331
25.2871 25.6373 41.1842 29.5778034383
26.052 24.7694 38.899 29.8069354906
27.8186 27.2851 39.2533 32.037003963
32.5862 26.3543 41.4939 28.0244758187
30.8136 25.0031 38.8668 29.1898203489
31.2262 27.7977 39.3395 30.5118873001
34.6965 24.6801 40.1472 30.9863320831
28.363 31.4016 39.1882 26.6533510742
25.7254 30.5567 40.3876 28.4513862019
29.2804 29.4217 40.9473 26.7928546525
31.7458 30.768 41.1716 26.8010669128
35.7185 30.6068 38.9456 28.1031177159
34.1835 29.8213 41.3738 29.3078205261
25.8905 18.504 43.9938 26.4487067272
31.6104 19.8915 44.6397 27.7065115909
30.1103 17.4352 44.6683 26.8192782576
33.4321 17.2675 43.7418 30.0925592866
35.9435 18.5928 43.9263 27.9877275147
27.6133 20.9646 44.9896 28.0684272725
24.7771 21.843 43.8696 27.7358718337
31.7021 23.9842 42.6874 30.0258344634
31.1995 24.3054 45.404 29.4996793939
36.0055 21.1516 43.4649 26.9366018126
33.3459 21.8217 43.1042 30.8250389732
28.1336 24.5099 45.3468 31.4167004535
27.5244 25.3731 42.7674 32.2366753862
28.1212 28.1165 43.2305 27.8990725607
31.1771 28.0529 43.6089 33.2351333856
36.0551 24.8915 45.0961 31.3503203081
35.0574 27.1533 42.6418 34.9244200042
25.1401 31.2887 45.0185 30.2001581671
28.4515 32.6269 42.6201 32.2537830081
25.7668 29.2844 42.9303 28.7523599024
32.5941 30.478 44.1304 28.5992942212
36.3603 28.7461 44.9004 29.4686700906
35.699 31.0942 43.5048 26.1002246816
28.5806 18.5245 46.5168 26.9315639216
26.2131 17.2555 46.7106 27.1708437034
36.3481 19.8294 47.9503 32.0054577788
33.8625 19.0302 46.588 30.4033784918
33.4374 16.3717 46.9945 32.1373628419
25.3205 21.175 47.0267 28.4716858946
25.6282 23.7395 46.2684 27.0239052533
28.853 21.0767 48.6293 32.6429391021
31.9775 20.8312 48.2655 30.0560748679
30.1213 21.7507 46.1616 26.8797300073
33.3937 23.1288 47.2441 27.0010484862
35.7441 22.62 46.1887 27.9150039066
25.7717 25.2387 48.9047 30.9106596611
28.6706 26.6833 47.2796 32.1901225961
32.6027 28.0 48.4031 27.9774464662
31.0771 26.8021 46.2969 29.9942652803
34.0652 25.5858 47.391 30.7438855956
36.1134 26.9468 48.8798 26.3266098817
26.2158 30.9974 49.1806 34.4429034828
25.4326 29.2667 47.163 32.2760323973
27.6049 28.8577 45.8336 28.0864509599
29.2573 30.9594 46.3525 32.2894886068
31.2501 31.0716 48.2498 32.1662311633
33.5688 32.6291 47.8995 31.6522383415
34.2041 29.9862 46.5261 29.7622822034
36.7838 31.0549 47.4859 29.0240583241
26.6965 19.098 50.9018 31.0674435104
30.9798 18.2547 51.8982 28.113511723
29.0816 18.2728 49.4222 28.1206600402
31.9513 16.6339 49.6102 31.1842498736
35.5873 18.3405 50.651 33.7983658907
27.7088 21.778 52.2133 31.4657176823
30.3055 23.1036 50.2576 30.2627868828
31.4274 24.186 52.6181 30.4034178971
32.071 20.6894 51.1752 27.2633631744
36.5578 22.8136 50.6377 29.0191745196
33.6906 23.3649 50.119 30.5012852375
34.8525 20.6286 51.9245 29.218036022
28.6689 25.4212 49.8308 31.6614154212
27.2195 24.7632 52.1887 30.8505579921
30.9274 27.1792 50.4778 32.4510114748
33.5282 26.0644 51.3946 26.2388568459
34.8107 28.2891 50.4142 30.8659373916
26.772 29.8535 51.805 34.9606802556
30.6179 31.6581 51.0823 33.024417971
29.3766 29.1312 51.8526 35.6312772455
36.3158 29.6036 52.4715 31.3322187058
33.0845 31.9809 52.4826 35.8004761404
35.1361 32.6516 50.5817 30.8324496964
25.9774 17.2695 52.9592 28.1473791678
31.8576 19.1167 55.1629 28.9628367739
28.8129 17.8648 54.1491 26.2311136415
30.4165 16.781 56.2274 28.7020514428
33.7447 17.653 53.0793 28.9876464552
36.406 18.8171 54.3403 27.6048441586
25.3686 21.1581 53.6883 29.9202491836
25.7428 21.6689 56.3008 31.6899480004
29.3232 20.5123 53.867 26.5283255423
29.9031 23.5188 56.2685 29.3623357138
32.0262 21.8708 53.9446 29.93480196
36.8335 23.4723 54.5449 30.7862438507
34.7903 21.405 54.9812 33.5710703768
26.3576 26.732 54.4151 30.9867658387
24.6365 24.9027 56.0228 30.713232022
29.1345 25.216 54.1618 30.0595359421
29.8929 27.9539 54.5044 34.7471837534
32.717 27.2898 53.9377 30.3420172937
35.9784 26.1294 53.2588 32.0151647974
26.3566 31.9228 53.5632 29.2808031012
26.3171 30.8401 56.3053 33.6921963827
34.122 29.848 53.9067 29.0620083008
34.2313 31.1846 56.1534 32.2174467057
25.0599 33.164 6.72004 34.7507621055
26.8654 33.4048 4.6491 32.5020106298
29.6112 33.9767 5.00964 36.6600421572
30.5735 35.6598 7.13107 33.7413748762
28.7279 36.7312 3.84431 29.5865067637
32.9538 34.3151 7.15361 33.2014779754
36.5437 33.9617 5.85767 27.83744848
33.8536 33.878 4.501 30.0809561511
24.9774 37.5518 5.91391 32.736981121
25.3923 39.6207 4.0528 26.4370958378
30.8255 38.0624 5.93863 29.7340575685
29.0695 39.9758 5.36904 29.2630652851
32.7664 38.1245 3.901 30.5976971255
33.3438 39.4423 6.61949 29.9913477427
35.9117 38.643 6.30813 27.8089006354
28.4669 44.5498 5.98079 29.2146864033
26.4773 42.4297 4.99803 29.2504740929
30.3897 42.0057 6.85333 32.0050343968
36.6565 43.5145 6.76152 27.158381153
33.5629 44.6703 6.63956 30.298920413
32.9682 42.1018 5.6923 32.0134552149
35.4566 44.2956 4.26976 29.1619239906
25.6156 48.3467 5.62558 25.7559387198
25.8613 45.55 6.68503 27.7383018504
30.5402 48.807 6.71373 29.0340653231
31.7297 46.514 5.41581 28.250392506
33.8332 48.782 5.34469 36.0269362175
36.5379 49.0121 4.02076 29.4762379739
29.804 36.1403 9.76532 33.3601902641
36.3819 33.3316 9.52246 31.0919803441
35.2177 36.108 7.31623 29.1650599897
27.0421 39.185 7.41794 33.88578899
28.2432 38.4361 9.83349 37.0064820183
34.4712 40.2385 9.43826 32.1689754054
34.8408 37.4729 9.90145 28.6181398748
28.5591 43.8423 9.60255 28.5445129758
27.2017 41.9069 7.8357 27.4016620616
31.9817 41.9246 9.31482 33.5802022229
32.6376 44.4529 9.08358 27.9895812388
36.5937 40.8665 7.62713 28.0985734422
35.7472 44.8591 9.24167 30.6424949632
26.4736 45.8623 9.56987 28.577035734
29.0257 47.3542 9.44371 27.5862787427
30.2502 45.5373 7.79387 26.0385217147
31.3377 48.78 10.0907 32.3137729511
36.1823 47.2749 10.1836 28.5543920238
25.5757 35.1853 11.2344 32.1986655465
24.9244 32.8229 13.0096 32.4649250855
28.1591 34.2915 10.8834 34.3649150479
29.0686 35.0283 13.3847 28.9052518194
31.0981 33.2906 14.2029 35.9520875956
34.5928 34.3727 11.5524 36.61761825
36.2128 35.5051 13.5443 33.6208361418
26.2053 37.9826 11.8508 30.6481631376
27.1596 39.758 14.0301 29.8784282796
32.3072 37.5207 13.5437 31.8103096456
32.3098 36.7757 10.8983 39.2001301659
29.4835 37.7125 13.9146 32.4708211803
36.3604 37.8476 11.7877 28.9078368073
36.3857 40.1298 14.0296 29.3581968669
27.9861 40.9273 11.3907 30.4858955423
26.0654 42.7673 11.1109 27.2182368754
25.6979 42.8393 14.2071 28.7675142679
32.1214 41.5867 13.5812 34.4930164034
30.3803 42.3425 11.5783 32.2010696577
34.0307 43.3954 12.7651 31.3966633624
36.1252 41.3746 11.6073 29.278956608
26.1724 45.4282 12.9079 31.5744380094
28.6107 46.9038 12.5444 36.1800610251
32.03 45.1982 11.9466 29.0269878295
33.6025 47.4412 11.3798 31.975980005
26.8382 34.534 14.8567 28.9880530749
27.8018 35.9188 17.0291 29.9955799918
32.1824 35.5964 15.4641 28.5467348599
34.9405 35.6428 16.1 32.4764023056
26.0916 39.8272 17.2117 29.9108664257
29.0245 40.1452 16.517 33.4409615956
30.1036 37.0995 16.5825 27.347188648
35.681 37.982 17.7069 32.6684304209
33.6684 39.6076 14.9396 33.6749326252
28.0929 42.7831 16.1017 30.5693779888
25.0464 42.6846 17.4379 28.4011225864
32.3256 43.5951 17.5136 31.9483318951
30.646 43.5215 15.2026 31.5293999752
36.6058 42.432 15.8086 31.1676875561
35.9326 44.4337 14.2577 26.8836599723
27.6185 47.8414 17.3356 28.4023127417
24.6664 46.3862 15.5172 31.8183156978
27.1082 47.9945 14.8348 33.86110105
31.428 48.9274 15.1088 31.7274452531
29.9754 48.8137 17.5221 33.1053232037
30.9094 46.147 14.3738 31.3882800569
33.4197 46.3145 16.7425 32.1158394972
35.5175 46.751 15.1901 29.1778916531
27.8562 33.7805 18.689 32.8598837753
25.1812 34.6415 19.0842 26.5361705432
29.9408 33.6221 21.2249 33.0473445696
28.7125 36.159 21.1077 28.3257465262
36.7306 34.4031 18.0799 33.8788177193
32.8557 35.0934 18.2451 31.9579175914
33.3409 36.3774 21.1997 31.1663143744
35.6396 34.9594 20.5814 29.8035180239
26.582 37.5247 19.1436 29.0023329949
32.1226 39.4875 19.9768 26.6031702706
28.8591 39.7714 19.5396 26.6757752805
30.8897 37.103 19.1518 27.99812418
33.7469 39.8706 17.8735 30.412251327
36.7559 38.8396 20.457 27.731435408
28.2202 43.0582 18.9586 27.0027027899
25.5245 42.8206 20.6574 26.6195230794
30.8023 42.376 19.5976 29.5123064227
34.8746 42.2483 17.941 35.6445578327
34.711 42.5886 20.928 28.7383300285
24.6643 45.6969 19.9288 27.3663858818
28.1437 45.2537 20.8859 30.8146145974
26.3262 45.2441 17.7845 27.8206983937
31.0766 45.9313 20.9464 30.3863589487
30.6665 46.1538 18.2347 31.7392305285
35.0537 47.636 18.6069 33.196927316
33.2557 47.9028 20.802 32.3685157161
26.0061 35.1755 21.87 26.8866342282
28.5982 36.5811 24.2472 55.2498795362
26.4267 33.9712 24.4311 78.2628142794
32.6393 33.1904 24.4537 78.3484145733
29.1132 33.5641 24.1052 54.6492545648
33.3025 35.9131 24.0455 51.4351188569
25.5534 36.9226 24.4982 70.916936226
27.1951 40.5809 21.5325 28.3977441156
27.126 39.7657 24.636 96.2485045906
25.5742 38.3713 21.683 27.4863700639
32.4963 40.4106 24.4321 79.772084924
30.2284 39.0243 22.3115 28.6853350313
31.1393 37.4116 24.5606 93.4229594188
36.8618 40.7868 24.3105 75.615516253
34.2908 38.9591 21.6991 26.6317602961
34.8938 38.4389 24.2236 64.9396518843
25.0857 41.7914 24.1799 54.3433442576
28.6523 44.2839 24.4749 99.548570269
26.2875 44.4114 23.2109 28.0441446862
31.3473 43.2138 24.1989 72.6795108944
32.1615 43.4918 21.6681 29.8595354627
29.472 41.3177 23.8386 39.6703871803
36.2799 44.6815 21.4704 29.669592145
34.6198 42.2111 23.923 43.741709325
26.1735 47.3595 21.7733 27.3756984945
25.2444 46.6766 24.4223 81.8294449488
31.9743 47.864 24.1279 81.774431836
29.4537 46.5699 23.6101 35.4099195524
34.4979 47.1528 23.2888 31.4157950377
35.7874 44.9686 24.3168 96.0441866648
25.9083 34.6378 35.6611 102.3536774293
28.1579 34.3259 37.0182 28.3749549387
31.6391 36.4189 36.226 58.0105543751
30.9644 33.6879 35.7596 88.2848619915
33.9797 33.0116 35.4376 106.9721444498
35.9153 34.8925 35.9109 56.7500054245
35.5706 35.5368 38.7003 28.6183598902
25.8463 37.5032 38.5428 27.247902319
25.6194 37.3289 35.8318 79.9296329042
28.8304 37.3292 36.1148 73.5264789654
31.4341 38.9121 38.3011 26.483856228
28.9187 39.9807 36.6677 32.4985670253
33.7063 40.468 35.5254 96.8339278483
34.2148 37.87 36.1495 52.9139107583
27.5684 41.4622 38.6922 31.115686231
27.6547 42.1246 35.4572 115.3751346109
24.9751 41.1408 35.9542 62.3257457672
24.7686 43.8102 36.0983 64.3060746348
31.4188 41.406 36.0219 58.8603296291
32.7514 44.4228 35.6279 87.8995713864
28.9382 44.1125 38.7645 28.2542972872
31.6866 43.5516 38.1126 27.7573064877
35.4848 44.8756 36.2864 51.9098438555
35.9936 41.924 35.7735 74.154608788
28.0126 44.9939 36.134 47.7302043587
25.9796 47.0974 35.8911 70.7752051002
31.0062 46.6525 38.2987 27.886954102
32.2471 47.1522 35.4887 90.2410357757
29.483 47.395 35.4943 91.6830590546
36.7825 47.929 38.3554 28.6471447808
27.6761 33.9162 39.8959 27.9514081902
25.1306 33.2953 40.9885 27.2667769618
32.7641 33.3019 39.311 31.9033983516
29.5142 35.5195 41.6775 26.9676909978
31.194 35.8105 39.0128 27.7642069014
35.4377 33.436 41.1757 28.3975010187
25.6806 37.4933 42.0722 28.087171154
28.3011 36.8784 39.0312 24.4515561185
26.7145 40.0524 41.4884 29.5265252906
29.0721 39.2259 40.3895 26.9475588273
32.569 37.4134 41.0402 24.8787026954
34.3482 37.8724 39.0939 26.3804405958
35.2833 40.725 40.2441 29.8883611141
25.0182 42.6345 41.4728 31.4154384073
26.6223 44.5302 40.2001 28.0094748776
32.7077 41.1051 39.3513 31.1784733571
30.6321 41.621 41.7116 31.3745964499
36.8328 43.7351 38.9504 27.2939339348
36.1962 42.9357 42.1092 27.8263765219
27.987 48.0863 41.6597 28.0671880751
25.525 47.3929 40.5643 28.9285012419
29.7218 45.8661 41.1741 27.4414082803
32.1952 47.373 41.5166 28.7521480708
29.903 48.9053 39.5998 27.6519749185
33.9096 45.0189 38.8703 28.0090443618
33.7249 48.1101 38.9353 26.7255379839
34.1616 44.9456 41.683 27.2023252297
35.424 48.3214 41.7011 28.5666680764
28.3066 36.6704 43.9311 27.0152344744
25.9554 34.7786 43.2879 28.3433836683
27.5142 32.9593 45.3067 25.5145085477
31.5223 33.6899 42.3505 26.5149789186
31.2056 32.7143 44.8151 26.7777664597
33.3463 34.2034 45.562 26.7626436566
33.6786 35.2157 42.3908 27.2719619898
35.8011 33.0427 45.3636 24.4663881678
27.6286 39.4429 44.4444 28.187615379
30.8521 36.7672 45.4097 29.9054432094
30.7998 38.6495 42.8032 28.0393790437
32.1535 40.1549 44.927 29.6802907499
34.9416 36.8588 44.558 28.5921537613
34.9125 38.7046 42.45 27.0350413898
28.48 42.1024 43.3793 30.4029035611
24.7285 44.0694 44.0259 29.9857045213
30.7907 44.782 43.8374 28.6031634303
34.718 40.9873 43.9544 28.3729259586
32.8852 42.9133 43.0719 30.9904970292
28.3294 47.3024 44.4233 26.115629655
27.8131 44.9424 43.0323 27.2846738208
30.843 48.2318 45.2147 28.9482048482
35.6386 46.5862 43.867 30.1667285415
33.0399 46.2357 45.1866 31.1957203505
26.2902 33.5219 48.091 27.9521657548
30.0901 34.0044 48.9607 30.7946353173
28.9097 34.9351 46.6077 27.0609421495
25.2215 39.3796 46.4135 27.6142964529
27.1028 37.267 47.4631 29.3617106392
30.7222 38.7207 49.3039 27.5879922384
32.7682 39.4667 47.408 28.5072415671
29.5485 38.6328 46.842 25.6538130358
35.8065 37.1 49.2581 30.1195373906
33.6462 36.7983 47.4471 28.5816356697
36.6095 38.0724 46.7652 30.1139147614
26.7495 41.7946 47.0551 31.7959100105
25.7536 44.4393 46.7454 31.1841850942
29.5127 41.4402 46.1398 29.3256027289
30.4163 44.0604 46.9904 29.2102471019
34.111 41.858 48.7997 33.3573847015
33.2213 44.6577 47.7253 37.2606071505
35.7468 40.8665 46.4125 32.7759826215
25.2195 47.3053 47.7409 30.7572211148
28.3915 45.8171 46.8255 27.8074745117
32.5728 47.8558 47.7921 27.3019485812
29.5138 47.496 48.5977 29.487309503
27.7287 34.6487 50.3518 27.3681308989
28.6384 33.2211 52.5544 37.1917190533
31.7813 36.1981 49.9459 32.1197317372
32.0333 36.7087 52.7679 32.3023794675
34.6199 35.3151 51.0954 28.011420555
24.9228 38.3664 50.3851 28.4940247272
27.8384 37.2018 50.0417 28.1518300277
28.9885 40.4423 51.2918 28.950490427
35.2859 38.8409 51.708 32.0056044733
33.0368 39.6347 52.4025 28.2273704313
26.2426 43.7138 50.8986 32.4764254306
26.6532 41.2491 49.9238 29.8032909933
29.347 43.4209 49.5518 29.2972415462
31.9149 41.0446 50.5346 28.0018178986
30.7382 43.2319 52.146 30.9105997041
36.277 41.5903 50.4811 31.9709905805
28.383 45.8654 50.8114 29.1076847753
26.7055 48.5207 50.0693 30.8858622176
31.6583 45.7159 50.1702 30.7717571233
33.0111 47.1076 51.9351 30.9247657638
36.6957 45.4387 49.3938 35.0249496117
34.8609 47.8159 49.9314 30.6252463075
25.1247 34.4361 53.1361 29.087515019
26.028 35.9086 56.3143 30.6585678255
29.5134 35.7683 53.739 33.6734194323
31.741 35.5953 56.1989 28.7863694908
36.2088 34.9797 55.1158 30.7095598639
33.6374 34.2831 53.8627 30.9019588169
27.8822 38.2042 52.8924 29.0506825203
25.4654 37.4294 53.0456 28.5879897172
27.8707 39.3135 55.5189 28.4355787701
32.4762 40.5449 55.0563 29.8332098855
35.3649 37.7457 54.7057 34.1996515656
25.5456 43.3218 53.6408 34.1111490618
27.878 43.0483 55.1476 32.2609777357
29.7797 41.2619 53.9115 30.9681619947
33.1265 43.0632 53.682 31.8211865315
34.9489 41.6322 56.1422 28.7360477074
36.2837 42.9279 53.1006 31.5620841461
26.265 47.3944 55.7539 30.1888174154
28.6027 47.304 53.0023 32.9464476301
28.4572 45.5588 55.8931 31.202741348
26.046 48.7274 53.1166 30.1937932896
30.9393 48.6289 52.8836 27.7029644367
31.8572 48.8055 55.2453 29.1712140954
31.2949 46.119 55.5551 30.4652404191
33.6004 45.3708 54.6663 27.7170831284
35.7231 46.8197 53.5141 30.4015298001
40.6182 1.22285 6.38112 26.4956642443
38.3485 1.86354 4.09569 26.6453820008
42.706 0.634357 4.94833 30.731904955
45.3802 2.54244 4.76884 29.1144530428
47.2124 3.32978 7.10406 27.472968942
48.6527 0.229397 3.92003 25.4148975329
47.7453 0.391317 6.60625 27.8056756168
38.2004 5.94854 7.0278 26.6374390159
39.5319 4.25342 5.27157 29.9980443728
43.4913 4.63883 4.91917 30.6861524314
43.3979 7.29571 6.61765 31.9016051835
41.8835 4.22369 7.036 26.974004405
44.3999 7.43016 3.85662 26.9369978838
46.2709 7.87329 7.04035 28.1921198976
48.1382 5.92894 5.58633 29.2877447657
41.2185 10.836 6.04477 31.0775486465
44.6183 11.5722 4.76389 28.4083278715
46.822 8.28647 4.00505 28.4925979307
47.3772 11.004 4.47667 29.770519323
39.7857 13.1487 6.64605 31.0543240912
40.6169 14.5409 4.19799 28.445200489
37.8911 15.3316 6.29244 27.4557796704
37.1075 15.5385 3.73443 32.2572991536
42.5523 13.9643 7.04364 27.9707267388
43.6136 13.9789 4.35939 28.3169054702
48.3051 13.8494 4.15855 33.2452965997
46.7228 14.7727 6.57595 31.9009393759
45.3479 16.2137 4.86023 29.7768029517
37.1606 1.37526 7.366 32.7919362248
38.826 3.43012 8.32225 28.1845483042
41.0003 3.0732 10.2717 27.1725036888
41.9743 0.959673 8.96688 28.4198755298
44.6735 1.64204 8.71736 32.389839628
48.7052 1.84817 9.27493 29.5788389698
40.7992 6.945 8.08 30.5245681838
36.992 4.28261 10.3869 30.8566962753
44.8748 4.69155 8.00595 27.3646564648
43.056 4.75294 10.3322 28.9874832925
41.7766 7.1106 10.409 33.5842437478
47.2757 5.65635 9.44949 30.1711232382
46.0972 8.07976 10.0051 26.1106993458
39.0852 9.03944 7.27366 35.4675309821
37.9565 10.1282 9.52815 31.7650432571
42.1433 11.8088 9.39773 30.2070345488
43.9273 10.5369 7.31559 25.9998582053
43.6795 9.51195 10.2072 32.3519324434
47.4168 10.6212 7.62042 31.2829765519
47.4198 10.3873 10.5446 27.6513011264
39.2789 12.4143 9.29353 31.368828052
38.7157 14.9591 10.6216 31.9168561822
43.4674 16.2782 8.71268 29.6805964221
45.335 12.8283 8.03815 27.258715829
48.8572 16.2817 7.49666 32.1769784376
40.5643 1.49398 13.1871 29.6530537931
45.7716 2.20943 12.8808 32.6436178541
47.9733 0.126333 13.7388 30.7435833142
46.0816 0.0121531 10.9183 30.6395522259
39.8966 6.70007 12.5746 30.4045039871
39.0456 4.1182 12.1284 28.6126573151
43.2174 4.27493 12.9972 29.2439003617
47.1609 4.5436 12.2348 31.5178593918
49.1821 7.661 13.3177 32.9482684905
46.4489 7.62143 12.7356 27.8595188659
38.1215 10.265 13.9022 29.9907269425
38.054 8.48782 11.7761 31.6842264109
44.842 11.1943 12.1081 30.5129836465
39.2241 12.7306 13.4329 31.4278447171
37.3686 14.8071 13.1552 29.8579569131
42.0957 12.4516 13.1467 32.5061452644
42.4436 14.2416 10.8361 30.0214227332
45.8239 13.3857 10.776 31.6294595971
46.4873 16.0301 12.299 30.5192626225
48.8778 12.9487 11.0052 31.9264277177
38.906 3.72801 14.8104 26.6071844219
38.3478 2.03542 17.3494 28.6656725179
44.388 0.708533 17.6332 27.5749533971
42.535 2.13817 15.1297 28.4253168025
48.3849 2.32661 16.9042 28.993887108
45.6182 2.57062 15.6735 27.2899968914
38.2676 6.74867 15.3806 27.6570807485
44.8697 8.16141 17.1674 29.4905465253
41.4609 4.40777 16.2329 27.709924347
42.0119 6.611 14.7782 30.8722465411
44.7134 6.06088 14.2679 28.3352139038
46.1036 4.91978 16.5049 28.8587654411
39.1099 9.42474 16.3133 31.7016469066
41.919 9.10338 16.2707 32.9324031015
43.3784 11.0488 15.2676 30.1521718471
44.2287 11.992 17.6636 31.0315471088
45.8428 9.6648 14.5054 31.7432523333
48.1305 10.6409 15.9468 33.6609733151
39.5505 13.6845 16.0188 31.2514835538
37.2948 15.511 16.8423 31.5593375604
41.2383 15.6407 16.9692 29.0531157055
44.7608 16.1621 17.3369 31.0444425272
42.7251 14.6073 14.7163 29.0058851153
47.7416 13.8028 15.7931 31.775227038
45.5564 14.9297 14.8659 32.5418553338
40.1508 0.413943 20.3099 28.9853837616
40.0561 3.53474 19.2296 29.7245149973
43.0306 2.82428 18.9522 27.8449756463
45.2547 2.98088 20.7563 28.888015385
47.9575 2.97821 19.7416 30.0030956547
38.2846 5.4093 17.9603 33.0319961027
38.1141 5.93277 20.92 30.096224794
43.5714 5.33922 18.024 29.3334602455
42.6348 6.48428 20.7016 34.6202823785
46.6953 6.54318 19.1295 29.2732958114
40.5325 12.012 19.7343 28.5019162429
38.516 11.7084 17.7807 30.2580128958
42.968 9.69841 18.9833 31.9706931214
46.9015 12.1348 18.3939 28.8156151377
47.4551 9.08402 18.503 29.1194505452
42.542 13.8766 19.0158 30.6804034219
44.701 15.6401 20.5749 28.6812314038
48.5443 15.0747 18.2735 30.3085579041
38.355 3.28913 21.572 28.5984022172
39.2963 2.38902 23.9482 52.4057482196
38.3396 0.137883 24.518 101.3831278414
42.3542 1.39319 21.6492 31.5480469938
42.3589 2.42356 24.4174 94.891484759
45.0855 2.76902 23.713 40.0561190041
45.2517 0.0839305 24.0888 67.6624235304
48.2202 3.46238 24.7136 132.7700056266
48.96 1.04116 21.363 28.9024178973
38.7263 5.47 24.0744 69.6609495917
40.9774 7.41192 24.2894 82.7498694686
40.1092 7.84452 21.5293 35.8268505193
42.5729 5.28899 24.2905 75.7064261796
44.7782 5.73723 22.3811 25.630234689
45.0367 7.71102 24.3281 81.8223080139
47.4513 5.1841 22.1132 30.1669740871
40.247 11.5949 23.967 63.31766751
37.2466 10.8991 24.2152 85.406960036
38.7445 10.4491 21.6457 31.5051214941
44.1585 8.84923 21.5637 27.6755607673
42.2994 11.6869 21.7962 26.9086972298
42.8258 9.69185 24.0575 46.5464139555
44.0547 12.1132 24.6522 100.3012747082
47.1262 9.14256 24.296 62.9464391151
46.6919 11.8135 24.3144 57.4739233502
46.882 9.22913 21.3733 26.2766185444
39.6766 14.486 21.3335 34.099530161
39.4828 14.4029 24.062 70.5747242794
44.2834 13.3052 22.1557 26.6342133452
44.555 15.2479 24.1847 71.3848944054
47.351 15.8998 24.2022 69.5023800505
48.8994 13.5425 24.4192 85.9784909399
46.8281 12.2721 21.3031 28.5627952194
47.6053 15.6703 21.4772 27.8722449949
41.6384 3.23532 35.8293 84.2282218038
41.2523 2.4712 38.6279 34.0065614488
42.0866 0.386888 35.8973 66.4627367186
44.7824 0.516584 35.5372 78.9088913114
46.1578 2.10201 38.5857 26.7075092125
48.7928 0.667309 35.5251 78.3092660469
46.5918 2.63492 35.7378 65.9438343043
48.901 2.26807 38.2388 25.9942969713
37.5788 7.46211 38.3409 26.2813088508
39.3065 4.60676 36.2182 46.12246497
39.088 7.48833 35.7181 77.5678783986
44.174 4.54005 35.9452 66.7057134934
41.5898 7.47002 37.9936 31.4682386341
44.3624 7.6154 35.8738 58.3452674172
44.9653 4.59531 38.7927 31.7691039976
47.1653 6.36807 35.964 66.8007412244
40.9867 11.1324 36.0954 47.6644943631
37.154 9.26482 35.8849 61.2640356765
38.1339 11.652 36.6441 31.0339638577
41.7128 10.9326 38.6814 27.704208578
41.479 8.7043 35.471 95.7359327026
44.4768 10.8643 38.5801 30.8154068704
44.0645 12.0573 35.3678 84.612178195
48.3548 10.2765 36.0035 57.6154357506
45.7785 9.93681 35.6778 69.5658033617
49.1267 9.46168 38.6234 28.9505584341
38.6169 14.5541 35.6727 101.5496413789
38.0608 14.8763 38.4472 30.6502618492
41.244 14.462 38.736 33.5519717564
41.6799 14.1546 35.8748 66.8860115239
46.015 13.3839 38.1223 32.2960648371
48.6423 12.521 38.621 29.2328583676
45.6902 14.2755 35.5057 93.3195424161
48.6376 15.8942 35.8587 75.3901354587
38.707 2.04818 39.5139 31.2212727557
37.9397 3.43839 42.0219 30.3733275342
39.8581 0.120013 41.5762 31.698797554
43.4659 1.55641 40.3519 27.8404152719
48.8234 1.28004 40.8765 27.825308474
46.2472 0.873158 41.6738 27.9734704491
39.4406 5.26981 38.9584 31.5349097531
37.9342 6.38223 41.5897 30.8445258942
41.0242 6.89283 42.2865 29.7538474814
42.8718 4.24542 41.6134 33.2965546295
44.3781 8.05624 38.9368 31.6287342583
48.1438 6.82973 41.4468 28.8393949282
47.2668 6.72678 38.8939 27.800107239
45.6962 5.48366 41.7998 28.9225882292
40.6068 8.92979 40.1161 25.364267342
37.7953 9.48494 40.2968 26.6721450345
37.6468 12.2185 39.3834 26.5659158878
44.2468 10.3406 41.5288 30.9986597292
48.8102 9.94537 41.3499 28.351879683
40.3178 12.3752 40.8765 26.9134916658
44.5495 13.1878 41.9683 31.0433993471
44.1077 15.0514 39.8153 28.8941350876
49.1241 12.5561 41.5881 32.1950570152
40.1032 3.8174 44.1693 31.6850983342
37.4038 0.946241 43.5768 29.5431276458
43.5237 1.37694 44.6998 28.2864944787
42.8099 3.95127 44.4716 25.8020382064
42.3977 0.0129404 42.4166 27.8793679317
46.3355 0.26061 45.5118 26.7779323329
47.2153 3.25909 45.3294 26.9967554449
45.6181 3.03637 43.2662 26.4583518547
39.638 6.73377 44.9043 28.915108689
36.9215 6.99183 44.2634 26.5362218095
44.2487 6.44972 45.3499 32.2098360363
43.9337 7.5003 42.7119 27.428181297
38.842 10.9818 45.1863 31.808951932
37.0101 9.65455 42.863 29.2296572802
41.4428 10.1068 42.3604 25.0984085454
41.2843 9.31359 44.7454 29.2527935501
42.1773 11.6976 45.799 32.1459181006
46.4232 8.80709 42.7805 32.0447465933
48.2629 10.1079 44.824 26.9027019641
37.953 12.4208 42.4795 26.3216411444
39.8259 14.7906 43.0673 29.8085814313
38.8638 13.8287 45.615 27.5233113386
42.1504 13.0917 43.4185 26.940275385
42.9215 15.5431 44.8141 29.3772428583
47.0189 15.5742 44.3116 31.1919080297
46.8853 12.8792 43.516 31.1230403608
40.7742 3.32028 49.0304 26.9564094428
39.2104 1.89142 46.0111 28.6297291319
37.3747 0.958357 48.0077 28.3023865032
41.5932 1.24826 46.9723 29.1484941822
46.343 2.36114 47.8681 28.8832500998
49.1975 0.51911 49.1342 26.4925161717
39.0579 7.40142 47.9766 28.763477199
38.2883 4.39854 47.7206 27.5941488495
44.5565 4.49087 48.9091 30.0997365686
42.4898 4.64883 47.4563 26.791110391
41.8876 7.26485 47.3993 30.6129271672
48.6415 5.15965 48.6015 29.3145927152
46.0472 7.04535 49.2433 31.5991549157
46.7898 6.24401 46.2933 28.2938130406
37.9127 10.14 47.778 32.4420307467
43.663 9.08105 48.6164 32.045056245
44.5605 11.3534 47.5087 29.393906514
46.8276 9.32731 47.1836 28.6854105623
40.3668 16.1756 46.1294 29.649318031
40.8225 13.3362 47.8801 28.0901347415
44.9238 14.6607 46.5153 32.7072766974
43.9995 16.1222 48.8961 27.2246014222
46.901 12.531 46.3331 28.3366035974
37.4772 3.46951 50.2645 29.5547341158
41.0988 1.71754 51.2978 25.7324382884
43.3938 0.146156 50.9454 27.8007289744
46.1857 2.39039 52.08 28.6441714575
48.477 2.91229 50.1872 27.4202744413
39.2287 7.52536 50.8457 28.7669669079
40.7795 5.21581 51.2345 27.9351349918
44.0405 4.55045 51.491 27.8105358528
42.7465 7.41948 51.9652 32.1067709748
47.9459 8.13656 51.2602 27.5882570204
40.0812 10.2116 51.5842 28.8894924686
39.2803 11.9137 49.5242 31.5719209984
42.6776 10.3981 50.9271 29.0041849221
48.4046 10.0051 49.3834 28.0273508933
46.6403 11.4806 51.1157 34.922914729
48.7988 11.0793 52.7596 27.5980248736
39.7743 15.5072 51.628 30.8966929472
37.5209 13.467 51.0709 32.950235255
43.299 12.9398 49.5974 31.3819591955
41.3282 15.6702 49.3573 29.7724356663
48.6704 15.4893 52.681 30.5810978012
47.5995 16.0583 49.966 32.9656380869
45.6233 14.2752 51.0871 29.6113118362
39.207 1.70438 53.8963 27.0135488481
41.3906 0.129283 54.8774 31.3459110365
44.3241 1.04684 53.6811 30.7683632134
42.4287 3.0825 53.3262 28.7030387046
47.9844 3.88793 56.1409 30.3545423249
46.0064 0.481975 55.9463 26.4951632039
48.9754 0.960403 53.1928 30.8255805748
38.5647 4.42966 53.0421 28.4429565041
38.9573 6.01775 55.5163 32.1427987678
40.3934 7.81487 54.0937 27.2829701159
42.3375 5.46824 54.9339 32.4820560461
45.1585 6.49795 53.5158 28.7490974978
47.2135 4.76337 53.5313 31.0183612868
37.5721 9.06702 54.2302 30.8550344913
40.3155 10.041 55.8112 37.2403906044
39.3543 11.7684 53.6479 29.9571019623
43.1323 9.71948 55.7423 28.7878477183
43.8034 11.0484 53.4519 30.9801787782
49.1374 8.71602 54.2877 29.8196225432
46.1646 9.21906 53.7128 29.6416688965
40.7743 14.215 54.1308 29.4454571764
43.4698 13.784 53.9916 31.5158345556
46.7817 14.3587 54.3389 31.4233514041
38.5468 19.3626 6.31253 29.5834372555
41.0624 16.8634 5.19499 27.8645528445
43.5152 17.9781 6.39264 30.5382284399
47.169 19.0648 6.37554 27.6804999005
40.336 24.1833 6.21006 31.1677728403
40.6006 21.2566 6.73653 31.3970721595
44.5267 21.1852 4.42319 28.04905375
43.2669 20.8465 6.73881 31.1427316221
44.9314 24.0683 4.64732 33.8469548437
47.0969 21.6675 7.14471 31.6928979139
47.5412 22.9411 4.71413 29.1865586295
40.5967 26.7798 4.98788 30.3387906849
38.7447 28.2019 6.66802 33.0438122927
42.5459 27.6523 7.08254 28.3735033689
42.9333 24.897 6.7657 32.7226760571
45.5206 28.3419 5.00798 29.5798088786
48.7832 27.2885 6.97962 32.3354033047
48.6644 25.7926 4.58014 31.6276674916
38.0425 30.7908 5.43481 31.7004088302
43.8248 31.4606 4.68783 29.2861183576
42.7608 28.7679 4.32761 29.9513309405
47.9739 31.8657 4.77982 29.0303176666
47.4936 29.62 6.60849 29.4712409863
39.3504 17.2848 7.54653 29.1274773325
37.6451 20.3822 10.4051 28.5556007353
40.9098 16.7884 9.80726 29.252188283
45.7102 18.4697 8.81452 29.4907735419
48.1362 17.1023 10.2513 31.0223374685
39.4421 22.0707 9.04873 28.8257460524
37.6267 23.8063 7.42965 26.9521022733
45.0434 21.2288 8.93534 30.7365547898
43.8454 23.9575 9.26121 34.5738870896
40.511 28.1067 8.89211 32.097425016
44.8925 28.4741 8.26904 30.3288025618
48.2055 26.2754 9.39447 31.1038392882
45.5766 26.3703 10.0742 34.021711487
37.9771 29.4115 10.1651 31.9960059544
40.8427 32.6324 10.7316 28.210428727
42.2555 30.6763 9.39623 30.4688886267
43.7315 32.2131 7.40592 30.7110172659
46.3473 30.8665 8.9692 30.1078532252
40.1779 19.1858 11.3604 32.9282307627
39.0861 17.211 13.3486 30.5397188549
42.1766 16.8018 12.9269 28.9881867439
44.3824 18.011 11.4594 32.199850836
48.1042 20.0267 12.8381 30.8769228036
39.3318 24.4872 11.2118 30.1784134492
37.0913 20.894 13.009 31.1445858518
41.6593 22.7531 10.8691 32.6733269965
42.4471 20.5635 12.5327 28.0010570416
44.2031 23.8982 14.2311 34.3028884965
46.3949 22.7076 13.5198 29.3974463939
45.1626 20.7502 11.8501 32.1362211494
48.751 23.7685 12.14 33.4328891793
40.7663 26.5888 11.2409 30.1147373455
38.7032 24.5305 14.2257 31.6316123341
38.7068 28.5486 12.6332 28.4494363673
44.2905 27.8144 12.3432 28.9487209359
43.1187 25.2683 11.9762 29.4769181182
48.2558 26.2466 13.1997 30.7576072302
49.1551 27.9099 11.2654 33.1490016146
37.9079 30.8501 13.6386 30.1295844661
38.1192 32.1027 11.3425 28.3987100586
42.7542 29.4084 14.1204 28.2398996509
44.0586 30.3114 11.042 29.1027431659
42.3873 31.8994 13.3352 28.3473391617
47.6876 30.4208 14.0608 34.9682719238
48.0965 30.4714 11.2433 32.1133991841
39.3597 17.6433 16.4267 26.2979164767
38.871 19.9944 14.9338 27.1207093712
41.9831 18.7837 15.1255 29.2421517601
43.3396 18.5023 17.3033 27.2955526903
47.4784 19.3312 16.8253 31.8429639484
48.0413 17.6568 14.2549 33.7645125446
37.4762 20.7824 17.2843 32.2271966257
40.1289 22.4982 15.7188 30.3169795312
42.486 21.7 15.0626 28.1874013398
44.8407 21.095 16.8869 31.1874294003
47.4621 22.3584 16.1176 31.7715572728
40.8563 27.6515 14.2602 31.085626205
38.3019 25.1649 17.1604 33.7544185879
39.3783 27.9514 16.6194 27.7354112469
44.5122 26.3475 16.4094 33.6294770081
46.1664 27.738 14.5239 33.909278745
40.0514 32.1143 14.9191 31.193193007
39.9484 30.535 17.2511 29.5914271028
43.4087 29.0269 16.8258 28.252793234
44.5267 31.8829 16.7348 31.7928741377
40.6215 17.3396 20.9669 29.6365629296
40.9713 18.7377 18.7684 28.6267576715
44.7573 19.693 19.8988 27.7152278627
46.8677 17.5635 18.7141 25.748784021
47.4946 18.9237 21.2137 26.3288225372
40.5368 23.3767 18.2302 30.2489081543
39.0104 21.1205 19.6055 27.4132002758
43.552 22.8131 18.6824 32.4669705197
42.0577 21.0981 20.4361 26.3635856403
48.1977 24.1708 18.3866 31.0089897689
41.5785 26.4571 17.8185 32.8021756639
41.6301 26.6405 20.5216 30.9311903306
44.1138 28.2511 21.0778 28.6322003335
47.101 28.1108 19.0056 29.320354602
45.8986 25.5725 18.8775 28.8849726287
37.8811 30.1471 19.0406 27.8456860218
42.1263 30.2551 18.8524 24.2533804717
47.7819 30.7977 21.0081 27.2766630819
45.3655 30.3421 19.3594 31.5868661895
38.2718 18.916 21.3224 30.5216797639
40.3579 17.2923 24.2696 85.1122710633
38.4464 18.9532 24.1179 56.6233431247
43.0397 17.5691 23.9948 48.1933403119
43.2748 17.6667 21.2784 27.4347973015
44.698 19.5176 24.3436 82.3466776809
47.3081 18.677 24.0415 62.8511965603
39.2078 24.4062 24.5793 78.477717271
38.7591 23.1605 21.6235 31.0075202236
39.5258 21.5959 24.2287 78.3441660614
44.6069 22.0865 24.2546 64.9926771611
44.9399 22.2017 21.5457 27.1168055859
41.8557 21.0615 23.2573 34.0470704466
42.1375 24.179 21.7441 27.5234228119
48.4154 21.262 24.1713 70.8271157262
47.6117 21.5018 21.5466 26.3064758342
46.827 24.0791 24.527 83.8873750287
37.4335 28.1324 24.4499 75.1443611242
37.315 25.6722 21.8693 29.438571202
39.5136 28.0318 21.958 27.8937352908
40.327 27.1914 24.5466 73.961822939
42.8994 28.1956 24.3364 74.6403555794
44.9702 25.4424 21.3946 27.0884912115
44.7269 25.8052 24.4077 70.9168429166
42.3327 24.6484 24.2708 61.1081043477
48.2276 27.4967 21.4783 26.2509107491
46.0629 28.2875 23.4469 37.6295396665
48.345 24.7049 21.8317 30.3144847944
38.3216 31.6581 21.3784 28.2305591034
39.0156 30.6632 24.1255 66.3723369076
41.6288 29.8807 21.4026 27.8860019409
42.696 30.8284 23.955 52.0797417837
44.8576 32.5475 24.3326 89.1236194931
47.3174 30.8411 24.0012 74.0761213799
37.432 19.7721 35.955 58.2864523175
40.8664 16.8091 36.565 34.8541817279
37.4919 19.8153 38.7846 28.6827553815
39.9151 19.3011 35.7026 90.9514556637
41.0777 20.0809 38.2975 27.6924270574
43.8504 19.6367 35.8026 69.7975832156
43.9632 19.9429 38.7253 28.1665075585
44.9412 17.3998 38.6983 26.898555757
43.7987 16.6069 36.1194 59.6341468639
48.0362 19.6954 37.8717 28.0118152863
47.5128 17.0172 38.1531 29.6248748541
46.4932 20.3839 35.5916 104.4610619963
39.3388 23.2983 35.8249 66.8782641957
39.282 22.459 38.554 28.1291976952
41.9873 21.7471 35.7715 74.4188050532
43.5444 24.1844 36.1014 54.6541023562
46.1486 23.0896 36.136 58.5386550348
38.7974 28.0055 35.5163 86.0681055763
37.4037 28.4031 38.0395 31.0069693872
40.5307 25.9519 36.1146 50.2183292427
43.5353 26.8734 35.7441 99.920869246
45.8602 28.3173 36.3535 41.0709565625
48.1915 27.141 35.5074 111.9028533534
48.3906 24.7683 36.7286 29.4992773256
40.3414 30.6803 35.736 84.6895975785
38.1643 32.3297 35.8365 64.1503249661
42.8898 32.1229 36.223 48.1025746274
42.105 28.6476 37.3555 30.6709908243
45.5708 31.1308 36.1449 77.7207212995
39.3622 17.7492 39.0304 30.1710659932
39.8657 17.8919 41.9215 28.598211809
37.1368 16.9017 42.1889 28.6960444321
48.7633 19.6301 40.9223 26.7445846068
46.1309 19.3101 41.0912 30.3938153286
45.6647 16.5113 41.7773 29.9426781009
37.0278 24.5009 42.0908 28.123787145
39.5117 20.8067 41.0229 27.9145245409
42.4459 21.3483 41.1854 30.7053566898
41.8954 24.1677 40.0188 33.2102869188
48.1761 23.2967 40.6178 27.9220320381
45.7004 22.2227 38.8314 29.6212302212
40.839 25.967 42.1126 27.7013397658
38.7284 24.9265 39.6477 27.9813046945
40.3449 27.5953 39.3549 28.2665985704
44.3186 24.5744 38.8928 26.5709333885
43.3891 28.2814 40.2512 28.3872177552
49.0346 25.4207 39.4276 27.8074048538
45.2718 27.1235 38.9915 28.417542324
47.534 27.8239 40.5647 28.5647843224
45.5595 24.6018 41.5766 29.9619625917
39.2897 30.4698 39.4964 32.1110678474
40.4704 29.2286 41.964 31.3899110853
44.2426 31.0179 40.5887 33.8896885744
42.149 31.8867 38.8947 32.7414096561
48.2277 32.3175 41.4919 27.113337391
47.1211 31.7472 38.9446 30.8207603479
39.9238 19.2587 44.3573 34.6512288396
43.2535 19.3127 43.3823 27.5758481675
42.6931 16.775 42.3929 30.9941775396
48.6543 18.5582 45.0145 30.0810117478
45.6093 18.4497 44.3928 24.3348042295
40.4467 24.0799 44.4469 31.2073841185
38.6415 22.2314 43.422 31.6365504732
44.1002 22.5067 42.9657 27.733958539
43.107 24.4901 44.1237 27.532257967
45.9074 21.1547 44.5722 29.428351496
48.3602 21.7209 42.9999 29.8538883833
38.3181 27.1728 43.2105 34.0529295293
43.371 27.2593 43.0787 27.2926271319
47.5521 25.473 45.6847 28.1207423772
46.2361 26.786 43.0981 28.4051341279
38.9846 32.0987 45.2307 33.6961282143
38.3908 31.4967 42.3872 30.6108602652
42.4141 29.8227 44.257 37.0160825039
43.7399 32.4158 43.0638 28.9785194744
45.5112 29.7589 43.4918 27.82876697
48.3182 29.7557 42.4861 28.2083426205
46.868 32.3307 45.1162 27.6281835188
37.5494 17.7472 46.1981 34.9605235409
39.2228 19.8362 49.2849 31.0485581073
44.6365 18.5509 46.8016 30.388821296
41.2058 18.3524 48.0956 26.9720789258
42.17 20.1469 46.1432 30.7409025372
46.7035 20.0911 47.8127 31.0720470133
48.9869 18.4097 47.8399 28.834715531
37.7568 22.5118 48.2596 30.9301150081
39.9586 24.129 48.0591 32.3779511713
44.4749 24.3101 48.0177 34.5461672718
42.3328 22.8067 46.8103 31.0818373388
46.8391 23.0937 46.8861 33.7511149801
37.7043 28.3696 47.4846 28.6237002787
39.9704 28.2544 49.0802 33.7548254892
38.6146 25.886 45.8893 33.7315979472
44.353 28.3617 47.9721 30.8820891687
44.6598 26.364 45.9593 31.7343942705
48.698 26.6652 47.8042 30.827748386
42.0127 29.5229 47.4314 35.5695057167
41.2215 32.4493 47.2375 29.7284724654
44.8598 31.2425 48.9235 31.1021975453
46.1978 29.758 46.3431 28.9912816059
48.6017 29.5661 47.5696 36.1155303243
37.9471 17.6283 51.9319 32.4113035075
39.2499 20.1582 52.2214 28.2080401846
41.7141 17.6946 52.7962 27.7698242363
42.9299 19.0819 50.2473 28.6401641693
44.1597 16.5723 52.3683 28.2865990585
45.6335 18.1082 50.537 27.0400226271
38.7908 22.7969 52.7285 27.7904526029
43.2562 21.7733 51.425 28.2258691804
41.1055 21.8449 49.4708 29.7595181012
46.0639 20.8832 50.496 33.2549451632
48.6384 21.0568 51.7268 28.838345319
37.3659 25.5578 50.7097 28.686547159
39.9466 25.9479 50.558 33.609490631
44.6053 26.2753 49.9683 32.3681173149
42.7764 24.5975 51.5898 30.076178691
44.4836 28.1762 52.2655 34.725330264
46.7363 25.6534 51.9674 32.5143590612
48.9883 25.8855 50.3853 30.9002111473
37.8542 31.6516 50.2259 26.4725742452
40.1605 30.4493 50.6999 28.0487938685
43.3045 30.6073 52.6427 30.1367517852
42.3659 31.8942 50.2248 28.2021931671
46.6462 31.9992 51.0791 31.440701794
38.6167 19.985 56.0235 29.8807069091
39.3003 16.8313 54.7311 27.6771423321
41.0919 18.6418 55.7968 27.7002212196
43.6192 19.453 54.9827 31.9965395642
45.8783 17.1445 54.7921 28.2208827774
46.9059 19.4996 56.2109 27.3573661589
48.091 18.2758 53.2293 28.5559849981
39.2572 22.6818 56.3021 29.7377050513
41.8054 20.6426 53.2654 23.5092778462
41.9826 22.5464 55.1901 30.5975116648
44.0821 24.255 54.2041 26.710933485
46.3348 22.953 53.0527 32.9897323674
48.0927 21.9027 54.8639 29.4958222265
40.3666 27.2092 54.7424 29.5530346404
37.6108 27.6465 55.2022 32.7170161272
40.5801 24.5691 53.4093 28.2678434855
43.1943 26.9374 54.6204 30.5633196259
47.069 28.1592 53.6862 30.0374966496
46.3598 26.3845 55.807 28.8549711418
37.1008 30.5047 55.5546 31.1251740985
40.6676 29.8167 53.3977 30.3301759929
38.3055 31.8724 53.129 27.9295751888
41.3974 31.4369 55.6063 30.0057979993
46.4437 30.3376 55.6057 29.401919205
48.7875 30.5352 52.8765 32.6294494428
45.3785 32.2495 53.8731 31.3067528239
49.1106 32.2883 55.0452 31.880159288
39.7799 32.6933 5.19319 28.6756305583
38.5716 34.9798 4.03606 27.4196576958
44.518 34.167 4.2858 31.6230834292
41.9902 34.5502 6.9901 29.184848762
41.7483 35.0572 4.0191 26.4766130958
48.3499 36.6311 5.4535 32.9325612044
46.8613 34.1204 5.77699 32.2318734762
38.8054 37.1025 6.24921 30.9579294629
40.6149 39.5352 6.98952 26.2855224099
44.1992 38.6054 4.54837 30.7564456215
41.5334 37.8348 4.37436 28.3006808704
46.6071 38.6558 5.86849 31.1597774755
38.086 42.0112 4.41278 28.3171105766
40.6938 41.184 4.92603 28.04464218
41.6497 43.964 5.66614 27.9614065324
43.7785 41.3516 4.30296 29.0165685986
46.3936 42.9932 6.20316 26.6123206903
48.2138 40.8789 4.64599 33.4196111787
47.4661 44.2547 3.81479 29.1980323086
38.7814 48.2394 6.1592 28.4812091353
40.4702 47.0815 4.12387 28.5894092027
42.794 46.3127 5.62939 29.1059417904
44.9588 48.732 6.4342 26.8801561868
45.5701 45.5993 6.90195 28.2420549122
37.9458 35.3238 8.3519 26.7009052723
39.1863 36.629 10.6126 29.679726605
39.9238 33.1019 8.12583 31.3965231347
44.2627 35.8357 8.90996 28.7923925246
46.0295 33.7631 8.25952 28.7523207626
48.3575 34.8947 9.71236 32.9833240298
38.8043 40.3336 8.92431 27.6504449649
45.1011 38.4548 8.61517 30.4337954237
42.9028 39.9272 8.56509 29.3846361948
41.3618 37.1363 8.52582 29.6103710708
47.3589 40.2214 8.78843 29.9348786852
39.2293 44.1285 7.3603 28.7120609931
39.7389 42.6609 9.5197 26.3550922331
43.6948 42.5211 7.29924 30.3968444133
44.2848 44.3547 9.18851 25.9927470071
48.0535 42.8886 8.15177 29.4371024196
46.5427 43.9453 10.5584 28.9125852104
38.3167 46.544 8.17646 31.3916036731
40.6948 46.0754 9.77127 29.3953803744
42.8351 47.2161 8.40797 28.5257643911
48.1806 46.528 7.28435 29.2871792701
48.404 48.1039 9.84488 28.688109142
49.219 45.3528 10.2693 30.949768614
38.6125 34.8386 12.7771 28.4414195684
42.2159 35.2141 10.7773 29.1161076928
42.3574 36.3111 13.3732 29.4510634585
44.9381 33.0727 12.6234 31.9426141699
47.9095 36.3823 12.0123 34.4354517858
45.286 35.6836 11.6141 27.3196762622
38.7661 39.2863 11.6352 30.120220353
43.0996 39.0518 14.0667 28.6525806309
41.5808 40.2909 11.1168 33.6273828832
44.8736 38.5446 11.8188 30.4920107025
49.0752 40.5457 13.2463 33.0983600921
37.7227 43.4803 10.92 29.1055208506
38.2733 44.8499 13.1772 28.5812268056
42.2658 43.2894 10.9456 29.8065915035
44.0296 41.5367 13.0285 30.4097523899
45.3022 44.7988 12.9836 28.4048545914
46.5493 41.0657 11.2882 33.226098145
48.6627 43.3299 14.1101 31.3881381237
38.0092 47.4128 12.2682 30.6093595551
40.518 48.5726 11.1862 30.091453181
42.4947 47.7802 12.8808 33.0718302886
41.6669 45.145 12.962 31.5690701508
44.4304 46.8575 11.1804 29.4594533945
39.8818 35.8449 14.7381 32.0254358795
43.5352 34.5791 15.066 27.043261369
41.3037 34.0045 16.6238 29.3457592963
46.2607 32.7888 14.8938 29.7460386961
45.7682 34.9159 17.3311 34.3111975103
48.3187 34.8826 14.2815 33.1546671645
38.6374 38.3364 17.7416 30.9302758142
38.8575 38.9581 14.9346 31.434461453
41.003 40.3803 15.5259 34.6025420953
45.0009 37.4022 15.7284 31.7196176907
47.2944 38.0917 14.5306 30.6665614455
48.8662 40.2033 16.1085 26.0538006098
39.1625 42.3946 16.6047 31.3515520938
44.0661 43.6358 15.0823 27.6861566715
45.418 41.725 16.1839 31.3149742685
39.7902 44.9402 15.4628 29.330516165
38.0243 48.9886 14.4089 30.3395323397
38.1424 46.9029 16.8479 31.0009551525
40.0199 48.9449 17.2385 30.7600349552
42.5006 48.2497 16.0238 31.4445928654
42.3421 45.1835 16.886 28.4224927443
47.0228 48.7559 16.6815 30.8616509647
45.6641 45.718 16.8312 31.1413489146
47.1638 46.3078 14.5763 32.6987504654
39.332 35.6482 17.9376 30.8216374135
40.3461 33.2603 21.2539 28.9970293562
39.8997 35.8057 20.4923 27.2898711512
44.6995 33.7672 19.6511 31.2449645231
43.0998 35.9265 20.9626 34.8212676392
42.1348 32.8364 18.9357 27.4126905196
47.9697 36.4367 18.54 32.2210138171
40.4652 38.7981 20.1118 28.3328183045
42.1166 40.0201 18.1362 29.6592270477
44.0417 38.5495 20.5269 31.358446484
44.6786 39.3937 17.7638 29.0466145886
47.484 39.3362 18.438 30.0781187411
47.804 40.7393 21.0914 28.638008939
39.6512 41.8138 19.3156 30.1399284113
42.5738 42.7703 18.815 32.6801177343
44.1037 43.2201 21.1012 29.6906448023
46.8147 43.2082 17.9129 30.3127434086
46.689 43.1595 20.6346 27.906647576
39.9204 45.0294 19.1248 30.0142337698
37.4091 46.4342 19.9355 28.9655453187
40.7355 46.7443 21.1371 29.3435202807
43.828 47.1151 18.7209 32.4507260565
