30.8653 26.9496 8.71888 30.2417001227
30.6786 26.5582 11.359 29.0047642777
34.9332 26.7987 9.74337 28.2064300163
33.3401 25.149 11.6449 33.3269998242
26.8111 30.2489 10.9742 32.1658486173
28.8414 31.0699 8.88183 27.8261657027
31.6741 31.0546 9.12016 27.5810188708
35.0105 29.5242 9.9353 27.204375471
32.8717 30.2628 11.4393 30.0112938547
25.1631 33.9475 9.82253 29.0255794018
27.3286 34.7024 11.2881 33.1170884094
29.3518 35.8204 9.00756 29.3680407209
31.9731 34.3606 11.0029 29.8724835105
29.4958 32.9691 10.8601 29.8556929687
36.0199 33.3782 11.9641 31.1845906344
33.2948 33.4869 8.73483 27.0049271274
35.9975 33.3588 9.32801 27.7933052509
36.3468 36.3109 11.3395 31.9825618851
27.7419 25.9484 16.0399 27.6904960378
27.4461 28.1903 13.3709 28.9462534749
25.0372 26.7968 13.8248 28.7875968466
26.3778 28.2907 16.7522 30.5698461531
31.7233 28.4999 13.1165 31.4338076141
29.9965 26.4626 14.7115 25.7606010705
28.8839 24.8521 12.7004 27.5060423237
33.9487 24.7937 14.5289 30.4295591942
36.0332 25.9243 16.5724 32.3539001072
34.1793 27.6036 14.3328 31.9825320441
36.6586 28.0494 13.0376 30.8473273522
27.0462 30.9009 16.0123 31.9090616658
25.6645 30.9956 13.6862 32.7511667423
32.7187 32.5388 15.8423 32.7380682303
30.4354 32.4824 13.7004 32.4837008381
29.4344 30.1085 14.9474 30.0928819507
33.5539 32.6261 12.7694 34.3701568887
26.4724 34.8616 15.0797 30.782660846
25.5004 33.7753 13.0449 28.0759504987
29.3206 34.6075 15.4274 36.3164553354
31.4729 36.3971 14.7987 32.5917002562
33.9365 36.3377 16.087 32.6405624511
29.1044 27.3779 19.3544 31.1982038029
32.3564 24.6012 18.2551 27.9648936759
30.7627 28.5471 16.922 29.668065105
35.8142 25.3944 21.0535 29.6278104696
34.4079 26.4492 18.8531 28.5581802465
26.6885 28.6837 20.0713 32.0790021173
27.9583 31.1355 21.0644 28.3088386824
30.3615 29.8789 20.9147 27.2087083324
31.2035 30.8856 18.4233 28.844273049
33.4082 28.6415 17.1791 30.4822261285
34.6022 31.1976 17.2284 30.2905010151
33.665 30.5999 20.03 27.6193548533
28.0196 33.5234 19.4251 30.5699238613
25.884 35.5141 19.8602 29.7990838737
26.068 33.1962 17.2168 31.6314008746
31.6523 35.7896 19.0806 26.0871750987
30.4427 33.6364 17.8043 28.0215445262
32.3194 33.0697 21.1344 26.2827031136
33.9444 35.6147 21.1586 28.0569812909
34.0291 34.3244 18.0381 27.8541949041
36.1889 34.2073 21.1557 25.203002583
36.7323 34.7425 18.3784 30.5508505651
26.4053 27.0997 22.2311 30.0775421235
27.7968 28.2787 24.3577 97.1330392475
28.8479 25.7501 21.6601 28.0907309304
32.2029 27.8155 21.7786 28.1573819238
32.5471 25.044 21.5172 27.1841789763
29.8602 26.2181 24.3949 61.861939157
32.2186 27.8162 24.5599 100.9741083243
36.4545 26.0322 24.0825 74.0069872244
34.9989 28.5353 24.129 75.1359013329
34.8916 28.3956 21.3361 28.9785559954
25.7515 32.4288 22.1709 33.1257414628
31.2171 30.4669 23.7258 43.1217721818
28.7682 30.9239 24.0869 69.7432280847
35.1715 31.71 24.1981 85.222897193
35.9675 31.5702 21.4522 28.8422362202
26.2273 33.9603 24.3846 82.9289318451
27.0048 36.6365 24.104 36.3680019707
30.1637 36.666 21.3568 28.1212360742
28.7868 33.775 23.9188 44.0229689833
29.9649 33.8707 21.3972 25.0575657226
30.4827 35.8294 24.376 70.8415249048
36.2616 34.4545 24.0344 48.0760795002
32.8609 32.8605 23.873 54.8833697971
33.3753 35.6676 24.2032 68.7316027184
27.1701 25.5758 35.997 88.7818963695
26.8468 26.9063 38.5562 29.0154710427
31.1843 28.0109 35.7985 72.497225331
30.053 25.6674 36.2812 47.1878538737
36.3116 27.4696 38.5614 27.8306374507
34.4336 24.5849 38.1823 26.9076973824
33.6881 26.477 35.8231 68.0580175503
36.386 27.2636 35.9591 66.0852470965
25.8745 29.9035 35.6655 99.7196883177
25.2444 31.2765 38.7451 28.5557618293
27.6283 29.7277 38.237 28.8770708177
29.0412 29.8761 35.778 78.5620093114
32.4011 31.1195 35.8959 78.3648971519
29.9253 32.6588 36.0133 79.8537995602
33.2684 29.0611 37.9353 27.060161693
34.1639 32.6624 38.4783 30.7657484005
27.6174 35.0343 36.3735 56.0931313907
25.1778 33.3021 36.7085 44.9351583386
31.6508 35.1418 37.7652 28.6614115595
30.1634 32.9292 38.5444 26.7760991847
34.7617 32.7146 35.8234 73.7940111418
33.5613 35.2514 35.6937 91.6273909968
26.7197 26.3588 43.1521 29.3386042389
27.8901 25.4772 40.4392 28.6995188171
30.5252 25.8353 39.115 30.3418410371
29.8824 27.9633 41.8741 30.8897182347
33.4513 26.8284 42.7444 29.1841404399
33.6008 27.0378 39.6893 29.1346725304
24.6857 28.6426 42.8182 31.7560376093
27.7616 31.9433 40.2904 30.4152995966
25.8641 32.5704 42.9733 29.1228873722
30.2902 28.7671 39.0797 27.5776343932
28.8141 30.6073 42.6724 30.3223751788
32.5389 31.5347 42.4596 32.9281270548
31.865 30.9589 39.5532 28.5502278556
36.0872 31.1883 42.2199 28.3065995146
35.7318 30.2853 39.5475 30.6072755392
25.2426 34.8762 40.619 28.4182357939
27.6169 34.9394 39.225 28.7566226862
32.5957 35.965 40.4065 31.1251181791
30.3176 33.1222 43.1499 28.6830964982
30.0207 35.1587 41.1405 31.2155569161
35.1887 34.9147 39.9386 29.875522151
36.5955 33.7654 42.1094 30.0188977581
27.8558 26.8027 46.1951 28.9473552122
26.0509 24.7942 46.2997 29.0226870219
30.783 26.2325 46.6025 24.716232795
29.5062 25.5846 43.5935 28.8482111283
32.5221 25.1946 44.8919 28.8023622745
36.1571 27.0492 43.2609 29.7985388477
34.9276 25.1689 46.8538 36.2911917047
36.9037 25.1609 44.977 28.9760221756
27.0222 29.3218 44.5722 29.720369866
24.807 31.025 45.3482 28.591585605
31.4427 28.921 46.1471 28.8412286566
29.1035 30.4442 46.5648 28.6555118166
32.0999 28.963 43.528 29.7115353486
34.2576 29.8971 46.4626 40.4545026902
34.1467 32.274 44.8091 27.7277397671
36.7171 29.8878 44.453 30.4642895476
28.0342 32.7305 45.1746 30.1759949227
28.5884 36.4534 43.3094 33.25909988
26.039 33.9809 46.8452 30.1704594576
26.1096 35.5589 43.3716 29.0146870917
24.8041 36.484 45.8624 26.0225277884
30.7849 35.1803 45.149 28.832798609
32.0254 32.974 46.0735 27.6178886189
35.3478 36.173 46.3821 26.5276298407
36.2138 33.7495 44.8865 28.891195197
34.884 36.4615 43.5788 32.0302930759
28.1131 27.8598 48.6828 29.6020705626
25.9652 26.6324 49.9153 29.7405158929
32.2859 26.8441 49.0879 32.2330792581
30.0001 26.6703 50.8416 31.1786181795
34.278 25.4942 50.8316 33.6044873534
36.8971 24.9193 49.4791 28.9826024411
25.0876 31.256 48.1342 27.8166463659
27.6513 30.5369 49.0834 28.6929247114
26.7085 30.523 52.0153 30.1285187184
29.2339 31.9336 50.9309 28.7415602834
30.927 29.4936 51.5791 31.6879107462
31.1995 31.8381 48.5975 29.8044501618
32.7846 29.6679 49.1619 29.7322648434
35.0892 31.053 50.764 32.7313059577
27.8005 35.4448 48.5162 30.34479451
27.0468 34.0678 51.0555 26.5289573655
30.9383 34.0907 50.3368 25.9793036465
30.5017 35.4818 48.1384 29.2124196144
29.3458 35.9892 51.7477 28.2007765118
33.6442 34.8529 47.9598 29.4505688839
35.1609 33.8882 50.0561 31.3641653205
26.397 24.9117 56.1471 30.3187670725
26.3442 27.8764 52.5009 33.5298958957
28.5393 27.6933 54.4878 28.1907386871
29.5323 25.3461 53.1913 30.1631505614
33.5315 26.2137 55.4383 31.8143070152
34.7496 26.9838 53.2195 32.1259001844
28.336 30.9658 54.6212 29.1043137822
31.3862 31.6755 56.0721 27.6611419738
30.8351 29.2725 54.5818 26.5174853055
35.9835 31.3322 54.0892 27.4282394773
33.3529 31.9488 54.286 27.7405363129
33.4648 29.4034 52.7563 30.3308249822
25.3892 35.9987 53.1841 26.1674693999
27.0322 33.4907 54.1458 27.5909377516
28.0253 36.6232 54.4791 27.3672742385
31.1664 36.0462 54.0545 28.1086449547
29.6018 33.9023 55.5167 29.9539329217
32.6393 34.01 52.5682 30.1980128246
34.7608 35.4711 52.3217 30.4469946761
36.6343 34.0951 54.043 31.2662835025
33.8215 36.3007 55.8654 30.3799790054
26.8921 38.4578 3.9146 31.723174164
28.2508 39.5847 6.196 28.8902584817
30.9244 39.0277 5.76065 32.5436113089
32.0094 40.5916 3.68735 27.5276114495
36.6148 37.6095 4.02168 30.4471957641
35.9712 39.87 5.89652 37.492481952
25.3143 42.8243 6.02 30.0400877385
27.5897 43.8303 7.72422 28.6411259727
28.7537 42.371 5.08035 29.9451354276
31.7802 42.7785 5.84393 28.301601515
31.8637 40.9512 7.86208 33.7580927521
30.054 44.7937 6.60334 28.6242530584
34.1688 44.2616 5.27297 29.0657222023
35.7506 42.1886 4.20014 31.6819697363
24.6352 45.6637 6.43811 29.9442691482
28.2913 48.8046 6.66231 35.9646036935
29.0529 46.6778 4.71163 34.0749114974
32.4135 47.0078 7.15208 32.2158034836
31.6543 47.7939 4.13485 29.8133961399
34.8187 48.7269 7.78642 30.6446067827
35.4329 45.8424 7.30862 29.2524906027
34.1613 46.7933 4.01999 28.2519075883
27.6452 37.5827 8.4837 27.1973626379
26.1344 37.5128 10.8743 34.0829891357
28.4975 40.5728 12.3981 28.2412493222
31.5188 37.2534 9.54524 29.7471881275
32.5066 37.186 12.244 32.1595736348
31.1088 39.725 12.4135 31.105997478
29.7975 39.7042 9.64655 30.1988038804
36.2929 39.8443 8.77006 33.675023703
35.7239 37.1104 8.84316 28.2650995405
26.5176 40.9049 8.18108 28.1961542561
26.0511 41.4272 10.9223 29.381960491
28.8511 42.7497 9.9742 31.2305496948
34.0846 41.5332 9.20545 35.0703586488
34.6588 44.3563 9.5735 33.7424806787
33.3098 41.3382 12.0916 34.7153971541
27.361 48.2285 9.16996 30.1659687564
25.6981 45.8268 9.06341 30.6379676543
28.6476 47.146 11.0472 31.161456653
30.2708 45.2904 9.6053 32.7975909616
32.6577 45.7426 11.0584 30.2155005063
32.736 48.1936 12.0342 28.5105884658
25.5309 37.4733 15.2837 27.8572107512
27.7754 39.3815 15.2829 29.0584919189
25.5577 39.1846 12.8753 28.257650329
30.4361 38.9417 15.3304 28.223543442
35.3817 40.6603 13.9525 33.4081990154
35.0917 37.7721 13.432 33.6813287775
34.0419 40.5231 16.4436 32.4572650211
25.3055 44.9155 16.0952 29.1698578188
25.7016 44.63 13.142 29.5997549891
27.0237 42.0429 15.1675 26.4293141181
28.5071 43.4135 12.9078 31.1092865021
31.2505 41.4596 16.3089 27.0367808806
32.5119 43.9321 12.9486 30.1556066015
30.6643 43.7874 14.7062 29.2248933247
27.0377 47.2679 13.3533 31.0022816355
27.4563 47.0643 16.3987 29.2990398741
31.3375 48.9501 15.1095 28.6648179636
30.2227 46.0956 16.1687 33.6650403953
36.68 48.2819 13.6101 29.3434727755
34.0468 47.7361 14.3654 28.5485816854
34.4704 45.1177 14.5013 31.8425059941
27.6575 40.2161 21.0186 29.8755400168
26.8474 39.6257 17.901 30.7933137
24.9125 37.6472 18.2229 29.6481681013
29.7854 40.7072 19.4387 27.9165984051
31.5023 38.946 21.1562 28.1002101756
31.0225 38.3239 17.9751 32.5733552635
34.3242 38.6479 20.913 31.2916101274
34.0884 38.0561 17.9432 27.8960121492
27.2149 44.6199 18.8436 32.4664255837
28.5905 42.3561 17.2979 27.3285901374
25.1162 41.705 21.1362 28.2886966124
24.9998 42.2134 18.1391 27.9444175234
31.7462 42.2733 20.9896 28.8195846444
32.1147 43.2388 18.1541 28.2466757117
35.7421 42.3044 17.7388 31.1106469419
34.823 42.0774 20.7379 31.0488997061
34.4042 44.7977 17.2646 28.2762432225
27.4925 48.8883 21.05 31.3953841978
25.8209 48.5718 18.2428 32.6458840145
25.0719 46.9114 21.1539 28.1281644187
32.7543 46.8893 18.9052 26.6792953546
30.0011 45.1573 18.7495 29.0029640072
35.4904 46.8793 19.7161 25.224358536
33.8303 45.1409 21.1745 27.4032516342
35.9606 47.4834 17.0215 29.247141982
24.7101 37.8737 24.9652 110.4809633314
27.3058 37.459 21.3323 30.2609295755
28.2128 40.6828 23.9666 57.2194372748
25.2402 40.6957 24.0452 50.8392445085
29.3432 38.2806 24.8838 111.4137313446
31.7614 39.6976 24.0604 47.6022095418
34.3717 38.645 24.1969 67.7592237441
36.8212 37.4366 24.4423 82.5073249431
26.6254 44.6124 21.6022 31.250565885
24.7794 43.7007 24.3157 92.518661859
29.3707 43.1532 23.371 33.208240295
31.9228 42.354 24.1601 85.4901183597
35.8346 41.142 23.7454 51.3420992081
34.3991 43.7996 23.6344 41.7746852096
27.2237 48.8437 23.9227 46.7622255518
25.3967 46.8336 24.2101 65.8279622237
27.98 45.2862 24.1529 76.1203110149
32.0669 45.6917 24.1114 76.549762886
29.68 47.8252 24.2844 67.8120238547
30.159 47.7405 21.4716 31.0507781066
30.9014 45.1667 21.5799 25.2211748934
33.9398 48.0729 23.9956 67.2363723618
33.0084 48.5831 21.3727 27.0106497732
36.8975 47.8709 23.8274 50.7463504566
26.4579 37.5671 38.6962 33.3307628643
28.1085 39.9907 36.0463 57.9241181969
26.7095 37.5763 35.8988 62.3935466106
31.0787 38.3349 38.687 30.5044678139
31.6163 39.5568 35.5039 105.0126239757
30.0014 37.1798 36.0798 64.23834951
34.2715 39.2973 36.0584 50.4476482706
35.4951 37.0552 35.823 64.8255053453
33.1482 40.2389 38.4695 29.6756575468
36.8112 39.9683 38.769 28.0499792197
36.2766 36.8292 38.3998 28.3192067653
27.7463 42.2559 38.1098 27.3250360334
28.0238 43.8555 35.6523 84.9830306889
25.2677 44.3891 36.0258 59.8912640513
25.2372 41.2164 36.0185 67.0717200375
30.4491 42.3153 36.0316 57.8359481601
32.6319 42.9695 38.0183 29.4612089941
33.3979 44.166 35.822 97.7237558618
35.9315 43.9501 36.1767 61.2835883494
36.5735 41.0978 36.0165 85.5148824286
36.3972 44.8452 38.745 30.6252996798
26.7362 45.9182 38.0597 28.7995661463
25.3634 48.1843 38.4797 24.745930694
26.7477 48.4555 35.3875 87.9737602062
28.781 46.6737 35.5774 76.8677833347
31.0265 48.3855 35.8576 78.6265534001
29.862 46.3088 38.4507 30.1930616428
33.7134 47.1449 36.0629 56.3065233436
35.9265 48.7276 35.4456 132.2254537293
26.6505 40.3175 41.9452 29.9978554185
28.4121 39.4625 39.0399 29.7743313609
29.5156 40.3555 41.5985 31.8104436416
32.262 38.5608 41.6657 29.7727591118
35.715 38.0708 41.0992 30.9937413561
33.8771 40.6901 41.1943 32.5273551271
24.7098 44.5927 40.9377 28.1705277252
25.0249 42.5763 38.9385 27.2508380016
26.4543 43.0082 42.6421 33.9431981558
28.6832 44.5741 41.9838 31.7123609094
29.8229 43.6697 39.4416 30.1598785125
31.2779 42.6521 42.1291 32.2325254028
36.5705 42.397 40.3012 34.1019322218
34.0536 43.6154 42.1113 29.5698190214
28.3351 47.1371 40.7566 25.5525111537
25.4802 47.3198 41.2151 27.6299371726
32.324 47.7014 38.9269 27.3449374444
31.2472 47.6788 41.7565 35.1433161854
35.34 47.3831 40.6085 30.8177257147
36.5789 46.4221 42.7981 28.2265408416
33.6584 45.0825 39.7634 29.1844606362
27.1878 39.2405 45.6406 29.0796949987
25.1269 38.5651 43.5628 27.9216055007
29.6969 38.8834 44.2884 29.6083845979
32.5754 39.1822 46.3116 33.7424177255
32.2689 37.2698 44.395 27.803242759
35.039 40.5462 46.3963 29.1637157692
36.3552 38.6572 44.9625 30.9711952589
26.9365 42.0256 45.3365 34.517502839
25.5039 42.7229 47.5983 31.178411871
29.7447 41.2152 45.9792 34.2848198035
31.5584 43.4781 44.8971 33.1590100118
32.52 43.8055 47.6189 32.2380797477
35.5601 43.0292 45.1217 34.4703885628
25.0509 48.019 44.0419 31.8123878364
27.8603 48.4726 43.5341 32.7217194996
31.818 48.3119 47.1817 30.132995051
29.1702 47.101 47.1649 30.0850570038
29.5877 45.9521 44.6818 37.3276488854
32.4181 47.7235 44.4276 29.983175505
33.9999 45.5779 44.305 26.4290636407
34.6366 45.6111 47.2665 28.6504517877
36.1128 47.6346 45.2098 27.9273492742
25.5108 40.1012 49.014 29.4897883037
26.5746 37.5257 51.0842 28.6236602935
26.5283 40.2353 51.9187 26.1507687287
26.6811 37.994 47.8837 28.6883604205
30.5996 38.3808 50.2237 31.5174414432
32.7044 37.5377 48.7602 29.0391404055
35.4471 39.1493 49.2394 28.7575544903
34.1703 38.2968 51.8457 30.6544862381
27.0102 44.5923 49.2727 31.1953032396
28.1549 42.0903 50.6708 28.9563509583
30.1345 40.8517 49.0896 32.9768551691
32.6776 42.2516 51.6837 28.7901291934
30.4121 43.825 51.6909 26.6605373928
30.3397 44.8278 49.0695 31.2415530355
33.1186 41.4441 49.1333 31.3736903003
26.6392 47.5432 48.4654 26.7110157655
30.3922 47.3593 50.2417 26.5939912367
34.6264 48.1263 48.4125 25.9780027794
35.4608 45.8481 51.8356 30.7306980171
33.3464 47.2684 50.6839 27.8732082391
28.0382 39.9473 54.2852 30.4775709488
30.5834 38.9127 54.7175 29.0395146466
31.8345 39.681 52.3072 28.371603247
35.0359 38.5704 54.372 28.6257610638
25.2031 41.8653 54.2578 29.2731110731
26.6921 44.7756 52.3054 31.437309728
26.6612 43.5376 56.1262 31.9895930557
28.5214 42.9356 53.6089 27.2194959011
30.64 42.8525 55.5932 30.735975407
34.9985 43.1561 52.7929 30.9792144646
33.2622 44.0351 55.1298 29.2708848337
33.9182 40.8785 54.7788 25.8247493715
25.8863 48.5488 53.818 30.7222667856
28.221 47.3625 52.0386 28.9334286881
26.6821 46.4308 55.4048 31.0840316148
29.906 47.0401 54.4234 30.1896094422
31.9267 45.7389 53.1239 29.2697385625
33.565 48.9528 52.8645 27.8843558422
35.6638 47.1802 54.073 27.6863359865
39.4109 1.39566 6.29043 31.2268849245
43.645 2.33604 5.25159 30.4403667237
41.2875 2.05911 3.73092 30.7021801084
43.0249 2.25675 8.02809 30.4588953357
44.8907 0.111004 4.45367 28.2048829977
45.597 0.820367 7.88974 31.2751712832
47.639 0.501897 6.06943 29.470909296
46.913 2.78971 4.02719 30.8226070758
38.8568 6.26756 4.8585 29.2647470246
39.3056 4.19237 6.95817 31.0299717291
42.0461 4.87588 7.26598 34.9199305533
43.4128 5.58705 4.56499 28.7629310434
41.3012 7.11905 3.99067 27.6830210066
47.5952 5.44859 7.34232 33.0968340209
45.3345 7.03743 5.12182 28.5850657861
47.7083 5.31883 4.75621 30.1320427193
45.6448 7.19625 8.02085 32.7092165684
38.5142 10.9743 6.02916 26.9609755512
37.6815 8.69326 4.5605 29.5701773797
40.5856 12.0064 7.61833 31.1908706513
44.3255 10.1683 3.66704 34.7881502288
41.6845 9.76101 4.74442 34.2789689227
42.5704 10.2545 7.72623 31.0207134473
45.3887 9.91551 6.4504 34.1697075126
48.7851 12.0694 5.61285 29.6000145974
39.2119 2.50079 11.1843 32.2368868765
40.9975 0.357339 8.07969 29.6119355086
43.6418 3.86507 10.3423 30.1543534541
47.2026 2.90534 9.02855 31.8721415506
46.1223 3.57562 11.2003 29.9169724467
37.7055 5.41225 9.03738 32.5587720334
41.2059 7.96049 8.76823 33.7055718364
41.3856 4.1997 11.7817 32.3578631903
43.4841 6.67245 10.2147 29.0638716406
41.0931 7.00877 12.2278 32.4382900958
48.9655 7.50644 10.498 28.2891187071
45.4271 7.49063 12.3203 30.7855300108
47.3473 5.75151 12.1546 29.6519511408
38.2182 8.53034 11.7985 34.4647885599
38.4498 8.73422 8.63182 27.6899205812
39.5449 11.5021 10.247 28.0300937397
41.4615 9.8174 11.4175 25.4636659176
43.7152 10.6206 10.3968 28.0048185053
46.3897 10.0893 11.4491 29.1861679271
47.2503 9.49112 9.01248 27.591887787
37.9714 1.91125 13.4405 30.1412301778
39.8199 2.00591 15.3432 32.6100655704
44.8126 2.96471 15.982 31.736144399
42.1324 2.98881 13.9241 31.0721832539
43.8376 0.813364 13.0428 31.3546691032
48.2777 2.49881 14.8957 28.9552007352
46.4251 1.39315 12.9939 30.4673744439
37.5553 5.02305 16.3572 31.171121239
38.4096 7.55404 15.8418 33.0579244311
42.0155 4.7223 16.3672 29.2636454178
42.2166 7.00467 14.7047 29.5011282626
48.4793 5.18633 14.5013 29.8465067368
45.1346 6.96698 14.9718 30.0496971003
38.8382 9.91902 14.1555 30.6725395541
41.4327 9.54736 15.5307 25.6830945807
42.3017 11.231 13.6076 32.1505755471
48.5785 8.76036 13.4252 28.0470944397
47.4238 11.6732 16.4361 29.6663996287
47.4016 8.76297 16.0353 31.8541323963
39.8935 2.46805 19.9615 30.8583201253
39.6448 3.64827 17.5313 30.9657576992
45.348 1.08612 18.0179 32.020152551
45.4526 3.31193 20.7479 29.6625743994
47.8759 2.35962 17.5133 28.2750916251
38.8353 6.70164 19.756 26.1289384799
40.5053 7.17857 17.5597 27.4469076492
43.9751 5.12898 18.4862 34.3843817829
42.7904 6.26277 21.0698 27.0473525921
47.6206 7.82441 20.496 31.1566190032
48.37 6.78585 18.0138 29.4653065469
46.3 5.15628 16.8606 26.7210230703
37.39 9.07855 19.6852 32.3120798752
38.8422 11.5269 20.0331 28.7103830791
40.8161 11.3938 17.6695 29.7758303887
44.4224 9.05226 17.0401 32.2382999235
42.126 9.04331 18.9301 27.8118912569
44.6945 8.53818 20.5753 30.4423367823
44.5723 11.7575 17.0457 29.5907505025
39.3149 1.68356 24.4621 93.6898058949
37.3752 2.33821 21.2851 25.7827231017
44.7186 1.99358 24.3826 79.8362692205
42.8432 1.98648 21.4226 29.5533701546
42.1131 2.42285 23.795 41.8698604836
48.2285 1.81451 24.3775 72.9596272919
47.8904 2.28303 21.6623 25.327689439
39.7632 4.73762 24.1501 65.2411310272
40.6074 7.92975 21.6914 26.6525065509
37.0335 5.3738 23.8991 55.2070940043
40.0761 4.60661 21.4048 26.9943173848
39.1048 7.76328 24.2772 72.5382959882
42.2311 7.68372 24.3159 79.7382599758
42.9937 5.28318 23.7477 40.9242760039
48.7161 5.40133 21.5887 27.6792201851
45.9715 4.3909 24.4488 72.446076686
47.2524 7.23212 24.4615 79.951553401
45.7729 5.57607 22.0029 24.9310355603
48.8671 4.62747 24.4613 62.4379812909
37.1106 9.86801 24.214 75.3205330508
40.982 10.8044 21.5231 25.6253644052
40.8224 10.5288 24.2434 60.5329539289
43.5759 11.0124 24.4911 99.1047281467
44.0616 11.1106 21.4753 27.5275310599
48.7869 9.98567 21.6455 29.5501055974
45.1528 8.7199 23.8335 44.2644914462
46.9076 11.9401 21.591 31.7708701523
37.7861 4.0778 36.2139 45.8511243902
40.3745 2.84365 35.3112 125.766694865
40.5987 0.389275 35.8164 63.1143280361
44.9349 1.0662 35.8275 67.459192166
44.3855 1.47728 38.225 28.7952429112
41.426 1.44831 38.394 30.9688929324
45.5815 4.02169 35.849 87.4986030175
39.4778 7.69645 36.8652 29.3414067372
38.5223 5.33378 38.7888 30.9844116528
37.138 6.85988 35.5677 101.2496650538
41.7795 6.95226 35.8794 83.4857820918
42.6163 4.29743 36.6969 33.1619341466
49.0199 6.87887 35.578 92.6814967586
45.2056 4.45942 38.6159 26.8021278117
46.5789 7.00741 38.5093 28.3867599263
46.2707 7.91622 36.0162 57.9000704826
48.6394 4.27381 35.8817 62.4675238291
39.1549 10.36 35.5566 102.42665165
43.0373 8.84704 38.527 30.4023026747
43.5539 8.99776 35.8409 66.0327974329
42.6092 11.4584 35.5236 88.4239387211
47.7396 10.142 35.9143 65.9217545189
48.1517 10.6251 38.7522 28.2155239211
40.4322 3.29232 41.9352 29.5465068462
38.829 1.17427 40.0723 29.3997324555
42.6712 1.44756 42.7305 28.4043006546
47.1008 2.84634 39.8923 30.3593283355
46.8193 1.66993 42.6817 29.9915843287
40.9105 4.29138 39.2773 27.6963338675
39.6747 6.9961 41.2125 28.9281610931
37.339 6.98249 42.9191 28.5879180127
42.2442 7.05843 42.2424 28.5704362868
43.0394 6.03871 39.8118 29.3728077972
46.3096 4.88125 41.8471 28.5633280361
45.2675 7.71331 41.598 29.1751452861
49.0771 6.97974 39.9327 28.6389994057
37.7515 10.7744 38.8734 28.9636294929
40.9664 11.0089 41.5892 30.4526818687
37.714 9.64444 41.9551 29.8264884103
40.25 9.20496 39.4838 28.8613698937
43.6091 11.98 42.7849 27.4546065361
48.9111 9.96155 41.4745 30.0749933465
45.4492 9.81416 39.556 30.4563371146
39.3143 3.28727 45.9102 29.8045722928
44.6444 2.46025 46.0532 28.5115924452
44.1546 3.75959 43.5548 31.7493803367
41.6409 1.46728 45.5372 29.0499162083
43.3247 0.21557 47.4957 29.8431364014
47.3857 2.12739 45.6825 31.2098507083
48.3066 0.00859059 47.05 27.6958714585
38.3804 4.33313 43.3411 30.6211375744
40.6423 4.94208 47.423 30.6148738422
37.0416 7.43985 45.6847 30.6223553248
42.676 6.4069 46.4221 31.1855423006
44.7147 4.6848 47.3354 30.2712591736
41.8734 5.04266 44.0378 28.9791719057
47.8985 8.15174 43.469 28.2875576219
47.0766 6.25096 47.332 30.3710327005
48.2974 5.2868 43.7019 31.0634545648
48.9837 4.40477 46.471 28.6695352418
39.2806 9.51121 45.9444 29.2217959226
37.4042 11.4577 44.0129 31.4990049939
39.8137 12.1505 47.2523 27.1902885686
41.3304 9.49348 43.924 28.999758927
43.6685 9.12661 45.8684 29.4644649743
44.9517 9.72307 43.506 26.768262134
42.1052 12.1116 45.5438 28.3459754328
48.8151 12.0617 45.4544 27.932474605
46.9637 8.70745 46.1345 27.1660357702
47.0535 11.4855 43.467 29.8804815961
40.8571 0.628043 49.8315 26.5968920738
38.7871 1.06278 48.0226 28.9326386258
41.3777 3.28527 49.5654 31.4675168245
44.4014 1.05142 50.0199 31.608224215
46.4862 3.0317 51.1439 32.1108413169
47.414 0.462197 50.1546 29.6157593241
38.6639 7.11473 48.3658 27.7132417062
39.7997 4.46532 51.7006 32.6180346403
39.3273 7.22469 51.567 30.6564939551
37.0241 4.32819 51.2888 34.0649543321
44.2156 4.23524 49.9772 30.2554510654
41.8592 8.09752 50.4919 30.5810712673
44.1686 6.7665 50.8376 31.6514840193
48.7994 4.24309 50.4707 31.4183724141
48.1543 6.86997 49.5568 31.4659241296
40.1268 11.9557 50.1662 28.1047127661
38.1438 9.84954 49.697 26.8169510881
43.1294 11.3268 48.4189 30.896725965
41.2685 8.91848 47.8211 27.0182086253
42.621 10.6474 51.4137 33.2607238093
45.9578 10.2568 48.2017 30.9231941787
46.3591 8.59331 50.4312 31.0441628018
48.6818 11.5481 51.158 28.0143068912
38.2637 1.45379 55.6354 28.5710197489
40.529 1.52664 53.2696 30.2832277544
36.9636 0.450607 53.4883 28.9760130857
42.7895 0.227 52.258 29.0116556238
44.9116 0.297102 54.4201 28.1744567066
49.0494 1.18686 55.5966 28.2151451365
49.0342 0.953443 52.7643 28.1353934963
46.0048 2.78817 54.2711 32.9420077835
38.0578 4.30751 55.7027 28.9815085173
40.7845 4.2882 54.5953 26.1554200686
43.6244 4.13478 54.6876 31.3267873651
44.0806 6.54144 53.5793 33.724186772
41.1316 7.1024 54.0482 31.1886447521
48.3543 7.27496 55.7312 30.8411508963
45.7408 8.0362 55.0898 30.0369179639
37.4127 9.54634 52.2324 31.7272055681
40.2482 11.5991 55.1745 34.197614308
39.0836 9.22509 54.8068 34.0101747266
45.0214 12.0198 52.2452 28.8405409016
46.8347 9.81331 52.9608 31.1050169787
49.145 10.7023 54.2489 29.1567211863
38.6844 15.3409 5.102 32.4121754184
40.5603 14.8611 7.06053 31.3505662322
38.4446 12.6523 4.04092 29.9846297922
42.9328 15.779 6.37648 29.9417320338
43.8638 14.0923 3.81831 37.9043088283
45.7066 16.1764 4.39657 27.9351560001
46.9405 16.0745 6.53543 29.9047654311
46.7789 12.4545 7.69704 32.5306664393
37.984 19.5102 7.61262 34.6352982101
39.0889 18.2496 5.22562 32.3246365675
41.8142 18.4852 5.62543 29.5201393854
44.4263 18.5661 3.94843 31.3612240028
48.3716 18.4322 6.20274 29.7720138098
40.6546 23.4093 4.99926 34.8794853903
37.4503 23.8341 8.01897 32.5792711511
36.9574 21.8118 6.18827 30.6785867622
38.5658 22.074 3.81648 27.3526844346
42.0926 21.1302 4.41441 27.058813288
44.3947 21.6466 6.50909 31.1103235752
46.8341 23.2277 4.14417 27.952919942
46.439 20.5037 5.00345 32.7458587933
39.4475 15.6507 9.48126 31.2636320368
40.9319 13.7369 10.6545 29.7967200509
43.7047 13.193 10.3623 29.3561783877
44.9441 14.5642 8.26871 30.6810382334
48.5469 13.0792 10.2585 28.9809861319
45.1299 14.6436 12.1698 29.7158741002
47.4451 15.4456 10.6678 39.2951136367
38.4428 20.2473 12.2872 28.9332401592
39.4272 18.4863 10.0501 27.244531242
41.6286 19.2656 8.33525 32.0596415469
43.7492 17.4348 8.70813 31.7313440033
43.7858 17.2381 11.6697 33.9108943674
41.238 17.9064 12.3963 31.9197348786
48.3078 19.5129 8.92841 31.2444307376
48.2848 18.1577 11.4379 32.1250491593
45.5768 19.8178 8.4917 31.5250842569
37.6873 23.4997 10.8986 31.6327199179
40.2872 22.7255 11.2143 31.7815569164
42.6164 21.8539 8.95031 34.2987246207
44.7019 20.5295 10.9963 27.9584828742
46.4162 22.7927 11.5065 31.3007602906
48.5354 22.1445 10.134 28.18258816
38.0256 12.4974 14.4664 29.7601595408
40.4926 13.3297 13.4687 30.3612284076
40.9301 15.9785 14.5002 30.1514318194
42.7108 15.7914 16.606 29.6381289055
43.7265 13.553 15.015 31.1839616098
46.5345 13.9429 14.5595 29.7514696931
47.4733 12.3158 12.4586 27.0159666555
37.9264 16.7309 13.0959 30.0123118417
37.2259 18.8062 14.8837 30.7840163671
39.3375 17.176 16.3078 27.7808973426
47.8086 19.286 15.2807 28.1805896914
47.4067 16.463 15.9404 31.546141886
46.0242 18.9497 12.8505 32.088697332
39.8581 21.8211 14.1403 27.2910040439
42.2422 20.6261 12.9661 32.0422646916
43.084 23.6507 14.8053 28.7936801184
44.425 21.1189 14.5902 29.0164011717
41.1341 21.5226 16.7357 31.1285055409
49.1336 22.6063 16.5824 30.5963138279
46.9476 22.5914 14.3082 30.2369596977
38.4305 15.6891 18.0782 29.4765832146
39.1876 15.5143 21.1248 27.4356959778
38.6236 13.0475 17.1446 30.218338195
42.19 13.7059 18.6651 30.138344099
44.9307 13.3039 19.2863 28.619743577
47.2265 15.1147 18.559 31.3043317749
48.4184 12.4321 18.9823 33.498665853
39.0459 20.1676 18.0358 30.4474021325
38.7273 19.6512 20.728 29.7378622515
37.1026 17.343 21.0941 24.8455799615
45.0444 16.3868 19.9171 27.843663916
44.8258 17.4464 17.3127 32.4463555291
41.419 18.0437 17.7945 28.8678074972
41.1495 17.7981 20.5959 28.2410212454
44.982 19.266 20.7115 27.7734399702
43.5941 20.039 17.137 28.7648196391
48.1693 16.4225 21.0372 30.0073667815
48.2002 19.3007 20.9007 27.5600368666
48.2064 20.254 18.1232 29.7086041384
41.9861 22.7526 21.048 31.2027743626
42.8013 23.1714 18.4115 28.7272165554
45.2733 21.2695 18.8357 26.5010916964
46.7105 23.6516 18.0337 27.4111347038
37.35 13.1575 21.4019 31.0786957963
40.1029 16.1702 23.8285 48.6232893356
38.4255 12.2936 23.9518 56.4878055379
41.8151 13.6024 21.3878 25.0513785367
43.0657 16.1676 21.6696 25.0174579029
44.1456 13.721 23.6751 45.6192018201
41.0686 13.7788 24.1543 76.2101472449
47.8684 16.3362 23.9362 62.4177983237
47.154 13.6093 23.9707 63.5389045412
39.4733 19.7966 24.0824 61.5406272555
37.351 17.0301 24.233 76.791184376
42.4514 20.0564 21.9268 27.6490214519
44.0456 16.9929 23.974 70.3172576066
42.191 18.8192 24.4259 91.8598921785
46.2547 18.2612 23.3796 29.3421456148
39.4516 22.7657 24.3347 72.3409266757
39.4375 24.2173 21.5313 29.2982681067
37.4448 22.317 21.3615 27.0473972865
42.377 23.0601 24.2464 74.6565585507
44.2636 21.0431 24.0631 58.5229341587
47.2794 20.7134 24.3635 94.0321106164
45.265 22.4548 21.6201 29.6377793279
48.2907 22.3447 21.5072 29.9849441448
48.2551 23.8754 24.0479 54.4543404412
38.6482 15.2681 35.3856 114.8911041335
40.2838 12.8344 36.3777 33.1013147658
41.8011 15.6801 35.4467 91.6419387711
42.2179 15.5627 38.5993 29.6849926421
44.2753 14.0084 35.8757 57.7570370887
43.0082 12.7271 38.2502 29.4308372294
47.3278 13.4484 38.3203 27.3522142523
46.7562 12.9807 35.6218 98.9560682089
40.1362 17.9666 36.0532 41.5517460208
37.2455 19.0704 35.8986 70.7035925625
43.2415 18.7193 35.8549 68.3833154627
47.5436 17.2255 36.1879 61.9910763458
49.0297 19.5485 35.3543 109.2955853869
45.1458 16.4729 37.2816 27.814718013
48.3281 19.2542 38.4981 27.9686158946
38.1751 22.2579 36.0361 47.6360383623
40.2491 24.0811 35.6026 90.0900867856
41.0765 20.7076 35.5549 81.3584763474
42.0791 21.0547 38.5035 28.9876308634
45.0515 20.9816 35.8246 64.2027957699
43.0592 22.8591 35.5601 84.8585075711
47.927 22.2829 35.7189 64.2544507278
45.8875 20.8101 38.3124 27.5655510351
45.9778 24.4641 36.1137 52.1603354039
40.173 13.0757 39.213 30.6947420086
38.652 15.4453 40.2458 34.1647950552
40.3757 15.6445 42.674 33.1486984458
43.2191 15.9517 41.8259 33.3427247383
44.9467 12.6822 40.2554 28.2685026394
46.975 14.061 42.2093 28.2801503861
45.7968 15.6914 39.7197 27.1659681927
39.9334 17.4446 38.8481 28.0554220852
39.9782 19.8286 40.1029 28.3408085324
36.9851 20.3709 43.0239 30.1331891044
36.9727 19.8539 40.0935 28.6695124733
43.7992 18.7632 38.8998 27.2859162432
41.1234 20.2784 42.444 27.7768391315
43.3548 18.6685 41.6739 29.892406939
46.111 19.3875 41.3151 28.0886184826
47.8441 17.207 40.8977 29.0454056877
40.8068 22.9263 42.8463 28.4560981876
38.6003 22.178 38.846 31.3270960075
40.3162 24.0765 40.3031 30.4646863733
42.8796 23.3847 39.4342 29.7100464449
43.8823 23.1943 42.3682 30.4544086127
45.9114 22.8006 40.3772 29.0676448749
48.037 21.9782 42.1616 32.6200367397
40.0314 12.8735 43.7392 33.5898186657
36.9593 15.796 46.1378 33.0170374272
41.8357 15.8907 45.8386 33.9416669266
44.0109 14.2292 44.2306 33.4972925985
48.2709 14.3627 46.6645 31.4560439875
46.6117 15.5436 44.7236 28.861592222
40.0817 18.0072 44.1056 30.0927357834
37.3158 17.8501 43.938 31.408656333
39.9902 19.1402 46.6878 30.3119174722
42.6533 18.1445 47.4253 29.9438101038
45.1118 17.5604 46.008 31.0858666919
48.3277 17.4873 43.633 30.1210784451
45.7917 19.6534 44.0922 26.2125927907
37.7898 23.0301 43.8571 33.1339562624
38.7732 21.9215 46.2461 30.8202827044
40.7017 24.2482 45.6166 26.5272965381
42.6526 21.0865 47.1519 29.4790082412
43.8456 23.5482 45.675 27.4726907404
43.5214 21.0713 44.0742 28.3261686045
47.5115 21.3294 45.1906 28.1470323189
46.6698 24.1415 44.9011 30.5973516877
38.3947 14.7861 49.1613 26.9533848813
37.1754 12.8734 47.6737 28.0941416497
41.1323 15.1044 48.4289 31.3321070517
42.8218 13.5685 50.0876 27.3837338454
47.2907 12.3852 48.9331 31.2634582545
45.5149 14.1334 50.2299 29.8880037992
39.0609 19.146 50.4986 28.5834592539
38.0921 17.9574 48.1843 29.1195454677
41.475 18.6363 51.6558 28.8881305699
42.9999 16.9417 50.2575 28.9350489347
43.6003 20.4105 51.5465 28.5101665749
45.9413 19.9387 47.7549 27.6271319639
46.6047 16.4993 48.5213 33.8545087569
45.6276 18.6127 50.3352 28.0942763105
48.511 18.8615 51.2691 28.6868103359
48.927 19.7295 48.1143 27.5527764621
40.093 21.7358 50.689 31.264359225
40.7442 22.9412 48.1437 28.6181330124
38.1957 24.0872 51.9887 29.3743811782
37.0214 21.2762 50.4074 28.2731289699
44.8575 22.4304 48.3936 28.5275983904
48.0613 22.82 47.8047 30.7613622265
46.0752 22.2599 51.4074 28.6503494854
48.5546 21.7374 50.769 26.7398947573
37.2224 12.3105 52.092 30.5308398107
39.2324 14.4581 52.1336 33.0200421805
42.539 15.5263 54.5112 34.9866886991
41.6559 12.8811 53.2641 31.1126771798
47.8937 12.5748 55.8811 28.6231565454
46.6555 14.5504 53.0955 29.0647778694
45.3946 12.4214 55.1322 27.0842510126
37.9355 19.2794 55.5117 31.3649436414
38.2271 16.351 54.2001 29.6456505968
37.1577 17.8324 52.0981 28.202133851
40.6345 17.7432 54.2867 31.181018951
44.4632 16.3558 52.5856 27.5862480636
44.6928 18.7224 53.8077 27.9173154308
47.7591 16.4498 55.1208 28.9274725659
47.8991 18.8497 54.0214 29.1552493836
40.3591 20.6067 54.8698 32.2373331172
37.0861 23.5871 55.0542 31.4087603458
43.7144 22.065 55.3592 28.3379528229
42.125 22.3006 52.8733 30.4075838906
46.1578 21.1791 54.0965 28.6665013335
39.222 25.4134 6.8837 28.7228506433
37.0375 26.8291 5.6639 30.8228868331
41.5385 27.0481 5.84248 28.4099451214
44.2386 26.0668 5.51849 28.2636477965
44.7751 24.5265 7.68539 31.2156110278
47.5487 24.8615 6.48496 30.5113913456
47.116 28.1548 6.64065 32.6865915356
38.8574 31.0551 5.78291 31.2008869847
40.3677 29.3003 4.40672 29.0923465785
42.7494 30.8029 5.68835 31.6377565546
44.6311 28.6956 5.2368 31.8165554375
46.7866 31.0674 5.65625 29.262635387
49.0554 28.7212 4.17897 28.1433663622
39.4243 33.7944 6.44686 32.322221045
37.3198 35.2246 7.80784 27.9064025263
40.0764 34.8338 3.93691 35.5152670929
43.6474 33.0937 4.20071 32.2603407077
41.7524 33.9527 7.6902 29.8447538358
43.4248 35.5584 6.04427 29.6931967695
47.6242 33.813 7.03046 27.2409631395
46.2274 35.5764 5.28322 25.8628960717
39.9591 27.0363 11.5516 29.2575838142
38.4287 27.2017 8.78627 28.720125855
37.1466 26.0228 11.2677 28.4413932623
41.5232 27.1902 8.78033 30.4619319861
44.8 25.2794 11.1406 29.117714259
41.6341 25.0477 12.0801 25.9275365224
42.5181 24.8084 9.37857 28.3617250606
46.5478 26.581 9.56246 31.3696180878
38.7488 30.0156 8.33173 31.5324299937
37.4761 30.444 11.6733 30.3651726885
39.866 31.7004 10.5106 31.9254937389
42.8235 31.4992 8.29768 28.6010232644
42.3782 29.5148 10.119 34.5069340384
45.666 31.9969 8.16125 29.3403230998
46.3088 28.7044 11.5133 28.4513689242
47.3352 29.7316 9.04974 32.0669397116
39.2812 36.2876 11.5171 30.2685798948
41.2229 34.2561 10.5906 37.0182412289
45.0042 33.1907 10.4475 30.7341723916
43.7749 35.6973 10.5274 32.5225906867
45.0685 36.6893 8.14446 30.960800529
47.6821 34.7762 11.3046 31.2975853302
47.7721 35.7234 8.71353 30.2469506509
37.6584 28.1435 16.0822 31.9705165715
39.8645 24.625 14.4864 36.4239229457
39.7034 28.3487 14.0009 27.250470397
44.8581 25.2355 16.643 26.7003006816
43.7911 26.6936 13.5619 30.0066075473
41.8012 27.4966 15.7478 27.4796304117
47.8993 26.4822 16.1008 29.2961202905
48.0719 27.0281 12.8551 31.130525115
46.281 25.1782 14.2195 25.471819839
37.1265 31.2211 16.2236 34.0326001974
40.1134 30.9081 13.2949 31.398654508
38.0069 32.6393 13.9786 32.1931896258
43.8177 29.2501 12.4745 33.2115990039
42.1207 30.8279 15.3815 31.1005280537
44.5365 32.2236 15.3787 33.8803264586
45.479 31.9734 12.8283 29.9182996504
48.5582 31.3003 15.3542 33.0013463941
48.0555 31.0687 12.5356 30.4314846152
39.2144 35.1466 14.1991 32.9030258792
40.8811 34.8506 16.2444 32.2226580637
43.1535 36.2979 15.6091 30.3445766961
47.7706 35.5548 15.8384 27.2951501444
45.8426 34.9306 13.7976 31.4320218299
39.7982 26.126 19.2232 29.7718631747
37.4275 24.7342 18.7156 30.6302517855
43.6137 26.8337 18.5271 28.5187267291
41.4751 25.1597 16.9217 25.7611484947
47.3651 27.9387 18.4241 29.471192411
46.7961 25.6847 19.8975 31.061185832
39.3644 28.615 18.374 30.0596123337
40.879 32.314 17.7109 30.3790722262
38.1646 32.3001 18.5118 29.5726228401
38.1089 29.918 20.6036 39.1912920357
41.955 29.4703 17.6612 25.1382676616
44.7958 29.6154 18.3498 32.2453842363
44.5915 30.8597 21.1014 27.702267739
46.3336 31.7269 17.4334 32.5365360352
38.7399 35.4363 20.9946 29.7437181799
39.5555 36.4158 18.1863 27.6425592897
43.9524 35.5245 19.6205 25.8801770152
42.7887 33.0027 19.7774 29.6000863887
45.1415 34.9436 17.0154 27.9197371102
48.2229 33.7912 18.5582 27.6918758417
45.8926 33.8409 20.8512 26.8267408201
47.4334 36.4511 19.0906 26.9761804409
39.2954 25.5256 24.1658 75.3034137469
41.7788 26.9644 21.3048 30.6031838199
44.1845 25.2962 21.243 30.5966858911
44.0015 25.6406 24.1529 67.026032092
41.6248 27.1232 24.1398 72.3117204825
46.7892 26.1236 24.5992 106.6752635428
47.6038 28.5806 24.02 42.5713046854
40.1101 31.6787 21.5261 28.3350179302
39.7638 31.4088 24.395 112.8897905357
42.4045 29.8221 24.0565 66.4242964101
42.1463 29.7322 21.3146 28.5955215962
45.2381 30.4053 24.2321 89.6609326245
47.0328 29.4444 21.3807 32.8024274282
48.2754 31.9693 21.7927 27.5810850332
48.8492 31.3974 24.4885 91.8383638821
38.9514 33.9987 24.5107 81.3266270573
40.5829 35.8763 24.318 84.9363641841
41.397 34.0509 21.8678 29.7297986123
43.2886 35.2416 23.729 61.9883864684
45.3417 33.2834 23.5876 41.3081947318
47.6961 34.3149 24.4112 94.7031999198
47.4026 36.1207 22.2629 28.7838209242
40.8497 26.1398 37.4001 31.9159814943
41.0887 28.1513 35.4935 109.6358087715
44.7118 27.6767 37.9015 29.9567397238
43.4207 25.1442 37.492 30.1973575413
47.8435 26.3564 35.6596 76.0335867761
38.4645 29.0063 35.5852 85.8855839621
37.3908 31.6777 35.8509 75.3406126612
38.1567 30.2215 38.3479 26.8290957708
43.0538 30.0988 36.3243 37.5697830712
41.8572 32.4853 35.5455 100.5889212284
42.0889 32.4693 38.4595 31.7382018459
46.0188 28.6098 35.8072 75.5951628358
48.1941 30.1389 35.4072 104.0815579609
45.5999 31.706 36.6527 37.1503859327
39.3236 33.442 36.4576 35.4967537067
38.2059 36.1105 35.6748 86.6716113483
38.6221 35.6048 38.5111 29.3166680481
43.6556 34.5682 35.5782 96.394368937
43.4205 36.6058 38.7502 28.359525366
48.7561 33.0227 36.2331 58.6882440528
46.4624 34.5381 36.1195 65.6405696255
46.2041 36.4336 38.1449 27.7262465598
37.436 26.7165 41.0236 28.3121439121
40.4948 28.4027 39.3076 29.2786278169
40.2743 26.8602 41.6001 30.4045551202
47.0923 24.9067 38.8372 30.1409668152
46.6971 27.5995 39.7889 29.6574714708
46.9733 26.2341 42.7812 32.5141311095
38.8075 30.0281 41.2759 28.6859654454
39.5244 32.6482 39.3921 29.1568775314
40.4652 32.0134 42.9037 31.7511731148
42.8361 29.6368 39.2119 30.8662375588
43.8332 29.4015 41.9984 35.4582776001
46.4407 30.0266 41.082 32.3953333239
47.1133 31.5206 38.9167 29.1704824858
48.7901 30.2088 42.8307 32.7747026177
39.3408 34.2703 41.6602 32.3361780981
41.7582 36.0407 42.0448 30.8851091126
43.4328 34.2125 40.4185 38.8253752068
46.4389 34.1314 39.9149 30.1314774821
47.2435 34.1185 42.8498 35.9907552617
39.0033 26.6068 46.1039 30.6959024753
39.1693 28.2049 43.8926 27.2415386631
42.407 26.6274 46.1182 28.0965061387
44.9 28.2607 46.8357 31.1303542266
44.8531 27.6329 43.9729 30.1199250724
42.5838 25.9199 43.3207 32.9229619363
46.4292 25.6153 47.1226 26.2164648983
48.9014 27.0357 45.8075 34.2385605983
38.7228 31.669 45.1102 29.1240353541
41.1874 29.56 45.5363 31.8341789231
42.9123 31.3569 44.0895 31.7363264657
45.2832 31.0101 46.021 31.4175837656
47.8517 29.8961 45.5817 33.6044481314
38.5342 34.6527 46.6478 32.4086603739
41.0039 35.5078 45.1194 31.4480121907
42.9307 33.7346 45.7565 31.4854519904
45.3731 34.7069 44.922 31.0569641732
46.9436 34.3938 47.1389 28.7000806416
49.1641 36.6429 44.8263 29.5327971302
38.2127 27.1603 48.7815 34.6294462899
40.6202 26.612 50.2211 33.4429401262
45.0921 25.2492 49.5743 30.5725272778
42.3104 25.1736 48.5855 30.0357003447
45.9795 28.2817 49.5915 30.2708983942
48.0096 26.9148 50.9963 30.2349164004
49.1603 25.7299 48.6161 33.5589922187
38.6654 31.8184 48.0202 33.0087281055
37.3154 29.7352 49.5728 36.3621932916
41.6873 29.4093 50.4287 32.1989420765
44.3015 29.4693 51.3653 31.3658999089
41.0314 30.7756 48.2548 31.5164025723
44.5677 32.3197 51.1454 29.5187976947
45.7819 32.3028 48.3769 27.8764376685
47.328 30.6759 50.5403 29.5208448116
37.8298 34.1743 49.8095 29.4902628753
39.912 36.3869 49.2793 26.7287498627
43.034 32.7018 48.3363 28.7630084236
42.3083 34.9978 49.971 31.5907196415
47.7782 35.4348 51.0466 31.7982681533
45.5127 35.5825 49.2433 32.6652028351
40.3037 26.8984 54.2542 29.1977135807
40.9579 24.8078 52.3149 29.0481593389
37.3186 26.2472 53.7865 31.2406777645
38.1048 27.8679 56.0857 30.1525343068
41.5706 25.5218 56.2997 30.6852424874
43.7412 25.5776 53.5717 29.7999102013
44.7418 24.7434 55.9039 25.4856398124
44.5241 28.1981 53.9495 31.8444199101
46.1451 25.1188 52.2088 28.9557251023
47.3533 26.144 55.3696 29.0515275078
49.1785 25.0861 53.2741 29.3126917535
37.963 30.1858 52.3662 34.0019107117
40.6266 30.5003 52.6839 31.5950382529
37.0613 30.4516 56.3508 33.8492125377
41.8302 29.1554 54.8098 34.3446768961
47.9772 30.5398 53.3343 29.5391958486
46.7088 29.0915 55.4468 26.1442578299
45.9563 32.0401 55.928 31.3658094434
38.3987 35.9818 54.8686 28.7798131687
38.7804 33.3618 52.246 33.1656319283
44.8042 35.9704 54.4721 27.6259502186
42.3665 34.4597 54.8211 30.7742417235
41.3004 36.6616 53.0079 25.9838653717
41.7111 33.2032 52.3359 31.7469056003
46.9747 34.5668 55.7104 26.3094126899
46.1823 33.8225 52.6986 32.6412814171
38.7505 40.3803 5.51144 31.9512992651
40.4243 38.5083 6.52415 34.7213172657
44.4328 39.5818 7.89462 32.3492844976
41.469 37.1147 4.36105 27.8528793391
45.4467 40.4656 5.61311 28.2689209174
47.1448 38.2842 5.30086 28.4031647912
40.0993 44.8709 6.97528 32.1533750708
37.8108 44.0081 3.8401 32.1232751724
43.939 43.7676 5.07789 27.299613384
41.5103 42.8716 5.86208 31.6367924436
41.8455 41.0345 7.88034 30.2846404058
45.595 44.2348 7.3001 31.2267661445
47.4255 42.2843 6.14685 29.7115072124
48.3701 43.528 3.92627 30.0865425424
37.8822 48.2 4.63281 29.0105344163
37.7295 45.7492 5.87268 30.6780856383
43.2257 46.5562 4.89033 33.6046057923
42.0138 46.9804 7.48172 32.9040665512
46.8033 46.6607 7.1981 28.8604474068
46.3065 45.7 4.2843 27.0018343938
48.3372 47.6494 3.743 30.4187426806
39.2273 37.074 8.71389 31.9680107571
40.4636 39.4898 9.85682 29.1175953937
41.2721 38.4483 11.9977 28.559278168
46.2576 39.6922 10.0921 32.5422006884
48.9892 39.0711 10.3541 31.9939744165
38.318 40.9875 10.3344 34.471906534
38.6931 43.5502 9.01498 34.4696306075
43.4145 41.8606 10.2401 28.7162126038
41.2978 44.1228 10.4009 33.4063594866
44.2859 44.5626 11.0848 31.0284928221
46.3158 42.5712 9.4996 34.758966714
37.1289 45.0932 10.602 31.2421041408
37.0345 47.8293 10.9976 32.585491165
39.8076 48.9403 10.4232 34.4089795963
42.0858 48.1625 11.8217 31.8031194611
43.0823 46.7855 9.89877 26.6231341331
47.4899 48.0018 12.1613 30.1856738564
47.6825 45.2257 10.9126 33.5245627924
45.7462 47.5162 9.72908 31.8400759086
37.8684 37.4176 14.8417 32.4988029491
40.0787 39.645 14.1823 29.4129223439
40.6048 38.8293 16.8052 27.9223366591
43.0548 40.5236 12.5901 32.7019058162
43.9058 36.8972 12.9584 29.5654019696
45.3869 39.1469 12.6451 33.2444105373
49.0674 37.6157 14.5337 32.2635377561
47.2096 39.6841 14.8098 34.4406785999
37.8894 41.6442 13.2 30.6078230252
40.6131 44.439 12.9992 30.2405379578
39.0522 42.5154 15.8335 30.8242334971
37.2395 44.3553 13.3031 31.7866824297
44.3589 43.0466 16.2612 30.0728265583
41.6923 42.1385 14.7358 28.4073361882
43.5721 44.7166 13.8372 30.6949434992
48.3856 43.8944 13.707 37.0281709316
46.9194 42.2444 15.2222 32.8365259795
38.743 47.3094 16.7192 31.4090161021
38.9002 46.6872 14.1415 29.5228562284
40.9672 48.8235 16.7663 31.2423138422
43.921 48.6928 15.777 28.4633767237
41.89 46.8154 14.439 29.535279904
47.7254 46.5397 14.4571 32.4056892948
45.275 46.1594 15.7191 29.0169481079
38.3624 40.6202 20.2817 32.3813688766
38.1262 40.2216 17.4192 29.6464687342
37.4892 37.9476 20.6424 30.0856116429
37.1451 37.6103 17.4947 25.6871062063
42.1335 37.4803 19.4378 30.1594063676
43.7133 38.4096 17.1838 28.3419467307
41.1468 39.4925 21.1808 29.9433896882
46.4236 38.7185 17.4147 31.3330087121
46.2766 40.1588 19.9785 31.6944371801
45.2951 37.7268 21.1462 28.911050171
39.3736 44.7759 17.625 33.8181300774
37.0757 44.6538 19.3035 30.4611702977
42.4813 41.9972 20.0677 29.1210056383
41.8848 44.6174 18.9675 31.1749065799
42.7089 40.9041 17.3139 31.2159776693
47.7655 42.3348 18.0052 28.8754404514
47.491 43.9803 21.2082 25.683753734
48.6312 44.807 18.6593 32.0008030876
45.2282 44.2913 18.7219 27.1328357398
39.4661 47.5667 21.1297 32.2796923329
37.0003 48.6468 21.1623 30.3756371636
43.4987 47.1152 18.4967 28.1219994567
41.3625 49.0068 19.8015 29.5838704495
46.4199 47.2726 18.2608 28.3773422765
48.9456 48.8596 18.3604 28.1005467762
38.4711 40.2786 24.5451 93.1333362307
39.4084 38.189 22.9838 26.9406111113
42.3959 39.6219 24.0138 68.4616509593
44.333 37.5986 23.6179 43.3072686918
47.0462 38.1493 24.338 91.5206103967
40.243 42.6221 21.769 27.0429516174
40.4101 42.0813 24.5467 67.3207165735
39.7225 44.887 24.8795 110.9003091781
37.4457 43.2372 21.8971 28.7695259437
44.8026 42.2563 21.497 27.4291359141
43.7998 42.0363 24.0738 55.8701748842
42.5952 44.7225 24.1915 51.6284467123
48.6098 41.1043 21.5357 26.3626788171
46.5939 41.1653 24.4088 93.6908213771
47.879 43.7475 23.9727 51.0119497597
39.6924 47.9617 24.0946 50.8665889932
36.9308 45.1142 24.1956 77.2893687673
42.8267 47.5231 24.0616 63.8627078013
44.4346 45.1648 21.3435 27.4867450812
41.2006 45.2929 21.7712 27.8357923994
43.9374 48.3009 21.5571 27.5510368087
46.0817 48.3655 24.1719 70.4877823651
48.7139 46.5942 21.2922 29.8066746553
46.853 48.6748 21.3537 28.4371877099
45.7069 45.5504 24.2934 87.7636184327
39.2869 40.2715 36.3917 38.4613195666
40.3522 37.9201 35.5735 98.3998693187
45.0545 38.8512 35.5695 105.6446341502
42.9457 37.0422 36.1875 37.1511083221
48.9339 37.8136 38.3029 26.9289484411
47.7415 38.5616 36.0116 55.6639380806
40.8872 44.3677 36.9813 35.7710477433
41.4332 42.0641 35.4473 122.865176939
43.8377 41.3139 36.3388 35.6456303225
45.5984 43.5869 35.9226 81.561068069
47.4341 41.3317 36.2083 45.1188728599
38.3204 45.3994 36.4555 64.1432805874
38.2115 47.9798 36.8194 32.1355398128
44.2139 45.6427 38.7606 28.6799302578
43.3027 45.3176 35.8143 68.8354353544
43.1319 48.0411 35.3842 109.5564982261
47.1541 45.6938 36.7613 34.5821710457
47.3439 48.4209 36.065 76.3141958008
37.797 39.3844 42.5501 32.5064728119
39.5056 39.7713 39.0412 30.6236246375
40.5027 37.1896 39.4525 33.577756779
44.7059 38.9904 39.9109 31.3137842413
43.4065 38.6813 42.5733 32.9838217189
47.1799 36.9211 42.279 29.4027527661
47.4969 39.1282 40.5522 24.520632749
38.8304 42.1898 42.0536 29.6576870252
40.9856 41.6527 40.372 29.6446289438
43.8045 41.4242 39.0913 29.9517601411
42.4603 41.2908 42.7059 29.187369232
41.6881 44.3182 39.5238 28.8712852548
44.8656 42.7126 42.846 31.0740370119
47.5946 41.7577 38.996 29.6520567918
46.8997 41.0096 42.6909 27.2552924451
45.5013 43.2543 40.1424 26.6474330113
48.9245 42.4259 42.1023 28.7684177136
39.1027 44.9512 42.8653 31.5761322827
38.0544 47.1987 39.513 26.7063784172
40.3107 46.4533 40.8307 28.6805046783
38.0373 48.9467 42.3874 28.3192426609
43.342 45.2148 42.1001 30.2487015202
42.1453 48.6097 40.8224 29.01064393
44.6262 48.0046 39.6801 26.9492955428
44.9978 48.5958 43.1881 28.5207323675
47.5697 45.807 39.4821 26.1107437612
47.3307 49.012 38.9741 31.441780195
45.9916 46.4234 41.8393 27.6096222291
38.6176 39.1042 46.9285 27.2398497979
40.7529 37.4388 46.9249 28.2794876407
40.0497 38.2605 43.6351 33.7632870403
45.9415 38.9185 46.3725 29.2329115871
48.2163 39.406 44.695 30.1524405111
45.1874 37.3369 44.2515 31.6034706575
48.6183 40.5397 47.3115 28.4289324746
40.4288 40.8621 44.749 26.1388320665
38.3998 42.5966 45.5697 28.0283595003
42.4668 41.549 46.073 28.1345297784
42.2184 44.3695 46.8129 29.0677925243
44.8617 44.6578 47.3227 28.5052101219
45.1474 41.4667 45.7467 30.657559744
49.0543 44.3481 44.0665 31.3036367226
48.3846 44.2298 47.0103 28.3493517775
38.7032 48.3589 46.0033 31.5362032861
40.3856 48.6124 43.8595 26.5957676213
39.506 45.3529 45.8973 29.6983707759
41.9286 46.1511 44.432 28.8664492402
44.2082 47.2726 45.5571 30.3090899136
48.052 46.7652 43.728 28.8466719983
47.0037 46.4793 46.4919 27.3577579729
37.1338 37.1504 48.1853 28.0402056532
37.6238 40.0584 51.0354 28.8979852261
40.4985 39.4374 50.2532 28.1993847176
42.6006 39.2882 47.8702 33.024296959
43.0423 37.6155 51.0343 26.541963373
43.0663 40.6915 51.4918 30.0540369862
45.3642 38.5109 49.1875 29.019157397
48.1074 38.9158 49.4941 27.6788814095
