20.4218 18.9177 18.9968 29.9503915088
19.3542 24.2481 23.7171 61.8896849301
17.4555 22.6964 19.4983 26.3331797507
19.2886 21.1957 17.2635 26.5253816072
18.694 15.0864 18.0036 30.5141957715
15.4577 16.8695 19.0691 30.372155449
21.4136 14.8211 21.0582 28.8678496905
14.8888 17.5444 24.3466 107.8087835875
17.3714 15.6269 23.867 59.0367901766
24.211 16.9097 21.5317 28.9024302485
22.0091 15.8295 24.5096 93.7010949082
14.1663 24.2634 18.8152 27.8139251986
12.6433 23.9814 24.1818 63.4965852197
16.3399 20.0215 23.8025 60.569419867
17.9946 16.7382 21.1315 31.9576320593
19.1821 20.0573 23.6439 46.429757246
19.7862 17.3436 24.2491 85.3729417281
23.8961 21.7336 21.1045 31.8467114865
15.197 22.7016 24.1086 92.2157083829
15.012 22.5601 21.2326 28.8961970979
21.2265 21.9454 21.4863 27.9714974246
21.0184 22.0919 24.2287 97.5238571339
13.8926 14.1183 18.006 30.9594768323
23.5235 22.1329 17.9843 30.2417902265
23.892 21.2937 24.187 76.2347520056
23.2468 19.4181 18.5377 30.6968471965
14.0825 14.9254 21.1281 30.8690968392
13.2387 18.3287 20.585 27.3265952739
14.9699 21.918 17.1925 32.8087774719
24.8428 24.1281 24.4606 112.2024199916
12.4994 23.9458 21.2782 25.9712163464
24.5676 16.9369 24.5602 90.7912212794
19.6467 12.826 16.84 36.6985334283
12.5522 13.5555 35.8652 69.4635452511
20.4361 14.47 36.3552 44.4741956239
13.9893 12.5341 42.5164 35.713421727
14.4207 24.38 42.7217 30.8624595309
14.9153 15.3547 35.5706 103.1899773465
16.054 23.668 35.7685 66.6746320135
13.1415 16.023 40.8173 30.7582732125
20.0708 24.2769 39.2459 32.6944084196
18.3725 22.0921 35.5156 108.9558836817
16.9863 19.5821 36.1881 56.0513542318
16.5406 18.9675 39.5721 30.1135431312
14.1817 19.6021 36.3833 40.6665329611
12.9706 22.607 41.5652 30.682876477
22.4519 17.795 35.8344 71.3050683567
17.3591 16.7108 36.3963 36.703290806
22.5539 15.4907 38.6351 30.5167635104
22.8015 21.9295 35.7277 93.3473632469
23.5916 18.3028 40.0044 34.5259140941
17.8695 22.5399 39.9816 27.6135730801
13.7123 22.1833 35.5992 99.9426525706
13.3514 22.6965 38.538 28.488628835
21.2201 21.932 40.6219 30.616791225
23.9539 15.5137 36.3965 54.9400299588
23.4184 19.9491 37.4095 27.0336637529
20.1686 20.0351 36.5186 35.5790227718
18.9748 20.0405 39.0571 28.9027583774
20.5175 23.895 36.4241 38.1179415052
17.3166 23.9468 42.5192 31.8420776588
13.7626 13.0309 39.7546 29.2135860917
18.2266 15.2311 38.622 31.4146415008
13.7847 19.9408 39.1217 31.0335990724
18.1868 12.4957 41.1019 32.2986540793
21.8412 14.6129 41.2963 27.8496442434
12.5035 15.4867 38.0666 28.0737195163
19.7747 16.9942 35.3584 124.8554323479
15.9033 23.629 38.5045 30.554049269
16.5604 20.5215 41.8438 28.6823005197
16.0573 16.2464 40.578 32.2918048206
19.5166 16.0163 41.0678 29.1862855259
20.7501 19.0012 40.9542 32.2770686425
12.7777 17.3342 35.8509 69.04870069
23.0592 12.5008 36.0431 72.4753921089
23.0555 12.4573 39.0484 28.2745279637
24.0259 21.5368 40.2387 30.5241205047
15.9458 12.3669 36.1426 58.2404228695
16.3923 13.0847 38.7288 28.1105298056
16.405 16.6039 43.3304 32.2440285106
23.4275 24.6404 42.2359 33.5732800678
20.7615 22.4967 43.3907 30.6929067655
24.4849 22.3555 47.7196 30.2096530195
13.0434 12.8727 45.9841 29.9492652586
13.6213 23.4634 45.4223 28.9708587938
22.3755 13.8858 45.7503 27.3963079277
14.1149 21.0935 43.3493 28.7038397376
16.1112 19.4625 49.0692 28.2225138256
17.795 18.9514 43.688 26.7085130562
22.9628 13.62 52.1994 32.0932222868
21.5702 20.5431 45.5054 26.2429725485
17.6824 19.148 46.3937 29.3034704239
24.2193 12.34 43.9212 30.4104445271
24.1167 23.3841 53.8457 31.6698030993
24.0187 14.4409 55.9453 28.7230169995
21.8264 20.7711 52.3631 31.4246064436
20.3601 20.8701 55.0321 32.027373826
15.0065 13.8897 55.4551 31.5990328087
17.7133 23.3663 48.8636 31.8540489598
16.9032 23.7897 54.5196 31.9682625784
21.7904 23.2806 46.5727 30.5943198056
14.2412 15.3459 46.7231 31.7415357619
20.6304 18.4885 43.7264 30.6721792651
13.8724 16.7928 44.3598 29.8563942821
16.2365 14.8518 48.5277 32.0974766051
20.1802 16.0503 44.9428 26.144931637
19.4395 13.967 47.7659 31.2315169719
23.7004 16.0216 47.9697 31.2286861948
15.849 19.018 55.851 27.7404329942
20.4054 24.1931 48.845 36.0002276202
17.6373 17.0711 50.0185 31.2716385421
15.646 16.2641 52.0612 28.3184363934
14.1145 18.6296 50.8831 31.521450381
19.3541 16.8718 47.354 30.3238862459
21.9386 18.1898 47.3953 32.3032630056
16.4571 21.2746 53.4781 30.138773334
20.8525 13.2621 55.7903 27.3431704887
13.7415 22.157 48.2329 34.7538959884
17.0325 21.3291 50.703 35.0016942009
22.4757 22.284 49.9546 33.4543667692
20.9342 20.1963 49.0268 28.0129332545
12.9983 13.4178 53.3436 29.2196298653
14.4838 14.2827 50.7954 32.5643794465
24.3703 21.5266 55.9418 33.3732820942
18.4847 14.8578 43.2293 27.4697168481
18.6741 16.7803 55.0677 30.6001468158
19.1591 19.5823 51.3692 28.0693264898
12.9097 17.1297 48.4219 31.56548215
20.708 14.0552 50.8104 31.0673338862
22.6013 17.7185 56.4212 31.1978544629
21.4716 15.6817 54.3792 31.2483092734
22.2412 13.2425 48.5778 28.8137020754
14.113 17.4517 53.9619 27.6642011865
22.5001 18.1683 50.8772 32.4077535363
20.4441 16.7742 51.7542 30.972376379
19.7309 23.8866 54.5632 40.5481550701
18.3198 19.3107 54.0288 26.6553347287
19.0538 21.3464 47.1207 28.8962352723
13.8552 20.4583 53.6569 32.1301985856
14.6397 19.2378 46.3948 32.5914436481
22.9271 15.7235 43.716 30.2376465307
23.7504 19.2969 53.998 33.6573448763
17.0739 14.6468 54.0837 32.6013697092
18.4421 12.6407 45.0995 32.1060321574
24.3425 20.803 45.4092 34.3209627568
18.1438 21.933 44.0713 32.0187757562
15.6049 26.3195 4.20178 32.8970452776
16.865 26.9525 8.10255 31.9182421282
23.8127 26.1258 10.5407 29.0988182564
15.0408 35.616 6.56291 33.0446195889
24.3821 29.2713 9.60148 27.7054967978
14.0643 33.1935 4.27936 28.5736282922
19.9796 25.2403 16.3962 30.0807168905
15.885 32.5298 6.35771 30.6750024652
21.8247 35.8074 13.6241 32.2459029994
14.7704 30.3491 7.9354 28.1642198737
20.107 29.1305 6.58272 28.6510728327
22.3828 32.5603 7.2412 30.8040713218
12.7013 27.5351 13.5404 32.5799639519
16.2139 28.4346 6.00273 29.8257954077
19.6727 32.7309 6.7621 27.7980522409
20.4503 35.3414 8.41734 28.3062686167
20.6679 25.5 4.07441 34.8140715025
22.8759 32.7915 4.31048 30.7236870074
22.606 33.3607 9.96666 28.4110252073
19.3416 24.8095 13.4617 28.4069073667
14.5546 33.2425 15.9512 27.7752353469
17.0048 25.734 12.7723 28.6688757382
19.0642 27.7738 4.5825 30.8517369379
21.9454 24.9341 6.30359 30.3063588845
12.7063 30.2126 5.59695 30.3916887865
19.2517 28.2043 8.996 30.7689241473
20.6527 26.6461 10.8985 29.4712660127
12.1408 35.4878 5.25538 28.6662935477
22.2663 26.9923 8.14062 28.6020887849
17.3904 30.7202 4.81158 27.0887012967
14.5996 26.6722 9.46337 29.7912569802
21.682 35.5616 3.98729 28.3813789124
17.8193 28.3199 12.481 28.4476538703
18.2863 30.3119 10.6222 30.2810347432
22.5016 28.7132 11.8464 29.2510110416
21.9248 30.8238 13.6599 29.3737135034
15.2103 36.1013 3.48277 28.7999431498
16.9529 34.8859 10.1856 28.9313153744
16.2315 28.0243 16.6953 31.0582524194
16.0126 33.9867 12.6664 27.096445119
17.5984 32.4471 8.77941 32.0655000568
17.2497 34.1424 16.1814 28.5179101731
20.4749 32.3834 11.5495 31.0771934625
16.0721 25.5158 15.3562 29.8301225685
14.8188 28.0041 11.7234 28.912450215
12.457 29.6423 15.2067 32.0722411537
12.4991 28.6971 8.94003 28.0486213056
20.0327 31.3452 4.1655 25.5632665119
22.6598 29.588 6.92671 28.6652834073
22.4315 26.365 15.2527 27.3222286072
14.9045 31.0562 14.6005 27.4679132417
19.1011 35.2526 5.63043 29.0328766981
15.2954 30.4176 10.8282 30.3447019799
17.489 30.0507 14.8145 27.7797086132
20.6564 27.8227 13.9451 27.4044337577
15.9996 36.0783 14.1783 28.2528671601
18.135 32.4367 13.8792 30.7413373049
13.3181 25.0279 15.1141 33.4709119227
13.6908 32.3718 12.3698 31.6188668407
19.4275 34.8715 12.1408 26.7753539936
14.4022 36.0871 9.83634 30.0656376049
19.9695 29.539 16.3878 26.524545727
24.3086 29.8475 4.72783 31.0323405594
23.1448 33.3257 13.4744 29.7953374159
24.1573 36.0539 8.92029 26.868910147
24.4295 27.3121 13.3284 27.5840778506
21.5245 36.6655 10.5821 28.1370359068
20.4946 36.2634 16.1353 31.9017687182
22.3118 31.4068 16.6811 27.5762775578
12.831 25.5834 3.40904 31.2010740892
22.9139 28.2251 17.4686 29.2967027151
14.501 28.3379 20.796 26.0209498918
18.7043 27.8807 20.5531 29.3075393364
17.8285 25.287 20.8257 26.2832062898
12.6753 26.6846 21.6727 26.6519286756
24.0962 28.834 24.3341 98.4053763192
17.054 31.886 19.335 30.7614485943
17.4217 36.8499 24.5933 123.2708826586
21.5264 28.4327 20.0206 28.6767814332
20.9256 31.2031 19.7874 27.5717781965
19.0758 32.237 17.4429 28.0323335918
12.974 31.1148 20.7107 31.3044228059
12.2246 34.8542 16.9357 30.9501163218
13.8117 29.0013 17.8313 27.7725465251
17.6346 34.1731 20.4953 27.9080572994
22.298 36.3576 24.3396 69.9522161149
15.863 26.483 19.2663 28.4289759479
23.4529 33.3276 21.142 30.0732136792
21.4292 33.9297 17.7299 28.230595614
13.1388 31.5315 23.7568 43.6932519272
15.4251 27.6905 23.7359 48.6296620836
12.8675 26.7415 24.4204 87.4156663291
20.5133 26.9516 23.9989 76.2926588513
14.4787 31.6253 18.2754 29.5714838035
23.1878 26.3414 23.8177 44.6523199081
22.5439 25.9677 21.1109 28.3327039417
16.7193 25.148 23.4289 49.3449654198
17.0756 29.9245 24.3979 88.9960251932
16.9555 29.6835 21.5087 28.253296426
15.9302 32.521 24.363 106.1576465137
19.9182 29.7226 24.4208 79.9577462437
19.1304 31.5816 21.8474 27.8497284274
22.9982 30.4507 21.847 29.5528773909
21.9656 31.4551 24.4864 85.2542678123
13.0297 34.0251 19.7286 29.3203462083
14.7647 34.6615 22.0669 31.3504825566
17.9941 34.2161 23.4381 34.0421352669
20.7057 34.3418 20.5978 28.250710493
20.7912 34.0183 23.741 46.8383884944
18.9425 27.546 17.7334 29.3703481462
12.2383 35.6758 23.5143 35.4251776159
18.2392 36.0592 18.0115 27.1355826048
24.5302 33.7381 24.4192 76.7702325895
24.0749 34.7544 18.0239 30.5443066214
24.413 26.5998 18.8805 30.8855387974
24.377 36.0621 21.6162 30.7561983705
15.4685 26.3237 38.5933 31.4577880119
15.3073 26.5374 35.8223 74.5755971562
14.2252 27.0525 41.8009 33.6412517201
20.5186 26.5496 35.7063 83.5573303702
22.0853 29.9513 42.6085 32.4187596799
21.5915 28.2917 38.4509 28.511999549
18.9157 36.3517 41.1793 28.7475521158
13.231 28.7399 35.8491 72.1468833675
12.3643 30.6221 42.4587 29.1362297448
17.6722 27.9543 35.7057 79.2948408671
17.3932 28.6738 38.2749 31.1884439539
18.1843 31.1679 39.0166 28.9902265568
22.1731 29.1035 35.7256 67.8311179579
20.8714 31.6885 35.8638 51.9175340677
18.1667 30.8432 35.6124 88.9573515414
13.7267 31.1856 36.4 39.8238196532
19.4703 33.4904 40.7018 29.9004170324
16.3349 32.8668 36.1162 77.7831323608
15.3947 33.3314 41.4683 32.9535534651
15.4494 31.7174 38.6972 33.616353993
17.3042 35.0141 37.5827 34.1832936879
19.71 34.5541 35.6039 92.5644016653
24.0342 26.3357 35.4617 103.782830462
23.4002 28.9871 40.2963 29.6923137979
22.8208 35.0637 35.9876 59.7716369229
21.8073 32.7511 42.5148 31.2923817188
23.7669 34.5253 42.347 32.2609169159
14.0715 35.6049 40.9916 34.5843056543
19.7312 28.1878 41.9368 33.2764823573
12.6916 30.8609 39.6532 32.4431231802
22.8297 25.8609 37.9464 29.4998761615
18.2425 30.3927 41.8655 30.9616015444
23.9708 32.1433 35.6448 80.9692742146
21.2715 32.0663 38.4686 29.7058935086
17.6964 33.2215 43.1125 30.5331943584
21.879 34.8144 38.5967 25.8062360585
19.8766 36.4568 38.4162 28.933669535
19.2177 26.9124 39.3059 32.2662956613
24.3009 34.6137 39.7584 32.8638607527
23.9178 30.9404 38.2786 27.7082371097
12.7963 26.4885 39.0384 33.2610565864
14.9632 34.2363 46.2183 30.8130258452
12.2513 34.3799 47.8166 33.2088069299
15.4527 31.0323 46.9737 29.2951984135
17.3411 26.7983 45.424 29.7780193512
16.0195 24.6449 46.9073 33.1996785844
21.9039 27.3808 46.5176 35.5047743803
17.4304 26.1027 50.6383 36.1708613302
14.5391 31.6384 50.2305 33.862101761
21.9181 27.4741 51.2047 33.0647341485
19.6738 34.7055 47.4035 27.805764543
18.0574 32.4953 49.2289 26.7739252816
19.0032 28.5196 46.6326 28.8675611021
20.0968 26.8416 49.1354 31.1156350486
15.1057 34.472 53.4305 29.9592601417
22.1815 30.1831 46.2669 30.6688338725
13.9625 32.9686 43.7902 32.2604714856
23.8041 34.0435 48.2858 32.4481072824
21.3744 31.8795 53.1389 30.8446102419
23.8623 35.2561 51.5831 27.1257084257
17.5766 33.2083 46.3986 26.9630380131
12.5935 25.8182 53.3619 32.9503437059
20.4112 34.6663 52.5082 26.2471141408
19.4958 33.7651 55.7165 28.868562395
12.6526 34.961 55.1092 27.5633486665
14.3932 30.0597 44.7991 29.3726179197
15.5435 25.8106 52.8841 36.1211250722
20.7742 36.5615 45.412 28.8353485996
13.6748 29.8977 52.2485 32.0032763848
24.316 30.0447 44.4744 27.931654745
17.3137 29.4177 48.7006 29.3234530368
15.921 30.3064 55.5314 26.5773507856
18.638 29.5857 51.2469 27.183757942
15.6803 26.9099 48.5589 29.7058474306
19.7208 27.8195 53.4435 31.4299754101
13.3932 30.4025 55.9766 33.1370337027
21.5136 30.2901 51.0186 29.8900080391
15.8212 34.9114 49.2095 29.5286363438
17.1689 36.1899 53.2481 29.2565900013
18.5333 32.1063 52.357 29.5710633584
20.7585 31.8253 48.5566 29.7431714091
12.7489 31.7018 48.0814 35.8289309403
23.1325 34.5528 54.2605 26.3546346686
21.4652 34.6478 49.7216 26.1485971377
18.7342 30.7409 44.7984 30.6368421751
22.1323 25.8145 53.9269 33.8002231626
16.1535 28.8374 53.0774 31.2173758391
18.4055 36.2715 44.1163 31.5204842609
21.1278 32.6185 45.1761 33.2711450838
21.5018 25.206 44.5641 31.9675947502
18.0685 36.2851 55.8795 26.9734428939
16.8078 32.5001 54.5864 30.9847073263
20.7431 29.7201 55.1857 30.2108695741
17.179 27.0607 55.2299 28.354712337
13.0704 26.4637 49.1162 30.7985976198
23.5497 29.2875 55.0697 31.1914018426
13.7948 34.2992 51.0762 27.2321217744
13.9957 27.3072 46.0448 30.9128649137
23.9343 31.2024 49.3565 32.2306154124
18.2438 35.0843 50.8135 24.7462575707
24.6492 27.4285 51.0519 33.6447096302
19.006 25.9528 43.4912 30.8421712009
23.4519 26.8213 56.2717 30.739533768
16.1164 28.4634 43.3687 33.1832673662
23.2736 48.259 8.72329 31.396256549
13.9336 48.9184 13.2273 26.6791522693
13.8124 45.5705 11.7055 28.0817732383
14.2908 38.9424 15.0794 36.4609206693
15.4593 42.6556 6.54182 33.9340918081
22.4528 36.8601 6.73499 29.414199139
12.8751 41.3361 15.9459 29.4258426898
14.9324 39.8653 6.22038 31.3199367317
18.1847 43.263 7.25159 32.7635813726
14.0956 44.1584 4.44505 33.9984816908
17.6561 39.772 6.58879 28.1892730925
18.5278 37.4733 10.175 29.9834437082
21.5817 38.9407 5.36118 29.9652772937
22.411 41.0686 6.87291 33.1084565306
22.5893 43.5711 3.57699 31.1132090819
24.4383 41.5769 4.04057 29.4871186715
13.7 37.4585 12.5704 33.8020924718
21.6628 39.1567 16.1017 32.8825319599
22.0856 44.1719 6.37978 32.3442899489
13.0264 48.72 3.92665 31.3401973803
23.0745 40.5784 13.8257 28.9865517411
19.0047 47.6854 15.1837 28.7023092976
15.7041 42.3984 11.0823 30.5342317292
17.4287 40.1269 10.0874 29.600251818
15.0401 38.3775 8.53846 26.5704495994
13.9017 46.6102 6.24041 36.408785244
23.9092 49.1215 5.98148 31.9693663468
20.0472 42.9271 10.7879 34.2638999557
22.0374 39.3469 9.55973 29.6973376622
14.989 45.2371 15.7724 29.6207122943
24.4048 43.7035 16.2534 29.0155998168
19.5208 41.151 8.63576 28.0891556699
18.5964 45.3777 11.8596 29.0130591431
22.2234 44.8398 10.765 30.8222866584
14.4804 46.8064 9.01587 25.9047088784
19.7308 45.0124 5.64275 31.6637563026
24.0467 43.1621 12.5602 31.4813856662
18.499 40.7135 16.1725 30.2423353833
18.8728 47.0249 7.39766 33.2478378305
16.3229 46.9355 12.2525 28.5496908257
20.6836 48.4294 9.14281 29.1140006936
14.0169 39.9713 11.0222 31.4134713202
20.5612 47.1126 11.376 27.440142912
23.787 45.3272 8.53798 29.8772379856
16.1785 41.1122 14.1245 34.1584714284
18.4535 37.0279 13.9411 29.7591622212
18.6134 39.62 13.0761 32.5556290284
20.8867 40.5591 11.6932 30.3804801115
23.1563 46.6849 13.1391 31.7850361159
16.7646 48.9726 8.73618 29.5896696709
24.3883 37.746 13.4533 35.2805602443
14.2406 43.3483 13.3602 29.4180736074
14.5666 43.7899 9.01718 28.5697634405
17.2618 45.0879 9.09007 30.5069304956
21.4292 42.3304 15.6636 30.735444836
16.3093 47.7255 14.9469 30.9376542556
19.2358 44.7571 14.6754 32.1753516872
22.0411 45.1079 15.0916 27.835830657
12.7719 46.4609 15.7708 27.8612594557
18.817 38.6014 4.52666 27.731195361
17.6587 36.9926 7.49789 28.2698145783
17.6249 43.5914 16.6098 27.6268435615
24.0279 46.28 5.47559 32.9054022255
18.874 45.4605 18.1435 28.2428156419
22.8037 38.4138 21.9956 28.4771423339
19.1128 38.4016 19.6694 26.9493789584
21.6494 46.0227 21.3853 26.2540116408
21.8014 39.1762 19.264 30.5119302505
14.2312 41.6331 18.2872 29.4033726929
15.1802 44.1672 18.806 28.0628505648
18.442 42.4509 19.2917 24.6779088866
20.9614 41.7782 18.4567 28.1192016864
16.8324 40.3322 18.2708 26.6891443594
14.2696 44.7309 21.3315 29.0734930587
14.0885 36.9636 18.5629 30.7884099725
18.7447 46.3623 20.8764 28.8557207679
17.171 43.9971 21.6941 29.1861939227
21.6352 46.1158 17.5811 31.4516037976
20.0177 38.2457 24.2462 61.1246806382
14.9552 37.3871 23.478 36.3501907729
12.9503 40.5521 23.5123 40.0554049081
12.3605 44.8733 18.0247 27.8892550037
23.1424 39.627 24.6215 97.3406678223
23.9137 42.7231 19.031 26.8940588769
22.5195 41.5672 21.4327 30.3693485449
13.4569 39.4783 19.6327 27.4345530686
13.2749 43.4301 24.2166 88.4345779539
15.5893 39.5772 21.7936 28.2155140696
16.0501 41.0249 24.3354 85.4434398562
18.9929 40.9621 23.9517 47.0116996313
18.2123 40.2858 21.4664 28.1752565601
20.372 43.4128 21.529 27.0995175414
22.8436 42.5465 24.153 57.4623403425
23.4643 45.4058 19.7098 28.429460232
18.31 45.723 23.9081 39.1710425376
15.9335 43.6511 24.3937 73.4391426392
20.0833 43.2999 24.4021 85.9376259447
20.6209 47.4875 24.2814 78.9977773448
16.2089 47.3357 24.5139 109.950475677
14.6375 47.552 22.0775 29.9453172149
22.6967 45.4856 23.9993 52.7194288982
16.5883 47.4838 18.1936 36.0711454298
16.1582 36.9976 20.4471 28.9105130032
24.337 37.625 17.4529 30.9910526551
12.3541 46.7312 19.8712 29.9617737015
12.4813 46.3486 24.1245 80.2640807323
21.807 49.0721 21.6656 30.3523089977
16.9683 48.8681 20.7829 28.2961564938
20.424 37.1271 21.589 28.5788020233
16.2857 37.7486 17.0057 27.9018841352
20.9049 38.2091 41.6736 28.7572286444
23.7042 42.0475 38.7089 30.821913647
12.274 42.5281 42.4996 30.2078462225
17.614 38.9243 35.7072 103.3659400099
22.4238 38.1052 39.0279 31.2094145256
21.5714 48.5636 36.0634 75.410616299
21.8391 42.5849 41.1301 31.508279619
19.333 43.7812 41.384 30.1667481278
21.3358 48.0729 41.899 35.1499810419
16.9954 41.769 36.2127 46.6791715293
13.8312 46.2529 35.8681 61.1018458347
14.278 42.4236 35.9497 66.6788802327
14.5721 45.0899 40.8335 30.3014719246
19.9173 42.8736 35.792 69.7144967386
18.5056 46.8521 41.1979 31.1646322266
24.3323 42.3953 35.6809 90.0249821579
21.0141 40.7919 38.2488 32.2943934209
13.533 48.1064 38.4375 30.0166316414
18.1154 45.5021 37.8315 34.2748316149
18.2599 39.966 41.5538 34.4526921778
12.6746 36.7602 38.542 32.3589781586
21.0747 45.4765 35.8753 80.0966463054
16.4935 44.9425 35.5434 102.5323053811
22.7921 38.005 36.098 59.9242238416
20.0812 37.2266 35.6987 70.8968425404
15.7947 47.5231 40.9578 27.1556895977
21.8171 40.9497 35.5466 88.6557944376
19.0814 42.6453 38.7063 26.7704935395
16.919 41.5013 39.3627 31.6229080645
22.8047 47.0387 39.822 30.5966701307
12.7397 39.9007 39.0425 29.7372410373
23.6975 44.7027 41.6342 31.263498434
16.7076 48.3575 38.4206 29.2635842822
13.3579 37.7964 35.6691 110.5198966091
16.2321 37.2381 41.7071 30.5938303038
13.5404 43.9427 38.3572 30.6630989704
16.4331 43.327 41.7977 29.2543749144
15.5484 38.949 39.273 34.1601959651
20.6118 46.9127 38.3731 28.6969616171
15.8088 37.0912 36.9413 36.3455095375
12.6633 40.2243 36.2797 37.8027995143
23.99 44.9517 35.7935 61.3207326967
15.6629 48.4441 35.6034 101.8381325645
12.9825 45.3509 43.066 28.601501736
22.0769 40.4786 43.0933 33.3327056768
12.4012 45.7084 53.7435 31.0098749892
24.1406 41.5899 46.4318 30.1514639011
17.7421 39.2016 44.3174 26.3235345529
14.8237 42.1125 43.7559 29.0010779944
20.8301 38.5058 47.2057 29.02113889
23.5247 46.0105 55.5397 33.2666460505
12.4907 37.833 55.1164 28.3501121232
17.7163 37.8176 47.1602 28.9188062185
13.5523 44.4356 45.9741 30.1192408202
15.1883 46.6339 54.0535 31.7054740544
16.5435 40.8073 46.5151 33.0137359547
18.3741 47.5293 51.6189 29.8773891281
19.1049 43.2267 44.1921 32.6605059974
22.7061 46.8785 51.6928 30.7139858526
21.4691 42.0015 46.7213 27.4491081801
16.3166 44.6105 55.4601 34.6084628705
12.433 46.378 47.6499 27.5636558438
23.3142 39.3458 56.1782 26.9809062756
19.198 46.876 46.0713 30.5162056633
23.1293 37.0784 48.4811 26.268048325
22.385 46.7069 47.3433 28.7550145043
14.2434 41.6544 53.3859 29.0639000251
13.145 39.0506 52.6717 26.9899247895
18.1432 39.6463 50.9937 29.7434957946
18.6628 37.4556 49.6209 26.7675825951
21.9612 48.283 44.5768 30.203455175
22.0786 40.5709 49.5031 28.0976351814
17.4777 45.7698 43.7325 28.4255240223
13.2124 38.4603 45.2701 30.0847296917
16.5852 46.2681 47.4391 28.8382226967
16.4842 43.8035 50.9502 28.3257419715
21.0747 40.1793 54.7722 30.2323810484
19.5531 42.5626 49.1534 32.0409231411
16.9914 41.4194 49.5049 28.6027292078
21.6225 37.8142 50.5479 26.7310962711
20.7689 43.1941 51.7638 28.6443717407
15.6787 48.9276 55.6729 30.4631338012
23.3513 37.8614 52.8799 26.5383680022
15.46 47.3221 51.3358 28.4284834689
14.6293 45.5331 49.4875 29.9090259723
18.5963 45.153 49.3882 29.8003855577
20.7225 47.1761 49.7611 29.4862251668
21.1504 44.5513 45.8665 31.0120205141
16.2071 43.8445 45.6131 29.7958779824
14.9332 39.2668 43.4411 34.812096029
21.2094 46.694 53.8143 28.4892187592
15.8907 38.5559 52.1637 28.1857057431
16.06 39.9139 54.5047 26.8119087266
20.817 40.6288 52.1326 28.1420198555
14.3231 37.9257 49.494 27.8005298125
13.4951 42.2723 50.7903 30.3175828202
17.128 42.7353 53.3415 28.9256501061
17.8693 40.7333 56.1756 35.0645056961
13.0179 48.6371 49.7181 31.0713783966
19.1738 44.9723 53.1054 25.8484707914
20.1015 42.9887 55.3141 31.6307077406
18.3193 48.5567 56.0658 30.2429948026
14.2349 40.5491 48.7195 30.0054122051
14.9196 47.2109 44.2057 28.4901923491
13.6025 48.7112 46.3282 28.4469559409
23.3436 44.2242 51.2765 27.3764412544
20.2136 40.2934 45.2049 26.9946132259
23.5815 45.4514 44.3094 32.0107663964
24.4391 45.1756 48.7598 29.3510642976
14.9702 37.0474 46.8832 28.8366681889
19.0184 45.6945 56.1511 30.5582207848
12.303 43.0876 54.8589 32.0869608335
20.7591 37.0824 54.3633 31.6170970466
14.7555 38.7632 56.4376 28.5534833058
22.3951 36.7678 43.3516 31.4594710051
26.9306 9.55353 16.6091 28.1336339633
28.403 11.2598 5.43047 31.1452267409
28.5417 11.8543 10.74 31.9178262549
35.1928 3.99002 15.467 27.9275474099
34.8007 4.50786 10.0631 32.2244603909
26.5384 0.728243 7.18576 29.4966792734
36.254 8.24482 5.64354 35.0318604401
35.9424 10.5895 8.22241 36.5369567888
25.2751 6.65647 6.4629 30.9850079069
31.3434 8.93613 13.8639 28.4846828133
27.6649 3.92264 13.1533 33.3878448582
25.7316 8.86899 8.41474 29.6994034319
30.9103 9.25965 11.1921 28.2779467017
36.2977 3.7817 5.47791 28.476230867
28.0042 10.5583 8.38855 29.593870762
26.4101 3.09045 8.99525 28.556797913
31.2446 6.00328 5.55577 32.4555912228
35.1032 9.17817 16.4386 31.919626734
31.8923 5.89656 13.6297 27.0198420168
33.7623 10.2258 13.9713 30.8455474311
31.7387 8.99323 5.88615 30.5583035418
30.1813 1.48209 9.6027 37.1231328009
31.9907 2.9562 13.798 31.1171900476
36.6608 1.62563 7.08028 31.1761762047
30.0826 0.633478 4.2991 32.6919111852
34.3411 1.94171 13.8565 30.1701259656
32.2061 4.55609 16.7356 27.0356933575
32.6034 1.90671 7.80824 31.1006655155
33.6681 3.94206 5.68028 27.8350269807
28.267 9.5456 12.7918 29.0561594919
29.9599 6.46298 9.72798 36.4134773489
34.6326 5.89563 7.66132 30.4523690325
27.6051 4.93786 10.6221 31.2769218835
30.4335 2.99801 6.09647 35.6961533648
27.749 4.12935 6.41503 29.0409097933
32.4196 5.60011 10.9995 32.6496948072
33.8594 8.36917 7.82142 30.1711900361
35.2292 8.93485 11.8788 32.3565491156
31.4648 11.9441 6.2408 30.8370245643
28.0829 6.84529 5.63801 29.6515069546
26.8186 7.68664 10.8292 32.0520243416
33.0734 8.02864 10.4382 26.7131336192
36.4224 11.3199 11.057 32.1891739293
34.4963 6.61042 14.7486 30.6812051125
29.5713 8.3105 7.59671 29.8749381722
35.0169 1.78319 9.63907 31.786128932
27.7851 1.10898 13.1142 31.0894629992
25.8727 11.2138 13.032 29.8405508176
31.8582 11.8478 10.2502 31.2967829374
31.5897 1.67097 16.3393 30.9585667709
25.0068 4.03408 14.0808 32.3886450635
36.2173 0.591988 12.0022 31.0876073486
29.2207 6.04125 14.5942 33.8279562993
29.5871 10.6091 15.7972 29.3553193833
30.4476 0.892148 12.3726 29.5221905234
27.0076 2.69939 4.24134 32.9246881036
26.439 7.83489 14.3123 30.3434041737
34.5453 0.118097 3.90859 27.9289678637
24.9249 11.831 3.76916 28.1181044504
27.8807 11.5613 21.4387 29.0251136965
33.0736 6.12663 19.3545 29.6070736367
25.0573 11.9531 23.932 61.9740447524
25.0232 0.322402 24.2373 80.1213373247
35.1898 2.12144 19.3954 28.5846815875
34.3418 8.29673 20.9305 29.3156387215
25.1895 1.00367 17.2638 28.9570188935
29.3995 3.41021 17.5917 34.2788595211
26.5836 8.30661 21.1818 28.3903593996
30.9486 10.2822 18.1438 27.6685327841
33.7861 10.2067 18.592 27.7202635584
35.3128 4.43936 18.2446 28.9542795919
25.7521 5.61517 18.3324 27.8532800745
27.7083 7.80244 18.2938 27.4442272848
30.9672 9.07047 24.4576 94.8105032114
33.0494 11.974 21.3438 27.798565385
36.7048 10.2829 23.9116 61.7875203293
30.6402 4.36072 19.8955 29.5719232874
30.2414 1.87386 24.4439 76.093151774
27.8551 2.08614 20.9184 28.1059152269
33.4183 4.01728 21.6976 28.597726009
33.4654 1.10313 21.4373 28.5838509869
34.6181 3.08612 24.2799 81.4819716066
29.4199 9.33786 20.2868 29.3353269488
26.8664 4.65066 24.3054 82.5333474464
30.6312 1.84343 21.5328 30.4991890205
28.9673 6.3382 21.2673 28.4249533499
31.5205 4.21712 24.2221 81.9391415304
29.6765 6.47161 23.9078 48.9304196346
35.85 10.807 21.4751 26.4631388308
27.5772 1.66283 23.9035 56.8170660468
27.1924 8.02506 24.1216 70.3922968615
26.7513 4.89344 21.4317 32.267640872
27.4942 10.6826 23.9563 51.2833081653
33.4908 0.483027 17.8263 32.7552666127
34.2805 0.499367 23.9174 36.2278805065
31.8268 9.10719 21.8851 31.078430526
35.8558 5.42984 21.0399 25.3662164462
34.3741 8.25009 23.945 77.0244929111
26.7135 3.19858 18.4001 30.9789764189
29.9217 6.2854 17.1759 26.8731603721
36.7898 11.5601 16.9707 34.6092976962
30.1433 11.9241 24.6209 97.9266181969
25.5827 0.286658 21.1366 30.4584022016
24.451 7.47066 23.7389 41.1107050682
35.631 5.97256 23.7013 46.1347413637
32.2645 7.81571 17.0213 27.6333364065
36.3956 8.29134 38.3991 28.6767509212
29.0319 4.26738 36.4237 38.6117250839
34.7263 11.4403 38.209 31.8556768801
30.7171 1.55845 35.7346 87.6287523955
30.5233 6.35592 35.7855 78.588448274
35.4462 1.70153 35.852 68.3073755657
35.9048 5.81597 38.266 25.2025671275
25.6474 8.30874 35.6884 74.2102634456
26.5643 7.92303 38.5141 27.9009308416
33.387 5.94838 36.0393 56.9179419194
32.7068 4.89058 38.5022 29.7193764564
29.3805 8.11682 38.2589 28.1003465114
34.1661 6.09575 40.5692 25.5195954775
25.3841 11.0562 36.0427 60.8420486058
34.6318 9.04967 40.398 32.6182748712
30.2739 10.5759 38.6392 28.823636192
29.0032 8.62951 35.3485 111.0303223868
26.7438 0.153737 42.5452 29.862250975
35.6635 5.77544 42.8717 27.1724783535
25.3583 2.56886 42.4416 30.606612928
34.6611 8.16428 35.5739 86.3612895171
29.3712 0.913311 42.921 30.5920496457
26.4511 5.38709 36.1348 58.346076126
27.5215 1.20683 37.8745 26.4782654161
32.5139 1.54973 41.4155 29.7643105892
36.0966 4.87441 35.6546 83.2186047188
31.518 7.13261 42.1909 27.3429107162
34.9143 3.17579 40.8107 26.9000159799
30.8526 10.9302 35.8752 58.4403139664
31.5787 9.98589 41.7854 27.3755495065
28.8018 3.30564 39.1978 25.9991268609
29.8603 3.31085 41.6718 27.9776938825
33.6161 10.8281 35.6504 74.1335067243
25.4668 10.586 38.8611 28.024088012
31.3952 2.31779 38.3582 27.8492614564
27.9448 7.49169 41.0985 28.2918939845
36.3977 10.2698 42.253 30.8736948801
26.1622 2.46057 35.5657 104.2225195928
29.0096 10.2622 41.4155 27.6904024708
35.0613 1.31735 38.6546 32.0070336502
25.8291 9.01807 42.7663 29.229038534
26.2835 4.93627 39.5232 28.502257328
32.4868 4.37018 42.8288 28.6225679701
27.4249 4.51957 42.4265 28.1332330177
30.3018 6.0531 39.6241 28.608339627
32.5844 11.6743 39.722 29.0039601151
24.7933 6.27029 42.3343 28.1271741794
36.7499 2.58808 43.1758 26.4340019069
26.9955 7.54836 46.5325 31.7279808192
27.3285 10.4553 55.9412 30.1652945944
28.0187 9.51993 50.7464 28.925380334
29.9933 11.8802 55.644 29.3011915809
36.3472 7.52395 47.9344 28.3684663595
32.6468 0.336848 44.2246 28.7283465447
25.758 5.89867 56.3009 28.0582592222
36.8919 3.4493 47.4309 25.1941641238
34.9836 3.81595 45.0151 28.195835406
30.5687 0.580503 46.8922 28.6927939813
32.5555 10.0661 52.5739 30.6867000651
32.6298 1.70627 55.2429 31.3547948317
35.9499 4.56783 54.4836 29.7172436783
36.2629 10.0768 47.0598 33.7649393488
29.886 7.60356 44.576 33.0381241992
25.0189 9.5965 52.7406 28.7547437697
31.9219 6.7398 46.8456 31.3196493268
33.7464 7.41231 44.127 27.9750067864
25.4594 11.0085 46.235 30.3058186582
36.8968 2.36157 52.7709 27.8592018838
29.9729 0.32668 54.3282 32.3457999913
28.2824 1.57829 45.7758 31.8688697406
26.0508 3.62217 45.8638 26.7845071199
33.1352 3.13993 52.8186 28.8863757253
28.9027 2.26656 50.8605 29.3386169049
24.6419 1.75712 50.0005 30.3503274824
27.0523 7.37444 49.2049 29.3889117001
33.1029 2.10356 48.3254 28.5470269458
26.5796 1.21567 52.262 29.625010758
28.1546 10.0515 44.6335 28.7555233255
27.8831 5.43324 45.2288 26.3171077053
27.5766 7.27888 52.9845 31.3329740719
32.055 3.10885 45.4549 29.0284755589
34.5823 6.31251 46.5896 26.7026190732
28.6922 4.73687 49.2347 32.1503296384
36.6112 12.0612 52.3746 29.9396872715
31.2834 5.0523 53.9569 27.9232331476
27.3031 11.1923 53.0569 32.8087532025
35.4156 0.952553 47.7347 28.3892060723
30.069 4.78886 46.6218 29.9808786024
30.6161 8.62147 50.8554 32.4950580007
24.5202 5.86092 49.8072 28.9182367431
27.9605 7.71774 55.9536 30.3491646218
34.6501 9.92324 44.5564 32.8036810023
33.31 7.96487 54.5468 31.2975352211
29.067 3.332 53.4585 33.0845420382
36.7235 10.82 54.9348 33.8067059894
25.2725 5.94835 52.6987 33.1089363305
31.702 9.15706 48.0172 33.628710443
29.5525 10.5503 47.2113 31.7592089703
35.1834 -0.126867 52.6907 30.8191775633
31.8434 2.05304 50.5948 31.2028526029
34.4313 4.42846 48.7021 31.8430417618
35.3736 4.88125 51.4851 28.4056618856
25.9329 3.76313 48.6288 32.4690423691
29.6762 6.13574 51.4026 30.5056491016
33.0874 6.85017 51.8034 33.4174016771
26.3612 3.55071 54.4009 29.2132260734
36.0741 8.23624 55.8726 33.7451661067
33.9661 10.7025 48.5877 33.0564553083
35.7329 8.12686 50.479 31.0315366311
34.628 10.5212 51.2944 28.3608777472
30.7539 6.87778 55.9048 31.2674659531
28.2412 12.0732 49.1344 31.4993017849
32.6565 11.6047 43.5953 32.3081678332
36.1136 2.47526 56.1868 27.1859237797
33.3484 4.75014 56.1527 30.5294717917
31.9884 9.9351 56.219 31.4917707941
30.6754 15.0531 6.04245 30.8349585052
36.1542 19.0712 8.20606 33.7742846361
29.183 15.5183 8.11552 30.4316834372
33.869 12.5131 12.0433 30.7400137684
32.4181 17.1608 5.32759 32.9444276326
36.14 17.0183 11.0283 29.500866286
32.1176 21.8158 3.89566 27.5555220066
26.6198 15.2747 13.1392 28.0110618395
34.8751 22.4189 14.7232 30.9053281165
25.7693 13.0971 15.102 28.5039236053
25.5905 16.7918 6.15758 30.560677068
29.6771 18.0492 8.68972 29.9460140689
32.3787 18.0578 8.2167 28.1813704631
28.0548 19.6844 6.97887 28.6630999685
33.2512 12.5677 4.05725 33.2183623237
25.3277 19.6869 7.17856 33.8574172275
26.6946 23.0204 5.67313 28.2085145671
28.7273 22.1535 7.48607 31.6882093422
29.0812 14.0557 4.29749 26.8142821623
31.8445 23.0352 11.8931 31.3626564428
31.29 20.9839 6.49024 32.3749709359
36.3061 22.4499 12.4652 28.1505753532
31.1106 23.4083 16.593 31.3027978055
35.5806 22.4935 6.39115 30.7293858795
27.3876 22.9714 14.258 30.7857695992
25.2407 21.3279 13.5356 28.9489741083
33.4918 13.1452 15.3745 30.5447712198
30.5391 14.4397 10.3057 30.8370063943
30.6786 13.1171 15.1266 31.5909759732
26.3426 13.5176 5.26983 27.5225960815
35.2717 14.5845 8.83264 29.4494249842
29.5081 14.5945 12.8802 32.3634885465
24.5441 18.9744 15.8931 26.6499857545
26.4304 18.9419 12.2128 30.7161343367
29.105 19.3178 10.9835 31.3372241378
32.9952 15.9106 9.9625 29.5050320491
28.5405 17.8571 14.1524 30.5926742497
34.5034 15.6741 4.27879 28.7328209053
36.1739 12.6581 4.19122 31.0118249694
25.6787 16.6305 10.41 30.7806261448
29.5706 21.9373 10.1677 35.3313799016
33.6212 18.9463 10.7904 28.9398553927
36.1558 14.2836 14.1806 31.1159366081
34.0608 21.6661 10.8243 31.9721292987
27.6308 23.4299 11.5522 31.3785772316
35.3384 18.0827 13.9107 28.1416945507
36.659 16.5701 15.8271 25.6903576421
25.685 13.0458 11.0615 31.4038094499
26.3788 15.1234 8.13063 29.9670533554
30.9027 24.2225 6.1509 35.6627012778
25.5522 12.2239 7.94625 32.7888397854
33.4888 19.6113 15.304 30.7070167872
29.3258 21.3517 15.7834 25.4839740755
31.0375 21.1038 13.9379 30.0738704661
33.8728 20.7989 7.96974 32.0285198655
31.3449 16.3194 14.153 27.5664437387
31.2578 18.8127 12.5257 28.6600496259
33.8754 15.6852 12.9435 27.8383987287
33.5843 12.3998 8.07873 32.9620046742
25.4978 23.9239 9.67848 35.3249993747
27.3886 15.6214 16.1167 28.9892449263
35.5935 16.2538 6.8683 32.2071058948
28.1489 19.238 4.25861 33.3610981538
27.2862 19.3336 16.2804 28.5134062415
34.8046 22.0873 3.81343 30.9180349165
27.5273 16.5066 4.23719 28.4581337983
25.295 24.3661 17.5638 28.9578201728
34.5543 19.2269 18.1004 26.9508402095
26.2143 17.2204 18.1166 29.0544547548
33.9773 16.522 20.223 26.852888682
35.7182 12.7499 24.4611 89.2003120779
31.4803 15.7428 22.1203 28.2791759449
35.0582 14.2911 21.5677 27.4216232136
31.4282 17.9663 20.275 28.2209569579
27.5438 24.0536 20.8905 26.4045054269
31.7559 20.7103 21.0414 26.0060009296
29.7295 13.7855 21.1303 26.4934006494
29.962 14.8343 17.3938 29.5537969528
27.5374 23.1988 18.2184 30.8220232108
27.6372 24.2804 23.7149 49.406787382
27.9429 20.3795 18.8334 29.0896109112
34.5019 19.0949 21.2678 26.8609596482
32.7789 21.6161 18.5577 29.0041011752
34.364 15.9541 17.2797 27.3808357287
33.934 23.1852 20.9874 31.1554903855
29.1617 21.5417 21.5006 30.6479699802
28.8869 14.4318 23.8991 38.9404299768
31.4274 12.9004 19.0503 29.0024714286
30.6337 19.6308 17.97 29.1764586184
32.9535 15.445 24.6195 91.3595175287
32.9116 12.6527 24.0667 47.5398506459
28.4541 19.2033 24.1932 57.9458472095
28.4338 18.4147 21.4348 30.1986505535
30.1663 16.9376 24.5924 99.1733462413
32.3643 21.0269 24.0221 68.2102619944
33.8082 18.5399 23.6881 36.8707736416
36.4429 18.9243 24.7208 119.84726909
29.6379 21.8061 24.4797 100.3661069775
34.1978 23.2931 23.714 42.6005962324
36.2375 21.6867 24.1798 56.2238493719
26.0836 12.6789 19.4313 28.5231704042
31.1861 24.247 21.4931 30.5583801373
26.2069 14.5631 24.24 76.7796113796
35.6359 15.983 23.8521 35.4200962738
34.3585 13.1548 18.1728 27.7060594111
35.6035 22.1068 17.5985 31.2595064233
28.3192 15.8152 19.9777 29.0793795558
25.7321 19.1299 24.1664 59.8810936016
27.4665 12.68 17.1845 29.3646432913
25.9993 14.8255 21.3333 27.8714030491
25.6008 18.9859 20.6763 29.034927761
24.9351 24.3431 21.5113 29.9686473791
36.6768 24.5763 19.0681 33.4071630647
31.7984 17.2502 16.815 29.2558570658
30.7224 17.4939 41.9027 27.554840295
27.0804 13.2869 36.1184 73.1792851887
31.4491 20.6099 38.7136 27.6570958891
26.81 16.6489 36.6359 34.3002208676
29.7723 13.5619 35.8908 66.9953966269
27.3938 21.6053 35.7308 75.6808650888
33.82 21.9616 39.5746 27.5589104174
34.233 18.239 35.524 94.9293673301
29.3467 16.6856 35.4552 110.9419984289
29.5132 19.3811 36.0822 44.6508126096
28.7433 21.37 39.9232 27.062927658
34.7768 17.3087 38.0189 27.6260151188
32.3128 20.161 35.7369 76.5592102265
35.662 14.354 38.6354 25.8038985854
26.0534 17.8356 41.1954 28.9818837676
36.7294 19.8735 36.1312 47.8318002091
35.5833 22.5399 35.9134 68.0443758647
25.1932 23.6791 35.7156 64.9319171509
27.9169 24.4177 38.9175 28.3958265697
33.3991 14.0664 42.5787 30.5936745455
30.2531 22.4394 35.8676 69.5103068682
33.1852 22.9761 36.5218 31.5523886515
36.5066 21.6548 41.7515 27.5004767128
33.1222 15.5714 35.8823 59.020292584
29.6472 14.8771 41.1252 29.6892548921
29.5964 17.9627 38.7284 25.8624059637
27.5978 16.0275 39.4955 28.3594312046
25.6101 18.8664 35.8677 80.1194871432
34.7622 13.3804 35.497 95.7483651957
31.0752 15.5142 38.0921 27.6427922884
26.4194 20.625 38.4051 29.7068718043
30.8301 24.0282 38.7691 27.3065809169
28.4814 18.8319 41.2987 27.1570616701
32.5178 17.9418 39.7508 28.2451091286
25.1329 22.2475 42.9804 35.8290106194
33.0413 14.3006 39.8835 27.7254991815
34.1252 19.5722 41.4578 27.0604693883
36.247 19.9552 39.0297 27.9329503354
31.1871 22.6361 41.505 28.8607921567
36.4148 18.2058 42.2509 29.895516384
24.8992 14.7276 40.9492 30.8327695321
36.4803 23.2261 38.7875 27.4274358559
36.0496 15.4384 41.4928 30.6569733247
28.9362 13.1503 38.7728 27.0847684704
25.2261 23.3929 38.4962 27.8734909799
27.7996 22.8807 42.1271 30.9875546665
26.9247 12.5239 40.4791 29.8731074674
36.5615 20.117 55.7146 30.3573214522
28.9149 12.6682 43.3238 27.714912062
28.0277 20.0777 44.0955 30.6863661713
33.2732 16.4598 46.7728 28.4288519347
31.2125 12.3763 53.1971 30.9846620062
32.4225 20.9093 43.3754 29.2690984679
26.2908 15.8984 54.6719 33.4087727795
34.9605 15.5083 44.7112 31.8439423556
29.2279 16.3401 45.7789 30.0860520487
26.0865 13.1767 48.1586 27.9286002029
31.0775 14.7008 47.2921 32.2496079168
25.1042 16.8547 50.6094 30.8665802639
31.8362 19.0354 46.7818 25.9912631779
30.6302 12.5858 45.4015 31.0986250089
34.4822 18.4091 44.7541 29.7489846197
35.3629 17.7848 55.4885 32.7635739601
27.0203 13.9873 52.7601 30.7617034161
26.2954 18.6266 45.494 28.3677955223
30.5236 18.6185 44.3109 26.4634798852
35.2551 22.3981 44.0707 28.2292776941
26.342 15.3503 46.6583 30.0387679785
30.3032 20.9836 52.3144 32.5549255943
32.0174 21.622 46.5356 25.7957005584
35.3822 20.9249 46.3081 30.8204446907
33.1719 23.8448 48.2278 27.9984426186
26.5402 17.9232 48.2859 29.296100548
25.412 14.181 50.6281 30.1151856139
34.3092 13.4168 49.0489 36.8758733694
30.364 23.2669 55.5084 27.6719114639
32.7905 14.196 51.5323 28.2568562248
30.2553 17.2005 50.3987 33.7138482115
29.2251 18.2421 47.8402 27.4179877101
29.0816 21.1647 47.8849 32.9662511498
33.6685 20.3461 49.2507 28.4269579307
34.1893 17.6422 49.0516 30.937347648
34.4103 20.9799 51.983 32.8884136676
32.5328 20.7404 54.0126 29.6062785031
26.572 20.6155 49.0426 32.7252786108
30.1807 16.3202 55.2179 28.9457839576
32.9771 23.7809 51.6326 27.5907939716
28.2111 22.7476 53.7402 29.2855420613
29.193 18.2137 52.6415 32.9071302448
27.0256 20.8097 51.7935 31.1007857075
31.285 21.993 49.8448 31.143128114
35.6197 23.9699 51.2452 26.3994266434
35.6123 22.5204 48.9385 25.5405484236
30.2265 13.841 49.9439 34.8240629955
29.7559 22.203 45.21 28.0044987231
29.5329 14.9002 52.7877 28.4160548424
26.164 18.2172 52.9252 30.9867618112
32.7869 14.7638 55.1222 27.9902941099
32.6519 16.977 51.6173 32.7028924706
33.0097 17.9408 54.434 28.5109757734
25.1163 22.6461 51.5496 28.0747838268
26.5325 14.1289 43.8864 31.3769471474
35.0584 14.5895 53.3591 33.7270848016
25.4355 16.8939 43.6092 30.5360503047
34.2426 24.6162 55.5559 28.1851933937
31.1136 15.1387 43.785 27.9365163963
26.9923 21.6567 56.2796 31.4660013917
36.9213 17.2489 49.4544 29.9293243379
28.6928 24.5507 46.1995 31.0747292335
26.2504 24.4735 47.3472 32.3490901017
30.8517 19.0114 56.6111 30.8097097332
25.0639 34.0679 11.1807 30.6856532458
31.7188 35.2761 3.90757 28.6993705617
25.1655 36.8712 5.29069 28.7128793615
24.7565 26.789 5.98242 28.9382548019
32.4514 36.6128 14.0939 27.5583082657
36.2441 29.6822 5.28099 29.5640469393
28.9105 27.2001 8.70681 34.2048327965
26.6388 35.7086 7.72738 29.5620912943
26.4522 28.3451 7.84085 29.1884658085
30.1403 29.5945 9.89576 29.3586852926
33.1046 28.8702 8.24654 27.5150948777
28.5067 31.4498 3.94239 30.0209944315
34.5262 26.1412 4.72015 31.4151183583
30.4867 34.9457 8.93524 29.7920594062
27.1686 36.366 10.5906 28.9440869855
30.9619 32.1204 14.0544 28.6035727437
30.7562 32.9796 5.01138 30.2811837116
29.3026 32.4311 7.7908 28.7958827202
34.8181 32.5702 8.55114 32.6409878529
36.0316 35.1598 6.79606 34.2222423171
28.5826 26.0247 11.3679 30.5797020574
29.1368 28.6044 5.7283 32.80953822
26.6324 30.3624 5.9376 26.4954511373
31.8333 26.7126 8.2984 28.3885075497
25.2257 31.9227 9.09037 26.6242300044
32.2747 25.7817 10.8775 28.8155868148
25.9204 25.17 15.0544 28.8206564647
34.6444 24.7659 10.128 30.1069100028
30.6075 28.2378 12.5533 26.5286143009
27.3965 30.615 10.357 25.831819504
26.2552 31.876 12.6172 29.4476645742
32.2502 29.6919 14.5395 29.5042485282
28.6064 33.3008 13.4007 26.0764790039
36.3142 30.4229 8.08065 27.6504660962
35.6575 29.4081 12.0882 26.5741632561
26.7844 25.5077 4.34329 33.839334587
26.3621 28.0116 11.4903 26.7587226109
30.4785 25.6848 13.8658 30.4266433005
33.6898 29.0152 5.36047 28.9606464003
29.5733 32.696 10.6297 27.7330818223
34.7743 30.5509 15.3079 31.9342594151
31.0605 30.2589 6.96605 29.1362496893
32.1513 34.0611 15.1901 26.9373405174
32.1671 32.7511 11.7079 30.4439208772
26.7029 32.5991 7.06269 25.5532329344
35.0707 33.4232 14.8944 28.6145079407
34.3322 34.4637 12.3887 29.1775459529
25.4532 34.0326 4.86054 30.8069029365
33.7819 30.4298 10.3644 30.1216146895
29.6357 25.2182 4.11301 30.878291566
36.7211 25.8398 8.57475 33.3930917205
31.9758 36.0739 11.2485 29.2485125939
29.3193 35.7515 12.3571 28.9253167851
27.5876 34.6173 15.6647 29.5229213766
28.1713 28.8746 13.3949 29.0291085274
33.6455 27.4633 12.8603 29.6438509927
34.3725 35.4595 4.19432 32.1830211051
35.5952 25.3238 12.784 31.9877016637
36.3404 33.9088 10.4446 31.1902543564
32.8299 34.4052 7.06474 35.8321616672
24.9304 33.3372 15.8961 30.1744061426
28.2827 26.4866 15.4809 28.5687941427
32.7204 31.2737 3.94435 30.5593151675
27.6963 30.7352 15.752 29.0936054159
31.2688 27.8202 3.93296 31.5275187337
36.6231 28.5416 9.65971 29.9232189771
24.8849 30.0635 14.8842 30.9918123541
33.8546 24.9716 7.1131 30.058441731
33.3683 25.014 14.8911 32.4923393793
29.645 25.5793 17.8742 28.6145473322
28.8043 32.8811 17.9645 28.283682593
31.2559 26.6879 20.1698 27.0912739569
33.2259 30.1158 20.8755 29.9476908713
34.3044 25.7765 19.9057 30.8291504686
26.6642 28.3049 19.6357 30.3071805979
28.3654 28.5918 17.2545 28.1056264854
28.4412 26.6221 20.7977 26.0291631919
31.1853 36.4279 21.654 27.6228326074
26.4109 33.1065 19.5993 28.9721682014
32.9616 30.8291 18.2796 30.623000879
32.7715 32.5563 21.7377 30.1172687379
25.2951 36.7017 24.419 82.6254690136
36.3616 36.4916 23.0785 34.6428682665
36.3707 33.6711 23.7692 54.3659888255
30.0167 30.521 18.7984 26.7439483877
34.8634 35.217 16.925 29.3722338262
35.5293 33.1244 21.0086 32.4972155889
31.6134 28.7148 17.1726 30.2949469897
26.7477 29.3268 23.698 45.4110955931
28.3754 27.1644 23.524 47.1157490918
30.9987 24.7196 24.0909 70.0438858215
34.5541 27.7742 21.827 28.5412534584
35.3047 29.1958 24.4571 95.2657961833
33.9963 26.2863 24.2387 75.968905797
25.8059 30.3883 21.339 28.3470795958
26.9849 32.7171 24.2722 81.918324877
30.3717 29.2455 21.1467 28.2285714091
29.5572 30.3702 24.2515 73.224677174
31.0376 27.8142 24.2587 85.6905882607
34.6609 31.8579 24.5839 92.7044385186
28.4056 31.9334 21.6807 28.8537336143
32.6114 33.7853 17.9855 27.9681051827
27.9814 35.1601 21.0083 28.5839043253
30.8822 35.0755 24.3314 86.1696061922
27.7952 35.3609 23.7306 41.9864400866
31.9383 32.3167 24.5356 85.9736339257
32.7716 25.9979 17.4468 33.5562873174
30.5787 33.628 20.3172 26.6538610701
25.1389 30.6219 17.9424 31.7671654368
36.7423 35.0948 19.0441 29.6113373861
36.3575 29.4097 17.406 38.8370744589
29.8482 35.6138 17.1656 30.7809246413
36.8691 29.239 21.292 27.8302464
32.7419 36.2757 19.298 27.8057982896
28.829 29.1079 39.0855 30.0538486537
27.1568 31.2163 35.9077 67.7528749347
30.2911 34.9547 42.3581 27.3456532546
33.5531 27.4436 41.6994 26.9198517753
30.8998 26.769 38.8372 28.36127953
33.1366 29.9103 38.7395 26.5677682229
34.8281 27.8103 35.7778 69.3219038755
35.2808 30.3363 40.5239 26.3822063226
33.516 27.3654 38.4237 26.0880722412
27.6726 29.7051 41.7301 30.5112719463
27.9347 32.4106 42.7277 28.7462681535
29.129 29.227 35.5905 102.0604236922
31.0594 31.3384 35.8019 57.6898048297
26.2864 32.5859 38.5608 31.3564955135
34.4945 33.1324 35.856 67.106252938
33.6052 30.2899 35.7818 75.6790436504
35.3542 35.5183 41.6441 30.9945750628
29.2445 35.3952 39.7415 26.5958105638
26.0087 34.2981 35.9071 76.4390377974
28.8791 35.7268 36.9135 33.4739674185
30.5785 34.1961 35.4402 110.9328094689
30.6201 31.5799 38.758 28.8813412964
32.8841 35.4974 35.7404 74.3707191599
33.661 32.9733 38.9916 29.2408167748
27.5815 26.2739 40.9971 28.800091049
34.1183 32.7564 41.8467 27.5169746996
30.296 26.5723 36.0039 59.8840477913
32.6906 36.4328 41.1721 28.7218205893
33.154 24.955 40.6922 27.1775650195
28.4467 32.8408 39.8817 27.1572027903
28.1955 24.6021 36.0445 65.1571156062
36.4505 26.3242 38.4094 28.6287893192
25.3704 28.4545 42.4997 29.2645730365
36.3562 28.472 42.1404 26.500496758
24.7832 25.7686 40.2872 26.5412547758
31.2151 29.1636 41.1278 28.4486119013
25.9615 28.1036 38.6384 32.8159457013
32.9103 25.6603 35.7537 85.9651511195
31.2964 32.0181 42.006 29.6097159536
31.9036 35.4646 38.6716 29.7453001755
36.5464 33.3314 38.535 31.8725843714
35.8651 24.6687 41.6143 27.1921496154
24.9746 28.958 36.2029 44.5685069145
35.4099 26.2041 48.4987 28.878883085
35.8007 26.2643 44.1076 29.9817337229
32.1171 24.8391 54.132 27.4292868054
25.885 25.3315 54.7591 29.0721488734
36.3387 31.5164 52.1964 27.0390220839
35.6543 32.0789 48.5771 27.8115270508
30.0391 29.9365 54.8963 30.7274907896
36.5512 26.7536 51.1996 28.3906122306
28.8548 25.4564 43.5522 27.985590142
35.485 33.4927 46.2711 29.9282652745
29.6892 31.7244 44.9245 30.042247998
29.4996 28.3285 43.7034 28.0156995149
32.7179 26.4507 50.47 32.0782776603
34.7524 33.0162 56.02 28.2711267401
25.6437 25.8331 43.7125 31.3152413482
28.5332 36.5051 50.8961 35.4086532314
35.6154 26.8593 53.7643 28.929734547
28.1674 35.3189 44.217 28.4249436469
24.8519 36.5215 55.4468 28.766263441
31.536 33.5865 46.2931 32.7531078228
35.2244 31.7035 44.1748 27.6779001453
26.1403 29.1323 46.6078 33.4101867336
36.1438 36.2402 49.9013 31.8522042062
29.48 27.61 52.0021 33.2379109837
25.8982 25.0262 50.2321 35.6224704595
32.6349 26.9756 47.173 27.4756965336
28.1122 29.8484 51.0856 33.756462194
29.7855 25.7259 50.0028 37.4225795309
25.3785 32.6235 43.8783 34.0830904349
33.4677 28.1199 52.6595 30.6055180194
24.9228 26.5756 46.347 33.8297291593
25.9369 34.2755 46.1415 33.0185749448
25.9727 29.2015 49.2664 33.928567343
31.2933 27.237 54.0144 27.5212352416
32.7833 31.2397 49.5831 37.003637995
29.7521 32.1964 50.3113 34.151532335
33.5832 30.7002 52.3361 30.6701970193
32.0025 35.8377 44.4622 33.570516296
33.5433 29.7009 47.1928 30.6134439291
28.5671 33.8006 47.194 31.2741254175
34.9242 35.7669 44.3826 34.6093316676
31.6704 34.2852 48.8763 31.3081458255
27.6362 33.7716 49.7866 31.935369749
30.5659 33.3835 52.983 33.0441020319
27.183 33.5727 55.6884 30.314830806
33.0873 34.8503 52.7972 29.3042220506
32.2025 27.9402 44.2261 27.3568692785
36.617 29.4296 44.5795 26.9507686053
35.8546 28.7739 47.1611 28.4387817866
29.8201 26.8041 47.3971 34.8128642043
33.5871 24.8561 45.45 28.3959589455
32.0978 31.5767 54.3155 27.2506202263
27.5715 30.5844 53.7209 31.1343927367
25.3945 32.7844 53.6868 35.6920822206
35.3015 33.7883 53.4147 24.698952713
25.7796 28.3936 53.6473 36.1165743103
33.9277 34.2611 50.3894 30.0381668641
32.6374 30.6362 44.6585 29.069709647
25.3475 32.8383 50.7584 28.9013911268
29.4161 35.1429 54.9123 31.4792460931
28.801 29.2431 46.1105 35.7918511484
27.5794 25.1004 52.6497 31.597762854
31.8045 24.9118 43.4504 29.9427321067
27.2778 38.4732 5.77575 30.8385492924
28.9669 37.053 7.6749 27.4542489232
30.9714 45.2098 9.28203 34.0473411804
28.3659 48.5287 8.79188 28.2060026003
27.3218 39.683 14.1426 27.6611097571
29.6274 37.62 14.4782 28.00001757
26.8252 48.5541 11.1447 28.4008015372
25.7246 40.8305 6.31532 29.3610954217
28.4829 39.2087 3.59934 31.3909016452
29.8353 41.4482 7.67231 35.5366561804
28.1241 43.7329 3.92645 38.7249914302
34.8355 44.8767 5.68614 34.0724660798
35.0009 42.1749 6.60638 30.1873944125
33.5758 48.5419 6.47097 28.8464459096
32.5897 41.0519 6.39708 32.5837231479
33.0942 38.7889 7.63539 31.3078827106
25.4708 46.2414 11.7301 29.1045439933
29.6822 46.6483 7.43601 31.1172478272
