29.8939 20.239 38.2152 29.6240104206
33.2253 23.7679 38.3863 29.4903606365
30.8121 17.5569 41.0482 27.8697300092
36.6984 23.6983 39.0685 26.4082943893
30.3417 13.4201 38.4591 26.9176650859
29.7384 13.4001 42.1204 28.1845817721
26.2528 12.8968 42.649 26.8422615954
36.8369 22.4217 42.5976 30.3289657624
31.7068 13.5223 46.1445 27.4445449861
26.1108 12.4503 48.7379 28.6679305284
36.1112 21.2677 55.0985 33.4571224997
26.4065 14.6463 45.8839 32.2558277451
36.4392 17.875 52.489 29.1067994417
35.5139 18.9758 50.1191 24.8033309192
36.1868 16.1763 48.7322 27.2965724503
36.0246 16.6275 54.8865 27.8422751042
34.2707 21.7744 44.1922 29.484968931
29.0046 20.5857 56.2627 28.12155068
26.2663 18.2082 45.8571 28.9454300266
27.2327 17.7918 49.1275 30.1066176576
34.894 16.3721 46.5552 25.0911730618
35.922 13.3314 46.8194 31.0927901441
32.2589 17.968 48.3344 26.0261419054
35.2527 19.1468 47.3321 27.8038414793
35.6943 22.985 52.5211 32.3008761601
30.7965 20.9445 52.0534 31.1797099198
35.5051 14.582 50.9019 28.5289488566
24.9614 21.8799 44.2065 28.4039606342
26.1549 22.449 48.435 27.1325022985
30.1817 15.6536 45.5192 31.1547704822
29.3054 20.8474 43.942 30.6078605282
28.6041 23.1461 47.2782 27.3104880349
26.1279 14.4136 52.4946 28.0025876427
30.2325 14.7436 49.5078 32.6515530047
32.1225 24.2395 54.2975 26.8574443391
26.0507 23.9015 50.9579 28.0423094676
32.7177 15.0359 48.3663 30.5227291537
25.5318 18.5258 52.5768 32.3697788485
29.0208 18.0093 46.7477 29.7390411025
32.8499 19.6783 45.9272 27.0777097014
36.6901 21.7036 49.8846 31.2060493408
32.598 16.9666 44.8264 27.0607131927
31.2695 22.276 56.2078 29.5105659668
27.0565 20.4736 50.3607 28.4804627879
27.5524 23.156 44.5336 28.7947815156
34.2925 22.2659 47.7964 27.8508127832
30.2236 20.4209 46.78 31.0320762188
29.0185 22.9361 51.508 26.4572934598
24.8942 20.4942 46.9143 29.666785288
27.8275 15.257 43.6453 26.5649413608
31.0519 12.5751 51.4917 31.4157518571
34.0425 15.1964 43.328 27.4544680128
26.9891 16.4691 53.6805 29.2000320263
26.6536 14.8098 49.8355 30.2051844062
31.748 14.2017 54.2083 29.760988187
27.5215 22.8477 54.8507 31.9471602216
33.7495 15.6168 52.8344 32.050004406
26.0168 21.5893 52.6237 26.6131987844
29.7307 16.4565 53.5144 32.6900837785
29.8651 19.2488 54.2763 33.1414358483
30.1231 17.149 50.8665 27.9712218776
32.873 17.7287 51.0347 32.3005406042
33.023 20.8238 49.7427 29.3195414255
32.1382 18.4772 56.0883 32.4257306756
32.7433 23.0563 52.0756 29.9577828147
29.9378 19.6832 49.7166 26.5016958675
32.8997 24.2014 49.4276 32.9821616741
34.181 12.8615 44.8533 27.0747871813
36.7354 21.0123 45.7153 30.2173960417
33.4692 24.0125 45.8307 32.7376379805
27.5654 18.6053 43.3175 26.7782992076
29.9513 24.4901 49.4111 28.8939527537
35.892 12.4374 53.8013 30.2379191571
29.8237 25.5126 4.44843 30.057150563
28.7714 27.2217 6.51029 29.5839970569
32.2906 26.5359 3.87213 28.8835930755
35.5612 34.8247 15.8049 26.0385398075
34.0008 36.4461 3.93412 26.9567928349
25.7496 26.4492 5.36477 33.7820897862
25.8531 30.6616 9.17945 32.3634206239
31.3549 28.5991 8.26713 30.1724616163
31.9227 29.2204 4.05911 32.5078737579
27.3065 29.4952 5.0802 29.5982826049
34.4274 28.3288 8.13922 29.6115602734
31.2445 34.0684 8.48774 28.4908733835
35.0662 24.6764 5.29143 29.029365689
36.6004 36.3028 7.68821 30.4247687799
29.843 34.5145 11.8382 27.975753218
33.1905 33.0609 6.06575 28.4798073868
29.3699 32.5103 6.65106 28.5141633728
25.6506 32.7419 14.9463 32.0327883408
32.7512 31.3013 8.32594 31.967902409
27.014 26.0746 8.36606 28.5531140697
34.0669 31.2322 4.05022 32.0999159513
27.9425 27.2535 10.991 29.9728071471
26.4241 29.3964 11.8746 29.6956696366
25.5305 31.7014 4.51262 30.4401702549
32.2527 26.9405 12.2351 26.9195591616
32.3198 33.2173 11.02 27.648186838
33.2122 26.2511 6.6176 27.8266111006
29.1074 36.2559 8.75182 30.0791220208
34.9334 29.715 12.2487 28.6398411059
27.105 35.0188 15.2366 30.2463586293
35.7806 25.3145 8.41709 29.0254241041
27.8893 32.8737 9.48937 29.7662486861
30.5069 28.6247 10.6985 28.295436059
29.1578 31.0438 11.4729 33.3057541738
32.3465 30.554 12.4008 27.5783752217
26.8315 33.6212 6.37974 29.9337616823
36.8528 28.1564 6.66904 29.276691514
35.6314 34.2844 6.3001 28.336765791
31.96 35.9953 6.05188 29.1376717348
24.8231 33.3981 12.3877 31.7813096941
25.6713 28.045 14.5664 30.2471575531
30.8792 25.2279 7.89138 28.438598297
29.9137 26.2842 15.0798 30.9255890122
31.4596 28.4412 14.7248 28.7573889622
36.3006 30.2985 5.45178 30.5709560673
29.8095 30.0273 5.94465 30.699314268
30.1383 25.1131 10.6683 30.1669940517
29.6158 30.7521 14.4989 30.80542977
26.9664 30.4453 15.1385 28.8239020327
34.7763 30.9792 16.7225 28.3665664865
34.5847 27.1607 10.8132 29.2179533643
33.0163 32.075 14.9805 31.6464169243
31.3885 35.7882 16.6882 29.684291097
33.7437 34.5489 13.8751 28.8804234544
27.0759 34.7942 11.2916 30.864322655
27.5847 26.2985 13.4799 30.8608331284
29.6569 34.6394 14.7375 29.9570786327
34.3723 26.9991 14.4083 28.7979172753
35.0524 31.4324 10.0247 29.1244046361
36.1523 29.2157 15.0024 30.3090319739
34.9327 34.015 11.3009 29.7585405198
30.3338 34.157 4.68291 28.5266176255
34.9047 36.2666 9.92316 29.9149799686
25.0509 28.7118 7.07275 28.6188621473
36.4794 24.6523 11.3128 28.2034574552
30.6089 32.5411 16.6988 31.4339479665
27.9249 35.2982 4.08753 28.2751274754
31.9862 36.5478 13.6175 29.939345332
27.0941 29.8007 20.7196 27.831135264
36.7966 26.9657 21.5284 27.1645373256
32.5051 25.5445 19.4496 27.9184999462
30.0898 25.941 21.2388 30.007825463
30.8573 34.0073 19.3021 33.2435170995
26.3221 36.0647 24.5311 105.9601663162
36.3859 28.145 23.9302 51.0202591532
32.6982 30.873 24.3944 92.1717761694
30.6345 28.6758 19.0465 29.0603811288
36.6289 28.2457 18.8922 27.3726271223
29.3303 31.6332 21.0844 33.1326622952
34.4434 25.6279 21.7734 31.3729430643
32.1028 31.4229 21.3893 31.276771122
34.2861 30.1343 19.4187 29.2288785955
36.048 33.1686 24.4982 92.3665526568
35.24 30.7015 23.7255 37.3343705518
29.7059 26.1497 17.8145 29.096028936
25.1479 26.8317 24.2469 76.0287614105
27.5961 27.2564 20.3996 28.9399277856
29.5638 26.5869 24.073 64.7801090417
32.5433 28.2769 21.1401 30.7127146325
34.0805 26.6862 24.5362 98.520668958
26.7843 36.352 17.5174 31.7826580511
25.4906 32.3603 21.3411 29.1324036635
29.059 30.6525 17.8168 33.1663047475
27.3183 28.4644 24.2941 77.8168720366
26.8659 35.0193 20.1742 35.3458281837
27.2905 31.4211 24.5503 115.2887019096
31.8821 28.0801 24.2537 67.2458810005
24.7576 26.793 21.2816 29.7527054553
26.7924 26.0447 18.2273 34.02434138
28.4084 35.2071 23.0304 30.5395771266
35.6918 33.1685 18.3177 29.3125698611
35.7198 33.9085 21.5347 26.1489711849
29.5548 32.8632 23.6708 43.4454725755
33.12 34.4386 21.3756 27.0172807894
32.192 34.1459 24.2155 79.5403239629
36.4412 31.1341 21.165 29.033491676
34.8286 26.2786 17.553 30.9163158503
34.1265 35.8862 18.3338 31.9977020638
29.5851 36.3748 20.1665 27.3889586085
26.0797 30.2793 17.9279 31.7894838184
35.5247 35.942 24.5467 86.1827066176
24.9964 27.708 17.253 34.0967468331
32.9716 28.337 17.2638 28.984976433
32.5502 27.2399 36.0469 49.6311585215
30.9404 24.685 43.1043 31.3244109941
35.7723 26.3776 38.5847 30.1307953347
29.6985 27.5812 35.4634 93.3482051595
27.5023 32.6823 38.4977 26.1362752621
29.0016 30.4903 35.6054 75.3340653278
34.222 35.0634 38.6282 26.7349552639
28.7618 24.6948 36.0154 47.0636628356
31.92 30.5422 38.5059 25.1406121127
33.5965 27.4213 41.486 27.0317585081
26.3804 27.9689 35.7237 60.585123455
27.0596 33.859 36.1202 48.4807813056
35.64 26.4148 35.6497 85.2378106392
30.5408 32.5938 36.0917 42.6795835909
31.0129 30.8673 41.5951 29.3659351318
29.3709 36.056 38.5585 30.4279774297
28.8605 26.132 42.1129 29.189677606
33.0282 33.4549 35.5955 88.584607352
26.8827 29.9746 38.4065 27.8274143842
34.8539 32.2763 37.936 27.7711396129
29.2501 35.6294 35.7624 86.9397699433
25.6442 25.2678 38.5197 28.7744400389
32.9434 30.113 36.0654 55.080359387
34.1683 35.7524 35.8816 66.748442849
32.8131 26.471 38.9931 29.7190975058
25.2 32.9458 40.0809 28.495711142
29.1995 33.0922 42.3531 28.935481972
34.3041 30.7092 42.4009 27.556894516
27.8044 35.1557 40.6647 28.7778370602
26.286 31.212 35.5166 80.6887092061
33.5838 24.8353 42.7214 27.2519853336
35.7271 34.4665 41.0203 30.9843452884
30.3505 32.7706 38.9599 27.4089025987
28.2569 27.3011 37.8765 25.7823183234
26.5005 30.3007 41.3236 27.0967744207
30.4313 28.2904 39.1199 29.2336960604
33.224 33.1527 41.4447 27.0748378169
26.1846 33.4172 42.9036 26.2034221368
34.3316 29.6781 39.7578 28.9985401493
31.7643 35.0826 39.8961 28.651475142
36.1788 28.0552 42.5769 30.272543928
36.8069 28.6798 36.2938 32.2247614467
28.8692 28.8414 41.4924 27.2669768347
35.7749 31.0432 35.4779 110.2443763951
28.5342 24.8679 39.5401 28.8152247118
24.5893 28.2129 42.078 28.8783776891
24.8186 34.8032 37.106 27.8628939323
27.2071 30.5276 48.6703 29.4576365654
25.0859 31.4627 44.3109 27.0015508961
29.6946 28.8597 44.2158 29.5905566374
25.8044 34.3439 47.6371 29.1924442537
33.3764 34.1274 44.0609 31.5636159456
32.5803 28.9332 43.6346 29.5929390457
32.8209 28.1449 46.4433 30.649269399
28.2127 28.5739 46.7984 29.2125724942
29.6415 32.4906 46.0044 33.2463918819
28.0643 30.9102 44.1724 25.6354285731
30.5537 24.8352 46.09 31.6961130339
32.0212 31.0797 49.7133 36.0751383043
35.9587 29.1809 50.4567 27.3200010161
32.0372 31.0167 46.9141 33.088739925
25.9689 28.6033 44.5392 26.2373591566
29.9371 36.5396 49.074 39.8910370354
34.6106 25.3612 55.3143 30.7772017845
25.7494 35.4202 45.1882 28.8266459722
28.5718 34.5223 50.2229 30.8359736327
29.9866 32.1953 51.2887 36.0680307829
35.5961 35.4116 48.1752 36.6597324839
35.433 32.5589 48.0699 30.1020612192
34.2222 32.0658 45.9876 29.0826127782
30.4586 27.0275 47.8418 26.6788186117
26.5486 25.9255 43.7855 30.4433987509
29.1169 27.645 51.2615 29.2444357114
28.1452 25.595 54.9374 29.1502981887
26.5276 34.9314 51.8038 29.3111532431
35.7409 27.8607 46.2717 30.4565695111
31.8457 27.3157 52.6515 34.3696480473
31.0559 36.5528 46.2818 35.1258510537
28.2172 30.1825 51.0105 28.1001465435
27.9917 32.7866 48.008 29.2928048203
31.8139 28.3743 49.9042 28.7897057242
30.5807 29.5281 54.5953 36.6870867478
34.6417 31.5109 50.5173 38.7582677034
36.7878 25.435 52.5081 28.5365528788
31.9806 33.3873 55.5024 35.193504186
25.3028 27.1491 55.5423 30.6650767036
36.285 32.1137 55.0926 33.8123971773
33.5465 35.6146 54.2698 31.870027893
28.4371 35.4363 54.1115 29.7443566079
29.7905 24.9343 53.0854 26.6779169347
35.7109 27.8418 54.9442 34.8768787765
36.4425 32.697 52.3692 30.8625300314
36.2786 35.4013 53.0951 28.4804681581
26.7014 32.8229 55.0563 28.9004330653
27.0411 30.7172 53.3671 26.561127533
27.1558 26.4848 50.0022 29.5939558862
33.8892 36.5886 46.3526 32.2944503352
35.8253 30.3176 44.8071 28.5544651955
34.7975 27.2138 51.9807 30.0141745468
27.2813 26.0095 47.1299 27.3483159339
27.7202 28.7039 54.9948 30.7652406967
36.5102 34.7591 56.3349 28.6766232441
30.6057 34.5276 44.3143 31.8668117017
29.888 32.2674 54.0456 31.7489003815
34.3139 26.9749 49.0373 30.5759301441
35.2128 36.2687 43.5572 29.724623524
35.8202 25.6841 44.0678 30.1522821378
25.7945 36.6899 49.2453 30.1756317071
24.9899 24.7753 53.8038 33.5138147379
30.9818 36.9885 11.0035 30.3782950185
26.0227 38.5989 6.98637 31.1192969666
32.8027 46.9222 6.49602 27.8312184612
29.866 37.8018 6.50807 30.5173118334
33.0494 46.4599 14.0445 27.3450861807
31.4225 44.7623 3.96606 32.7286486178
36.8493 43.4776 13.1513 28.8409338933
27.3922 41.0586 4.00852 29.5241705545
25.2154 41.2583 12.3378 35.0196449019
30.7848 41.1853 10.2656 32.9704459206
31.4215 42.1583 5.13873 33.568648391
34.1881 41.2061 4.83173 30.8546530513
28.7077 48.3644 14.5732 26.8948004957
26.6805 45.4401 4.45554 31.4088797085
27.8326 45.2586 8.26113 31.0922735241
32.0495 43.1773 8.07927 31.1041013362
35.6045 45.9218 12.7035 28.4275138884
25.7773 37.0564 4.76532 27.027502604
34.4344 45.2884 4.97415 29.6126578137
36.0663 49.0952 4.60104 32.4574833307
29.2892 46.3443 5.16603 30.6162179751
33.9285 46.0016 16.7308 29.4377268333
26.723 37.2094 9.55374 29.5566799573
33.2515 40.9709 11.5969 32.5077207259
29.3754 39.5025 11.9354 32.6600596056
29.2684 41.7438 14.0363 28.8709186201
35.8331 37.8521 5.80609 29.0418445127
34.3758 39.6694 7.65968 31.5337002313
32.7452 37.3686 8.70417 30.9519935075
27.7963 40.5942 6.66502 30.6626148193
26.7318 38.7847 11.621 35.0331411653
30.4668 40.4282 7.46488 32.1956817738
35.7598 40.4613 10.1571 29.5897056941
33.7201 47.55 8.95828 29.3975806094
32.7094 44.8428 11.5616 27.0938283619
34.9246 42.829 6.87752 28.2766767947
30.3913 45.779 13.9859 26.5206691241
26.3768 42.8462 7.54572 34.3374690056
26.6172 45.1865 13.65 26.9504195846
27.7918 45.951 11.0841 28.5024234252
26.4054 37.5267 14.1459 29.4665852309
30.5939 45.5126 7.70978 28.4469998238
34.441 44.8221 9.08326 30.1896383279
36.1726 47.5858 10.5412 33.1057676689
30.7569 46.6852 10.4746 28.1292899656
36.8408 36.9891 15.6728 31.4149357644
28.4621 39.0026 15.0342 29.4686120401
30.1778 44.23 16.1789 28.9392359944
35.5744 39.0642 14.2178 31.264804413
24.7937 42.7045 9.91214 32.1852616801
24.7027 43.7749 5.57809 29.8975383162
32.8976 39.1634 13.9337 31.3515780903
27.6989 46.1679 16.042 30.3630716592
35.9599 38.069 11.6674 31.6943388414
26.6476 42.7313 14.468 27.5342752397
29.8712 43.7262 11.8693 33.9018056217
31.9485 41.5869 15.4768 29.0716654558
33.9083 43.0469 13.4259 31.9024284181
27.6098 48.0993 7.71821 31.2404640172
30.501 48.9701 12.3222 28.2214279999
27.0273 48.6553 10.7732 25.6702140624
28.7175 38.6319 3.81918 28.4829802883
24.9275 43.6386 16.7615 30.0183491194
24.8319 45.924 9.52733 28.4485418329
36.9322 41.2445 15.0745 30.0493333428
25.0221 38.2799 16.838 28.7353114371
36.4628 46.3275 16.6735 26.5204687571
26.945 40.9134 16.5634 29.4493101512
29.3172 48.8214 3.70352 29.1569199249
25.6019 41.883 24.0376 70.8229963218
36.6686 39.8641 21.5713 29.4563659994
35.4969 48.9699 21.7447 28.597254562
27.8113 47.6169 18.5884 27.2817672678
32.8755 38.7499 19.3191 30.1177562241
26.1205 44.6855 18.9372 32.4604150587
25.524 40.084 19.0206 25.2648323789
27.2088 46.5068 21.6352 27.909924484
30.0694 43.3971 19.0392 29.4447132147
30.9391 42.5606 24.2904 83.693032175
24.9218 47.5019 19.5789 27.4830143832
31.1559 46.6017 17.3621 27.4659723462
33.5615 43.1254 17.4356 31.7050102662
32.3543 37.4293 24.091 54.6710574132
31.4557 47.8379 21.4093 27.9711331173
35.5906 38.9098 19.0081 31.2078011088
32.9715 45.4651 21.4975 30.4278145533
33.7627 47.1123 24.6001 96.2574410901
32.5907 43.2078 19.9188 27.9020020304
35.1018 37.2154 21.9224 27.8335911939
27.7483 38.7225 20.2289 31.3499815526
29.3587 37.3398 17.4317 25.2914582564
28.6571 39.9362 23.8162 51.7368823511
32.1118 36.9953 21.4082 26.7728230744
35.4592 39.2207 24.3629 69.7111934376
32.3349 40.8294 21.4631 28.1982110313
32.6868 40.2284 24.1696 65.4493444242
29.5178 37.3294 24.3435 90.0267283701
28.1485 43.355 24.2138 73.1679872911
28.4947 46.1623 24.2945 92.902292584
29.7049 40.9488 21.6691 28.5511055007
27.9996 43.8498 21.6179 28.675223554
35.3671 42.6967 24.2524 69.4584344693
28.9629 40.6407 18.507 29.390262802
35.1844 42.4686 21.5264 29.6648388338
31.2715 39.4657 17.0641 30.3411929
30.7884 47.8162 23.945 55.4306474917
36.4891 45.4262 24.2965 68.1241162023
33.0241 44.4996 23.9982 48.744302843
25.8069 38.9875 23.9075 65.2720514757
34.0825 48.7711 17.9486 30.5595513242
25.7368 42.2336 21.1436 30.1214402089
35.7017 46.2353 21.6915 30.6321333197
25.9913 47.9637 24.076 67.5280852261
29.8389 46.3275 19.5752 26.7235517039
35.8695 41.5123 17.7168 33.2870423984
34.579 48.9574 38.597 30.9359718916
25.1244 47.2435 38.752 29.9761954795
30.3803 39.3512 36.1144 57.7945911736
35.4649 37.788 39.9233 27.3389066993
33.0436 38.3384 35.8776 77.4541031588
33.0687 38.9334 38.6872 28.3921282258
34.7384 40.4558 35.9131 76.5254856415
25.4212 42.2591 39.8858 35.6975029428
27.5723 42.5519 36.0767 54.4493540213
25.6356 44.6719 35.7572 73.7262899746
28.013 41.6797 39.0412 26.6392843582
31.3709 41.8691 38.6777 28.3170606203
29.7794 45.6799 36.1637 71.9270074454
34.2079 41.5616 38.515 29.4012132511
30.5307 42.5395 35.8235 88.3548920756
33.2438 43.0736 36.1511 52.0256493047
35.0838 47.4812 35.9007 80.0909884248
34.2945 45.0574 40.414 29.4740740695
31.5018 44.1658 40.118 29.6154575634
27.6172 46.6352 39.5536 34.3853773553
32.9713 48.5426 42.2504 29.3596113917
29.0645 44.4036 38.5534 29.5858957264
35.7467 42.9254 42.0795 29.5907005498
27.3216 39.0113 38.2414 29.1824545789
32.7575 45.9345 36.1898 63.3812317304
34.7227 38.6562 42.5554 29.5664944769
24.62 47.0979 35.6877 78.6800608944
32.2213 46.753 38.7815 32.6088280156
30.0745 39.0111 38.9827 26.4966927703
35.6987 44.7081 35.8978 73.466155454
25.7746 40.6271 35.8146 73.4855709056
32.1007 37.6244 41.2465 35.4288902181
27.5896 38.0834 35.6034 83.2268759497
29.6658 39.0915 42.4181 30.6366693939
29.2812 41.672 41.6908 31.5617990776
30.9828 43.7769 42.76 30.7855952014
29.8473 48.9635 39.0147 33.8729972859
36.433 43.8842 38.3761 28.0859162198
27.0307 46.2351 42.4225 32.6841554666
24.7514 36.953 35.6349 99.9779924277
27.2865 37.5467 41.8623 30.673583428
35.5256 48.0273 41.1518 25.380684276
29.258 48.8392 36.0527 63.874003689
27.793 39.2944 46.1733 28.5220276711
28.7159 42.2849 46.3682 26.4090051551
33.227 46.2077 54.852 32.8980315115
36.5374 45.4444 52.3944 33.32975633
28.7917 46.5377 52.064 28.5277584978
25.0177 48.0282 53.7471 27.1671521642
25.5614 37.7725 51.9582 29.766859165
26.8031 42.5829 48.1545 29.9508965386
30.2233 39.2439 45.1649 27.7407714372
27.6907 48.9862 48.0847 27.8292686675
32.9079 40.136 44.6688 32.7725107069
32.4058 44.607 46.7945 31.5662382619
25.2247 38.9601 55.8073 24.5888372723
34.765 45.3624 48.3432 32.8622540415
25.462 45.5603 46.495 26.2575986078
34.086 46.3433 50.7622 33.1921999914
28.2523 45.23 46.5165 25.1435442828
26.9109 46.0289 49.5737 25.8670750941
32.0318 46.9724 45.2609 30.877638834
35.982 44.902 55.0943 27.7295348005
35.0116 39.126 49.243 29.7712108273
26.9725 44.545 54.5713 30.7365698689
33.2406 43.0743 43.9689 30.9684397542
27.954 38.6973 48.9456 28.723649028
25.5006 42.2146 54.7628 28.6937089892
33.9085 45.617 43.2722 26.5312307245
34.87 39.1464 46.3629 31.7992121408
34.6974 39.2667 52.9699 27.165817094
31.2519 38.3045 51.2109 30.5089317938
27.7999 36.8129 44.5339 32.0725952059
25.5113 40.2481 49.3655 27.6095698168
32.1137 39.8678 48.4043 35.5907726824
29.8289 40.6725 50.1708 28.8661003043
25.6082 40.3535 44.4137 33.4943206836
35.297 41.8542 50.9164 36.8721113659
25.8073 48.757 50.3752 28.3228241249
26.0847 42.3624 51.7975 28.1139600618
28.9667 43.4728 50.1986 29.658360344
30.0619 45.3062 48.2953 30.3560168346
31.4615 42.0477 46.7193 31.9522926597
36.4888 36.8866 50.2982 28.0794931664
35.4428 47.8565 47.4864 27.6009006058
29.1506 48.6717 53.6086 33.0482945399
36.0241 45.0879 44.8238 30.6334859247
29.7255 47.8739 49.5316 29.7824007047
33.2869 49.0038 54.601 30.440798005
31.2108 39.0744 55.2753 30.4610369625
25.6882 47.7307 56.1825 27.6387144905
33.8827 38.9418 55.7124 29.4607486959
27.1708 38.1865 54.0646 28.7761128795
28.146 40.3447 52.1903 29.8317870327
30.7436 41.0633 53.3975 27.5214250335
33.3762 41.9802 52.9175 31.5437456494
26.9659 48.3913 45.3379 27.5674420535
35.2685 42.2081 55.1701 32.2830752261
32.4095 44.7871 52.4535 35.8278446132
25.8258 45.7574 52.0893 27.1249175672
29.737 44.1421 52.9184 28.4217348193
29.3324 45.7576 44.1209 26.5862081554
29.4749 42.5771 55.5463 30.5183856614
33.6275 48.974 45.8736 27.7917401452
25.9667 44.3921 43.9313 27.9840747453
33.746 37.1344 51.5417 35.5722410541
30.0774 48.181 43.4276 31.6238191093
30.8892 36.8189 53.6943 33.5811544535
27.7226 42.3148 43.8091 28.9364353996
40.027 11.0701 4.0785 29.4516396393
47.8628 4.8821 13.2089 36.0162020415
43.4911 4.34973 16.773 30.4559398799
42.7424 4.24135 6.87804 29.2089554659
44.0032 1.96652 7.55653 27.5545219892
43.5799 1.25835 4.37688 30.7370411317
37.77 9.4419 6.26166 30.4550586463
46.8245 1.62695 5.85124 37.9296697565
40.9027 11.2847 8.51081 27.2825103452
37.3705 0.4092 7.00506 35.12941781
40.4661 8.2778 4.88637 29.5538062572
44.3597 6.46655 6.54169 31.5582694261
40.6426 11.968 15.4649 27.9607987559
46.9887 6.15971 5.95417 36.4242983335
48.103 7.63889 8.16648 36.2576402964
49.203 5.16472 9.10132 35.7143695788
43.1977 10.42 12.3236 32.5781330789
43.2093 8.43934 4.91923 30.4776997955
47.0555 10.2397 14.357 31.1762508998
42.711 10.7032 6.43027 28.7132779966
39.4267 0.093084 16.4386 29.4526038112
40.1397 8.83012 11.8364 29.622287082
39.6271 2.83391 10.2141 31.9541814128
37.4501 1.47007 12.7789 30.1182488003
41.3798 1.02373 8.76155 30.0471629843
37.0695 7.3218 8.5023 29.2640438141
45.4703 2.38663 9.731 36.8351080135
48.0111 3.31385 10.8156 36.7599285151
48.6297 11.2563 11.6058 36.2190264152
39.2735 11.5225 10.9345 37.2909007821
40.2914 4.46639 8.11397 31.9418258415
39.8174 7.16314 7.60987 33.0617825306
44.0313 7.33564 9.12322 32.3254811745
44.2115 5.00936 10.8178 37.6562260671
45.6607 8.93581 12.4939 31.5233090416
46.1195 9.15066 9.60923 34.9671852923
38.2052 6.64336 14.1167 28.533058121
41.5367 8.72978 9.2903 31.372716595
46.0162 0.753957 15.1332 31.2630001553
43.1 6.84929 15.1153 32.6391250771
44.9015 11.4314 8.05172 34.6775438117
42.6656 3.89264 4.36106 34.3349905939
38.8852 4.67311 16.1732 30.9032982273
39.3198 2.36272 14.5152 31.3766704198
43.6358 2.15962 15.1908 32.034691984
41.6574 4.24814 11.9959 35.0519521458
41.7337 1.95148 13.2115 28.6356545597
38.388 9.25168 14.9191 28.6252211147
38.701 3.05952 5.93139 37.2029098439
40.7979 5.88334 14.085 30.1895968639
47.7939 3.0311 15.3316 33.272711435
41.172 9.21886 14.4668 29.0190384175
45.4185 6.40243 13.0718 36.7970128713
37.7674 7.97483 11.0227 31.0121530548
48.4398 3.81788 5.47964 32.871796721
46.4276 7.62137 24.0853 60.6561731084
37.2327 11.7717 24.2453 65.8266084158
48.1 0.139399 21.0661 30.6470820468
42.8608 11.839 20.8959 31.6455419705
40.4775 8.78598 18.4947 33.4747360469
39.9919 11.0346 24.3708 73.3069299434
41.3249 11.2663 18.2879 28.2883098606
39.32 3.6611 22.9725 32.0376606877
41.8104 5.1796 22.24 30.4086040697
40.8883 4.14509 18.3656 36.4590712909
48.9069 2.31689 24.1631 76.4955674964
48.8739 8.24458 21.1042 27.9845695153
45.264 4.33304 20.4425 27.2233820696
37.8197 0.114696 20.6956 25.3908404344
46.1997 11.9675 18.4274 30.7832262526
40.8675 8.25632 21.5384 29.5787785851
48.1356 10.8291 21.7394 29.887924006
42.8037 6.09246 19.7282 28.6241011415
45.8768 7.34854 20.7841 32.1716760628
40.5271 1.42443 18.8844 30.2676957103
37.7804 5.13522 24.5345 120.0452922765
47.5697 2.81312 19.9277 29.8017687358
47.5784 4.11323 22.6556 28.1653726244
43.5517 8.26869 17.5968 30.2447714617
40.4451 1.70412 24.2141 94.1474151095
49.2833 8.23082 24.0192 49.2956960218
38.0677 8.11643 20.7976 32.1563602386
40.2414 8.37128 24.1556 57.9640576196
42.2882 6.55099 24.5205 101.2776948309
42.8411 1.05707 22.6358 29.5494815807
43.8582 3.60072 22.9735 34.5904241068
46.328 4.45517 17.3879 33.0663574327
45.8722 5.03339 24.5336 110.2015107704
46.4448 7.26773 17.8608 32.7067173385
44.462 11.3795 23.9997 47.6018130006
43.5859 8.95143 21.1761 29.764955966
44.0456 8.5828 24.1256 59.6570865373
37.5548 7.96451 23.5566 32.7902888958
38.2019 2.87912 20.5864 35.1174247906
44.0368 1.65641 19.3691 31.9605979351
37.354 10.6927 21.4908 27.7884508491
37.8226 8.16247 17.4675 29.7218363464
47.2261 0.286328 23.855 42.0236845298
43.7228 11.1085 17.0484 31.8602648601
42.6661 0.452656 16.858 28.7317021911
46.1755 0.559007 17.9876 27.1141427509
47.1731 9.87689 17.0266 29.4371933966
40.1623 6.18701 40.1205 28.4357714183
41.0105 4.21512 35.8251 63.4533695939
43.9728 3.34653 35.7327 109.2436872502
47.7937 2.63234 37.9168 32.5484505761
45.8273 4.60968 37.3147 27.8146940233
49.1155 6.70342 42.8213 33.4025589257
39.5932 10.7487 38.4765 25.9536819719
38.076 3.65381 36.1588 47.9998824305
40.0678 6.80869 35.7622 83.1506837325
42.3109 4.69388 42.9943 30.0852277374
39.6698 8.0496 38.1844 26.5328209239
43.0297 7.4204 35.8742 71.9106782951
44.7622 9.76505 38.7929 26.1727164652
46.3394 6.96982 36.0432 65.6353962562
42.296 11.6314 38.2003 31.7607596962
47.3292 7.99456 38.555 29.2173411544
44.3257 0.491168 36.3094 66.6830458706
38.336 10.6699 35.9609 60.0592707346
37.9966 1.44141 40.7631 28.8437137966
43.407 10.2048 35.7794 77.4486114966
40.7582 12.1058 35.4595 100.811623037
47.5189 9.94012 35.6476 96.8039714711
44.8348 3.11029 41.1091 27.0958077577
42.1723 1.40886 41.7384 25.9754320542
37.0796 7.80856 35.9569 62.0636190273
39.9778 3.35619 41.532 27.5551664423
37.3459 5.98851 40.5852 32.8609773865
48.0806 4.04077 40.8652 25.9338361006
41.6811 4.0744 38.5818 30.6655280229
41.9256 9.79404 40.8013 27.182448178
49.0436 5.66105 38.6757 28.9588840054
44.8765 0.553892 42.7869 29.4479878723
39.723 1.25405 35.5273 106.1182461076
42.0011 1.17673 39.3058 26.624025312
46.4907 6.43143 40.8219 30.1953250236
45.6486 11.6916 36.2512 37.9766206201
44.0627 5.09077 39.2208 27.8423751359
44.5788 0.578459 39.1293 27.6656718692
49.0384 5.48038 35.8441 65.3168959661
42.6302 7.71165 38.6564 27.6237502649
38.5849 12.1135 40.544 27.0862610079
47.283 1.11287 40.5214 27.0912335531
45.6243 8.12577 42.9984 33.4935491822
41.5838 7.41701 42.2388 27.7878132
44.5531 10.0117 41.3277 30.3366121302
41.2697 12.015 42.5615 28.9607664121
40.5157 3.33641 44.8654 29.4967475359
38.4578 8.34972 46.5947 31.6888533545
45.1805 4.107 43.9337 28.7589563526
48.4651 1.94853 51.3487 28.5457088546
40.8234 3.84329 47.6568 27.6648006054
42.0452 1.21643 54.5767 29.6551737538
41.0687 6.34984 46.1661 27.1917543432
39.6863 7.95187 44.1475 28.5168298373
47.5938 9.99204 55.8538 33.4902096584
41.5834 0.610048 45.1017 28.9538485181
48.3818 2.58311 54.5441 38.5300352187
38.0096 10.4564 54.5921 29.1293512358
48.1584 4.05402 44.2228 28.3648296743
46.2787 6.34375 51.8347 35.953566943
42.3391 7.40651 50.1312 30.5022404214
46.0285 2.08413 55.701 31.2682138177
42.3628 9.38927 52.1941 32.5554868577
39.9881 10.5151 47.8749 32.782312483
43.4093 8.08587 44.5391 28.7070036993
44.1096 3.96152 54.5146 30.1756356843
38.3953 5.54495 47.9 35.7955749644
41.6097 5.49477 53.4011 29.7106230295
44.7231 6.10201 49.6146 30.9120888308
48.6595 10.2028 49.1807 31.7500578438
47.8675 1.23566 43.4495 29.3147129694
45.1329 6.48935 54.3462 29.7104037245
44.2337 1.72108 45.4319 30.4080400198
43.7948 3.352 47.4902 32.9215365016
48.3807 5.05425 47.0316 31.5934381527
42.9434 3.00449 51.9334 30.7872551064
45.3311 11.828 48.4407 33.9872225492
37.0013 1.2363 47.4748 29.1192486981
38.8392 5.96041 50.8303 30.753874381
39.8848 1.17118 47.5647 30.438933916
44.8119 11.0099 52.4945 32.4748403847
44.1655 5.67844 45.7851 25.4876931702
48.2738 9.09594 44.5487 32.4081748794
46.2162 6.66429 47.2144 32.358809502
42.1747 8.49296 47.7317 32.1120921063
44.6956 10.5207 55.8527 29.0515103446
46.5528 1.28014 49.2373 35.5885614105
38.1053 4.11102 43.4416 31.5285436022
43.8548 10.4274 46.2783 31.8342126167
38.4033 11.9967 46.0102 30.3715865272
47.0863 9.55112 53.0739 33.8849977662
46.6266 9.45239 46.7858 33.1340354957
46.9705 0.521332 46.1676 31.2240241434
48.3035 4.49134 52.2465 32.1233150506
42.3286 0.248393 51.2526 36.3911977355
41.2928 4.96292 50.5737 25.7552085619
38.7181 3.09041 51.3758 30.1180086951
38.8186 11.1826 50.4587 32.3743681955
45.0169 3.49128 50.0574 31.422665336
38.0185 0.727924 50.2968 29.5594673026
39.7134 7.85521 52.6463 27.1327812789
39.6933 6.93322 55.4849 28.8110923086
46.578 12.0884 50.9296 29.1692541712
40.2899 11.0217 52.8273 29.9478599699
42.7339 8.13298 54.6348 30.2498877922
39.4867 2.39804 53.9385 30.9913953302
38.896 10.6032 43.42 28.7565493116
36.9919 9.06687 52.3623 29.8133653609
39.5578 4.00972 56.0653 31.0761500907
36.991 7.01242 43.35 29.4086895796
46.6536 7.3361 56.1997 38.6766944463
40.8582 14.3753 7.74126 29.1536998908
40.7923 16.7119 4.07224 30.6823441803
40.0934 16.3331 10.6564 28.5732262138
44.3156 15.549 16.4985 27.5423077569
44.8209 14.5541 7.74668 29.42670605
42.5102 15.4805 9.6239 25.5766251141
42.9801 21.3175 6.90829 27.8966038141
40.0153 20.9281 4.56373 29.7131446722
39.0718 22.1149 15.2873 29.2500028874
47.2837 12.4751 6.9188 33.1687697454
46.667 12.641 4.16528 30.1404627505
45.902 16.0828 9.97584 28.6263317602
44.528 18.8655 5.75696 29.438316978
39.9999 13.2667 12.8674 30.5083266399
43.5725 19.4768 15.5095 26.6482763066
48.8984 19.7868 7.18036 29.5736065897
42.4582 22.4709 4.15201 28.5064282399
45.5755 20.9873 3.81593 28.5393455761
48.7311 17.8448 5.1605 27.8809659529
46.3274 20.6545 7.01507 28.1929873387
49.0137 13.8611 11.0168 30.2336079317
47.9567 16.8065 8.36381 27.2460862541
38.6919 20.6091 12.2948 27.7349699201
41.0232 22.5155 12.7281 26.3054679439
42.9284 12.4374 10.2441 32.3123250307
38.3609 15.5841 7.68259 28.7448424848
46.1143 20.9687 14.6054 31.038321572
40.7701 20.1221 16.4453 27.1445916164
46.0249 13.0084 14.1298 29.9389092896
44.2023 24.1172 6.34679 30.4231033629
40.0988 20.8339 7.09411 28.2390793607
39.7383 17.5304 6.56438 27.5319554991
37.3125 18.4853 10.6411 31.5366805519
44.631 18.4004 10.6432 28.2629863225
43.1509 18.1116 8.42343 30.8702573122
40.0951 18.6813 9.08584 26.7911983437
42.7801 19.1623 12.7637 29.4566817451
43.7708 14.7615 12.4385 28.0410122208
46.0722 16.4438 5.7266 30.5465206862
38.2541 22.6551 7.96552 28.506988678
43.3009 22.4984 9.34526 29.4345615394
47.0374 23.3506 6.76016 29.6647149581
41.7462 20.4827 10.604 28.0601968878
48.1709 22.5022 3.95906 28.2252104642
46.7051 19.9833 10.1308 27.2194034681
47.9668 19.9362 12.696 27.9307690543
45.9749 22.502 10.3151 30.5891549983
44.9073 14.7925 3.64354 26.0502261216
36.9323 14.0885 5.66208 32.8473821965
46.9971 15.0116 12.4505 28.1035135904
41.8069 14.8295 15.7829 29.7561381221
41.1066 15.9729 13.3334 27.4180991556
38.7894 23.2159 10.3763 30.7159108549
37.4845 17.8572 13.6576 31.2024818542
49.0082 14.3132 8.10946 26.4582791189
40.1203 18.7167 13.9819 29.1478923567
47.6364 17.456 14.0257 28.7300742465
44.625 16.9104 14.1878 28.3844498004
37.8436 15.0454 12.8142 31.5327468604
42.7928 14.93 5.60148 29.1694371932
46.5886 14.0889 16.578 29.6737265962
46.9223 23.071 12.9697 28.2787863097
43.0347 22.3788 14.9324 30.5164214183
47.5761 24.3561 9.22135 31.8445157022
43.3496 12.3964 14.278 26.0801846881
42.5862 12.3478 4.12189 27.0729010409
37.3535 18.8116 5.93729 32.6775646841
38.8694 12.2958 6.19791 30.4832808552
48.4994 21.2396 24.6202 90.9719763322
45.7145 12.3411 21.304 28.7423777855
41.0188 13.5184 21.9773 29.857552159
48.9136 24.0465 23.8616 51.5935932579
40.7256 16.0589 18.2132 31.7710001044
46.6949 15.3437 23.9203 49.1769318816
46.5149 19.437 17.2884 30.3663508946
42.4497 20.4114 18.9109 29.6828913835
41.943 15.7662 20.7942 27.315563533
39.9117 22.734 19.0873 27.4647260356
44.0617 15.5009 19.5676 31.0705407235
46.6578 19.8815 20.0633 28.1832514318
43.4049 19.6014 22.0469 25.8539986774
46.9565 12.6857 24.5072 93.8220754056
42.5747 23.1253 17.5683 27.7078073702
37.029 20.264 21.4682 28.3932993172
45.1534 22.1217 21.5193 29.3762675098
48.0576 17.1467 19.6982 31.4822004228
47.0272 23.1098 19.6415 28.0117977319
47.7894 22.3216 17.032 29.8774747208
47.2491 18.4136 23.921 51.8272910839
42.2412 23.3346 20.7648 28.4499707661
40.1429 17.261 24.1326 57.7732785336
39.2753 18.258 17.9454 31.5928766134
44.2307 16.9299 23.923 42.9963506641
42.0206 15.4368 24.3531 79.4800930204
42.0877 12.6163 24.578 91.8730845514
39.4572 13.5176 17.7566 29.2917551107
37.7388 16.7677 21.3867 31.0920137661
37.5287 17.0665 24.146 68.7725288318
41.1228 18.3097 21.6231 26.9705225689
41.0397 20.2652 24.6136 102.9729525852
41.9983 22.7252 23.5367 35.0027531361
39.5745 20.0559 20.2398 29.9025427846
45.1392 17.627 21.153 25.4405395763
43.9372 19.5707 24.761 98.6363815558
45.6543 21.6932 24.2619 53.8778653793
46.9306 14.9071 21.203 28.5288392086
38.8799 12.8117 20.3346 30.1574756664
39.4338 24.0057 24.0405 51.5382231469
37.3031 23.2904 17.1917 27.6203831403
44.4897 24.462 24.2526 73.5085706562
44.0588 18.2451 18.0154 28.1083190229
48.9328 20.5253 21.6965 29.8987747482
48.6405 17.3421 16.7159 27.3462161601
40.6938 14.6995 35.9051 70.3136549627
37.4258 14.6774 35.803 87.1683656619
37.6233 14.5324 38.7262 28.7114972278
37.9274 19.3392 35.5103 109.2504420012
43.1202 16.0782 36.0781 47.5987091728
45.2272 14.4938 35.5404 102.2360553939
48.8027 23.499 41.3787 30.5640128423
43.2718 16.2974 38.9248 29.2350173946
45.7169 15.1223 38.4428 32.1243410126
47.2652 13.6035 42.0161 33.0508024667
47.9313 16.7855 38.5745 28.5355059271
39.2973 19.3646 38.9201 30.3172647785
42.8794 19.0495 35.526 106.5398583185
45.3849 20.7279 35.5219 88.2422858238
44.1512 19.1412 38.2854 31.9171870405
47.09 19.2601 38.177 28.4463339291
47.878 19.0126 35.6492 69.6668759381
45.1773 19.5882 41.0189 31.040832941
47.2503 18.3708 42.3095 31.1665456013
40.5346 20.0452 36.5263 38.8102974746
41.1614 22.9309 36.502 63.5460780533
43.9232 22.3047 37.6152 29.3269428761
41.8517 23.7342 39.2475 30.4323072749
42.8017 18.8265 42.3417 31.4634712758
42.815 23.2514 42.0396 36.4371247016
47.1355 23.0696 36.0116 51.0673147731
40.6865 14.461 38.7215 29.4587992209
39.1453 23.6977 40.5196 28.8984893313
46.1334 12.4338 39.1309 31.1779545628
45.2066 22.3405 41.3024 30.4301528757
48.889 21.7186 38.8405 28.4046869239
48.5316 16.0888 41.2814 28.0825093678
39.186 15.7971 40.9518 28.2818999985
46.432 23.2741 39.1095 27.6240833691
41.0829 17.8025 40.3232 29.9689363218
42.5637 14.4496 41.3286 30.4708388543
44.4096 12.6952 42.022 30.8184379575
37.9329 18.2982 41.8577 28.9419596968
47.64 16.1702 35.6619 85.3168259022
39.1845 20.9616 41.5946 29.1443464734
36.8977 21.224 38.2554 27.5498876448
37.4165 24.2735 36.1151 57.3335757361
49.1157 12.3819 40.0984 31.5247946465
38.3245 13.9591 43.1127 29.7517755411
39.8828 16.7283 45.5642 28.597532708
40.3618 13.894 45.4219 26.6093867263
41.2076 13.2796 47.7956 30.2149035397
43.682 14.0444 47.8577 30.1506028211
47.3371 21.6724 53.1487 28.290178588
38.2951 22.3019 47.6459 29.944847705
38.3157 22.7257 56.2473 34.0168564417
41.743 17.5421 48.4698 26.0800470578
38.4514 19.2631 44.579 32.0214644936
43.5506 16.757 46.4319 29.3961399378
46.3777 19.6732 48.062 27.4246778956
47.9528 13.49 44.6958 32.5715733196
39.067 16.3914 48.3248 29.8806682056
38.4911 18.9352 49.939 33.1046473006
48.3264 20.3046 44.1591 27.8347888356
40.8769 22.0624 47.6118 28.7550694926
44.9248 21.5578 49.273 30.1089282758
46.4481 23.1974 43.6827 32.0272241353
42.3076 18.9764 50.5241 28.7357541623
47.5696 13.3569 47.6577 31.283488242
37.4721 14.3454 55.174 31.1552456811
39.1173 13.8079 49.95 29.1539339111
44.4174 16.0394 49.9277 25.9255242828
45.4326 14.7078 52.0045 29.5152760144
48.5476 14.532 55.8975 30.6377833535
46.9182 15.9948 48.6435 25.2116941362
44.5069 23.1109 46.9547 28.2230369254
41.5115 19.6479 46.364 30.5069921186
37.5168 20.6164 52.59 28.9356796579
43.7647 19.6666 45.016 32.3019843795
44.9741 18.7099 51.0744 31.1648933061
46.1967 17.3053 46.4967 26.4702156812
37.1915 16.4787 44.4642 31.9975598895
40.4628 20.7665 52.7296 30.9987466685
43.9331 12.9217 54.3175 27.3448706297
40.3155 24.0869 54.6197 30.2011819018
47.8491 17.9619 50.5505 26.651328073
39.9407 18.6722 54.9746 28.8744984568
47.965 15.6115 51.9564 26.0418841646
42.0177 21.6827 50.0894 29.8646147661
46.1912 21.0767 45.8713 26.9486567955
37.9291 15.2819 52.2744 29.4366798218
45.9962 19.5182 53.8302 28.5043575988
41.4959 13.5467 53.1983 33.8262641679
41.8021 23.6033 52.2351 30.30596433
41.5373 15.3469 50.7657 31.117660243
46.3975 23.5226 50.658 29.1905902071
48.3206 16.8605 54.4966 29.1168443738
41.4999 23.5428 45.0732 29.6395862791
45.1656 23.5136 54.5188 27.7407451928
40.022 17.4411 52.1315 31.4203206639
47.4031 16.3784 44.5361 31.9442635678
48.275 19.324 55.7799 28.0346703292
45.2735 16.3483 54.2839 32.2576600888
42.9211 20.8963 54.6108 31.5087552955
42.417 16.2148 43.6099 35.6210565874
37.3748 18.8818 55.7202 28.6732579764
43.1393 12.6917 44.7468 34.3283862829
40.2923 14.3232 55.6836 31.8865392111
43.1867 18.3248 55.7543 34.4804205272
49.1794 20.7539 47.7499 27.4020770333
49.1064 20.8419 50.9267 29.1603883414
41.1808 21.1601 43.4592 29.1393136982
40.6376 28.4934 7.9909 26.2940050951
49.2313 35.5129 4.20403 32.5627317404
40.258 26.196 5.95735 28.018397555
41.6637 31.1837 15.3418 29.0918887112
43.204 28.8628 5.66623 27.1157955668
46.4561 27.0495 9.64471 32.0294977714
42.2248 25.1738 8.28638 30.4998503001
45.861 30.6477 15.1995 25.6596825483
46.3332 29.591 6.71647 29.0319467771
39.2815 36.0859 8.68109 29.4877671471
39.3665 33.8443 4.71533 30.6690187802
43.8721 34.6862 16.5715 27.1972927012
40.6566 31.5945 7.76522 31.5050937712
47.8706 31.8205 5.5948 33.9381262294
41.8972 32.9508 9.80497 28.3645603899
48.066 30.401 13.3248 26.6627004039
43.9139 34.9886 9.99694 28.550947815
43.216 34.4272 6.24732 30.4119241735
39.5974 34.9673 16.0183 27.5119170261
39.6076 34.0942 10.4061 28.601980448
44.5502 25.3827 3.8752 24.907810112
42.4402 24.73 11.5041 30.494759515
37.7171 31.6791 9.4906 29.3755134636
43.0185 31.628 6.40386 25.1317853747
37.7461 27.8992 11.4908 26.4483799918
47.3738 27.2404 12.363 30.1183115659
43.7993 27.4557 8.01746 28.4928282431
45.5456 27.8432 16.4654 24.7993592593
38.3424 30.089 13.0037 30.2892987379
38.7707 30.8865 16.0238 27.2289810793
41.19 29.541 13.0897 30.3029438552
43.1595 31.1498 11.3756 28.0070911404
45.1015 29.9602 10.1066 28.0559478269
47.9641 30.1386 10.6967 25.5734159183
37.5948 32.6545 6.48562 29.759109043
37.6204 33.1753 15.1761 27.9292168294
45.0888 31.8741 8.03886 27.7536070717
37.6815 32.9996 12.3301 34.4380812612
39.9462 24.7857 14.1813 29.4576247797
45.7557 33.9993 11.6327 29.0017842944
47.1484 33.8226 7.52268 28.8101553876
48.2652 32.6236 9.79347 28.3461124553
45.8045 27.8277 4.62535 31.8549321944
42.3335 28.1403 10.2806 29.4313473794
42.1669 27.3493 13.9059 27.5507834052
46.5375 34.8093 15.4301 31.8426274433
44.6612 24.7831 13.5033 30.0806581092
48.169 27.6885 15.2277 29.4946346843
44.6775 28.1609 13.4976 30.6019167892
40.7472 35.5868 6.55894 30.9905631105
41.0584 35.3559 12.4824 29.5125664552
38.9873 25.8833 8.72665 26.3730504838
48.6806 35.7794 6.67867 25.7306021601
38.282 29.2035 8.81665 27.8781144783
42.0139 33.7194 14.6036 28.9772166152
44.4138 32.2795 13.579 28.2283482302
40.7315 28.8516 4.50161 26.3045005764
45.0261 36.5343 7.63331 30.1090814879
47.6415 25.4632 4.70895 33.6124888027
40.1129 26.4152 11.3289 26.2621235854
42.5558 28.149 16.6606 30.6628565883
48.198 33.1397 13.6798 27.4940453164
37.2243 26.1182 13.7196 32.2781392584
47.2067 24.7979 15.7839 28.5333254185
48.4086 35.3664 11.5857 27.0765614225
48.446 28.2443 8.23676 31.3743871885
37.8091 24.6917 5.72068 28.1779442929
40.3402 24.9396 16.873 28.5211961059
44.2669 25.3901 16.2081 27.5138806975
44.2867 34.7804 3.62039 31.4435946898
40.9133 27.2544 18.6587 28.7411493434
44.8094 29.8082 18.9085 27.4578555103
41.5474 36.629 21.6447 29.838077809
37.8896 35.576 21.427 26.2039169649
44.6374 24.6071 19.2604 31.4559184781
38.5087 32.8891 18.3744 30.3348050122
41.2469 26.105 21.5741 26.7038568564
45.6151 26.7512 21.4018 28.2303008238
48.1631 30.0639 18.8305 28.725477513
46.5389 29.2729 21.7965 27.7976041999
40.7215 35.0452 18.6984 28.3105363221
38.065 25.7054 18.568 27.8010870309
43.7127 31.6009 17.0896 30.324204879
43.3298 35.2626 19.7606 26.915195934
42.0683 30.4181 20.6607 29.8545867535
45.5897 31.8042 21.171 30.0507714088
43.1273 32.7909 21.4522 28.5137127127
47.6227 33.8591 22.4802 28.8760179252
42.2265 26.0703 24.3765 67.422646188
39.4514 26.7657 24.5947 96.6957901172
38.6387 24.5563 21.0919 26.9714274921
43.3039 28.3461 21.3446 27.2299463523
46.7681 28.5117 24.6525 119.3055542768
46.8561 25.7893 23.901 49.9491809396
45.6854 34.3054 24.3643 80.8230687352
46.8095 27.1806 19.1309 28.1114815136
39.2491 30.4055 19.9677 28.0664477845
37.1575 36.5312 18.422 28.0696239502
39.4191 28.1816 21.7555 26.265318571
38.452 32.3671 23.4963 31.2176011148
43.8768 28.2921 24.4197 74.2048093823
39.3022 29.6711 24.2087 70.7593491001
40.5302 34.0138 24.3081 69.7711934915
38.9437 28.8767 17.7595 29.16414951
38.355 36.2469 23.9825 53.0026064114
45.9206 33.3988 18.7033 27.3435809146
41.9698 30.4876 24.1579 61.3400298441
43.0772 33.104 24.3433 72.2082541148
42.0801 36.3097 24.5629 78.7578309102
40.0572 33.9552 21.3603 26.8523342502
47.7125 35.1319 19.7566 28.4157662088
49.1456 32.3136 24.3046 89.6642632676
47.6725 32.0803 16.9081 27.3118453697
37.552 31.3937 38.741 27.6830807437
47.1943 28.5403 36.1757 46.2555963255
39.4221 28.478 35.6874 82.0228647502
40.3784 26.3697 39.1354 30.5597458406
40.1133 25.7854 36.0911 67.0245655229
37.9034 32.4844 41.3838 33.0757414411
42.7205 27.0207 36.26 45.3793993982
48.5114 34.6464 42.542 31.091774315
37.7274 33.1839 36.4179 40.9727902279
43.1992 26.3599 38.8318 32.6023196197
41.7108 36.3044 36.2685 50.3735714866
41.2072 30.6442 35.6673 92.8125951568
44.3644 29.2314 35.7718 92.0756855748
40.4854 33.5191 36.019 78.1286896131
47.6808 31.8338 35.7063 77.4624633965
48.1219 25.8423 35.8746 78.994921402
47.1791 28.9441 39.1129 29.7206274909
37.1087 35.8097 36.0671 66.9538990153
47.6109 31.6856 39.004 25.8500921156
41.6575 35.4069 38.6796 28.9055440216
45.4866 34.0123 35.7277 92.2476846239
37.4058 28.6074 39.3373 26.6634190974
44.4337 34.737 40.3392 29.5652800231
40.3466 28.6935 42.5138 31.3684636502
42.8932 29.8137 41.9701 35.7494701765
38.5614 27.1646 41.3961 25.3259245601
48.5613 34.842 36.0075 51.7891348672
44.5148 28.7666 39.8367 38.387251099
43.507 30.5353 37.9133 28.8339432098
46.1868 25.7191 38.1692 30.3983775969
40.1837 29.2834 38.2989 30.0641766608
40.6209 32.2742 38.54 27.885937017
39.3351 34.5697 40.3959 27.8668926948
42.594 32.4906 40.8568 31.2162537973
37.3938 36.1507 38.6613 26.8817232906
48.6581 34.5267 38.6701 26.7794066363
46.9757 33.1556 41.1597 29.8164780126
45.314 32.799 38.1069 29.7614574497
38.492 24.941 42.8746 28.3238847432
44.3887 24.7856 35.9373 88.9726263143
40.0225 35.7523 42.9068 27.2892077056
44.6238 36.7111 35.9532 57.3486169128
49.2798 26.2605 38.7213 29.4491063285
48.9689 27.8773 41.1203 36.9444968379
41.1976 33.3428 43.1881 31.7948330039
39.438 29.432 47.2522 33.7372336637
46.8884 34.4031 55.2961 30.4687749154
46.5498 24.8949 48.1505 30.0505945616
42.6789 26.8007 46.8524 31.4848417193
48.0944 27.0159 45.9022 27.8466381944
38.0192 31.6008 49.2533 32.2122850098
44.6802 35.4342 43.3662 31.8361320378
45.4546 26.969 45.7303 34.3866103688
39.3146 25.1625 45.3484 29.3220808847
38.1527 31.5373 45.8136 32.5629049377
40.5688 27.5285 44.8954 36.4318507129
44.4286 29.4876 46.5271 30.0750951456
40.7634 26.0367 50.8578 32.2179827436
47.6944 33.8165 45.4116 27.0458356657
46.9125 30.4946 47.6995 27.6871879024
38.1436 34.3611 46.6617 33.414633383
48.5859 28.5397 49.911 27.9795444598
46.9285 31.5225 43.6014 35.6951340116
40.6929 31.5569 56.3756 27.7985963949
46.506 33.2799 47.7609 29.0809860886
37.6215 29.3753 52.9763 32.5536632674
41.9033 27.6462 55.1509 29.0844053374
42.0299 28.4832 50.8219 30.5567633415
46.4724 35.2067 52.4211 32.3324800041
44.6041 28.0345 51.3653 29.569507744
48.4119 29.7818 53.1756 33.2658484292
47.1223 31.3667 50.5391 30.8470951756
37.4018 28.054 48.4144 28.8826758116
46.1851 27.8699 49.0893 30.3098499442
42.5134 24.866 48.8912 33.8433031757
37.904 36.1925 44.505 31.5305891405
40.6386 29.4973 53.1754 32.4982503304
42.4525 32.1985 48.9185 33.3024154255
45.4731 29.9638 55.2882 29.1482594624
41.1207 32.4673 53.7238 30.0936165312
45.1639 30.4243 52.4834 29.9802661647
48.3921 33.1004 52.5401 30.8376054241
42.1243 29.5982 48.3971 30.187435784
39.0651 35.8812 52.4222 25.8509613964
44.0317 33.8101 47.3392 31.3251364632
46.8747 36.4175 44.776 28.6412576645
41.8153 25.3655 56.4573 25.7823476189
43.0672 32.1294 51.7191 34.2823561423
44.106 24.7203 44.434 36.7896074882
47.4555 35.3701 49.8352 34.68671083
43.8601 34.6276 53.3073 31.8932308905
47.4114 25.3383 54.3411 31.0130797737
39.4154 36.3477 49.0376 26.2615007479
44.6831 27.0918 54.0875 29.4946613603
43.5818 33.1774 44.783 32.2029140825
49.1041 26.9818 52.3401 33.5049213206
38.111 25.5833 50.2294 34.5041372405
38.0921 30.0461 55.8571 26.6642069078
44.4711 24.6432 52.1606 29.9661974967
43.5451 31.8469 56.376 32.26745351
39.1174 26.5725 53.971 27.0827163182
40.3253 35.64 54.8499 32.6795186713
48.8971 24.5704 44.426 29.9655774941
40.0425 33.6314 48.8646 32.4046430652
48.643 29.1505 43.9476 34.3712154074
39.0083 33.1129 51.7215 31.0827689754
44.293 30.7649 44.085 32.2591787337
47.5372 31.6329 55.503 28.8407499667
37.529 24.9729 47.4639 33.0689383633
49.1589 24.5744 48.5821 31.3002166895
43.365 36.5685 47.0688 32.7665861106
38.2156 27.1936 56.3526 27.6419790604
39.4205 31.1446 43.204 32.349904472
41.8104 38.5303 9.10557 28.7524942422
41.8267 41.563 13.2056 27.4303132044
40.8237 38.406 6.18326 29.4441478785
43.9639 47.1607 16.0204 28.3866229125
42.6502 47.1454 13.5047 28.5254160712
44.762 38.4218 5.64561 29.7413735292
45.6968 47.4339 13.0732 28.4623000452
40.0577 40.9682 8.18694 28.8346720079
41.6457 45.0036 7.47144 29.9221598544
46.4548 44.8455 12.1781 26.7433497676
43.9449 39.9877 8.37289 25.6415671504
42.3471 42.6454 8.45176 29.4392608509
44.5016 42.0269 6.40639 32.0810615843
37.5352 45.2967 9.27156 31.5085553787
47.917 37.7588 15.8517 29.7779503961
39.5865 37.2491 14.0425 30.6415221732
39.6824 46.774 13.8832 26.9564373526
41.2459 44.9835 4.53845 29.2652191474
41.689 47.9481 5.33266 32.1811043541
43.8171 48.0989 7.12166 27.521383616
38.5358 39.3182 5.12544 30.2683634881
46.3482 44.1016 7.63688 34.3590423897
46.013 46.5467 6.30364 34.9587360494
47.302 36.924 9.42925 28.4042243152
38.6145 37.9952 11.0082 32.9929985794
46.8382 41.0095 9.20093 28.1675655306
37.3529 40.8314 7.60472 30.8148083307
42.7235 37.1124 11.2383 26.6822380466
43.4532 38.3772 14.0333 31.5367577991
43.738 41.2859 11.036 28.8557793642
42.5727 39.1298 4.23554 31.6370466207
45.1385 38.3397 10.7791 27.6655160848
48.4625 47.3313 14.5398 27.8276970276
39.5687 40.6251 11.1038 32.0210981332
44.4492 44.3777 9.89139 28.4681115345
43.3077 47.0738 9.55334 26.8954539064
47.9346 47.7967 10.0425 31.2810644707
48.6341 40.6637 12.8973 34.2822652599
39.1604 48.1608 11.6274 30.2651722718
40.1351 46.3121 9.36183 31.1952631441
39.7914 43.9085 13.4663 32.4252442287
42.7301 44.5055 12.3247 30.5551406062
37.2962 44.9224 6.33706 32.0302765378
45.7454 36.7907 13.2522 28.9597495531
37.5896 42.4709 10.52 30.9482391118
48.2694 37.9776 13.0061 28.6848053963
47.8625 48.427 7.26949 35.2939143657
47.2553 44.4523 14.9051 28.1686344692
38.3452 44.1937 16.1457 29.8029499565
48.47 43.6283 9.21982 28.9577956457
41.948 49.0089 11.4636 26.2290540059
44.297 40.6456 15.4806 27.7355624362
43.1906 43.0307 3.9895 34.2846731072
39.4394 40.1106 14.6689 29.7336427397
47.0937 40.2669 5.51095 36.5606840587
41.7282 41.8861 16.0865 25.1393443044
46.4283 41.9052 11.7378 29.0595223313
46.8843 40.4219 15.4945 29.0665343616
39.4115 43.11 5.97874 30.7156852847
44.3082 43.5351 14.4492 29.0488259092
48.9324 45.6057 10.8493 28.2316995181
40.4949 46.3566 16.5265 28.2992942139
42.2145 36.8964 16.0848 25.8896933167
45.2214 48.7234 10.7626 31.3409315282
39.9709 48.3213 7.35391 30.0178889337
48.7041 39.2512 8.75002 30.4924386561
49.0974 38.4796 6.21485 28.5325183458
47.2312 37.5837 3.9794 34.1897329397
36.9105 47.7119 14.5482 28.2769739143
42.7727 44.495 16.7536 28.9778433738
37.4405 46.421 4.05563 29.2669788993
46.9308 37.5525 18.3076 29.3516091127
39.3762 46.3298 23.9559 51.5133077034
39.709 37.6454 19.4539 28.174078091
47.9411 37.4258 21.9398 27.6677174868
40.5462 39.0937 17.0547 30.0628553963
44.929 37.0447 24.5923 69.8400935575
39.2156 42.1928 21.6601 28.2463101718
37.9979 40.336 24.4024 72.0753439149
46.7533 40.5252 18.8338 29.2777132951
38.6229 42.9085 24.3001 65.8964044425
39.8535 42.3879 18.2782 30.7714716371
40.4435 45.1981 19.2279 29.8982344004
43.1297 43.996 20.0596 28.089050047
47.6703 44.0522 18.7328 27.5852379535
40.5019 38.685 24.2338 59.0829812995
39.8053 39.6111 21.6246 27.8814900178
44.4489 40.0539 21.5488 29.1013032701
48.505 46.9691 24.6225 111.9173625834
45.1256 37.1332 21.5033 30.7337395839
44.1575 41.9014 18.3561 29.4572178486
45.7646 39.9602 24.4455 66.945783959
48.0209 37.4729 24.5996 81.3154012647
37.3787 43.0884 19.6205 28.4136372765
46.459 47.2935 19.3874 27.6888791597
42.187 40.0634 19.253 28.1379556731
42.1506 42.2468 21.8078 28.4003249232
46.8547 41.476 21.6101 28.7115229639
43.012 40.2214 24.3026 69.5330550817
