18.6936 23.9965 17.0679 30.8122205899
12.6389 13.6579 35.6531 68.8639517614
15.618 13.5952 36.2374 46.4055978735
22.1061 20.6136 41.1745 31.6916096227
23.6177 16.6862 40.9418 28.9149062604
16.7864 18.4924 40.0733 31.2422834359
22.4602 16.7496 38.4343 31.6797618826
18.711 17.6365 36.1276 40.3935780511
17.9847 12.7589 40.2259 27.741805888
19.9602 15.3844 35.2889 120.405557919
20.4046 20.1878 38.7307 29.9520848873
24.428 12.2937 41.8177 30.5317847977
12.376 16.5889 35.6669 69.9362124371
16.0374 16.5117 35.9252 68.7645597005
15.9433 21.1158 38.6991 30.2250524388
15.2767 14.2043 38.9369 29.1365019543
22.8595 16.3591 35.8154 48.0828353135
23.2669 18.763 43.0436 26.0758257633
13.7862 24.0759 36.0885 72.8725104614
14.8088 13.4411 42.4313 27.8514072312
15.5477 21.5166 36.0364 65.9220869029
19.4926 17.4515 41.6622 29.1937731066
19.5973 20.1305 35.4759 110.2870990535
14.5597 18.6561 35.8752 63.6596630952
17.9767 22.507 36.0182 62.4059214438
22.0264 20.7346 36.4252 33.9456775552
22.958 22.647 38.8363 27.9728463096
19.8975 17.383 38.6552 31.803162443
14.7461 23.1591 40.257 30.309907592
22.464 13.4983 36.4071 45.1074567761
23.5716 18.8667 35.32 108.4369755127
18.6439 21.9704 42.018 29.5720529094
17.9909 19.6523 43.1379 25.5304761852
22.38 13.8939 40.4949 29.8175430739
14.8306 16.9786 38.5711 29.0837951032
13.5573 19.6756 40.4887 33.0706125002
17.6958 15.4766 41.3821 32.4528834453
23.1009 23.4799 36.0532 75.0865417921
18.3213 22.2 38.841 27.087768386
18.9593 12.6085 36.1253 48.1631911771
13.1652 14.8931 41.1718 31.2430401103
15.3922 18.7758 42.6972 30.640637305
13.0022 22.0771 42.1013 29.233281986
20.3688 12.8172 38.7993 29.590251477
19.1395 12.4832 42.7457 28.8441229903
21.2341 23.9844 40.5838 29.2799487637
15.9581 13.8301 46.8859 31.6467855241
14.867 24.1332 53.9554 26.4640267392
18.9192 20.5829 55.0006 33.0312647342
16.2775 17.2856 44.9829 27.1312470806
14.5753 23.8229 47.7518 27.2300654189
13.5341 19.2421 56.1498 32.0534345386
23.5207 20.6227 52.5826 28.0982818837
13.4548 20.4319 53.8026 27.9717752521
20.787 22.5305 48.1537 29.6731985963
16.5829 23.142 43.4014 27.0757810854
12.352 22.6089 55.1725 27.0700974547
17.6858 18.0352 47.2817 32.4957610898
17.8032 20.6237 45.8523 27.5150842997
20.0393 14.9056 46.9129 32.2957154814
14.9114 21.046 44.1254 27.2808456924
19.345 14.9497 44.1777 28.0577965155
12.4602 22.6992 51.1592 34.664485279
20.5225 18.2321 44.2688 27.5165438634
23.4215 21.984 49.9559 28.3025098558
14.1818 15.4921 48.2614 29.3026857806
19.5825 15.0916 55.6744 29.1147107239
24.2529 20.7373 47.5336 27.3181566041
20.5261 20.8888 45.8668 29.4195597489
23.1008 18.2811 46.2753 32.3688743335
16.0357 16.9582 49.2659 31.3936222826
20.535 22.2093 52.5077 30.130953222
22.1732 12.7222 56.0327 28.1085027193
22.0615 14.3061 53.7736 28.681612694
15.7962 13.1465 55.1295 30.5785273383
16.5386 14.8592 44.3006 27.6080644297
21.772 17.1253 55.2194 28.9728886928
23.929 21.2533 44.4213 28.7106563109
14.7926 19.0613 50.0686 32.2581400881
14.9317 23.8613 50.6919 27.7901798049
20.5419 17.6142 47.4393 28.0222074503
24.107 15.3801 44.8971 30.3063698441
21.8922 15.6871 49.821 29.7078345172
21.0182 18.4945 50.2094 30.8488633935
15.6463 21.0783 47.7767 29.1973772369
16.8611 21.6469 50.2773 28.8748420142
13.793 24.4301 43.7705 28.3342080913
17.2266 22.3104 53.556 30.1332989582
22.8653 13.4173 46.5322 31.4033295781
20.0011 21.0556 50.4023 30.4653867879
23.8278 18.0974 50.8824 27.1532920256
17.3491 16.828 56.0245 29.0367729269
15.6534 15.6265 53.8625 30.0237543961
13.3546 19.6504 46.4976 27.1105893582
21.7525 20.0931 54.9094 29.8422059612
18.6672 13.0719 53.6495 27.1625260093
17.5657 18.3415 53.8407 29.3551237706
18.0167 23.9438 46.0074 30.1517838961
12.8367 15.8035 53.6315 32.3194170651
19.7946 14.9844 51.481 26.8546148688
15.8418 20.1404 52.6738 28.7435803733
17.0508 15.188 51.3725 31.4584599265
13.7245 17.0903 46.0183 27.9201796167
19.8369 17.4102 52.684 31.8992430019
18.3099 24.125 51.6392 26.0591820908
16.322 12.5176 51.6124 30.3309544544
18.3469 12.8599 48.04 30.7596782891
23.3719 24.4448 45.0285 30.2358472825
23.0502 13.1532 49.5825 26.8222006128
24.3047 17.624 53.7144 27.8131611689
24.7225 14.9131 53.418 30.9503057782
21.2071 22.3958 43.3965 28.6426559588
18.5131 24.1965 48.8245 28.6563441307
22.008 15.6634 43.1871 28.5687395757
15.0757 26.0367 6.27618 28.3226692347
12.7784 26.2769 7.96132 30.3116505852
22.9496 33.5187 4.7238 30.5382234141
17.5762 35.6416 5.4754 31.2103169433
15.9787 31.9223 16.7987 28.7653819715
19.9253 25.2502 7.33858 28.9003095966
23.9889 30.3373 3.97172 26.45724422
16.7572 28.3168 7.41761 30.3796871043
12.5086 30.6812 10.5952 30.7686228051
21.2065 27.0166 9.1945 28.2139402825
23.913 26.5492 9.78245 33.1913892679
14.0863 33.1593 8.23465 27.9658001137
14.7776 30.2072 7.1746 27.2418233089
12.908 26.2373 16.4281 32.8695094425
21.4073 29.3193 4.79512 28.4824483724
24.5675 36.7428 16.182 26.3610501141
22.1147 32.4236 16.7811 26.3695693542
15.4466 32.8073 14.1152 32.1473023165
12.9309 32.3303 12.9955 33.5096710519
21.2841 34.3259 6.99657 30.4758076058
15.0503 27.977 3.97905 29.6909653297
18.6169 32.7945 6.26466 33.3296546853
21.7321 24.931 13.9426 32.0448636957
12.8644 36.0304 8.3574 29.6738531019
22.5988 28.5492 7.08645 26.8813432362
16.3794 27.785 10.3391 35.6794094674
21.8846 33.4901 9.2304 29.4748334354
14.071 26.0381 10.5938 29.3790085779
19.9785 26.0536 11.5194 29.3435984551
24.7554 35.5781 5.47062 26.1484275991
21.9812 28.2868 16.499 28.4938321565
15.0689 30.7009 9.96052 29.4646736332
24.5808 34.5642 9.55368 30.8135928121
17.0168 31.5732 12.1247 33.9530051472
21.7513 33.1126 13.8918 31.0740270314
15.8876 32.2659 5.61279 28.8869853348
17.8631 33.5231 10.4338 31.8801346797
20.1744 29.6073 9.93441 32.165868222
22.6792 30.7847 9.00463 30.2419318854
14.8461 36.0262 12.0003 28.3110065068
15.5802 35.1869 9.26012 29.2672254641
20.8009 34.5662 11.6098 30.5460632121
18.074 31.1904 8.82876 32.055412681
19.336 31.1259 4.16316 28.7405752925
24.5959 31.0178 6.84041 28.864588475
18.8418 27.5088 5.86827 30.8722346095
16.4487 25.6208 16.399 31.4057326322
17.9912 27.6975 12.6883 35.2817457
19.4817 34.8837 14.6143 29.5548432639
22.1285 27.96 13.5857 31.8384656822
22.1048 25.0509 5.74096 29.9558126589
24.789 33.3876 13.9105 27.3510272323
18.8887 30.0517 13.8386 33.3263557526
19.905 30.2916 16.514 27.8961063103
15.7839 25.7648 13.7788 32.5321335539
21.2489 30.4506 12.4387 29.0927937852
13.0933 25.6916 13.3497 32.6117351524
13.8667 34.5936 5.44546 29.7948814303
15.2343 35.5641 14.6352 30.6096260851
17.9846 35.8353 12.4039 29.6932772183
12.2284 35.4052 15.1231 28.3330903888
12.3189 34.9007 12.4238 28.1255702164
20.0388 36.449 4.09641 31.2678156009
24.01 31.1839 11.755 33.3291770585
14.582 29.3381 16.5258 38.6853389995
18.4276 25.5104 3.87167 30.6972111333
24.5496 26.8993 5.76129 25.2019718644
12.6033 28.8208 6.26387 26.5761402555
23.7868 25.7533 16.8702 29.1862968803
15.1977 25.3703 20.1129 28.3742960663
18.8717 25.1286 24.5727 92.8452858052
19.692 26.3378 19.8371 29.9370001454
16.2124 36.663 24.1691 63.9812152401
22.2822 31.6031 21.6132 27.7305895337
13.4536 31.4333 20.2776 32.7824900262
14.5427 34.6982 23.325 32.526332768
17.7998 30.5531 18.4415 27.268971402
24.3985 29.3304 21.5378 28.9886388867
22.7219 31.6605 24.3277 75.1754941618
22.4171 25.595 21.3415 28.4142600431
15.7903 34.3232 20.679 27.3374737254
18.493 33.6143 16.6834 30.9900640815
17.8141 32.3079 21.0971 26.5669059847
12.5578 36.6141 24.6656 113.967475999
24.2944 25.6984 24.2925 80.3356028293
12.0241 35.7464 21.2754 31.1768499705
23.4933 33.6061 19.8437 26.0001290877
15.4642 27.5618 24.0672 68.8202591639
18.5135 27.7766 21.6637 28.7780597603
18.2482 35.7149 21.1931 26.4367457829
18.3183 27.9719 24.4773 81.9715430833
23.8356 30.4565 16.9937 26.1461932201
20.2193 30.0855 20.9078 25.7756823244
21.8746 28.3405 24.6156 84.6416792762
21.4857 25.6971 24.0295 39.7848811898
22.0995 28.1939 19.6401 30.483260941
15.821 30.5806 21.6402 28.191257551
14.9856 30.1492 24.2017 58.2314666877
15.9589 27.8181 21.1948 28.0292504535
20.2966 32.4396 18.9571 27.3617367739
19.9797 30.2809 23.6653 37.4020100732
12.8107 25.9763 23.5886 37.8376075022
15.9824 32.6089 24.4705 104.5250105539
20.9563 34.5148 21.2908 27.8103724706
18.7364 35.8887 24.1994 61.9831045516
18.5992 32.8705 23.794 49.8464955895
21.7738 34.6233 24.0894 61.1506289746
14.2925 33.4052 18.3171 31.7632135923
22.5643 35.1964 17.7162 27.9367835511
16.3296 28.1811 18.2962 28.1115862108
18.0093 36.0222 18.3513 29.7903302389
12.6464 35.6189 18.0011 26.2120227785
12.9102 29.5714 18.3467 29.0855472642
12.7289 25.5595 20.9008 26.7367997564
24.5893 29.052 24.398 67.8910385825
19.0185 27.4782 17.2904 33.1958613667
14.5689 26.8398 36.022 66.6890326138
20.3518 35.7788 42.5187 29.3033352147
17.2233 26.8354 35.8356 70.1432494141
19.139 24.9756 36.1473 57.7373095106
16.9849 27.2097 38.7389 31.6081502248
21.8027 25.8996 36.1242 47.1105951565
24.6517 25.408 39.5342 30.4437672084
15.6077 36.1628 39.287 31.0565419693
19.5451 31.4779 40.4812 29.9349925808
13.4368 29.9248 36.2472 48.1635221567
22.5031 33.6681 41.8444 26.4887398104
16.092 31.6872 39.0434 30.4031990833
21.4765 32.7342 38.3866 27.3442550389
18.2073 29.324 35.487 114.0801522072
20.8917 30.1513 36.5077 36.9178748701
17.4307 29.4628 40.6939 28.3970619808
22.6677 28.2528 35.2322 131.3251028453
21.725 26.4698 38.9697 28.8160288109
22.9848 31.1331 40.8308 28.5075283474
16.1765 31.1205 36.4457 39.709447123
18.8663 24.928 38.8758 27.683991858
16.8964 33.9396 40.225 28.0929521879
18.4149 27.2447 42.5843 29.6530352342
19.437 35.0757 36.2051 40.3548781274
21.3711 33.3036 35.6749 107.9758959123
13.7626 31.5086 41.1375 27.5539221517
14.1103 27.0327 38.6978 28.0478815033
14.7491 26.5013 41.8887 29.6689672188
22.5494 28.4424 41.384 30.412873928
13.5181 33.3595 35.7467 86.4153932458
17.2823 33.7984 35.7159 96.9512948468
12.9399 36.378 35.664 94.0503547475
19.4255 34.4246 38.9546 30.098899738
16.2266 33.163 42.8405 28.3648102757
15.4178 35.5755 36.6081 30.9586338048
24.0538 34.1785 36.1579 58.1906458985
13.7855 36.4557 41.9191 27.9336884989
20.4649 29.2321 39.0009 31.9411219316
15.403 29.1808 42.636 29.1158000346
13.0047 32.1963 38.4054 30.4514021745
23.392 34.8366 39.0652 27.5677985203
13.0208 33.9257 42.5384 29.9608648312
16.9412 24.8839 40.9859 26.8184288957
20.969 25.427 43.1498 29.6442197314
17.6536 35.7191 43.1818 30.3232508437
24.5105 28.205 38.6092 31.2125097309
12.8685 24.7022 38.6695 28.8528059372
17.4978 26.8969 51.4952 27.0171074431
21.6141 28.7846 45.9765 29.5092276465
24.2066 27.859 48.3136 28.7266898044
16.5492 26.2096 54.4737 29.196609763
19.4367 26.5706 45.7504 29.0026059068
22.2034 24.8489 51.9041 29.61524065
12.5823 34.0567 47.5952 29.7432809006
22.9311 24.4388 47.9919 28.874667189
12.8746 33.2288 54.0615 24.8505488266
18.5432 31.4388 43.4512 27.1658150403
21.4511 29.3791 54.0766 26.9885920303
17.017 30.9332 45.886 28.3222274622
21.6195 34.6477 55.0184 30.6916159146
22.8997 32.0028 48.9184 28.351777916
20.3649 27.129 50.9742 27.3580324791
12.9442 30.2967 55.8397 30.1081948943
15.8319 25.5341 45.635 28.337816786
12.8493 35.1507 51.2278 31.1747898006
12.8606 25.9785 53.4854 27.837436678
24.5796 27.0904 55.3213 29.7283173904
20.5246 33.0978 44.1416 28.7940579681
15.3148 31.6677 55.4137 26.5821267801
20.5974 32.1931 54.3472 27.3397424454
15.6351 29.76 51.5686 37.0510171262
16.9256 28.0713 44.6535 26.5110366205
18.0053 27.0458 48.3651 26.5005983044
21.3481 26.5546 48.2664 28.7467533444
24.2988 29.0533 44.5921 30.5636121992
14.2548 36.1006 48.8077 27.1761147038
15.5766 27.8993 47.4961 28.5648207465
16.4812 31.2685 49.0775 26.0379555745
24.1216 29.6946 50.4451 28.8646084187
18.9322 29.5147 49.2882 26.5634171524
13.4791 26.3267 48.5639 28.1255007986
18.7668 28.6406 53.9614 25.5853899389
14.6937 36.564 53.0099 29.5759328516
17.6892 32.6369 53.9371 30.9662427344
21.6758 35.5927 51.9225 26.9097438471
24.3203 30.1487 53.622 29.0299721806
19.8815 35.874 48.8617 30.218792229
16.1832 34.3471 50.2295 27.5530688473
19.051 32.4481 46.9922 24.4958282083
20.8138 32.5795 51.6472 26.8722485954
19.0062 33.3634 49.5401 27.6909871272
20.8488 30.7022 47.6893 26.8470762138
14.3414 26.6937 51.1024 28.7363525668
12.7473 36.7144 46.2052 29.8139859721
22.8404 33.378 46.3085 32.3676730411
14.2244 33.5032 45.0332 25.3337247113
21.567 29.8215 51.3143 26.2364000978
18.3466 30.4533 51.9707 25.3077433151
13.9547 30.8685 44.6296 27.2276958289
15.9901 33.8427 47.0976 27.2780213055
20.4675 29.1236 43.4082 30.119863417
23.7764 33.59 51.2819 30.3850250573
14.8676 32.5712 51.9617 27.6506798516
19.7071 35.1904 46.0871 26.2255020538
22.9736 36.4152 46.5059 29.8195031731
13.4628 32.1591 49.3353 27.2540427977
17.1537 35.2243 52.6231 30.1552965345
14.0716 30.1846 47.1872 26.6657266131
23.4346 26.4681 43.4315 27.117069497
15.3238 34.7426 55.3509 27.7384550912
20.0715 25.9874 53.9301 28.8702869829
17.176 36.2504 46.0442 29.9029814501
23.867 31.8827 43.7087 30.2474401126
21.693 26.6612 56.1266 26.4763813267
17.2964 29.5803 56.1202 26.9411032988
23.6929 24.4537 53.9677 32.7884712984
16.8383 37.0363 7.81205 31.8379585577
14.2565 39.13 4.86471 34.4974831708
20.7039 36.9615 6.77246 27.5077345505
17.5528 40.9856 6.56186 32.5109211921
23.2568 37.3935 6.56082 30.057765787
14.105 42.9305 4.82732 29.2783571372
16.1062 41.6633 15.3026 28.5630911111
19.524 46.6471 3.91626 26.8419132918
16.3652 43.7202 6.66405 29.7385691489
15.2131 49.0355 6.39892 28.8530388549
22.015 45.5456 5.37504 34.2969487378
16.6804 46.0262 8.03687 29.0733609514
17.7067 47.686 6.24763 29.1878600727
23.4634 41.6055 5.79429 30.5579418384
24.0666 41.5773 13.7651 27.9005811228
19.4147 39.5747 15.5601 27.0132181314
18.6908 42.0572 15.4059 27.587434024
12.9428 45.9639 6.47898 26.7291621014
23.5721 39.3192 4.58164 29.1885784754
19.9737 44.4761 7.06185 30.7136249427
14.7431 37.6655 16.7036 26.9998048617
20.6101 46.2192 9.15403 29.0279775912
12.6392 42.5594 13.9127 31.6950817033
15.391 39.3321 7.53891 30.0362623132
15.1242 40.897 10.4721 33.5796348091
14.2583 45.6932 4.00599 29.5262185204
24.4285 47.6543 14.6341 28.6025105315
20.934 39.2978 12.904 28.4871420836
21.4938 42.0069 7.58217 34.2810923334
18.8231 43.3721 11.9276 32.2764607333
19.5278 39.7153 5.18487 31.7727110002
14.1774 42.0071 7.89849 28.3646915752
14.4848 43.7196 11.8399 33.9227913609
20.2346 46.9354 13.7978 28.4191116192
18.3119 45.5329 10.179 28.5694012305
18.0227 40.97 10.5765 31.6131325752
19.5761 39.9777 8.64459 31.9675837521
24.3525 43.8464 15.5334 26.7233974768
22.855 43.2806 9.9029 32.9889024969
21.624 37.2383 10.9917 33.5434601779
14.3085 47.6366 8.57826 28.565265321
16.3334 46.8695 11.7362 25.8658764317
13.6242 46.1704 10.9691 27.6403476789
21.8073 41.7507 11.9084 30.824000628
19.1549 48.1977 11.5746 30.3547270071
15.8737 46.85 14.419 29.5065078955
21.0138 36.9445 15.2621 29.3122202154
23.5598 47.8027 6.6772 30.702859227
19.3284 37.258 9.59707 29.0065485337
16.1251 38.936 14.153 29.9459037426
21.2393 43.5274 14.1762 28.1698402145
18.047 38.8493 12.1174 29.3745639324
22.837 46.1145 10.8668 28.8471292666
23.3525 38.9475 14.6013 27.9089175454
16.5238 43.8836 13.616 27.3528803471
13.4261 46.9412 15.6398 29.1462206218
22.6805 45.8206 13.4902 27.2924242264
18.475 45.5314 15.2123 26.3393421713
13.335 39.9733 16.3539 28.9222054297
20.1241 48.7282 15.9995 29.9272972555
18.3714 43.823 4.5893 28.5451878624
13.9347 38.7442 11.9355 28.8310649644
23.9343 37.2236 9.26852 33.7421523527
22.9902 46.582 17.015 29.2204726757
16.5376 41.0772 18.987 29.9701246962
15.8876 39.411 21.1951 28.0518940271
17.2331 38.8504 17.2883 29.3719671159
13.6534 42.5186 17.9389 27.3129819437
13.146 39.1981 21.0538 26.8434343976
12.7041 45.1093 19.2353 28.2443874472
14.9045 43.0802 22.0771 28.93243822
15.0239 46.5701 17.9251 28.188287424
18.3198 38.5152 21.4425 28.5253117664
16.4773 48.7073 21.5754 30.2736726377
22.5246 37.0502 20.958 29.4806349146
20.66 39.1261 19.8966 28.9855713672
19.4296 43.9998 17.4486 27.7549667573
17.5749 47.562 17.3782 30.0890980584
22.4772 43.4283 20.3698 29.4468294429
13.1713 41.8515 20.6225 25.1565824142
18.6365 42.6937 19.8419 31.0642289411
21.1844 45.5665 19.4313 28.1724976924
12.7431 43.1624 24.09 61.0054129874
21.8827 48.8067 18.2493 28.577428714
17.2378 48.034 24.3243 60.740770601
12.926 39.0925 23.9205 52.3265956588
23.3418 38.5693 23.1778 28.3979055985
20.9915 37.6826 24.7054 100.6392765928
23.8757 38.1781 18.5071 30.4543154369
22.8468 41.0673 24.7768 110.0149299734
15.2338 46.031 21.0824 27.684161049
15.7121 42.4177 24.5893 93.0484840182
17.6829 44.7466 21.4326 28.8877385552
16.0485 39.6637 24.3826 75.7405667812
18.9957 39.5225 24.0478 47.270029234
20.3122 41.87 24.1986 50.866509834
22.9474 45.0592 22.7379 27.3369770459
12.4202 47.1932 21.6576 29.5714578305
15.561 46.0408 24.2787 61.8658052511
17.9143 44.1195 24.1835 53.3279694769
19.8243 46.4974 21.6559 27.0959735087
19.9352 47.244 24.4263 64.4511435195
20.8434 41.4013 21.2517 30.9659049593
21.0221 44.7593 24.7378 100.2841787836
12.6106 46.1117 24.4932 81.0782498605
23.3028 47.3344 21.0497 26.1947351292
16.0609 43.926 17.5975 30.7242232531
21.7474 40.1161 17.2038 30.4844362207
18.7062 48.8249 20.0357 27.856447143
15.1411 36.8739 19.5003 29.2993942384
20.4182 36.9659 17.8164 25.9435823054
22.0805 42.7382 17.0663 28.7110936221
24.4352 43.1626 24.1033 48.0159512429
12.1424 48.9107 24.2527 72.9715759584
15.8918 40.6567 36.035 64.1931052681
23.4179 37.5001 38.9623 29.1908411396
19.8479 38.0795 35.6092 92.0837854795
17.0089 38.0647 35.9736 68.2189389428
19.8661 39.052 38.2769 26.9949703271
23.748 43.3765 35.8604 93.5922714249
17.9152 46.0972 35.7148 67.6315333057
12.8533 44.5872 42.1974 34.8746222874
14.6612 43.2001 35.7434 73.960084763
15.0721 44.0916 38.4205 28.1417716515
20.6636 41.0936 35.6333 91.8283615573
21.9243 41.3259 38.0928 27.0079145235
21.053 43.8176 39.2736 27.6510447613
17.6795 41.8766 38.1693 28.6575551346
21.195 44.6683 36.5734 34.5343486999
18.4963 42.8977 40.5431 27.6929936401
21.7571 39.3983 42.2966 29.9521211177
14.4197 41.7024 39.7086 29.8236620132
15.1478 45.8941 35.458 86.5516267711
17.1175 45.9916 38.3522 27.3962431199
18.9131 43.3336 35.939 66.8101409547
21.2444 47.0147 38.6559 27.6538971996
23.9263 44.1623 41.4229 26.8373145741
21.0184 47.4866 35.746 100.2711723463
23.5183 46.4141 40.1027 29.4680113599
16.1194 41.7833 42.2426 28.8817143712
15.7714 48.4403 38.7625 27.7696151465
16.4043 37.9121 41.6065 30.7340768172
12.8413 45.2077 39.4579 28.0215273147
18.984 39.7029 41.0842 30.6483337225
17.0489 46.4904 42.8358 30.4567137927
15.471 44.1783 43.1181 30.8276829347
16.9124 38.8107 38.6766 27.1606024266
19.0402 48.6135 39.0287 29.2966322393
23.5784 41.161 40.6073 29.6430274352
22.77 38.3835 36.2748 45.6347191314
18.6686 45.8111 40.6323 30.0921891891
13.4384 39.0583 36.1508 49.1530237301
15.4481 48.22 41.5173 29.7917919002
12.4799 48.3449 35.5935 91.3872458791
24.3696 40.6484 36.3535 72.9031507349
13.7074 38.9425 38.8256 30.0985760109
12.8173 47.928 39.2402 29.4637989068
21.0075 44.2019 42.2506 29.8473672054
20.8094 36.8634 39.8407 29.7292400275
23.7547 47.9806 42.7328 29.7462739941
12.8611 48.6294 41.9166 30.1369193245
18.382 48.9681 36.0655 47.5420463209
23.3918 39.3678 52.374 29.6998965771
18.4323 42.4131 47.2448 31.6685451877
22.6193 36.9805 49.3964 29.5219843959
19.4401 39.009 50.6488 30.7225993007
12.4516 47.4355 50.165 26.733509848
18.1316 38.3526 48.2076 31.7283892714
14.6865 39.2937 52.2932 32.7816713244
20.0114 45.7813 44.522 29.1095461741
20.957 43.3761 46.0864 28.0387053023
17.6122 48.0811 45.1252 27.1930041252
18.2044 39.894 46.1231 28.5321989506
13.8488 42.5509 53.051 31.3747997196
22.7845 46.4473 46.5864 27.8852741878
14.524 47.9974 48.1138 28.9457372637
20.0576 44.3399 50.5762 28.7413647065
17.734 43.0861 49.8192 30.5403487511
17.4617 45.3944 46.6045 29.1510113065
13.5217 44.8595 47.219 34.4618275545
13.4194 43.0484 49.6918 31.099542032
15.5771 43.6192 45.581 30.736396956
21.6501 47.7778 44.2719 30.0376193845
20.9215 39.9649 45.5985 30.2065268103
13.9482 40.8023 48.1805 32.9257393467
15.2907 38.7843 49.3893 34.6011766264
24.1186 37.6572 43.2794 27.702984294
23.3094 40.5312 47.3774 29.5568500927
19.0753 38.4043 55.0189 28.9673005091
12.7488 47.0153 54.7169 27.8309180291
20.1871 45.8795 48.0922 26.1123510394
16.3388 37.3634 56.0433 32.1766128148
22.1331 39.9289 50.0437 31.6825176254
19.5208 42.9404 53.4764 32.1148891791
22.5372 46.9548 49.8364 28.2006573221
22.2743 42.0548 43.7145 27.5755669629
15.5621 44.5384 51.1671 26.4068176309
16.532 46.5853 49.2869 29.8744600811
22.5064 42.9932 50.2652 32.4393109531
20.0194 47.3938 51.3446 31.6376874806
23.6694 47.9195 54.868 29.976096115
18.044 41.2573 51.6856 31.2090476033
19.047 41.505 43.3006 32.1255965826
21.3861 37.324 44.6423 27.7280381611
16.8397 40.0407 53.9502 31.7561386401
21.8985 39.7634 54.9112 32.8547182354
24.3763 45.2319 51.5618 26.5394406283
19.053 48.2621 47.5888 27.3391941965
15.8563 42.6074 55.0421 30.4283025186
17.0454 44.7281 53.6875 30.0567268975
20.3262 42.0981 56.0636 28.1150848272
19.3306 36.9494 52.0999 30.8128258777
15.7508 40.9393 45.9173 29.9452754131
14.081 46.5512 52.0147 27.3162386316
22.2545 49.1405 52.544 28.3224635951
24.5433 42.551 52.4977 30.2314516783
20.0394 45.797 53.6504 28.1896424695
23.3241 43.4574 47.4314 24.6144903034
22.8435 45.444 54.044 30.8741320877
16.7416 46.6426 55.744 27.7763803837
14.6883 36.8169 44.4855 27.2238039736
23.1841 49.0833 47.8134 27.4497611314
15.2792 48.618 54.5334 28.918810371
15.4121 49.0531 51.8437 31.1855024007
23.3622 36.8594 53.9858 29.5955267077
22.8194 43.428 56.0667 29.0262892988
14.6006 39.6589 43.6153 31.8206942185
25.0631 6.65818 5.04894 29.5167913403
29.7997 1.76936 9.72797 28.2830399992
26.4644 3.848 8.08916 35.2093690862
24.6703 8.7006 13.2637 31.2750745431
30.7705 5.77798 6.02664 29.6380492717
34.7904 6.94637 16.0537 27.2347486163
26.8844 12.4536 8.13953 27.3848117781
32.521 5.66688 14.8744 27.6124309853
25.0872 1.91041 6.71698 27.4807497441
30.3561 0.683686 14.4169 30.492885721
27.5901 5.38806 5.91001 31.366465331
30.1726 6.80229 14.8241 29.2827709098
29.5096 7.594 8.71127 31.6617616318
30.5914 10.1149 7.57551 26.139234824
27.197 0.17482 5.95022 30.2474139031
34.1488 7.24301 7.00939 27.9935986422
35.8886 5.86309 8.61607 30.3044188442
25.022 1.70113 14.3798 26.0598692328
34.931 3.28842 10.412 29.6442829497
28.2527 10.9116 6.43806 27.5009639418
32.7477 9.89216 13.721 27.3756275824
30.7155 10.3495 10.2811 27.9297230788
35.4825 9.72136 7.57359 30.4895106003
26.2916 0.720044 12.2765 25.76088388
35.0558 6.15902 4.36214 32.5659335711
34.5636 3.26179 7.43563 30.3615636557
30.7147 4.24934 11.96 32.4014877982
35.2144 8.34995 13.7361 27.5512004858
32.444 0.497571 8.04544 26.6619632805
32.0796 3.79637 9.13352 27.0306112423
24.8063 10.9908 6.78561 30.7038421359
34.5991 11.7205 4.90232 28.8757834202
30.773 2.70984 6.5384 33.2254767661
28.0924 4.86578 12.4125 30.328323862
27.4829 8.36431 6.68423 31.3174218698
33.0392 7.67563 11.2741 28.1868325341
32.0427 6.31536 8.79026 27.1448400025
36.0453 3.68267 14.5593 29.1179104458
33.8657 0.731462 10.6832 32.8524287812
36.2417 7.36478 11.2089 30.1871422346
28.0327 7.42625 11.1702 32.0543265693
25.9357 8.90716 10.6956 32.3388911011
33.5316 10.6197 10.4971 30.6660404536
26.5272 11.6883 11.333 27.5030374538
36.619 5.04236 16.833 26.7934865307
27.3659 2.73298 10.7867 32.6982377036
26.442 9.94314 15.0731 29.0757616014
28.9299 10.9718 13.2005 29.081303638
25.5303 9.26006 4.57362 27.9445445585
28.8667 2.2411 16.3058 31.4783214736
35.7799 11.4873 13.3843 27.9598058359
32.378 1.93423 13.1293 31.1108728421
33.3881 10.9276 16.6991 35.4400620786
33.9457 12.0244 7.89118 29.1173057704
30.3721 8.51251 12.3641 25.759908682
33.1807 3.54728 16.6725 28.3049835106
25.7008 6.46243 14.3202 29.2286408251
30.5834 10.2218 15.4894 26.4553011671
33.603 5.04865 12.389 28.0987892729
28.2907 4.5629 15.2941 33.0012748703
34.6211 1.56023 15.217 29.9367926434
31.9263 8.48816 5.85119 32.1396064967
32.769 2.81704 4.67773 27.5661443612
26.2978 1.16246 16.6273 27.2820982211
26.8646 8.20057 16.9362 29.03216467
31.8544 10.5173 24.7361 99.4888812861
35.8611 6.29312 21.285 30.9298500027
26.6356 4.2506 20.3713 28.4848432655
29.2582 9.52675 21.8698 33.6998643772
28.5629 10.7394 19.2973 30.4955948566
32.3571 1.67209 21.8612 31.0885012103
29.7288 8.35734 17.1527 33.8362085792
26.6211 11.9485 17.2906 28.8821955202
31.1204 2.38746 17.9401 29.6554226219
31.9745 6.60314 17.9929 32.5445057727
28.8735 5.30655 21.4498 31.9989863295
25.484 11.1816 21.5887 28.4587429321
35.3644 3.47249 18.8938 27.9168794492
27.2398 7.54471 21.3384 30.1534491249
35.9107 1.77762 21.4857 25.4544305767
33.5029 7.59547 20.3375 30.8451474295
32.9116 0.898025 24.5473 109.8208965945
26.0168 9.40079 19.501 26.6499814645
29.1739 11.2503 24.2689 76.8212053073
25.2132 2.93912 24.3344 79.6151334226
26.2009 4.16552 17.6251 31.1921119491
27.9357 2.77572 24.1835 70.0447025243
29.922 0.617693 24.0845 66.3266066236
35.0578 0.597301 18.081 26.1152209624
33.449 4.19211 20.9847 29.2122945532
29.7763 0.820998 21.1913 30.0152039498
27.4042 2.0729 21.4556 29.7715802531
27.486 7.46611 24.2914 80.0716531006
31.7414 8.40829 22.6991 31.1635462382
29.0741 5.36437 24.3127 69.9196721377
31.6543 6.49295 24.5608 105.2274123726
30.9207 4.57691 19.6895 33.2932635259
35.2063 2.46903 24.0422 57.4155867004
34.299 5.08012 23.8936 51.8424390388
26.5267 10.2134 24.0635 65.0206340574
34.6931 8.75652 18.131 29.6979067031
34.9247 10.0473 24.4657 62.0639359539
34.0674 10.3531 21.6233 33.2939431924
35.9448 7.62115 24.5767 98.3146056014
24.9747 1.04399 21.3637 27.9963411993
25.0074 5.60976 24.0249 54.2368587843
29.2652 2.48798 36.2577 60.7328782187
35.8182 10.6123 40.7398 30.1143472675
30.5883 5.09559 35.8561 71.5593785477
30.4048 4.80244 38.5434 29.4298362307
32.0271 1.75087 35.6002 91.9720429793
34.8988 5.86273 36.8495 29.9796644063
34.3388 2.83606 35.6467 74.8587578551
27.2845 7.35803 38.4666 29.3174778102
28.6254 7.10244 35.8208 59.7483794449
29.4471 11.1982 42.0519 29.6013361652
25.4793 4.66953 37.9238 31.4426048546
26.6929 7.71008 42.3679 31.9648618329
32.623 7.10986 36.0169 71.6178138986
29.4671 9.78513 35.8587 68.7704585732
31.0281 8.64592 41.0856 29.9873174978
35.0938 8.78022 38.664 29.2164470998
32.0793 12.07 43.1819 29.592640491
35.1821 10.1667 36.1058 57.9410067381
29.8376 0.78708 39.9634 28.8891124297
29.019 11.7257 39.156 29.0900111292
26.6759 10.3506 35.8036 83.6438602638
29.9592 1.77444 42.6643 29.092106177
36.6251 0.97189 38.4612 25.0933204824
32.3582 3.9742 42.7672 30.255949612
31.5953 10.5034 38.8764 31.0519821506
26.7755 0.212698 40.1211 30.0657330229
31.551 2.28385 38.5685 28.3294301378
28.1568 3.91658 41.6148 29.6058149894
33.2051 12.0372 40.7334 31.4052783054
36.2978 5.62019 40.7625 29.8524580606
36.0108 0.570088 35.8536 64.5454842932
32.3465 9.91202 35.9151 64.0862894298
26.239 5.94025 35.4377 114.2505096615
32.6223 7.33707 39.0021 27.4553340286
32.5212 0.305759 41.8667 30.135645471
34.2791 3.52294 38.7317 30.2887287102
29.0046 6.59948 40.4251 29.1531608594
33.5677 5.32139 40.6347 26.8498654928
27.6848 2.98346 38.9226 31.7439816295
27.025 10.0313 38.4881 28.6213484466
33.5351 7.73529 42.5574 30.1847929736
25.9813 2.64078 47.9267 27.4304236501
27.9252 3.72968 45.5392 26.5450514521
32.2827 1.01184 46.4808 28.2226200387
30.3423 2.31556 47.7049 24.8580204452
28.5968 4.26313 53.4332 27.8536916391
34.7706 1.6013 47.1198 30.6524853364
25.011 11.3341 50.3188 30.54880101
28.5232 0.904704 44.753 27.5438292728
28.4927 1.67547 52.6099 31.0716828271
29.8403 5.05659 43.7286 27.7969575626
28.5809 6.80844 46.476 27.565665413
30.8712 4.81113 46.8501 28.9419233425
25.6725 10.1255 43.3493 29.48042576
27.4392 3.61601 55.9022 31.8271426238
36.1368 11.0134 43.7225 27.0839462312
25.857 7.21853 49.3786 28.8698082266
36.5078 7.9343 46.1365 30.8662002525
29.5795 10.9522 46.7885 30.3750846906
33.3403 1.76226 44.0122 26.281222282
28.9223 7.80624 43.6049 26.9988440181
33.0906 5.78419 44.9027 28.8724529437
28.8984 9.8917 53.0218 29.6743396928
30.9811 8.6267 45.8195 28.7780087556
25.5128 1.12402 53.21 32.0667683383
28.4079 1.64479 49.7016 31.0977952808
28.2877 4.55609 48.9888 28.2555094457
28.2076 0.754188 56.1057 29.8964089804
29.5695 5.90228 55.4808 29.3464395238
35.4063 2.6856 49.8835 29.4557383972
28.1752 10.7842 44.3123 26.0764938389
24.9275 3.50152 54.7018 28.2681881264
32.2989 5.87314 49.3798 26.6022874227
26.8568 6.12195 51.58 27.3887337197
33.3045 10.0446 44.2948 27.7837441214
35.8186 1.35809 43.2824 29.4689050782
34.9444 5.48951 49.8885 28.9205035672
25.9139 10.3219 47.6292 27.7209985494
27.8188 8.82315 48.1127 26.2628834394
29.6342 6.57434 50.5027 25.5503544025
30.5667 7.34329 53.1272 27.6140665614
35.0397 10.6132 50.0375 31.8359810967
32.3626 8.85929 50.1278 27.9400271264
35.7883 7.88338 51.0807 31.095498132
35.6454 0.98612 52.177 29.2117320427
34.8716 10.4775 46.9732 29.7125412386
32.056 2.30592 54.0472 29.8867663856
25.7439 0.471726 46.0206 27.8428071566
32.8369 0.307873 50.98 29.7830325532
34.8106 2.98061 54.2612 28.9869246997
35.0173 8.58473 55.2854 32.1709408282
25.9993 7.76601 53.4602 28.0961758638
30.9897 4.22537 51.7042 26.3780552675
27.1445 11.9276 52.1442 30.1456635666
31.8337 10.492 53.5529 30.9800055282
32.9119 5.43257 53.4837 29.0194972756
35.273 4.19914 45.4029 28.9991433018
33.3872 8.17916 52.6369 26.9812503189
27.9219 8.27937 55.2652 30.8879835385
29.8577 9.52879 50.0925 28.4224794141
30.6427 12.3796 49.9888 30.9404170387
32.0772 2.54208 49.6602 28.584558508
32.8829 7.8363 47.317 29.4666962167
36.2914 5.48907 47.6952 29.7215472446
25.8229 5.50992 46.9094 26.3284997789
36.3392 7.63638 43.4746 30.5701385315
30.8909 -0.0534292 52.8348 30.5124215066
34.9471 0.938854 56.1769 27.2906491486
28.3628 11.3234 56.1719 30.6414800831
33.1691 10.0159 56.2669 28.0693388542
24.7235 6.38597 44.3389 29.0096913038
31.0188 12.1623 55.725 33.0740682805
32.5324 5.28234 56.0456 26.6328179245
30.996 0.466015 56.2318 29.7283029218
25.9296 4.0665 43.3631 27.6893571436
30.1891 19.6383 4.72426 27.512538408
25.1707 21.7978 4.00264 29.7032609479
27.7726 23.9555 13.5282 30.13042914
32.0387 16.0331 9.69399 29.0965866014
28.253 15.2844 9.42527 28.0302859369
36.2241 15.1691 5.37326 32.0860532311
31.763 16.3896 4.66818 28.5618575279
34.2858 17.3337 5.28431 30.6568183949
29.1402 16.4911 6.99259 31.160605597
29.4708 19.3256 7.5564 28.1294979365
31.9866 18.6399 13.8416 28.0887491579
34.6155 19.4336 6.84615 30.4921107772
31.9595 20.0447 7.78118 28.3642226637
33.2535 12.772 12.482 33.3143029221
27.6503 19.2481 13.6416 32.5798246074
26.4057 22.6026 6.12656 29.4877532342
31.0071 22.4742 5.63362 31.2638424364
29.628 15.0357 15.5176 30.1120277221
31.5722 22.5449 8.71299 31.0072716675
34.2355 17.1996 14.0569 29.6886834766
32.9901 21.6692 3.79884 27.2373489521
26.5846 14.5775 6.48637 28.1646163499
28.6653 23.7865 4.74831 31.2183084132
35.3089 15.1847 12.3314 32.1429489076
34.5936 15.7416 9.73642 29.1525410771
27.3257 14.3888 3.85484 34.9643665377
34.1975 15.3355 16.5066 30.8807693964
28.5199 17.9896 10.4177 29.5256467515
30.391 15.1766 11.5236 28.6784127634
29.6725 16.982 13.4737 32.0328391182
35.1845 18.3635 9.31968 28.7045934613
31.7938 18.7922 10.3399 27.3883563876
36.6331 18.8801 13.3183 27.6042068138
27.3593 21.0 8.20919 29.2849150186
35.5509 14.0199 7.79465 27.8718159122
34.8977 19.1014 16.1256 29.6922302868
31.3543 21.4782 13.1905 30.8016671203
34.2316 19.6037 11.6668 27.4601813278
28.9452 21.7737 14.8152 34.7610523633
29.7171 21.0532 10.7916 28.9956069105
33.4257 22.0384 11.1659 31.8576426557
25.4197 15.3012 10.0157 29.6213936828
32.8143 24.0054 14.1924 30.2696446689
25.8226 13.7615 13.3148 34.2976952916
32.8324 23.1321 16.6499 29.9145942215
26.8046 14.1833 15.9335 31.1404911283
31.6656 15.1017 7.16866 31.2244563044
28.7745 23.6467 9.39863 32.0017764397
25.7726 18.4402 15.4791 31.292103206
35.5512 21.9641 5.09422 30.1992549664
26.7295 22.3203 11.2337 31.658132307
26.261 19.247 11.058 27.844518316
30.8945 19.0739 16.5314 30.7360383113
30.7211 13.1325 13.4504 30.6755346343
36.1882 22.8662 11.3795 27.794454898
24.937 19.2638 8.52132 32.7277984699
31.4792 12.5214 6.311 32.7205753591
35.6983 12.903 16.1856 32.5622066797
36.1103 21.5917 14.6585 31.3925162583
36.9857 22.9809 8.69611 30.110965055
29.024 12.5265 10.4676 30.0971479869
25.0447 19.4468 5.48401 30.6270492867
35.3604 24.3994 6.67198 31.1918321333
28.9137 16.9066 3.95607 28.8378070329
28.7661 13.2626 20.6812 30.956569331
25.1622 22.83 24.0069 68.4264353919
31.3534 15.2389 21.2739 26.6376896811
32.6329 13.4059 18.1674 31.9990919875
35.9871 14.0785 20.8179 27.294191264
25.4644 23.2813 17.3427 30.9405910976
27.7307 17.4559 18.9328 29.2043937184
27.3473 21.2847 21.1044 28.5209160462
28.7607 13.7232 23.6578 52.6549876694
29.5904 15.4692 19.0562 27.991557532
25.7094 16.4253 17.3543 31.0153960665
35.4884 16.6097 20.3084 29.2147012101
29.7225 18.0021 21.5565 30.2823460706
28.055 22.0031 18.4754 33.2348981436
30.9699 23.5476 19.447 29.7744899234
31.5598 16.3807 17.1088 30.4354094046
25.902 14.3096 23.6062 58.210462946
33.4282 13.1572 20.8247 32.3831240882
33.1557 12.9625 24.2049 74.7727355606
26.0828 13.9309 20.7831 32.785356473
33.5687 24.3031 20.4974 27.6226926779
35.8824 17.0915 17.6664 28.2395373852
25.7655 16.9121 23.4936 38.6653636857
26.5819 18.6932 21.3207 28.4273940643
35.3957 21.3828 21.2479 32.9929098297
35.0351 17.0642 24.4103 107.0621629332
30.8099 15.4997 23.7264 53.1702280473
32.9002 17.5523 20.7443 30.3490776705
32.7277 18.3877 23.4322 41.2402902233
36.2612 24.3652 21.7028 27.2697081266
28.169 19.4564 17.1678 29.7721558572
27.0697 19.2907 24.4765 93.811071933
32.9105 20.5357 17.4524 31.3917315785
33.0842 22.7383 23.1969 40.8808014133
29.4668 18.08 24.4899 107.0805675055
30.1601 20.7843 21.324 28.4893764331
31.0201 20.7705 23.9032 77.2960457368
32.7351 20.4032 20.1995 30.3687828367
27.8583 21.8317 23.9556 55.6546996735
36.6357 21.4473 24.0175 69.9244984805
29.9099 12.5523 17.2332 30.2422312672
36.8148 18.7473 21.5031 25.8646612153
35.6459 14.1802 23.7667 36.2778997983
25.4577 15.1784 35.7961 72.1405560987
24.771 14.0524 38.364 25.6023593887
27.4571 16.9298 35.4383 111.2109586243
28.9842 16.1282 37.8604 29.1216708691
27.3599 13.131 36.1757 53.7314539878
32.6487 23.0746 38.4443 27.2531496958
31.5982 15.8255 36.3518 45.7021348555
33.6493 14.5022 39.4593 33.3597440292
32.7892 20.7963 40.1338 29.6235532871
30.1382 12.8155 36.2627 53.2743712454
29.4068 24.2319 40.7342 28.9352877395
28.9351 19.4215 41.838 31.6785308742
25.1513 21.3048 40.0635 31.6590384233
33.729 17.2929 35.4169 116.6006625843
32.3892 19.538 36.0647 58.991273677
36.498 16.9712 35.7267 78.0432151159
26.1387 23.3427 38.6618 29.2643799735
27.9113 21.6304 35.5647 100.2773432187
29.5747 19.1211 36.4436 39.893201732
36.3741 22.868 38.321 31.070989277
25.773 23.395 36.044 55.7187826638
31.4046 23.4566 42.4729 28.9067033236
32.7416 22.2761 35.9271 72.8172664925
35.2699 23.5222 35.7246 94.2436653958
36.3549 14.3307 38.3941 27.394942782
25.9888 14.3758 43.0814 29.0195815271
26.4764 19.2447 38.5739 30.4872494331
30.1956 23.661 35.8802 60.6532398197
32.7976 13.1973 35.7633 87.611270361
29.3957 22.7376 38.3973 29.7202031525
35.3153 23.3411 41.9218 27.5837843944
26.0862 16.6811 39.7095 28.1326871408
25.9893 22.0502 42.7198 31.9459688855
31.4344 18.5548 41.8257 27.8797614524
34.4336 15.0201 41.9922 29.4229755514
29.0928 19.8669 38.9507 29.4075356761
31.3896 16.7965 39.5848 33.2454634408
27.5857 14.2013 39.0837 26.702020556
35.8962 17.1562 38.4519 28.8333245984
33.3151 18.672 38.5838 30.9506801686
26.1871 19.1741 35.9435 40.0337618962
28.918 14.0591 41.8541 32.9730598486
35.7949 12.7303 35.8957 63.3496368515
36.6634 16.5159 41.3942 27.7073981977
35.321 20.5024 41.1201 31.5290237617
27.348 16.9462 42.2066 29.7984018204
35.2618 13.9038 55.5661 34.6104149144
34.7569 18.1709 55.2418 33.0426551945
32.5771 12.7387 51.7213 32.6558386919
28.9167 20.9657 46.0152 30.510073719
31.4372 12.8995 47.212 32.0202739833
29.7791 14.944 45.839 29.6391371351
34.8692 13.6146 50.0648 29.4302116888
28.7375 16.7903 47.5506 28.5059496275
30.0752 18.4632 45.5844 30.0410366685
34.5028 17.013 52.5915 31.7865837603
30.4038 17.7459 49.5446 30.6363369309
33.753 15.1228 47.8918 29.1573472309
33.0846 17.5049 48.7446 29.4481294178
34.6799 16.4447 45.3659 27.5394063647
32.7127 18.7778 46.4367 31.0966930589
32.1809 19.3434 55.4972 26.1355225156
30.5533 23.5394 46.7854 27.4590814132
29.4893 20.0452 50.722 32.2683726808
31.8102 21.6468 49.5915 30.701926559
34.7058 23.1545 48.0528 33.539508147
30.8811 22.8255 53.4675 31.3096408137
32.5525 21.6537 46.5866 31.1287329172
27.8526 13.3831 44.8453 27.1470288499
26.7168 14.8794 48.8031 33.3483648604
25.8425 13.0916 46.9316 30.7828181383
32.3914 15.3513 52.6033 32.2572502372
34.1645 23.7775 50.6967 29.9932100724
25.9917 12.5383 54.5625 29.8342292266
29.0648 17.8171 53.6281 34.7522592049
25.6511 18.956 49.0059 29.0445808555
26.7471 19.2502 53.6262 28.3870213202
31.167 19.8745 53.2112 27.8495823973
29.8594 15.9079 51.429 35.759460659
36.7962 14.6959 47.4164 24.8031462387
33.3626 20.109 51.5131 28.6937610004
26.082 23.0132 50.7068 31.8518169661
26.8613 20.3778 50.9676 28.5522720438
33.3987 23.3506 54.5877 29.7932828591
35.1162 21.7809 52.6088 28.8377358361
28.2704 23.4783 54.27 33.5365372308
35.4415 18.5763 50.0301 31.8443465872
25.6102 17.9308 44.1656 31.7833848639
25.5957 22.2648 53.5234 26.1146543995
36.6523 22.5047 55.0797 30.848511009
26.4718 22.2184 46.8677 30.7509073036
28.3124 13.683 50.714 32.1131170439
36.21 15.2117 51.6093 28.4095910045
27.0112 18.6467 46.8247 29.7147766789
32.53 14.4719 55.3681 31.7317556267
29.0508 23.829 48.9149 30.2023898505
31.0996 24.0711 51.1127 30.5868340622
27.9876 20.927 55.8776 30.2230191555
24.8445 15.4795 50.7917 31.1158743353
30.4097 16.3544 43.4993 26.7275112413
33.5553 18.7544 43.7087 29.9119192425
32.5475 14.9621 44.0343 26.8607373043
28.9427 21.8216 43.3675 29.2894809874
34.0881 12.9075 45.8582 25.8716291227
36.3095 13.8623 44.0146 26.988377795
26.148 17.5557 56.2584 28.8085279566
33.2861 21.9053 43.6443 33.8013337257
36.6034 18.4377 43.7064 28.4733119304
28.037 25.1848 16.2625 31.2115412939
36.3596 25.5666 11.3169 26.444855363
36.7693 26.3992 15.8256 27.3136786136
26.9326 29.7193 4.37118 27.8612981235
29.0786 26.361 6.08478 35.1039012968
28.6003 33.792 16.1374 26.9563927581
33.0966 25.1942 8.056 35.8962235072
32.5179 28.5661 4.76396 35.8659326653
25.0383 24.8024 7.32179 27.7449314782
32.9757 32.6561 7.37142 29.6315787735
25.1263 30.6225 14.9608 27.240916124
35.827 32.043 5.07815 26.8830116788
34.8471 30.761 8.14146 28.132971638
25.9461 34.1702 16.1915 28.5380308611
28.6318 33.2952 7.18109 31.7208071856
36.6305 29.9409 11.3557 28.6685342094
27.1136 27.0026 3.99557 29.6991951981
34.1927 35.808 4.7548 27.6173453499
35.0289 34.6449 7.18182 28.9984489112
28.0714 27.5945 9.91015 32.0665221312
28.9463 25.7176 11.6669 36.7586122184
31.4407 25.9784 12.7732 33.0090953375
27.3884 25.7881 8.04471 25.8785021673
32.0322 25.6817 5.39749 35.2381901737
36.7273 34.5529 15.3097 28.0778749116
29.9786 29.1706 8.86091 40.2276878856
26.1347 34.3284 11.7376 28.6925907334
33.8889 32.4506 13.2613 28.6033685432
31.0767 31.3309 5.56081 30.2614888055
33.4681 26.0623 10.9438 34.0434048692
35.5969 27.0461 8.69133 28.0911807311
25.8607 32.6427 4.00503 26.8748450531
36.1241 36.4204 9.6624 29.0823091263
28.9896 36.1318 6.88195 29.2638637459
33.9941 28.573 15.1168 32.205318661
36.5843 31.9497 14.0257 28.357323812
28.8105 33.21 3.93309 33.8604004231
29.5131 34.8458 9.72936 30.1951901716
28.5254 30.399 7.01906 31.8261622252
27.6375 31.6618 14.3902 29.8504416362
36.2711 27.8196 13.2754 29.0126741931
32.1153 33.6999 9.71617 29.3486132647
36.4323 32.4926 9.83995 30.2503632136
26.8861 28.029 16.2041 29.4568718593
34.8679 30.8095 16.3841 28.6690499171
31.3368 28.584 13.8596 37.8479232113
33.3046 33.073 4.17895 36.7115322974
24.9452 27.8772 13.4471 33.424817802
25.41 25.3173 14.5086 26.4135978489
28.398 32.491 11.6166 34.7352764868
25.4398 36.7934 13.4626 30.6788072859
25.5825 33.6232 7.28672 31.0088728271
30.5107 31.5856 10.3815 29.2505018993
34.4753 34.1571 11.2486 28.2905098906
29.0678 29.7153 15.5455 34.1340960105
34.1113 29.1911 10.1963 31.892935593
32.3235 30.5383 12.1286 31.8455718234
35.0853 28.9836 5.78312 30.1229949207
29.7356 34.1112 13.5862 31.4037063082
25.5312 28.7764 10.6259 34.8867902852
32.185 33.7943 14.9865 31.5325322752
26.0037 28.5828 7.4414 26.8745872869
31.5773 36.6774 8.38207 32.5642483322
34.2355 36.0144 15.3426 28.1440785749
34.1221 36.63 12.3632 31.8846302697
28.647 36.5769 13.7419 27.2564518175
35.5671 24.3567 14.1769 30.3041891314
29.1353 24.8727 21.2799 30.1009482041
25.2176 27.8055 18.7554 27.04972931
27.183 25.6958 19.4812 28.5617473529
30.9755 27.0683 21.9015 28.8281656118
29.2752 36.2588 17.4021 31.4378303093
30.9882 33.4615 21.385 30.6658143576
28.5564 24.5954 23.8244 59.7509948206
29.133 27.8408 18.3085 29.7293722023
31.3397 32.6505 24.1611 74.9532754704
25.1616 35.0768 21.4203 28.2574280022
33.3193 27.0364 20.2878 30.0434062883
27.0337 30.246 18.8847 26.672590365
27.9353 33.8011 21.8477 30.9676556032
34.0794 34.2622 18.866 32.1129060609
29.6293 36.1581 20.3291 31.7914409209
34.1616 35.7774 24.3999 91.3132234141
27.3419 27.381 24.0555 67.8346021807
33.3065 35.2081 21.6302 29.1762174099
24.7363 34.5286 24.0077 51.0526881502
34.5906 25.6639 24.1618 64.4095325622
31.6634 25.0368 24.2804 97.034046624
30.616 25.3853 17.396 31.4438641384
33.1299 26.9087 17.4651 34.6087029539
27.0811 30.7392 21.8068 29.9970034569
28.9617 29.3927 23.9997 55.3962502262
29.4493 29.1869 20.5364 29.5557047583
31.2446 31.3039 19.7769 31.7956178841
33.8575 30.0199 21.0109 36.1589122952
31.7556 28.3753 24.3091 94.868814559
33.2947 30.6017 23.615 48.4005832211
36.2927 31.0776 23.7572 51.7271575811
36.6578 32.2929 18.3075 26.6781571396
25.638 31.7835 24.2755 66.2511173552
28.6342 32.3507 24.4341 82.1058622217
25.4079 26.7327 22.0106 28.0641748271
36.9206 28.9153 17.1807 28.9282030021
25.3448 32.4298 18.2584 30.7272889756
36.259 27.2971 21.4562 29.3494887421
32.7135 32.2004 17.2405 34.441482868
31.0348 35.8552 24.2872 66.2026061358
28.0438 35.3961 24.0763 61.1404239339
29.2185 31.5122 17.6168 30.9536270545
34.7321 24.8357 17.8825 31.4506421229
36.1439 27.988 24.1671 77.8183828294
36.8213 30.6686 20.785 28.7516913514
36.2643 34.098 23.4354 32.2199624795
36.4224 34.1252 20.593 26.7911930618
26.6698 26.2724 35.7459 78.547760397
29.3602 26.2443 35.412 110.2480572869
33.8762 36.0697 36.0802 52.4433586522
32.9769 27.9989 35.6722 102.0625093108
35.2397 26.2247 36.0586 48.1534729984
37.0593 31.2943 42.6674 30.428693205
30.3365 30.5502 41.8867 33.142220773
32.8304 33.9301 38.9525 28.7699244886
28.3954 31.502 35.5516 108.3717297079
26.9214 34.3312 36.1476 51.0701178393
31.0932 32.3307 35.5904 73.1243208365
28.0767 33.2527 38.5896 26.6345753859
25.4707 24.7526 42.2544 30.0846579601
33.1768 30.7683 36.121 47.6496050088
35.9618 31.5787 35.9023 78.7573723912
26.3369 35.3238 39.94 28.0078041908
32.4058 26.9629 41.0764 27.1499737816
31.318 34.8525 35.4053 93.5905659498
27.8153 26.38 41.0242 35.0350541209
35.2596 32.3809 38.6661 29.6368768326
30.2549 35.0513 38.2353 30.8458959603
34.6863 36.1178 38.5566 25.3518752479
31.3884 25.467 38.9639 28.4822027094
25.4747 31.1934 36.646 42.1970305339
27.9664 31.6353 41.0885 33.0208003486
32.6918 31.4811 40.8906 34.0052902315
30.8539 27.5293 37.2171 27.3393445574
35.1245 27.4441 41.9487 25.2017657003
25.3142 28.5264 36.0185 50.0184623099
35.9764 30.0271 40.1542 26.4136974385
29.2549 29.5529 37.56 31.6396624675
27.2158 29.0114 39.5142 35.2985807235
30.6459 31.8186 38.3825 27.1356030662
35.7663 27.3123 38.5088 28.0570558555
36.7172 36.3386 35.7026 83.2747436184
33.2657 28.8439 39.0052 30.1842775617
25.3618 31.706 39.3696 30.4878046842
34.6128 24.8813 39.6468 27.2039475162
29.8008 27.7732 42.2762 30.2467751577
36.0136 36.0705 42.2469 31.3149797381
24.7559 35.1159 42.4426 29.2795064712
33.4536 35.3936 41.7544 35.4182681742
29.1176 36.5865 35.5887 106.2733059202
31.7422 30.7682 55.3684 30.6566164148
30.9605 35.1361 45.9149 32.0166935174
30.6344 32.1338 52.8268 31.5848668332
31.3187 26.3031 46.7174 28.2872243711
36.2832 31.3648 51.2228 32.4228357398
29.1278 24.4669 44.4184 28.9545182038
29.4173 27.6463 45.0269 27.6454783827
27.8031 30.5066 46.1183 30.4132570041
35.4924 25.6283 46.4375 32.7669338274
26.6217 25.0082 48.2406 27.7870149799
33.0832 26.2102 54.8393 33.2468515368
34.9616 32.2414 44.7156 30.8407293305
32.8304 28.6346 45.1274 29.0337092241
25.841 34.4924 49.7134 29.1451459416
28.1442 35.7005 46.2726 29.1385476885
25.3858 32.7909 53.679 29.4783752087
28.4812 36.3979 49.1707 29.0198568867
27.0486 34.4974 43.8157 35.1153745735
26.268 33.6241 47.0239 30.0740455698
27.5851 36.5095 52.9188 28.3577587168
35.1032 25.5541 43.6103 29.3895737912
33.4791 34.2246 44.4766 30.256325967
28.7542 36.0398 55.8383 30.5963816477
26.8672 31.7586 43.6556 33.5060797121
27.5835 29.7017 50.4494 29.046920243
29.523 26.8415 49.0915 35.1185694449
36.4509 31.0405 54.1784 32.1429435801
33.7643 27.0034 47.8245 28.381107549
33.8422 27.0883 50.5238 28.8393510474
31.7565 26.6232 52.2741 31.2986276157
35.8801 26.8812 55.6061 29.9239655991
27.0877 27.9068 48.1641 26.0503890128
30.6595 30.3036 44.6906 32.1815115027
28.0434 33.8712 51.4024 29.0211837988
28.0245 31.998 48.7157 29.1168388346
34.6498 29.5097 47.3008 34.163839962
31.7114 30.6923 50.6528 31.348452554
26.5307 27.6078 45.4262 29.5322176546
34.5907 35.8297 46.8429 31.0283316173
25.775 27.7795 52.3055 31.8867503279
35.9219 33.8425 48.7232 33.1200046714
30.5942 32.6155 48.9467 26.2978046919
33.7542 32.0421 48.2801 32.2073565959
31.5562 32.4821 46.5001 31.016961503
34.4518 35.3892 52.43 35.2311743634
25.048 30.7051 47.0651 28.5840976309
28.9372 30.6738 55.2828 30.4440655331
30.7306 34.9295 49.9989 28.4900436239
31.7653 34.7509 52.6397 33.5087887986
27.945 26.5126 53.8712 43.0612363669
36.7669 34.259 51.3726 34.9901573623
30.0673 28.6146 51.246 31.4161938877
27.6843 31.3835 52.9924 28.8943415061
36.338 26.0625 51.1002 32.317772231
26.2449 24.8289 45.253 26.5320963104
34.0632 29.7709 51.4945 31.4717140823
24.5859 25.847 50.5329 29.7640159677
33.8944 28.9613 54.3271 30.7031125836
25.5118 35.7323 54.9101 28.9998878985
32.2466 25.9559 43.886 27.3339238686
35.4227 35.9192 54.8586 31.9000013731
36.9645 33.5532 55.5481 27.9250495936
32.1581 36.3165 48.0928 33.8739155328
34.3679 29.901 43.0824 30.0868318368
27.6405 38.5408 8.11847 33.4171402934
28.8983 44.8252 5.43199 26.4031739979
26.2497 39.5641 13.3275 25.8161424644
30.4011 41.3075 8.05409 30.0612890287
28.0899 41.0413 6.52664 32.2816018594
25.9045 38.9328 10.3537 29.7092382741
35.4634 38.0192 5.56982 26.9977682675
33.4968 40.5179 4.69546 32.2478376013
25.8589 46.8041 5.21561 31.0533414624
36.3398 42.0349 7.06164 33.2637100937
29.6633 42.4358 10.3874 27.1530618876
35.1563 42.0387 12.5562 33.7560457006
35.0535 45.4865 4.94203 30.3043019442
33.3996 41.0214 7.6967 26.317422412
25.1349 41.7404 10.5036 32.3588316438
27.0785 37.0249 5.11211 29.3924643007
31.1059 43.8637 6.81211 26.1689261279
29.2017 46.217 11.8078 27.4214174062
35.6711 45.5548 11.5846 29.4752814324
27.3795 48.1416 9.85692 27.5981973
31.3363 47.4161 15.973 32.9913932126
34.1419 47.3192 16.4531 32.656955707
36.1829 48.1932 10.7394 29.9654360623
30.5408 46.9339 5.42232 30.411959986
27.1792 43.8484 11.6018 30.1771164895
31.674 37.0948 15.9626 31.6061767319
25.6679 46.0205 10.3733 33.2145087518
29.8015 39.0802 10.1015 27.4200015897
32.0607 38.2428 11.5426 32.2334894172
35.8625 39.2891 10.1319 28.4632138026
33.1337 40.669 10.6528 29.1388189171
33.7972 43.9618 14.1008 26.7706914679
36.6878 37.9797 12.6807 31.5753513147
29.7874 43.3846 15.7041 28.7590259295
31.7566 42.7626 11.9672 27.3884014892
33.7098 43.8108 8.05175 25.9207362846
25.6067 42.2616 7.60319 34.7525345917
31.6156 37.1187 5.35576 36.845829991
36.2557 45.2543 7.45509 29.2657840049
31.099 45.3396 13.8641 33.9778896324
29.1751 45.007 8.94955 28.6423311562
33.3074 44.8372 10.4279 29.567455899
26.6775 44.7895 7.22568 33.853823818
31.6419 41.4287 15.0195 30.4946314306
32.8908 46.6775 7.06904 27.3323931118
26.9515 43.2186 14.4024 28.6507704426
36.7559 37.7503 16.278 28.4201434391
