19.8308 20.122 16.3947 26.2540008135
23.2503 30.6156 24.4004 71.8319102636
14.2542 23.2499 20.9378 28.0113550291
19.6234 24.5562 24.1511 79.0150820664
18.5946 24.1462 20.4113 30.69643977
22.9899 31.1857 21.3435 26.7544056928
22.1687 24.5237 23.4616 43.042845679
16.2573 25.7251 24.1222 76.2150021617
13.8064 26.7958 23.7598 50.8059894269
15.477 31.9475 14.9668 31.2957480307
22.2176 26.7087 14.8666 29.9685803964
19.6531 30.6599 20.8957 26.5934746722
18.8328 27.3798 24.2836 56.1844894422
12.6571 16.9636 21.1199 27.4603970724
24.0057 22.2216 23.8709 61.3152055644
18.1427 17.449 17.8796 26.7187891093
16.9442 29.583 24.4932 92.7904810044
20.4048 31.6003 17.9958 24.4869975847
15.5717 32.6013 17.596 27.288794333
21.509 28.6594 24.7363 108.5700830107
12.846 20.2999 14.598 31.6550189454
14.7151 31.9981 22.0203 27.2479768551
22.8913 26.9521 22.9977 28.3067738307
14.2348 28.6884 35.8447 87.596224526
19.0244 16.6927 35.6098 89.800037836
14.3266 29.3278 42.8357 28.5183345793
24.0922 23.6776 40.3554 30.3799219825
24.0404 20.8391 36.4429 41.7943575192
20.8031 21.9803 38.6219 28.1202944372
18.5281 20.8063 40.1163 32.1159597396
15.9011 18.7197 40.345 31.3063504603
19.1007 24.0365 44.9935 28.770607651
19.4342 27.2677 45.2693 31.2625557343
23.0749 20.2806 45.2424 34.8247014043
17.4224 28.3229 38.7975 29.5542154807
16.8638 24.058 38.3328 36.7484261935
16.3522 18.7309 43.5269 32.6612698454
17.8011 25.0588 35.5214 108.7346345719
24.1741 24.2689 44.2131 34.3143159685
19.6805 24.3982 38.8936 27.6525187447
23.2028 18.4669 40.3996 35.6637782002
20.2605 27.2561 35.7982 67.7890384595
23.0568 25.8777 35.8241 62.8106894154
19.2513 30.3243 45.0516 31.5133702004
16.7936 26.3527 44.1567 26.5526122751
12.7532 22.8894 35.4287 109.9295570555
16.1211 31.006 38.9671 27.4858742143
16.8432 30.8804 35.9257 71.9984909054
19.217 32.3636 35.8337 73.6850815448
20.9487 30.3103 38.6973 30.6359204971
18.619 31.3901 40.3765 32.9231323483
13.6478 18.2835 35.7697 95.3095888943
23.5751 30.1126 38.9969 27.2605505274
20.1054 18.7436 38.5294 27.2119851831
15.9844 21.3074 38.8402 31.9809273642
13.0698 22.4889 39.5279 35.2360954622
22.9323 32.6451 42.734 35.8924532844
19.3122 19.483 35.639 99.7025730999
20.4349 24.4647 36.1226 46.4186913522
17.8741 16.917 41.5984 31.9138136917
13.1206 24.2593 41.683 31.76128466
15.8248 24.097 42.7325 30.9059577022
13.7493 31.5341 40.6189 27.4895392498
21.211 21.4256 35.9402 74.5548854851
13.1128 27.123 40.5108 30.0883127745
15.9286 26.5085 40.4324 30.9087140804
18.7029 24.7712 41.6808 31.353398457
22.8181 27.0889 44.2042 29.9604380579
22.7617 18.4348 37.6869 29.2614118925
14.2422 31.9064 36.225 50.0552146007
13.518 29.2755 38.5215 28.0443181682
14.5295 31.6297 44.4169 27.3217328269
20.1339 27.6324 38.7453 28.200742082
20.5581 27.165 42.3215 29.5273139231
22.7822 25.6652 38.7535 31.1381115917
17.0147 32.2785 44.4067 31.8554063951
21.3804 32.012 45.3836 30.1374570063
16.3774 19.751 36.2632 54.6151387846
19.4287 29.5545 42.4605 31.1803602032
22.5406 28.074 40.8488 29.3838882645
13.1155 18.2121 40.5433 30.3613885133
16.8947 27.8825 36.082 54.8660276083
20.7127 17.639 41.5347 28.1480246963
23.8012 30.3386 36.2868 42.3776655844
15.4041 21.4027 44.1039 33.2309246154
13.4477 24.8209 44.5106 28.5252915265
19.6375 22.0157 42.3604 35.9242435033
22.2539 21.5041 40.8665 31.6904776146
13.1156 27.5272 44.8824 31.1581003823
13.7509 16.9584 38.0445 29.6090898632
16.7544 28.3711 42.2742 29.2409865154
15.5222 22.7058 35.8001 79.4030760039
13.009 19.1783 43.5043 30.0323397981
21.1647 18.0474 44.2741 37.007892637
18.1383 21.2158 45.072 29.209033141
18.8797 18.4417 45.8822 33.4257284188
24.3002 21.6836 42.905 31.2740726712
21.0187 30.0347 35.7748 84.5165890774
16.74 31.4853 55.3871 28.8997989426
16.7734 18.478 51.3009 29.2926249994
21.4967 32.1289 52.2171 31.1030266864
19.9898 17.6162 48.3654 31.2089573369
24.3796 26.462 51.5326 29.683851917
18.0595 21.6792 48.2449 31.1683256336
15.5475 20.1216 48.467 33.023755244
18.0425 23.3134 50.6193 28.9892282623
21.8689 16.9677 56.2567 30.3508765299
19.3969 31.9664 54.0204 26.5917462993
21.0715 20.4236 48.5595 31.0182222674
19.1362 16.849 50.9966 33.5483708465
14.6884 30.1204 46.695 30.4003126752
24.121 22.6781 53.5162 29.3498974388
16.9726 24.0509 46.9001 31.0489813369
21.9955 23.8295 48.9736 30.5843596587
19.4565 27.1237 54.8948 26.8656865776
18.9417 32.3025 49.8236 34.8692451432
12.4518 26.2374 52.1101 30.2650242926
14.2055 31.7038 48.9602 29.4434732118
15.4774 31.3124 51.5362 31.8658460574
23.3522 17.1837 52.633 30.0419159279
19.4703 28.0736 51.6763 30.3614257545
22.2885 26.2148 56.2113 28.838861101
23.5925 27.509 47.1706 31.0469103635
12.3408 24.9308 49.4897 32.8353556965
22.168 24.542 51.9305 28.6855796562
15.2907 21.5387 50.8235 28.8495676292
21.8681 26.9537 49.1655 31.5384345063
17.9477 20.8354 52.313 28.4429626159
22.9509 20.1604 52.2975 28.9424700378
15.2272 17.6646 53.4096 28.9798990625
17.9754 30.5977 52.0284 28.2865857346
23.7655 21.1694 56.1646 29.9574778645
20.748 21.7454 50.9831 28.9901721313
21.1978 24.0199 54.9738 30.8241031926
22.3935 28.4232 51.6921 28.3374252451
13.9515 24.1141 47.2687 29.1272108279
23.354 30.3642 46.0412 37.195339225
18.9952 27.454 49.125 32.7635604188
14.9928 24.5022 51.1267 30.4817583846
15.6655 24.3112 53.9688 30.1103061738
16.5583 25.9412 49.2153 34.7672459427
22.0945 28.4384 54.5833 28.3870679255
13.7284 28.9035 51.7636 34.1738334374
17.1621 28.6808 54.2114 31.641830168
21.296 22.0407 46.3253 31.3191770007
15.589 17.3156 48.9839 30.9576749391
23.7575 30.7675 51.7618 26.7296767649
14.3553 20.1614 54.0589 28.0048828678
12.5385 16.648 48.6176 29.5129219463
15.7573 27.2803 46.6225 31.0194744292
20.4615 19.9305 53.672 28.356960632
13.748 30.9692 55.5022 31.1518694081
14.0735 24.0857 55.9615 29.8185339516
12.7872 20.8898 51.7367 31.4974161193
13.9275 21.6296 46.4509 32.1299472573
16.7192 21.3487 54.6547 29.0164355414
19.4356 25.1842 52.3371 30.9347967711
19.6577 17.634 54.8281 28.7631575003
24.1787 20.2561 49.4153 32.517219053
20.966 21.3027 55.9086 28.8367304514
14.8142 27.1913 53.8278 30.2305445416
17.8086 29.169 47.4964 36.1419934834
24.18 18.6701 55.1796 28.3279074263
18.3286 24.4614 55.2315 29.3790621611
21.1882 30.7488 55.7417 27.6244079679
17.9712 19.3969 56.295 31.0758924178
21.6548 25.224 46.0024 29.7182275976
13.4701 28.1988 56.1948 30.761637899
15.6715 34.1527 5.53529 31.8885783254
12.8263 42.7306 9.91038 34.5639780528
12.3808 43.7511 7.29169 29.1161088512
23.7765 43.6859 4.69043 32.891874835
21.2292 41.606 4.77795 32.5925325292
21.7679 35.1945 14.2107 26.1923521254
19.1736 47.1894 12.597 29.0671649599
15.118 36.6758 7.07856 33.1171164521
19.6431 38.7763 7.84357 30.8894392116
16.2784 40.4253 6.52569 32.3405192018
13.4896 41.3214 5.9156 31.7788614625
21.9285 39.9576 12.7769 32.0234561877
24.8519 38.7112 7.53111 30.6341808916
17.8193 42.8533 6.83473 30.3612935737
12.7971 46.2197 6.48369 32.329436187
21.6229 45.0256 11.5077 29.4588831803
18.2354 47.2151 9.70313 24.6044547553
20.4798 41.4681 7.39378 32.1269612698
24.5446 48.2922 6.12333 28.3032030978
15.1945 47.7519 6.11295 32.4619100753
20.2203 42.7418 11.7847 33.7675993717
18.243 35.0719 4.00511 33.3186761471
15.3722 41.8851 11.3931 30.9676370543
23.6327 46.3685 4.23013 31.8740846692
15.9654 33.6417 8.29353 28.127287662
18.8834 37.7233 4.78012 32.2338980251
20.5956 33.9873 7.95616 29.7358706159
18.0246 35.4889 9.22646 30.1312292359
22.9892 33.5261 9.23624 27.7690377649
19.7917 36.7991 11.042 28.0910922873
16.3694 39.3595 11.3059 35.8412375703
17.2279 38.2578 8.68068 31.6139079952
23.2892 40.1868 10.0666 28.0892983378
21.2296 36.6479 6.90576 29.7513288126
22.7818 42.539 8.61385 34.4200740624
14.5874 42.4421 13.8947 33.0339190655
15.4003 43.1194 8.28545 31.1845392059
16.9901 44.0384 11.0592 31.0818466459
21.5682 47.5773 6.7775 36.3058344423
19.1563 43.7608 9.0563 31.2523980737
17.3823 43.8333 4.35985 35.4694211641
17.35 34.724 11.9462 30.9765027871
15.8974 46.1453 8.42147 31.0498640459
24.5522 35.8396 8.19291 26.8701246
21.0138 34.2814 11.5757 31.0475698503
20.7823 46.1432 9.13627 34.9785018785
16.1692 47.7662 12.1745 28.8487177345
14.6826 35.3001 11.6731 30.6584004107
22.7267 46.878 13.6369 31.0911472512
18.1828 44.5342 13.5641 26.2597967626
24.3075 43.8623 11.1646 30.438869746
12.4287 37.1583 8.31199 30.7730222463
22.3366 36.7857 4.49285 26.8998372135
14.0894 47.4032 10.2738 33.3793280401
14.1129 37.9302 12.3252 35.0318654901
14.4898 38.2073 4.76807 27.6133953671
18.4303 38.4409 12.7973 29.7948594152
16.8019 46.9589 3.91537 37.322910043
20.4744 33.169 5.03695 28.8234437087
21.9502 37.9302 9.66397 28.0235099151
13.0694 34.04 9.52805 29.5270025744
19.6868 47.409 4.31721 30.6854240128
24.4408 37.0099 10.7965 32.38341343
18.3043 48.4089 7.14394 29.9911913649
13.1151 45.3148 14.0629 32.9353122101
19.1964 40.9748 13.9992 30.1881931724
13.8097 33.843 14.1293 27.839061337
16.6499 39.5967 3.88227 29.4448140687
16.234 39.0284 24.2732 61.7741549267
22.8651 42.2219 18.9491 29.1967749697
20.5651 46.0623 15.28 27.9624931486
23.29 33.2773 23.9885 43.8417210931
23.5897 33.9468 15.941 27.329736084
21.9616 39.2119 21.4917 28.9097672086
17.5706 34.7261 23.9532 58.12314153
15.1309 35.3648 17.8522 28.3234103141
21.8842 47.894 24.0736 55.1308240523
19.4777 48.926 24.387 88.1229237346
17.2935 38.2106 16.6862 30.9234784479
23.027 44.6403 17.4047 27.4791894385
19.5319 44.5973 24.4595 84.6468300429
22.3877 45.0707 24.3454 72.6745987704
13.2033 47.9561 14.9481 29.9338284429
14.5456 48.8192 18.671 25.4913540754
12.9831 41.0373 15.816 32.5611049104
16.8064 42.5404 15.3303 30.5596617653
20.7543 46.0321 18.9157 31.9857368157
14.3956 40.94 24.49 87.036875564
15.9517 45.9509 14.7321 32.8532344309
14.1307 44.7321 21.6219 29.8739584511
15.2698 36.6114 24.4341 86.3339512264
23.3489 43.4658 14.9517 29.7905485083
19.7149 33.4891 21.324 25.8349396297
12.4629 43.0526 19.906 29.5487933227
13.0269 47.357 24.3252 53.2324195245
20.1516 36.045 17.6158 25.8476178974
15.2683 47.2799 20.7887 29.3176924975
21.8564 33.8492 18.0159 26.5761596801
17.592 36.2924 18.9224 25.2247507421
19.7826 36.6048 20.9568 26.7120382478
15.5456 48.6033 24.6358 92.4980901377
21.0883 38.7408 17.0601 31.8654306582
14.628 41.8922 18.2275 33.2377264302
17.1286 43.4818 18.0522 31.2003290696
12.6545 47.9826 21.7705 29.5672803057
18.869 40.5289 16.9912 26.8442529353
18.2337 40.9006 19.7309 30.5053132489
13.6825 40.8385 21.5915 28.7755831123
20.0219 43.1627 18.1351 28.6810752453
23.2456 42.7378 21.6027 26.272835263
14.8127 36.2419 15.0762 27.8233728324
19.8767 41.6552 23.9271 51.6414364055
17.7603 46.1132 18.9907 33.2854060867
16.465 47.6122 17.0223 31.6138158577
17.8308 46.1201 21.9832 34.2778001381
13.3851 34.3305 20.3815 26.5246267608
21.9584 37.748 14.628 30.6705010973
15.5882 36.9103 21.3791 28.2559007572
20.0033 36.6924 23.6801 42.7233534272
18.8595 39.1318 24.1097 72.8042596386
12.4355 37.4597 24.4886 87.8792435465
16.5741 34.2137 21.2688 27.8696875408
20.6139 33.5241 24.0416 68.1445600936
23.5898 48.5994 17.0573 30.4958132407
17.7409 36.5486 14.4452 27.7433359576
18.0518 33.4279 18.6049 26.5815041695
17.9924 38.5602 21.3951 29.4129662545
22.6113 36.9065 19.5541 26.0923292397
20.5455 41.5164 21.1833 30.7984622393
23.5361 39.4536 18.7287 24.1134969291
22.9818 39.0734 24.2294 64.6584315745
12.7976 37.6534 16.1697 28.3206616005
13.6349 44.7695 24.3419 66.5333649931
21.8481 47.5875 21.1387 38.7479159371
15.9716 42.9667 23.9133 46.3103963131
16.0377 42.7223 21.1985 31.3102183896
14.75 39.0247 17.7171 30.9971280128
22.7175 41.7511 24.4786 81.176729041
19.5127 34.7344 15.2884 28.196389138
20.7887 48.0297 16.8884 33.4056719678
17.0419 45.776 24.5489 77.8817514405
23.7622 45.4354 21.749 27.0439766679
20.7117 43.4342 15.222 27.4891906005
22.786 36.1712 24.2598 76.3323146321
22.3668 33.8986 20.8997 26.6544164438
13.2702 38.2775 20.2148 29.4360875238
24.4184 35.7202 21.7615 26.1400426852
24.3369 38.2775 16.3777 27.9413054754
24.1155 40.672 14.509 31.1998372191
16.0989 37.4884 35.9424 67.1052583407
18.5693 35.2555 39.1831 25.677359407
23.753 46.0659 36.1136 73.6287358245
18.1574 39.5961 40.2929 28.4203886976
17.8442 34.9795 35.8705 64.8724030488
20.6099 35.7212 35.6221 91.4880156851
18.263 48.8926 43.8872 29.3626722158
15.2231 45.1839 42.4563 32.0790051427
16.7642 37.1929 38.7544 28.0796266022
17.7964 39.7675 35.9096 71.2863158225
15.3133 41.3493 35.6367 84.3110208477
20.2025 37.655 39.4365 27.6151568486
20.0977 38.3492 36.5103 36.5065536983
13.8078 39.136 36.4063 41.3453486057
22.6992 40.0525 38.9259 30.1766461192
19.4325 46.3217 35.8213 72.1490942755
22.4175 39.9023 35.9364 77.0025427288
17.5939 43.7076 35.5956 85.3513750882
21.9417 47.008 45.6473 28.2778023506
17.0628 41.6653 38.3448 28.7795145114
14.5814 36.7674 42.125 32.1985341319
20.8253 45.113 39.2713 29.7012406136
15.3141 48.9306 38.4408 26.7250378056
12.7698 45.8708 43.6239 33.9115566983
16.5594 46.8611 35.7416 70.8670849851
21.5094 44.5823 36.2592 56.9865928916
14.5284 44.5905 35.7449 62.6971216431
12.8437 46.607 35.6031 90.0512811016
20.9905 47.6931 42.8755 31.7098003385
22.8481 48.7754 36.4561 35.0026871232
23.3502 41.9709 41.7 32.7094626237
23.8773 48.942 41.5741 32.1264088075
19.391 35.5329 42.1794 27.4516362412
20.8244 34.101 37.9026 29.9479259165
24.4889 38.1246 35.5909 82.3931310821
15.1445 40.6047 40.2636 28.4723133777
17.4369 37.6322 42.0171 28.6861379548
15.5672 44.3097 38.4273 30.9684941602
22.5633 36.9515 40.6489 26.4934649432
21.5871 34.2237 41.0056 30.7820564078
20.7456 40.5303 40.9515 26.9447334106
14.8921 34.2005 41.3601 28.9304749641
13.4969 44.3365 40.3292 30.3361837484
17.1254 46.8036 38.7086 29.3948475384
18.9309 43.9745 43.9274 32.0412492086
20.4223 41.6663 43.5048 30.8933188481
19.8215 42.6565 39.1676 33.589947416
13.0291 35.1306 38.6712 29.4758352823
23.4602 44.4917 40.5225 32.0642328997
23.7526 45.1875 44.5303 32.2607556765
16.9392 47.2484 41.6963 30.4164484789
19.3578 45.8005 41.8319 32.669226276
23.4613 42.6823 37.7852 29.1305496425
13.9525 38.1814 39.2706 29.7189088703
19.9501 41.9425 36.2388 52.7950942197
17.4554 33.6061 42.0527 30.1971385065
22.7991 34.7197 44.6555 30.9103833563
12.7548 42.6071 36.6909 33.7001507499
20.4986 36.0965 44.5732 28.3568233665
14.5795 34.6841 35.7434 81.5669362895
19.8071 47.4107 38.2849 29.5899474848
12.824 41.9432 39.4656 27.9995489045
15.0973 40.4258 43.0066 28.3358721982
17.203 38.9943 44.2563 31.4452756369
19.4625 39.8905 45.5869 32.1828700891
21.5928 38.4886 44.8301 28.1655205628
23.1489 38.489 42.6558 27.5474307042
12.3434 37.7235 45.3689 28.4807061347
16.5071 42.8861 43.1172 33.5476615486
12.4989 46.3343 38.6575 28.2710081451
22.8756 42.4622 44.8233 29.8601068751
12.6484 40.4776 44.0748 34.9326954433
15.9408 34.005 38.4974 27.893768825
23.7112 34.2969 38.2716 29.6841574365
12.5626 48.0572 41.6086 29.2534069712
15.147 43.1967 45.6771 32.3501398124
15.0965 38.1659 45.8166 32.7959848944
23.5599 35.3235 35.5725 86.3865349271
16.5442 33.1268 48.5778 30.3772065261
24.4653 42.4539 55.1937 26.4403983176
19.7054 34.515 51.3359 27.328221644
21.8023 41.0929 50.1382 25.8330059011
23.1574 34.3984 47.9941 35.2492637736
14.733 37.2144 49.878 31.1444010259
19.2082 41.1005 47.9295 28.1261324898
15.8825 36.3368 52.9219 27.2656876364
19.5698 39.4478 50.1923 28.4788641668
12.4914 38.319 53.9872 35.7223342364
24.2832 38.0173 52.9742 28.6132778518
19.0535 35.5031 46.8304 31.8267249102
16.6751 41.583 47.882 31.0510332428
23.8281 41.1254 52.1235 28.0495261003
12.6223 42.1582 46.2547 37.654219628
21.3323 43.0957 47.7142 31.6375766434
21.1302 43.6526 51.0842 25.8858331879
18.0627 47.6309 46.4407 31.4161038187
16.1736 45.2321 47.014 31.3789301566
12.6836 40.9226 51.1809 31.3321228334
23.7839 46.7828 48.807 29.7180791664
21.2991 45.6163 55.6586 27.2244321299
22.2831 43.6001 53.7819 27.3684147894
17.8807 47.1252 52.1193 31.4862493697
20.6665 33.5214 47.4506 31.9795912778
16.7073 35.165 50.6913 29.6467465447
23.6015 39.0098 48.9902 31.2144711259
14.5711 38.7414 52.1728 28.1809385921
17.2318 40.3506 51.5065 29.9115607355
21.5847 38.3597 52.3282 25.4874399961
18.889 36.8322 49.3806 34.6369478918
15.7239 33.1788 53.5487 28.2973390006
19.8579 37.5155 54.553 27.8683855916
21.9455 36.6867 49.8001 29.4267792374
15.8956 48.16 54.2044 37.5129231003
15.2633 41.7676 50.6742 29.2225629729
15.4878 44.354 51.3355 32.7039674619
18.5027 44.1981 48.8377 28.0198922747
24.3489 45.8157 52.5769 28.3459438579
12.4538 40.4201 48.2409 30.3754543046
19.8538 43.4735 56.1551 30.8507007971
15.0003 46.6338 49.046 32.3426696507
21.7619 46.5145 51.921 29.0301898229
22.37 35.3803 52.2653 27.3210661892
23.515 44.1003 49.3443 26.9315907033
19.7122 46.5751 50.0472 28.5393329511
14.1635 36.3948 55.3268 31.9003379085
13.0903 33.6387 54.5965 29.5661234598
18.3466 34.7818 53.8753 26.0728598653
17.2209 38.6001 54.0584 31.0045013774
12.7782 42.2878 55.9864 35.317179733
12.3461 33.7396 48.0889 29.4348463423
21.4021 48.1506 48.1995 28.5167229376
23.2514 32.9781 54.5174 27.4562445049
14.2784 44.205 53.816 32.9507098416
23.1363 37.2151 46.8181 28.6190318607
21.0097 40.7079 53.5313 29.6429653243
15.076 39.38 48.2294 28.776717216
13.5051 46.9067 54.3846 32.1622349924
15.9174 42.1147 55.614 31.7274740734
18.3575 44.011 51.9022 30.2229679509
18.1988 42.1629 53.8727 30.3755298637
20.1513 47.4761 53.7748 28.9838626045
13.467 47.4711 46.2484 34.1905778286
21.0403 34.9761 55.4701 26.6206065482
21.4607 39.304 56.4247 28.8510866127
24.293 39.6589 55.4298 27.808385477
16.4915 34.4165 46.1648 32.9004774223
13.7674 35.0064 46.0978 30.9496523187
19.3908 45.2066 46.2886 28.2686484448
29.1658 15.7148 13.7503 31.6846167338
27.6266 2.53809 10.726 31.7998500358
29.1483 7.0746 6.64448 28.2130532044
30.6179 13.2518 8.11622 27.8984737532
31.483 1.77787 9.06775 30.2042400256
31.5295 12.9423 11.3123 25.5346847754
25.4773 8.39321 11.5251 35.5402210111
26.3358 3.12723 5.76173 27.9014366828
24.9417 5.29434 9.65425 28.581431464
33.3362 6.77378 6.42405 28.4550433385
35.1879 8.55697 10.0979 30.7364399887
28.6858 1.96968 4.75755 27.0989348712
27.2549 9.94202 4.52458 25.9243599876
31.7118 12.127 13.825 29.483318665
26.0041 12.5511 9.82128 30.2904471784
27.0796 1.34991 8.00529 28.5223342323
31.4229 7.83813 4.52799 28.8977051775
29.9055 0.678055 6.90463 31.0512683709
33.579 14.6733 10.8001 32.962497179
32.6607 12.3212 4.80417 27.6546795776
24.8786 0.562153 10.8154 33.8683365511
30.2539 4.56748 4.60814 32.6506571385
28.1794 12.7857 5.76307 34.0092294855
34.5445 14.627 4.58713 25.5491020876
36.1695 11.8585 13.4327 29.7496442838
33.708 0.0518617 13.2376 34.2597680293
35.3949 8.96979 12.6891 29.175603291
29.185 6.39903 13.5493 30.2648139674
29.5585 6.35301 9.49536 31.1787591691
32.9178 4.11877 11.9428 35.0423088066
33.6606 1.13865 10.5553 27.5314036535
28.5074 9.72773 7.00494 33.2584467508
26.5549 5.66138 7.51512 33.6146262666
30.1902 3.74302 10.4385 36.8203591566
32.4404 4.36423 7.0488 33.8255028997
31.4246 9.43462 7.17018 30.6136789035
32.1165 7.75879 9.56268 29.1039122802
35.7229 12.7903 10.8975 29.0605183002
33.8994 5.30621 9.69622 30.4768927339
27.0696 0.604242 12.4629 34.5865399275
28.1785 7.70883 11.2731 29.3151306757
26.4766 15.241 10.4232 29.5241663469
28.2899 11.5719 9.23551 29.2440960363
35.7349 8.26935 6.77681 31.1060847261
26.5714 4.98594 12.2936 33.0968444677
33.6304 11.3506 10.0213 26.594654065
35.8905 2.6962 10.8896 26.0531217164
34.8199 13.9837 7.71218 30.1679365511
28.9407 13.6932 11.7513 26.556516658
34.2106 0.996875 4.64526 30.8844608536
32.8209 11.6913 7.47549 23.6665288857
32.7069 15.8563 7.41459 29.3301758819
35.0456 3.93594 14.1852 29.9186384359
35.8126 11.2073 6.55076 29.8196726314
31.9631 9.51244 11.5037 26.5980506646
29.0409 11.0235 13.8636 30.0963737302
26.9688 14.1011 3.50543 30.1296081453
29.4293 10.261 11.3446 26.7109059479
32.7324 8.84044 14.1273 26.4539479289
29.6818 15.7639 9.55475 29.1449151084
25.2483 5.92327 4.08901 28.4720816546
31.0277 14.5175 5.37547 27.9302705805
34.9777 2.8013 6.90227 33.0825085865
24.6239 2.61975 8.86433 26.9828405288
28.5553 16.0523 7.13979 28.7758685072
26.5879 12.2112 13.7929 29.1634341841
27.522 7.2543 4.06104 25.7516194139
24.8946 6.94161 13.9826 30.6753908491
36.7757 5.92849 9.95048 28.3844266175
36.5706 4.49373 5.34912 30.0649573484
24.8613 11.0916 11.8487 32.553032801
37.0672 7.37261 14.131 29.4264923557
35.5406 11.2646 3.75485 33.3645048776
28.1556 0.899953 17.7795 37.1505061934
29.65 9.42656 23.6395 38.1149574666
30.0553 8.23717 21.3871 32.7662778395
26.5699 0.462597 23.7758 57.0946564151
34.473 4.98823 17.354 28.7647898419
25.3957 9.61968 21.259 26.2081096994
25.6343 11.5284 16.1916 33.2684552616
27.753 15.2165 20.0025 26.6793844533
27.9894 12.7352 17.8377 31.8385543936
34.0854 9.35787 17.6634 27.3253702984
34.0924 6.83312 19.7815 30.3253406656
31.2181 14.7002 15.2342 29.7466810759
30.1096 5.71552 18.1182 32.4067848746
36.3699 0.953496 24.2587 72.1308219221
26.3806 14.9543 14.3929 29.4110261019
30.6974 13.0698 17.4826 28.7300891954
27.3992 11.2509 20.783 29.6288952693
34.1001 11.1812 15.1868 27.6496442656
35.6061 0.535819 19.8353 30.2745231366
26.7839 3.56853 21.265 28.3366106432
25.2841 7.68815 19.0468 26.4428933358
27.1829 10.4165 24.1794 85.0539703924
34.2164 12.7778 17.3747 28.2758130081
34.622 5.49212 24.478 108.661388994
27.904 15.456 16.8036 26.0907053479
30.1764 3.48709 21.4048 32.3235366923
35.0708 15.2568 16.7789 30.943733614
26.6959 0.362709 20.923 30.4214669025
30.0458 3.6765 24.3512 81.3827051802
27.0645 9.67846 18.088 28.30826765
35.199 10.2603 23.3697 30.3480409738
29.5463 8.44378 17.9754 30.6009858946
30.6465 4.34143 16.0009 35.8987830179
32.196 10.1483 20.7977 27.8701510811
25.7203 8.11637 23.6374 36.4773264189
34.0702 2.86825 19.8909 30.5799066601
34.9253 4.83334 21.8001 29.101538929
25.7521 6.16772 21.4227 31.9783375969
30.2358 11.8944 21.3321 27.0971118369
36.528 10.9307 18.664 29.2443890702
25.7393 13.2815 24.4161 79.7071133672
26.3082 5.10254 17.6715 30.4009901643
34.7179 11.7773 20.8552 30.0231652344
29.6949 8.58293 15.0198 29.3259008473
26.946 1.20788 15.1902 32.4915711738
27.8119 4.15778 15.0673 33.9445487831
28.493 3.54253 18.8373 29.5020656588
35.2576 14.3952 23.7625 48.1428546407
32.0838 16.0062 21.5366 30.1620642909
32.4678 6.84656 23.4423 35.1736802771
32.4365 15.1285 24.3444 96.6814854662
31.985 1.60335 23.9584 53.7921175037
31.8226 1.36984 20.8334 32.8776207617
31.6746 5.97091 20.8109 28.2433139831
34.5251 2.59823 23.9155 49.9857338037
34.3766 14.6641 20.0606 35.8831862955
34.5322 7.21729 15.7395 26.7898628892
32.4151 5.88042 14.2964 31.0244104578
27.4606 3.11323 24.195 66.4996555495
29.7096 6.6187 24.3907 106.9517824686
31.6782 10.5092 17.9526 29.5778196172
32.8004 2.62144 17.2109 32.656603139
36.1503 7.84725 23.8239 68.290657486
25.9631 13.7715 21.6003 26.8823695235
28.4749 14.1677 24.1794 69.1365059391
26.9964 7.49435 15.9228 30.7812563453
25.4676 5.18752 24.5198 100.833184612
30.4566 14.2242 20.3356 28.0823643018
35.907 8.84612 20.4592 30.9822006501
34.7634 1.39666 15.5658 28.6464627647
30.7263 12.5841 23.9975 67.2190622438
32.5809 10.0245 23.9011 82.6120198519
36.4248 12.9527 38.2529 27.5425880948
34.7968 4.96252 45.37 29.3535204922
26.0262 4.28078 35.8669 59.6569364859
28.0139 7.00563 38.9063 32.0197319784
29.6818 1.97175 36.9206 35.0070451357
36.5668 2.32523 36.162 69.7923731057
34.1114 12.8187 39.6862 31.246247143
28.7314 4.37938 35.6549 106.4172919992
30.6816 15.8161 41.875 29.2431675475
34.8057 6.73045 38.4518 27.1944024032
24.8841 13.2803 38.0695 29.9263917668
35.7461 13.0695 35.7036 69.7775054263
33.6434 5.83185 35.5156 102.2985418105
33.8154 2.83004 35.9178 61.7203242608
26.3351 2.57255 40.6647 28.5221652359
29.7662 11.7964 38.6984 30.9575199157
27.8722 9.604 36.0807 56.6358648136
32.2117 10.7777 39.6724 28.5297307369
30.1262 2.00568 39.6688 30.5728962919
32.4216 8.01269 38.8046 28.776308835
25.3279 7.87366 42.2202 29.6112503192
25.7817 5.9026 40.5373 28.4872151967
24.8861 15.1893 36.0343 70.5556294516
28.198 0.461033 40.5308 29.117633217
33.6627 14.6041 35.6985 81.1104621535
25.179 8.77546 44.9581 31.8517167984
27.4751 0.115981 36.3863 44.6848306112
27.7473 14.5338 35.8258 84.9202585088
29.3076 14.1342 39.9392 29.7325969088
29.2834 12.0196 35.842 82.7362533381
36.2604 11.3708 44.2675 30.0244407745
25.4874 5.81019 45.248 29.805045274
35.7352 10.1521 35.6804 74.0084805579
33.0121 2.09562 38.631 31.660685548
27.6659 9.87649 39.2089 30.2028270147
36.4157 2.66067 38.9489 29.2034340957
30.4891 7.25394 40.6679 30.3910233747
25.1753 9.49354 35.5521 92.4615787717
31.4514 4.99779 41.6369 28.9446366639
33.9065 4.39202 39.8162 30.7743428309
34.3574 7.95859 41.158 28.3229520062
35.0682 13.6272 42.4825 34.1521522554
31.8961 0.834161 35.4562 113.9434140412
29.7887 8.62751 43.1707 31.0998472654
31.8429 12.2361 36.0172 61.3243120728
33.3158 11.0719 44.8706 31.1293191904
35.7542 10.4386 40.8198 30.4234716067
27.2207 15.1734 43.2558 31.0096970785
26.5774 14.6418 40.7368 31.4997124974
31.8753 9.92141 42.4019 28.1372793323
27.629 1.53941 43.8684 28.251666748
32.7464 15.4703 38.5383 29.1966037504
25.0828 10.2925 38.2775 27.1692163873
28.6214 4.25789 40.2812 31.8101688387
33.8109 3.46155 42.8748 25.9501603722
36.4264 9.11978 38.3329 26.5617278151
33.1286 9.86131 36.0004 61.7994000374
31.5442 2.45389 44.1827 26.6385449637
30.6918 12.5493 42.1681 29.9614030359
34.7289 0.790797 42.5204 29.5797719238
37.092 8.83605 45.5523 34.9979555202
29.2203 3.52335 43.1929 28.764862597
25.0429 1.81264 43.0464 26.5971006255
28.8216 7.14105 36.2602 49.0798334528
27.8722 10.4806 43.9272 29.815335322
26.2934 10.3307 41.4744 31.0159597669
33.2396 6.75917 43.6696 35.0099243483
28.4594 5.24941 45.3169 31.7325167856
32.6077 13.7732 44.1626 33.3780757617
28.9018 13.1 44.1413 29.064668166
30.6099 7.09109 45.1062 29.4604442511
31.5704 7.54927 36.0464 63.7767703329
36.9482 6.66131 41.3968 30.6778578644
25.0635 1.39996 35.366 123.0308048343
25.5592 14.2556 45.0764 32.5750928747
36.343 3.76318 41.9646 27.3197319995
32.0045 0.060188 42.9311 28.7010365126
35.2398 0.148369 45.172 29.5623581445
36.1956 7.20752 35.6946 77.7073396908
28.4541 3.18759 49.4291 31.392436378
24.9581 14.6214 52.458 31.5604420746
32.0743 15.5538 55.3998 26.97467995
29.8963 0.452953 45.8407 29.3853691411
27.5532 10.3879 46.5908 30.5993251644
27.1339 8.12525 48.7732 33.8416611711
35.6296 14.9326 54.6654 30.2085234001
30.3864 13.4436 46.5199 26.5376271849
29.9815 13.5191 54.78 33.7265167541
34.6457 7.1387 49.903 31.7258762182
32.9409 2.52638 55.1585 30.698362763
27.6744 14.6642 53.2273 28.7447990912
25.8827 5.59415 52.7613 28.5346144963
36.4967 6.20716 53.9578 28.6427503918
26.4334 12.9245 47.5449 30.04708609
31.4162 9.33568 46.5031 28.1421696744
33.7206 9.21279 48.0876 35.5464300989
29.2941 7.77986 54.8594 27.2396077297
34.3197 2.71758 52.8421 29.8011768442
29.8368 11.2216 47.7757 25.7433366614
36.4874 12.0988 49.91 32.8370782996
30.3263 2.00108 55.0453 28.4274865918
32.9953 14.1164 47.2996 31.7066862968
32.0377 13.8329 50.281 34.1426771814
34.7709 14.8069 51.1856 34.6070322439
26.972 3.16761 46.7364 29.786865221
26.3164 1.53748 55.1295 32.0427657261
32.783 5.27859 55.9002 28.5436057012
25.2315 12.4855 50.5061 29.5135034718
34.1686 1.95118 49.586 29.0237605749
25.5353 3.48975 49.7635 32.1949414861
28.1789 15.1744 47.5231 29.0138695161
30.3429 6.88727 51.1062 32.3058692478
33.8892 4.57316 48.8456 28.7959023855
36.2125 6.26837 47.1364 29.5316907664
28.9603 10.914 55.1384 27.0373436624
26.2395 7.84204 53.9218 29.3605218174
29.7507 9.86825 51.515 30.0668059481
26.7035 9.16303 51.3563 26.988506106
32.0773 11.1898 50.1411 31.1279318274
35.0977 8.23077 52.3811 29.1031041581
33.7576 10.6901 52.6001 30.5921564134
28.2131 12.177 49.9903 29.6914520637
32.2555 3.15059 46.7418 27.5133350053
35.3827 2.42354 46.578 28.7446610163
29.3766 15.0688 50.945 29.8457882431
31.7661 10.0728 55.832 30.4819257896
32.0905 0.650058 48.1345 29.6398172697
29.9197 7.53716 48.2923 31.2413845087
30.3529 2.72568 52.0433 31.8708092978
32.8495 6.31537 53.405 29.4170164912
26.8484 4.03918 55.4259 25.9866318889
28.5678 4.89573 52.0228 29.2737195913
32.4269 4.37934 51.2773 28.6133797583
29.2457 4.85406 54.5669 25.7040852885
31.6768 8.87825 53.5504 25.9400898336
33.3397 12.8937 54.4936 29.9874412665
27.2561 0.237857 47.493 31.3686837338
25.4403 12.0877 55.0304 27.9075907601
27.5583 11.5022 53.1048 26.4517638067
36.2555 12.5215 52.9173 28.4357918434
34.5106 11.7664 47.4918 32.426196761
30.0806 4.72907 47.5848 30.9439535702
29.9383 0.641717 50.0864 29.2169826672
35.3654 6.37275 56.5735 29.5099755788
25.6201 22.609 4.91888 27.6313958737
27.0302 20.3845 5.53782 32.6591076432
31.8321 20.5118 5.52565 26.3141937513
35.0932 21.6966 6.27567 28.3288555444
33.2006 17.4632 5.03132 29.1331409759
27.5599 18.2329 14.1414 30.0139062148
26.7248 31.7884 10.8506 28.3192336407
30.5571 22.4413 7.1076 29.1902822057
31.3238 26.0816 7.25458 31.3658705344
33.9953 24.8116 7.28335 30.3817616765
25.5863 27.7229 9.59224 28.9098102433
27.46 28.9084 6.50129 29.6131720481
31.6169 28.7986 6.18236 28.6269190908
34.2932 28.4877 4.92768 34.1671879312
32.8075 31.3001 8.77268 31.681664913
31.4133 28.1314 13.6716 31.8354606883
29.4363 29.0436 4.61973 31.6779066232
26.0994 16.3595 7.8899 28.7915768609
32.1371 31.199 4.68106 26.6244518668
25.8575 17.9119 4.60902 32.9545688454
34.0403 32.0828 6.58677 29.6752687411
29.8032 24.6832 5.2614 29.127514749
33.4558 30.1026 13.2057 34.0442108301
28.6612 20.9938 11.7446 27.2524656461
27.2598 24.9839 12.1625 31.2386592736
29.8105 23.5928 12.487 29.6293364515
32.0763 18.4712 8.11495 28.4852168079
36.0944 20.9842 10.5307 32.7848726417
33.9274 26.6818 13.1989 34.1155758041
30.0054 30.8275 13.2453 29.8056260861
35.458 25.6354 9.46927 30.6914679947
25.6795 24.8813 8.0904 29.2396774078
31.5837 21.0682 11.3016 30.3984991262
28.9153 24.4277 8.81683 27.3377980727
34.4017 20.1702 8.34993 28.06730036
32.7724 22.4597 8.97932 28.6303663327
34.7189 25.6274 4.73811 32.4769484663
28.3102 27.179 8.35646 26.5243610109
30.5189 29.476 8.48515 30.7816042696
30.0552 27.8756 10.8531 33.100076041
26.6413 18.7001 9.28652 32.8220419091
34.9345 30.429 10.5285 36.3547361088
24.8384 18.7774 13.6252 31.6561686105
26.0088 30.4679 8.41026 29.5515988928
28.2417 20.7179 8.08838 29.4702778504
34.9057 22.4796 12.3261 28.3784574204
26.8538 25.2306 5.49804 28.9984972868
28.7033 18.0018 11.3884 28.9300849844
31.4986 18.4128 10.9021 30.46546101
33.0802 21.1155 13.8282 33.3378666673
35.7057 18.5239 11.9575 32.5386844581
33.475 16.9741 11.8958 31.7351722976
29.6928 18.4256 6.4988 27.3372899543
27.0259 22.5836 9.70077 26.8734620442
25.2168 21.1669 12.041 29.4041237259
31.1687 25.1816 10.3818 28.9200645238
33.7123 24.7263 11.189 27.8049848134
25.121 27.9279 5.29317 29.4076594442
36.147 17.1477 5.395 25.9248906982
27.3802 27.5405 11.7544 27.3042655212
36.5929 19.798 4.53654 28.5174779696
29.7468 32.3189 8.18088 30.1145968709
27.3893 30.0182 12.8375 30.2382833517
35.9787 28.2768 9.23167 34.3827522817
36.4277 28.868 6.60284 30.8732510964
29.4342 20.4014 3.83977 27.8557429998
33.2661 22.6964 4.30283 28.9215387062
28.3155 17.0191 24.205 56.3617846633
33.1188 18.9794 16.0118 33.5763918795
35.1459 20.1421 24.0847 60.9155882097
31.0929 19.169 17.9648 29.8243149952
26.9612 19.1348 20.5866 28.7265977324
32.5359 22.5881 20.0135 32.1212122232
30.8673 21.9166 17.5938 30.5244272962
33.5186 16.5295 14.8465 36.0404352917
26.3815 24.6256 21.0071 30.0581354253
24.8424 22.4698 19.6451 31.3924374125
35.5726 29.6477 14.8729 35.3995564758
25.695 30.1023 15.736 28.4579334211
28.1855 26.3907 19.3984 33.7462881986
34.2134 27.77 20.5209 30.1194325825
32.0465 26.7425 17.3564 30.3461709842
32.6746 25.3708 23.9936 59.6389036607
28.9852 24.9775 15.1705 30.3649093198
32.9788 29.0168 18.453 33.3550793067
29.8743 27.5097 15.7654 29.7743289318
36.3693 23.4049 22.3462 30.819180699
28.2566 20.7371 23.9836 55.3153460111
28.6937 31.7532 15.834 29.0154035
30.194 16.3994 17.6799 32.682268164
35.5492 30.0611 17.5719 31.252045315
28.5611 20.9681 14.4805 33.5261866296
26.6796 22.8601 15.6463 27.4140066945
36.1306 17.3813 18.2379 30.3861884464
27.4012 21.3389 18.6458 28.7152985815
31.5271 18.7704 20.7838 28.3309590096
31.5766 23.1611 15.2082 30.9216909494
35.3472 19.6104 17.3875 31.900365935
29.0232 29.8573 24.4422 80.867402035
26.0099 24.3023 23.7698 48.6436892912
28.7307 23.745 17.756 28.459438988
35.0582 21.2614 19.4414 32.3318536821
25.3406 27.3326 21.1407 31.0829831353
27.39 29.5326 20.1196 29.9297088196
30.5193 26.2386 22.4496 27.4165204863
28.1344 28.949 17.1471 27.7139102672
29.6501 30.8051 21.4338 30.1697425257
31.5075 20.9097 22.4642 25.5341526311
31.0628 25.3164 19.5121 29.1960214486
25.4135 24.7635 14.2998 25.2717823782
25.6003 31.1932 21.6943 26.3627906955
25.3898 27.0252 16.1491 35.0589933302
34.2721 22.5563 23.7232 47.0829085713
36.5545 26.9525 14.4359 33.8343222755
30.5118 30.2505 18.7177 31.8907758364
28.4247 26.7194 24.1294 69.4189448367
31.3075 22.6029 24.6803 107.3582441683
28.0782 32.6421 24.0115 48.8196568994
26.2753 30.0983 24.2399 62.6552469386
34.5638 19.1988 21.4458 30.9698353746
30.3795 18.7622 24.5539 92.1396158302
28.9753 17.2997 21.5833 28.3136987166
26.2773 17.2764 18.3877 28.1490320116
32.8761 32.4851 24.2935 59.5028122609
36.4643 25.6436 19.7303 28.1673901261
29.0059 23.8683 21.4734 27.2625859925
36.7176 31.5234 22.0997 29.7350810114
28.542 23.6788 24.4688 85.7011813306
25.5602 20.0313 23.3152 32.5242024959
31.647 28.6657 21.7082 29.8139716915
28.2768 18.9229 17.0 30.0699920869
25.5309 17.588 24.4482 111.7182958716
29.0685 21.0714 21.2931 27.0418103336
33.876 24.8214 21.4819 29.2376943539
33.5493 25.1727 15.7692 32.3021655787
25.4243 30.7872 18.2956 27.7153520438
36.1803 16.8091 21.0928 27.9280567705
25.4421 27.4017 24.1936 76.9467265794
36.6111 17.2113 23.99 65.2202343517
31.8066 29.8994 24.1364 54.0508428496
33.2006 17.9473 24.1532 63.1026785335
33.8336 27.8801 24.493 113.671656795
24.9684 16.4797 21.6433 28.9954903837
35.7876 23.9106 16.4073 33.3323081439
36.6887 28.8558 21.0871 31.332804359
36.4924 19.6945 14.5388 32.28615419
36.3693 27.9391 23.7876 40.7286670904
36.9128 22.2684 14.4633 29.4745962548
29.2358 30.2553 35.2058 122.3325285853
26.3187 19.5274 35.6586 120.6560571345
29.1368 17.1718 43.4641 31.2551956433
29.2763 19.3629 39.1926 28.028325542
35.6541 19.9743 38.9238 29.1878818162
32.9538 21.4292 35.5941 95.5701796185
35.4044 16.9945 38.619 30.3886149612
29.022 24.9362 43.7211 28.8971014821
25.7928 31.6543 42.5004 32.7119277287
35.7551 22.1101 35.3179 110.558007407
27.137 24.799 35.5619 87.507898119
30.9798 23.3535 36.067 50.4607650389
32.7947 26.5772 38.6395 25.6680875821
36.5999 22.2076 43.2455 27.7312836095
32.9808 18.6713 45.1615 31.7331411524
24.7778 32.73 35.7217 91.0328592988
28.0932 27.7982 36.0305 40.7471833838
28.9598 24.7853 40.05 30.814136537
30.4046 27.3418 39.6658 28.1685641813
29.4313 29.4809 43.5563 32.314514537
26.8738 25.4434 38.2972 27.1221267731
30.298 26.109 35.9645 59.7571484598
32.2514 27.9112 35.8126 71.7179052514
24.4374 23.7236 35.5764 89.7147815698
28.018 28.8017 38.5534 30.6191530866
27.7876 32.4554 36.0447 47.8630501417
32.87 19.476 37.6102 28.2537596117
25.1134 29.3391 43.9173 29.4612423964
32.4152 17.3819 36.233 49.0777566235
29.0965 19.5667 36.3844 45.5312682204
29.6675 16.6669 35.7976 92.0370382001
35.1417 29.9196 38.5502 27.6072598781
34.5352 29.8625 35.9496 54.1583854303
27.7085 18.9467 41.4712 33.7690797117
32.5874 22.0602 41.1484 27.7546750226
33.7985 25.2347 36.1447 56.8442808885
31.8089 19.5516 40.3082 26.896340274
34.1863 22.7468 38.2366 28.2432768377
35.5225 17.2856 35.8496 78.689205232
25.2886 23.1737 38.0648 26.8866907407
26.5445 24.7997 41.9779 29.8782755686
27.8274 21.9793 38.9383 32.1627494434
28.6157 21.8767 43.7998 30.4687514396
25.1682 27.3206 41.9262 33.3609548965
31.2187 23.3822 38.9069 30.6803618304
31.7515 23.2118 43.6902 30.6305274485
33.9218 24.9869 40.5776 28.332003579
30.4216 27.0827 42.4522 31.1857613568
32.8556 32.5453 40.2922 31.2907322769
33.2929 29.1747 40.4768 27.9248375356
33.2254 26.841 42.5991 28.775233858
35.7753 28.4699 45.0924 28.0639472071
31.5013 30.6417 36.5475 30.4811575184
28.6072 31.3327 41.6567 30.7922292744
30.7017 30.4866 39.6294 30.4215079689
31.4734 30.1169 45.3278 30.2040653447
36.3355 24.8712 42.3589 30.0579638595
25.4018 27.8354 39.0736 27.5767627047
35.9897 30.3398 41.9215 29.3796633247
26.5242 21.6115 41.8394 29.827143035
30.5163 20.1811 42.9306 30.5809696852
33.0549 16.9115 41.0441 28.9626005197
36.5901 24.5452 38.4372 29.2097755737
34.4232 18.0548 42.9608 32.1330606182
25.7152 17.276 40.3282 35.1991972192
27.4408 28.7172 45.2284 31.3752081188
33.6196 29.5856 43.6587 32.3770798196
33.488 25.1001 44.9221 27.9503998775
35.8045 23.5131 45.49 27.4795137288
34.9774 20.5891 42.0222 31.0768651275
35.8045 27.3211 38.8239 26.7932674259
36.2278 27.1745 35.9959 61.5907231478
28.6551 22.3208 36.1162 54.482113166
27.4838 31.7247 38.6922 29.3859263014
25.1581 27.8437 35.9146 73.3853978388
25.6925 17.4587 37.3751 33.6532988355
25.0031 32.1804 39.8996 30.0900141686
30.0754 16.5972 38.7674 30.1038229091
25.3862 18.1858 50.482 29.3465456459
31.1332 23.4104 47.7887 31.9376814147
30.1668 19.6648 46.3282 30.8096686851
32.2303 21.8585 46.0603 28.6256301091
30.6683 23.3388 55.8687 27.3787855018
35.6259 18.7843 52.257 28.620970917
27.491 32.4971 55.4179 34.8620693609
32.9957 24.8132 49.4188 30.127969344
29.7909 19.2249 49.2587 36.2010550902
25.5472 26.7479 49.2499 28.0309473708
25.3262 19.5289 46.5986 37.6200630126
28.1179 22.8843 51.1361 33.9570003035
25.3072 30.5915 54.0644 27.7870967488
25.8983 23.8397 46.378 31.6848319544
31.7194 24.1606 51.7989 29.4340955703
28.9162 21.9466 48.5157 32.665656817
25.4125 22.3749 51.0481 31.3129709668
25.6569 16.5895 46.8857 32.1215474015
29.0015 29.1588 48.9998 25.6532356449
27.2296 30.4973 47.2319 30.9706635349
34.8047 21.6452 47.2215 29.0712226675
31.12 28.4756 47.4077 28.4353250726
27.8695 31.264 52.308 26.4881582663
34.4247 31.6195 47.0683 30.0390423139
32.4255 19.068 55.3325 28.6226697482
27.9433 17.0243 49.5327 32.3039778553
32.3976 18.4215 49.9355 32.6158120525
34.4501 20.5247 50.6332 29.1776128387
28.7274 23.4174 53.9909 27.985156222
28.5801 20.6327 53.9941 32.4398983643
35.3805 23.2349 49.7078 26.4068278046
34.3291 25.4902 54.4483 33.5574430107
34.8275 28.1091 53.0247 33.3430373204
29.2926 25.535 51.3843 30.6813292841
28.2723 26.4064 48.8467 30.9551203583
29.8275 29.416 53.4343 32.1954000078
33.0881 27.2819 50.9887 33.0366736308
33.6198 29.2178 48.4464 28.6171969398
36.8469 30.9578 55.7995 31.9527103666
32.3917 32.3348 54.5066 31.4900079917
31.1023 29.344 50.8529 28.2032566423
29.6349 31.0048 55.5465 28.2195535048
32.5541 31.6404 51.5206 29.0538578017
34.7103 27.0418 46.9597 27.61511098
26.4158 18.5407 53.4848 34.9797302611
29.1799 26.5189 56.099 31.736555901
34.2489 30.1887 55.2814 33.7253391077
30.5569 16.7376 45.9628 33.047233014
35.3736 17.1511 49.9691 26.5082298797
27.6579 16.9219 55.4049 29.8616148794
34.7622 21.2576 55.2053 28.9873372051
26.055 23.6401 55.1804 30.5177382206
30.9962 25.888 46.2786 30.7748739054
30.9755 19.6001 53.035 32.5134265541
24.6316 30.3581 48.684 32.7206321514
31.0226 32.4115 46.8705 29.2390760084
25.4771 27.7186 53.8103 29.5597622645
33.8588 16.9431 53.3279 28.629572148
33.1727 21.7939 52.824 29.5114990384
24.9452 25.9339 55.9873 27.9053208733
28.3551 27.168 53.4457 29.7349897449
31.6674 25.4109 54.3385 33.3425976531
33.5609 16.8546 47.5561 33.9941551802
29.2551 32.2539 50.1823 27.5250566427
27.4051 21.2776 46.2292 30.785641013
35.366 30.9517 51.5468 27.2296371151
35.0541 23.8487 52.4549 31.287332727
26.7291 29.3675 51.0526 28.9483457946
31.14 16.8667 52.0728 31.9908622144
36.2885 25.6189 48.3327 26.6328537488
35.8285 19.3667 46.6053 30.9329897334
36.6718 29.7855 49.2727 30.0959106938
24.6576 23.9559 48.9614 29.5067982476
30.0767 17.6766 56.4079 27.2966347654
27.6808 25.7773 46.0648 30.7317631064
34.5243 47.4087 6.49227 29.0744954222
32.8633 37.1235 8.14386 26.4293109378
27.5558 37.3087 3.87772 25.9012862628
33.3459 34.4549 5.05854 29.6054073171
25.3732 41.1878 11.856 28.9525133454
31.2171 36.0954 6.3561 29.1042105513
31.5271 47.1928 12.9486 27.8158101046
34.3731 38.2214 5.94593 27.1519795242
32.1625 44.2908 12.5792 31.3066137012
25.8435 47.8067 8.8887 31.434941037
26.919 40.5269 5.67052 26.5228135172
28.6747 36.0922 8.47903 30.1201280694
27.063 32.9673 7.03391 31.9248284031
36.5027 39.3711 7.01282 31.2247274154
27.6811 34.5676 4.78557 31.5283748635
26.0648 45.2239 9.74325 30.375116563
33.8216 41.7489 4.41977 30.4761193335
32.0839 43.3651 7.76978 32.3612633568
32.7254 40.6406 6.91065 31.1627768482
28.2759 44.8373 11.2252 25.8994322317
30.3428 33.3168 5.64234 31.2922634438
30.8425 41.8822 12.3015 30.6914635164
27.9257 45.1372 5.59668 27.9608957916
35.7452 45.5819 9.96573 28.8292286303
26.6671 34.5927 9.53798 24.7010332862
29.5945 32.8759 11.2301 29.4095611086
35.0091 44.1681 7.83411 33.7931092088
32.3079 48.2261 3.84743 30.7916197037
27.7037 38.6956 7.98168 30.2459529842
27.876 35.2132 11.6915 25.2340501764
36.6076 42.6561 5.19115 27.4029874836
29.7339 38.1449 5.15932 28.3906236768
34.4173 35.4222 9.87242 27.4933082402
30.7862 36.3959 10.2251 30.4019109412
33.0165 39.4089 9.5854 37.2767327478
35.9885 35.8326 4.72493 28.6167393295
35.879 38.7688 9.76466 29.207682864
35.8096 42.4349 14.2462 33.1567934533
24.9539 45.4065 13.7505 32.507192293
28.5712 42.0182 8.68699 33.097784705
26.8418 43.8547 7.51649 29.4301882871
30.8042 44.5731 10.1458 27.1376354108
27.3897 47.9757 5.78203 27.0423939772
36.5001 49.2045 3.54805 28.5613741548
28.9627 47.3981 12.3616 29.4805712952
28.6443 47.0933 8.35626 28.5083501371
35.046 48.101 9.26879 29.7573465274
35.0462 46.9993 13.6035 29.9234619581
34.9081 44.6119 12.4926 36.2998732785
36.0236 45.2679 5.30884 29.6019240355
27.8654 37.8132 12.4814 28.5845942499
30.6085 37.2921 12.8821 26.4035190124
24.7804 34.8704 5.46777 28.6470810313
34.9069 34.9928 13.2474 28.6662924222
32.2158 39.3923 12.1946 29.5692305278
26.5941 39.0248 10.4076 27.5508967602
29.1788 42.6098 4.2728 28.73322346
35.76 34.4505 7.3629 27.7448216452
28.2344 41.8516 11.3782 29.0511029198
32.1184 33.8574 10.2538 29.0096163401
34.7297 37.7662 12.4279 29.3764035156
29.6889 40.7656 6.31503 28.3704750952
30.6348 44.7741 6.00302 28.1711968982
25.1922 37.9611 4.77655 26.0293938004
32.5632 32.8172 13.0177 31.4496782707
32.4255 46.5024 9.34809 27.1680715713
30.716 48.2116 10.1421 28.4662946321
31.5391 47.2184 6.51758 28.3359551622
36.7402 34.2052 11.2259 31.9864199169
24.7237 34.7437 13.0182 31.6638578358
24.8042 42.0755 6.66434 30.703435697
27.9621 44.5317 14.1097 26.5095550087
33.5579 39.1697 3.54036 29.2020853008
24.8196 35.7495 17.9126 28.1751067741
36.3942 36.8992 17.0782 29.3729846437
31.0153 32.9569 18.016 32.6157600844
36.0475 40.3774 21.2375 27.3666339501
31.1405 47.4251 15.627 30.9171194382
32.3494 37.3011 17.0727 30.3121181877
29.8143 37.6989 18.4823 26.4570278071
35.9964 40.7413 24.5367 81.9016526913
30.7719 33.6516 21.7579 27.4252467678
34.5896 46.8158 16.6685 33.158394445
29.4853 40.4855 18.5942 28.1555049638
25.7012 43.4849 18.8969 28.4742706933
27.1079 41.4644 17.3942 29.5191074637
31.4211 41.6408 16.7778 27.7049310132
36.0229 39.6228 18.2874 28.1568592976
32.1367 44.0465 18.0182 29.3659162255
35.1495 43.3417 24.3819 65.3620788206
35.2009 42.413 17.5777 29.8424912615
27.4533 41.537 24.4415 77.4269574776
27.8908 44.6462 17.255 28.6915762619
25.577 46.1375 23.7498 54.9905149197
28.4987 46.2238 23.8076 44.4723916544
28.1956 35.0749 14.7308 29.272620309
30.6422 44.6375 15.3099 29.5146013407
35.5285 32.7352 17.7402 33.5199787126
26.4881 33.7563 21.3173 26.9101090145
26.9294 38.7359 14.8251 29.4603047154
35.7189 35.3002 21.2574 28.2276002766
24.9881 40.2727 21.6899 27.9971723826
32.8635 40.759 24.6105 97.6264351916
28.7883 35.2163 20.4867 28.5761945258
28.8995 34.7041 17.685 25.5596125522
34.1291 36.6059 19.3479 27.3627876016
35.1511 34.0012 24.6318 83.2575820749
29.4667 48.2134 21.4542 29.1003541175
27.7532 45.5873 21.0658 27.3589472633
33.2631 42.4068 20.1492 28.1453999089
26.0387 39.303 19.1271 27.7713155762
32.9732 39.4211 20.0122 28.8477304956
31.7565 46.3184 21.3287 27.4246973644
29.9735 45.153 19.1083 25.8389547369
31.5436 43.4237 21.7771 26.5799762609
35.8093 43.7114 21.2626 28.8918968877
32.7104 46.4757 23.9155 41.3264249066
27.2721 36.9769 17.3109 25.9014292899
26.4036 33.2992 18.4454 30.7645974724
28.3813 47.4498 15.3353 29.4891965711
31.7312 36.5414 21.4551 28.2247744513
25.9841 34.7331 24.4753 97.6389793626
26.7479 42.9079 21.6465 27.8107855336
30.8544 33.9432 24.4347 80.8793006808
33.2002 33.8679 19.3342 29.0925734341
25.1237 43.3991 24.4402 77.2158814299
27.1188 37.0151 23.9344 41.3656144492
33.4069 39.9473 16.6836 26.0820363242
26.6715 37.1845 21.2375 28.5694993714
29.4561 41.8312 21.1272 29.3110367601
32.7147 48.73 17.6545 27.4044351903
25.4676 46.7077 19.8708 28.0957375117
30.1907 38.8428 21.3541 28.2384083403
34.3182 38.8569 22.7134 27.4593886109
29.3593 43.8262 24.4564 82.3637912835
29.9465 47.7951 18.4469 28.4977219306
29.8962 41.4255 14.6867 26.4815687966
25.7656 39.231 24.0919 57.6105438596
32.2376 43.6605 24.4304 66.7424634349
30.0312 40.5407 23.753 33.8942841418
36.1657 34.5761 15.7416 31.7250218897
35.163 36.6852 24.1727 57.9858115626
32.0306 36.3661 24.2027 62.4095423462
33.8925 47.2903 19.9301 26.8043180719
29.7595 38.5479 15.4409 28.922971038
35.3546 44.9316 18.7295 25.5383987043
35.3433 47.5812 24.4926 87.9586940609
26.4898 33.0127 14.544 28.4326374977
25.5323 46.3057 16.8427 30.1519189079
35.943 46.6225 21.7324 28.7858726229
27.1474 41.9163 14.6795 26.8594521807
30.9494 33.604 14.93 30.1933204134
32.369 35.9399 14.637 31.1565526434
30.6251 48.1807 24.4907 108.3715336536
33.9187 32.6582 21.5881 33.3974500135
29.6106 37.8366 24.2504 78.4591019654
34.3383 40.1129 14.2359 33.9445265008
29.1037 34.2325 39.2507 31.0505513933
26.3999 48.3778 38.7003 29.3748132241
34.8143 39.9905 36.03 66.3964080707
25.4746 40.1142 42.5417 30.7162507837
28.7112 37.2796 35.7437 73.2060302172
25.3332 38.321 38.5307 29.0504181827
35.8759 44.8904 36.1565 49.4212415226
28.1171 36.9236 38.6606 31.1570751969
24.8793 46.0839 42.0553 32.4918828097
26.9366 39.3633 35.7146 72.7446620261
27.3522 34.1608 43.8361 32.4111235212
33.6574 37.4517 35.881 80.5952445625
32.1446 33.9729 42.668 39.4324550371
29.4756 34.7787 35.7697 78.2501941343
31.2239 43.8711 38.5379 28.2184795857
31.5028 44.926 35.7783 79.7325715682
32.9387 47.5975 45.3174 24.9788219756
35.7326 32.561 39.9241 29.0252234675
33.8182 43.1082 36.2045 53.9931754651
35.0912 37.5933 40.8963 29.9881392795
29.1008 46.8196 35.9328 66.5247404346
26.8721 45.3312 35.7849 77.1303239531
30.0577 46.1469 38.6598 28.1328830023
25.1923 36.4711 43.779 30.7599998447
36.972 46.0236 42.538 34.0695424249
32.3619 47.5087 36.5385 29.2788486811
24.7937 36.1794 39.7939 28.4006748102
25.5934 42.1315 35.8249 80.0278290448
35.1774 45.1687 39.0037 29.4563422272
31.9695 37.8383 45.0323 32.4236603202
28.3437 43.1186 35.7502 67.551074262
32.6959 39.1388 39.8181 29.177244198
34.9254 34.8586 42.1914 35.3817183604
26.5593 42.3343 38.5433 30.0474820653
33.1754 43.3141 45.2519 28.8356191303
27.1226 39.8547 40.2591 28.4396918024
29.4138 42.056 38.3547 28.6408059408
33.5236 38.972 43.0709 30.0268542269
34.266 40.9972 38.5828 29.5806420235
29.9635 39.0831 38.8082 29.939705804
25.4952 45.5256 38.3019 27.7373084072
31.2692 47.3052 40.8337 26.8819423113
33.5762 43.4177 40.2292 28.7188926801
33.1398 36.6169 38.5785 31.2176709702
28.9819 36.1584 45.6344 29.9743111315
27.8099 44.7811 39.8576 31.882140202
27.5672 45.2048 42.6899 33.0083205093
36.2782 34.6669 44.515 33.7229750325
35.0963 47.4985 35.6205 103.5224009993
30.0451 43.8906 43.0859 30.9653581223
32.9945 48.2447 39.139 29.846903902
35.4892 47.3823 40.4199 28.9863535225
36.2141 41.2393 42.4071 28.9280954479
35.8004 35.4127 36.0038 56.2365205152
27.2056 36.4282 41.5085 28.5689074667
31.0843 38.7593 35.9075 65.793474818
29.0022 37.5671 43.2792 29.5720606095
26.4756 45.2766 45.8313 33.6790256363
28.7431 48.0473 42.9828 30.7748818622
27.7126 39.7458 44.5625 29.3709585563
30.5835 39.5626 41.8699 32.8715396204
35.7648 35.5728 38.7691 30.5737476294
33.5549 41.7735 42.9174 32.1764177965
