21.4494 12.5943 18.0922 27.3138151809
24.4934 15.7341 19.3815 28.3254966633
14.8266 18.6926 20.885 29.3534897612
15.3186 18.8445 18.015 37.3101302298
20.0344 16.4211 18.4067 28.8952935218
18.3396 18.7526 17.6934 32.0126093818
20.4671 20.3516 18.3396 27.0249224259
21.6953 18.0344 19.9748 26.0611147536
23.3299 20.2619 17.9651 30.8283288977
23.9367 17.4839 17.2724 26.455473016
14.231 21.688 17.1893 28.8244331674
15.506 23.4165 21.1098 27.9950892655
16.1777 23.7425 18.3927 31.274493742
19.7474 22.3506 20.3382 29.1754580334
19.0682 24.2488 18.0638 25.7100820971
23.3402 20.5943 21.1033 27.001465548
21.9593 24.374 19.0525 28.1731308954
14.5279 15.4486 24.2986 89.1882215908
13.5257 14.8473 21.6689 30.1639539476
16.3481 12.5912 23.8547 53.9534164499
18.439 14.6847 23.8071 58.2984899929
19.9489 13.7327 21.64 27.4776309533
22.2206 15.6258 21.5641 28.080530011
22.7694 15.876 24.2473 61.2576711973
22.2688 13.1023 24.7996 115.6840863694
12.7693 20.2808 21.4313 27.3225871697
14.0272 18.529 24.0761 62.6604914395
19.409 19.71 22.1383 26.8127791182
16.4825 16.5544 22.07 27.6368892638
19.9905 16.918 24.2314 66.1748843506
17.2952 18.3363 24.1455 66.1080753082
19.232 17.2291 21.4408 26.6167400565
23.3345 19.9732 23.8787 44.7957037642
20.7448 19.8249 24.5044 88.5577976315
14.3343 22.9368 23.8745 46.0334017438
17.9781 23.2637 24.2966 66.4154075574
17.898 24.414 21.5705 24.7536384058
16.8404 20.5917 21.5718 31.2742492515
16.4735 21.1609 24.3309 77.083005554
24.193 22.4481 24.5227 96.5113045582
20.6822 22.6394 24.4133 67.8457200842
22.0581 23.3783 21.9912 30.0219311193
14.6098 14.2457 36.5346 32.2260201712
18.6153 16.2193 38.5886 29.9058872042
18.5144 14.5816 35.8612 77.7736921128
16.7741 12.4108 35.992 58.9816090367
21.4352 15.2818 35.9282 64.6524849408
24.1024 16.1743 35.8185 77.8275391644
22.0407 12.4505 35.8743 62.1399683159
21.316 12.5437 38.6086 29.6404727557
14.3064 16.6631 35.5155 103.576271153
14.3504 19.4934 36.3 45.5546620698
15.4178 20.105 38.7334 28.6159060899
18.3569 18.9464 38.6882 26.5573961376
17.2331 17.1907 35.7383 83.8243438159
18.8451 19.6534 36.0512 56.8787061375
21.6115 18.586 36.1068 63.0892017662
23.7278 16.6082 38.4667 25.0526099945
14.8472 22.1744 35.7478 90.8085360854
20.3964 22.7423 38.7049 28.8257747502
17.1851 22.3785 38.6733 28.7884103223
17.6835 22.2184 35.7507 78.2674825485
19.7166 24.377 35.7215 85.8926557509
21.3237 21.5484 36.1511 64.4168933119
23.9084 21.5214 37.7855 27.4576504153
15.0156 13.6953 39.3778 31.5247541987
12.9144 13.9017 41.4313 29.9290259831
17.4594 14.3006 42.5012 29.6718804523
16.8295 15.5094 40.4063 29.1612170772
21.4554 15.3501 38.9325 26.6024356766
22.4494 14.4606 41.8679 33.7517624421
13.5443 16.8444 41.9933 27.9363956949
15.7014 18.1866 40.7421 29.2690919005
18.1403 18.6483 42.3377 27.0888831982
20.3006 17.1362 41.2812 27.7601686456
21.3117 18.8859 38.9924 29.0591075254
24.1805 16.7479 41.8696 30.8076655865
21.8944 19.5393 42.2641 29.2616757724
13.3409 21.542 42.6913 29.7832228557
13.9344 24.0243 42.5336 31.7327362926
12.9748 20.6198 39.8648 31.1636729817
18.8716 21.4193 40.9839 27.8177120677
16.8841 23.0439 42.1366 27.7199365425
22.24 22.1775 40.6236 28.315602217
16.3242 15.6889 44.5946 27.7358717282
16.2385 14.0042 46.8315 27.099172241
13.6578 13.8617 47.4799 29.2719736383
13.6961 15.4825 44.7663 27.4828398826
20.2459 16.321 45.7476 33.5242303915
19.9805 14.9611 43.2561 30.8863542017
21.259 12.8522 45.7951 35.9683713427
14.7785 18.8974 46.0124 26.234588421
12.3352 17.9031 45.1976 27.3513026669
14.8762 19.5278 43.4627 26.5807981859
18.3426 19.8714 47.5494 28.1241064709
17.978 17.915 45.1819 25.176601549
23.8868 18.7353 44.0726 33.0763069868
22.1289 18.6402 46.3751 29.3185741757
14.8834 21.3126 47.0607 29.48690109
13.0274 23.3119 46.7496 31.8855644627
20.3224 20.4453 44.5852 27.3605211179
17.4322 22.0489 46.0749 28.8450920501
17.2786 20.918 43.8936 23.941019728
22.1998 22.2981 46.0117 29.7811440794
20.6621 23.1216 43.2571 30.1385099106
17.9863 13.068 48.8077 29.2791332445
20.3537 14.6499 48.2226 30.3897284061
17.8315 13.9567 51.2701 27.3979272651
23.3361 14.9333 48.7697 30.8304955543
22.1758 15.237 51.3037 29.856045975
24.3496 13.5299 51.8421 29.1552469232
12.4484 19.9292 49.6095 28.8724090982
14.821 17.7846 51.5258 28.2399593336
13.5565 17.4124 48.9574 29.1389327161
18.9918 16.9682 48.7607 26.7265808531
16.486 16.9677 47.6452 29.2563279484
17.8725 16.9994 51.4865 29.20391431
17.0292 19.6161 50.2303 28.6743683999
24.0029 18.8118 50.4046 31.9668509688
23.8727 17.5989 48.1215 28.6041603428
21.0846 17.7114 50.7939 31.8502169348
14.8516 21.3101 49.8264 29.4729292022
15.3383 23.909 51.1067 26.260706149
18.2503 23.3686 50.2065 33.6056808234
22.9323 21.4231 50.0308 33.1992481137
23.9395 24.4012 49.0004 29.0963814451
21.1041 20.738 48.0244 31.528979587
12.8914 15.7574 55.2526 28.5834467185
15.1581 14.6958 52.0493 30.2612105118
15.963 12.5055 54.1489 28.2240075091
18.0498 13.0424 56.0331 28.9229735336
20.041 14.6051 54.9373 29.3325968429
20.2475 13.5296 52.4427 28.7037605737
22.6301 14.2392 55.8012 33.6246184655
15.9578 16.3894 54.7885 29.2837281913
14.3494 18.8357 54.15 30.2619512751
13.0351 20.2306 56.3581 31.7023202285
19.944 18.6254 53.2682 30.0494576416
18.5298 17.0806 54.8124 28.8057539249
22.5481 18.9756 54.4229 31.7370754347
23.7418 16.4663 54.5264 32.0107265469
13.9666 23.0682 53.1974 30.8525656363
15.9093 21.1694 54.0938 33.7535400516
19.6084 23.0984 53.5589 30.070810669
20.2383 21.9383 56.2171 31.787676157
18.3031 20.9642 52.4056 31.5294783588
21.7328 23.7988 52.2482 29.5595639602
23.0868 21.3674 53.0997 32.6981837426
15.9222 28.4269 7.02838 29.0239664894
16.1723 25.7584 7.69667 32.0507742272
13.1516 27.1046 4.68898 31.169097671
19.6612 26.3192 4.57295 28.6976944733
17.6346 24.8101 5.35733 29.6806352962
23.3097 27.7322 7.37713 29.5092434073
21.0157 26.1451 7.72647 34.7751780404
24.1901 27.6695 4.74126 32.1600352555
15.7868 32.2207 6.83003 32.6966169596
14.6606 31.6293 4.09876 30.4002505032
13.7776 29.9608 8.04915 30.0937032587
15.1767 28.8773 4.58884 27.3760955715
19.2518 29.0707 4.96396 31.2607212021
20.2594 30.9368 7.6436 29.6759863051
17.721 31.7044 4.75631 27.9822223881
23.1107 32.5079 4.69324 30.8903766227
22.9951 30.0122 3.95197 29.8052625247
13.308 36.4529 4.56081 26.9738041633
15.4599 34.8658 7.65265 30.0732114434
12.9147 35.8435 7.39375 31.129279403
19.7197 35.5039 7.25051 26.7153287427
17.3594 35.6976 5.20985 29.7042233365
20.1089 33.1482 5.58253 30.1070573463
23.5652 36.05 4.54874 27.681105263
15.5454 25.343 10.4153 28.4536120876
17.5253 27.638 10.9275 29.7905112747
20.2238 26.7845 10.3688 31.1306280717
12.6278 31.2574 10.7897 31.3138528346
15.9024 31.4972 9.91153 27.7874876804
14.6625 28.5974 10.5445 33.6945972331
18.0095 29.6394 8.8026 33.8095042023
22.0117 29.4401 11.0137 33.6299264569
22.6273 30.0306 8.40089 28.8950831247
16.2298 34.1556 10.3381 34.611792544
19.0166 36.3101 10.9182 28.0252376123
19.0134 33.1504 11.4558 28.2255239678
20.1479 33.2769 9.09271 30.5063947788
24.1207 35.6833 8.32026 30.8916299132
23.0211 33.4317 9.77116 32.5254213395
22.8661 35.792 11.7538 29.1149979995
15.4813 27.0186 15.4641 27.6067943959
15.2081 25.0632 13.5541 30.9418603453
18.3899 25.7719 15.5283 28.8413592766
21.2992 25.3375 12.6118 28.5614554699
24.3105 26.1346 12.7109 31.8160254531
22.1443 25.0091 16.1783 28.5713335275
21.0191 27.3185 14.724 27.2253467764
23.3021 28.5288 15.7214 31.4988220034
14.7753 28.8897 13.269 29.5603526213
13.5731 32.6182 15.4153 29.7058417388
14.9098 30.4008 16.8416 30.6653883949
18.2304 32.0787 15.6896 30.5106859183
16.9548 31.1868 12.7192 29.9175109803
17.2507 29.3098 15.4214 24.9011310397
18.907 28.7051 13.3601 28.19520662
20.5455 30.9631 12.7719 29.3076886035
21.114 32.5347 15.2605 30.6348244042
23.2686 30.5624 13.9776 27.9633547384
16.0323 33.6451 14.4207 32.3946743824
16.3693 35.9751 12.7746 28.8109600328
15.7077 35.9131 16.5779 30.1561500031
12.4647 35.8442 14.9777 31.0936068556
22.7305 34.7952 16.6837 27.1816800016
24.6079 36.2053 14.2456 28.1973859983
20.5714 34.9351 13.4763 34.5237766512
14.6304 28.109 20.8454 25.1388065374
14.5584 26.4023 18.4311 29.3266538169
12.9075 28.1548 17.3729 27.8697012074
19.176 28.1979 17.2643 30.8006156682
18.6183 26.7248 19.3933 29.9191866004
21.4916 26.8826 20.457 29.873847375
15.2952 30.5652 19.5607 29.0518921906
12.9099 31.9818 20.7521 27.4099028265
17.7253 29.9443 21.015 31.6929220467
19.6855 30.9873 18.9167 29.7811398944
22.417 32.2001 18.2245 28.7860312882
22.0774 29.024 18.4983 34.3825365142
21.5579 32.5985 21.0012 30.0454016948
15.7021 33.5251 18.6638 27.5500667937
12.9328 33.3596 18.1646 30.0820401369
18.6272 33.4896 18.0853 28.3411656437
20.4453 35.5788 18.2519 30.3045514152
17.3271 36.5051 18.5853 28.9388031498
24.4727 34.6002 18.8424 27.8147471786
20.512 36.3978 21.209 30.0977187842
13.5238 25.5259 21.4275 26.9957549951
12.7801 26.1781 24.2861 75.0165255189
15.8735 25.31 24.3293 89.6331315431
20.1415 26.2116 22.7011 29.7345471619
16.9858 26.9747 22.125 25.9884851875
19.1488 28.1892 24.2849 84.5145314257
22.6458 25.1562 24.4922 78.7818717234
23.873 27.9186 21.7341 30.6499255172
23.7384 27.786 24.5086 71.3707171396
13.4734 31.471 23.7019 39.0951826778
14.268 29.0364 23.5769 48.2914470379
18.7848 32.5888 21.5858 27.5749862334
17.0107 29.8951 23.8552 55.9620937588
23.7625 30.6271 21.8594 29.0932935888
23.6399 32.0092 24.2225 58.3607906359
20.8807 32.6027 24.0885 40.4951806451
21.6205 29.4959 24.615 90.5095137466
15.3775 36.1858 24.8309 107.4294785655
15.0813 33.36 24.3933 75.7378190694
13.632 36.1141 21.2693 28.4966639115
15.377 33.9526 21.367 27.8306305518
12.5967 36.1363 23.9881 43.8967915448
17.9209 32.6807 24.4015 75.0250289787
17.9844 35.5107 24.3775 58.1520695483
17.9162 35.311 21.354 25.8289147641
21.6679 35.0282 24.8355 111.4045498932
23.2816 35.2551 21.5 30.2305553679
24.2667 36.5512 24.3898 78.2858281787
14.6231 24.9574 36.0267 69.7743801426
16.1056 27.5301 35.9027 70.9379702763
15.8883 27.6335 38.6441 30.0400423064
18.9004 27.4553 35.6765 83.7336686223
24.1358 24.6073 38.2106 28.3355096885
21.9777 26.3915 35.9308 58.8552625717
21.6563 25.4832 38.4463 28.4140422201
12.5585 30.315 36.4246 38.3368106855
15.0568 30.0903 35.7885 96.0515582994
16.2667 32.3492 36.6218 33.4274407127
19.6447 31.2283 38.1952 30.9927194748
20.2631 29.8758 35.7488 77.3620066778
22.7474 29.0254 36.1634 43.8580009185
23.8165 32.1284 36.1765 58.7395855525
24.5483 31.4126 38.7176 28.3834923134
14.7439 34.2624 36.2512 55.3035964127
12.3185 32.9606 35.4258 110.2230005298
12.856 34.113 38.5399 33.6452331183
19.0746 32.6941 35.663 105.288290377
20.7045 34.3253 38.7845 33.0080056283
20.8561 34.865 35.8746 81.4647407231
23.7082 34.8221 36.1343 52.1530540516
23.616 36.4143 38.3915 29.6130921299
15.4665 24.9489 38.8272 29.4990395768
12.9456 24.9221 40.0837 31.8479787456
16.1718 26.5966 42.2706 28.0712238991
20.1163 26.7833 40.6617 30.2465895854
17.7214 25.2642 40.4908 29.0490870406
22.4311 28.5638 39.2166 28.2094810234
23.2889 27.4597 41.4992 27.1587925319
22.9757 24.6197 42.395 30.4521772524
14.9903 30.715 41.8147 29.1176544259
13.8086 28.9244 40.0529 29.1007153309
12.3247 30.8654 39.1628 33.7338053528
19.2806 31.6157 41.9836 31.1207707524
18.2457 28.8761 40.0211 29.5277644227
17.3015 29.3227 42.5072 25.645864748
16.7709 31.442 39.3477 29.2742698349
24.4727 31.17 41.9793 26.318352253
21.8897 31.0232 40.702 29.965436665
15.3841 35.5596 42.7284 30.3282877359
15.7907 34.9196 39.024 34.8933760935
14.1206 33.5614 41.4003 29.6745913275
18.2489 33.6447 40.2661 29.7768874755
18.1112 35.7172 42.5199 33.2378139155
22.8172 33.9084 40.9398 30.720156812
21.4465 35.4084 43.1504 33.8669773491
14.1761 25.3092 45.1364 29.078882883
16.0825 25.7949 46.9644 28.6571834283
13.5104 27.3907 43.6697 25.0289344865
17.2486 24.9403 44.284 28.0470298685
18.9859 24.5533 47.4485 27.1300132294
19.7449 26.3854 43.6527 28.0013997652
16.6364 28.5552 47.2834 29.4648846143
19.3476 27.5532 46.8639 26.9468412527
22.9629 27.1913 46.4306 29.0643009561
21.2001 24.8587 45.743 27.1491173158
12.6017 29.7405 47.1298 27.3746042528
14.2169 29.6653 44.7919 27.0882818226
12.6053 31.697 43.6701 31.6179134572
19.6693 28.9377 44.5063 29.069850313
17.0175 30.3564 45.2976 29.3388643917
21.5153 29.9589 47.2733 29.8698450722
22.551 28.9483 43.9597 29.9520271805
23.4593 31.7171 46.3915 32.272451073
15.4404 34.9793 45.3495 33.1674394166
12.997 33.5566 45.7818 31.5834446023
17.1435 32.9878 45.9156 29.6356307346
19.2489 33.5909 43.9461 31.9122559479
23.7094 34.6245 45.2065 26.1878484726
21.9003 36.4693 47.4527 31.4864240109
21.014 33.8004 46.4053 33.0171465707
13.1418 27.4903 49.6138 28.2067210908
15.1914 27.2702 51.9351 27.600639273
13.7956 24.6301 48.9895 27.7540280957
17.3436 26.4418 49.6184 29.5862660215
18.7877 27.4559 51.9436 25.8396589644
21.4259 28.1131 51.7647 27.4264746613
21.1475 27.1887 49.0221 26.0299151135
21.1697 24.6974 49.4693 27.760363729
14.1639 31.9784 47.9328 28.8453253031
13.9725 30.0445 50.3273 28.9550754848
16.803 30.7697 49.1645 28.9289695325
18.4411 30.3212 51.6288 27.2046267335
20.7604 31.1682 49.7568 30.0581431853
23.4897 29.0387 49.4341 26.4355798585
23.9032 32.1278 50.7605 28.5962803621
14.1626 33.8263 50.1086 29.7861886101
14.1925 36.7093 49.245 29.8442045668
17.2336 35.8982 49.4851 31.2646890196
17.6512 33.1215 48.375 27.7570281594
16.6287 33.1296 51.5478 30.0994872665
20.4271 33.8387 49.078 30.8326753224
21.398 35.3211 51.5252 29.9052395658
24.1321 34.9372 51.0667 31.8324513297
12.7306 26.8519 53.3953 26.7749066178
13.8968 25.267 55.4324 28.6327213273
20.0512 27.0492 54.4891 28.2502290723
16.5653 25.6536 55.5363 31.0121246501
17.5958 25.1328 52.9438 27.6038630405
17.2711 28.5353 55.5339 26.745336356
22.741 25.8264 53.7696 29.3216899201
23.3348 25.2413 56.308 28.5102374096
13.0473 29.5367 53.9882 27.2757638373
16.2044 29.3283 53.0872 24.4243385951
14.9967 31.6488 53.9774 28.7803215576
18.6719 31.5484 54.1781 27.8482128482
20.7476 29.8066 55.3898 28.2103289675
21.7956 30.9759 52.5806 24.8725097443
24.1678 30.7519 54.1173 28.3365681267
24.5454 28.6766 52.1548 28.5243942026
15.9664 36.0523 53.6752 29.007450842
13.7068 34.658 53.8434 27.473391955
12.7507 33.6904 56.3204 33.3467532524
18.5411 35.4135 52.0996 28.6423009855
17.8125 34.1144 55.6393 30.8459182606
21.0311 33.4317 53.757 28.2251435414
20.8151 35.0166 56.0369 29.6850144125
23.8395 33.6646 54.8434 30.2374310151
14.1515 38.4021 8.02881 27.6202084504
15.5743 37.5244 3.68412 32.7500570699
15.8441 39.5615 5.99552 28.1712243264
12.4863 38.8962 5.33316 27.9806583325
18.5625 38.4854 6.43814 26.5640825227
19.7229 37.64 3.69178 28.7834621809
22.1136 36.797 6.98701 27.2053088408
20.6782 40.3175 5.62013 28.6438391667
23.4006 39.1638 5.83717 31.6156316883
16.384 41.5899 7.95669 28.8155064269
15.6285 41.926 4.27201 28.8186245096
12.9224 41.0603 8.05811 27.7835365732
15.0439 44.9176 4.16141 29.6871390806
19.4573 42.6877 7.46932 27.9804283092
17.5709 43.5535 5.56005 27.7633118624
19.6198 44.1654 3.77788 30.0587838633
22.3954 42.1324 7.27101 32.3412488837
22.202 44.8349 7.01119 30.0533179473
13.3694 48.5421 7.22972 30.8472116657
14.1001 48.1817 4.59521 29.904609689
12.4451 45.1618 5.22028 30.7156476
16.7319 46.1727 6.35128 34.7911111916
16.8225 48.7735 5.34961 30.6508550837
20.4114 48.522 4.99687 36.9689921514
21.3838 45.9866 4.70337 31.9681703163
14.1139 39.4423 12.3278 32.9795462281
16.1432 39.0836 10.2837 30.9631487709
17.6032 36.9898 8.4854 25.9295070379
18.7485 40.3784 9.34286 27.9533016816
22.662 38.7161 10.6165 28.3175382772
20.6676 38.3491 9.00006 27.5224960527
15.7279 43.4321 10.7541 33.0759335444
14.1457 43.607 8.5473 28.7530169866
12.4177 43.4347 11.0579 34.8351378364
19.5231 44.688 9.46375 29.6042819294
18.74 42.6648 11.1652 28.2614721247
23.0976 41.4109 10.0536 31.5887435603
21.4042 42.8688 11.604 28.5693071322
13.9478 48.3822 11.7491 31.8394934892
12.8003 46.1027 8.11588 37.5193266863
16.8602 45.5756 9.24147 31.6910273453
20.2098 47.026 10.9493 25.4814863686
16.4689 48.4884 10.36 28.83805393
22.7767 45.2795 11.4912 28.1252591745
23.1184 46.5341 9.09288 32.0684647812
15.3062 39.8892 14.9478 29.3195420624
13.6867 36.8531 12.7684 31.9748263876
18.1772 38.5611 12.5066 28.3362170649
20.0492 40.7866 14.9193 27.5750599716
17.3219 37.9417 14.9942 28.8930510373
20.8302 38.6975 12.797 29.3150300299
21.6175 37.2222 15.0858 28.5005863485
22.8317 39.8974 15.4938 29.6120645154
12.7849 42.1825 15.4508 29.7117491903
16.3868 42.2105 14.8454 30.9403348216
14.3113 43.5951 13.4273 31.7968488199
18.8786 42.9397 13.8837 27.8275292534
22.2587 43.1636 14.3527 27.3925647797
14.1088 46.7315 14.2742 31.6023194806
15.6435 48.2577 15.7558 28.2605571235
18.1413 46.7789 12.7699 33.7210859984
19.7048 45.3636 14.8287 30.7398154873
17.5294 46.6877 16.6604 30.5851393609
22.0462 47.4635 13.4508 28.4499854609
23.0165 45.7197 15.3712 27.3690938022
14.8303 40.099 19.7619 30.2136647418
15.9651 37.6414 20.8145 30.5163151517
13.6102 39.9475 17.2091 29.7945472401
13.083 37.2927 17.4133 28.663943433
19.8415 40.6992 17.6259 30.6739539961
19.195 37.8827 16.9063 28.9729768189
23.685 40.3388 18.1491 25.7593281321
21.4562 39.1238 19.6263 30.6743179082
15.9873 43.3534 17.4879 32.129937399
13.8314 42.9645 19.1433 28.7123157556
17.1291 41.3616 18.7682 32.741473063
18.2353 42.568 21.0302 31.1222774736
20.2978 44.8559 20.4897 27.0462841328
22.0392 42.6682 17.5172 30.159312723
22.3672 42.6283 20.3697 26.4707568947
14.4131 48.4841 20.2136 34.1981368194
19.0294 48.4735 17.9983 26.4215209191
18.6028 48.0338 20.7552 27.6152800436
17.2649 45.2279 19.1251 30.9840616735
23.6796 46.3422 18.3913 26.7982773965
21.5407 47.1943 21.2102 27.7880439731
22.2923 48.6958 18.935 28.1912211053
20.8432 45.8028 17.723 29.8087284101
23.752 45.0314 20.9539 29.1777979816
16.2225 38.6006 23.5683 35.802602042
13.3919 39.0539 22.2399 27.9122718912
18.7647 39.8255 24.3706 97.1840914336
20.1371 37.3091 23.8668 36.9763557266
23.3023 38.2219 21.9653 25.127886991
22.0168 39.8214 24.1027 64.7098030632
14.2354 41.0033 24.3107 87.0496165007
15.7162 43.361 24.1383 72.5703629238
15.2384 43.9867 21.6498 29.7240186459
18.3976 42.6711 23.8523 53.7559500241
20.1853 44.5267 23.4519 31.6591447681
20.6179 40.8721 21.6718 29.7962216608
22.1143 42.9722 23.972 71.0292942998
13.3766 47.8881 24.2188 62.1862800201
15.7029 46.3915 24.3388 78.8718490324
16.2613 46.6953 21.3492 28.8748243815
19.0605 46.9292 24.5068 106.5800722694
23.8796 45.49 23.8794 59.3030002207
21.7878 47.7511 23.9874 60.4648900117
14.8764 37.4476 35.9083 66.6452624023
12.3706 38.4617 38.4808 27.4186293298
17.2701 38.75 35.4054 121.2388718829
20.0032 37.6372 36.2827 56.4170100311
16.5443 39.9867 38.6491 30.4128428123
21.1798 40.0947 36.2093 54.099952483
23.9459 40.717 35.8416 90.9051676058
14.2076 42.3891 35.9731 82.078550742
16.8495 41.3214 36.1409 45.8153568099
19.31 42.0561 35.7159 82.1226606125
19.9325 43.0953 38.3189 33.796583535
19.2338 44.7766 35.6394 99.4400058759
14.2752 45.3705 36.2402 54.2840563496
14.1656 48.119 38.2924 25.6221656153
17.0351 46.3786 36.0195 68.0973453219
17.1048 47.9436 38.5877 26.2938388031
22.2936 44.9611 38.4526 28.7977182026
20.8198 47.1361 36.2888 48.1161138238
23.2583 45.9814 35.9889 83.0092532265
14.1943 37.8218 41.828 34.7902112784
14.9555 37.7451 38.9099 30.1121053256
15.9879 40.1196 42.7234 34.5092379743
19.4458 37.8437 41.3714 33.8638421843
18.0731 40.3807 40.7675 28.5763280224
20.5918 40.4513 39.055 28.1895986482
23.1595 40.7265 39.3547 27.4829503125
22.9947 40.5492 42.1184 30.5278952643
21.0264 37.4543 38.8718 31.9485463857
12.451 42.5646 42.1762 32.4603933664
14.6139 41.9895 38.8854 29.5171513205
15.1645 42.6875 41.63 27.1078651653
19.4701 43.2459 43.0942 30.4322153451
18.0126 43.2764 40.6158 30.1820631992
24.4341 43.2118 38.8889 33.5649128823
22.1037 43.1742 42.9619 35.4718426246
14.7172 47.3614 41.7374 27.069454811
14.1416 45.0011 38.9418 29.0744988475
16.6251 45.6779 40.3803 27.7922675792
20.4583 47.3783 39.1649 31.1278547684
19.0089 47.7592 41.6175 27.9906727999
23.8425 46.509 40.1762 30.7541195424
21.716 46.3275 42.0777 32.3783452465
13.5867 39.5746 46.4242 32.2027969697
15.5994 37.5125 46.9043 31.1157675204
20.1718 38.3149 46.3463 33.5773939595
17.0566 39.7337 45.2726 31.6866311902
21.3044 38.6348 43.4308 31.8909151433
23.1397 40.7449 45.3326 30.0922132697
23.419 37.5436 44.7072 29.3859258207
15.6934 41.9163 46.6832 31.0701749535
13.3382 42.4887 45.0121 31.2775547642
18.6713 42.0496 45.3298 28.8752631237
19.2581 44.1864 47.1835 29.1469072587
20.6259 41.0193 46.7702 26.2417616759
23.287 43.9476 45.4023 28.3296346629
15.237 45.0684 43.3428 29.0012302525
13.4579 48.1751 44.598 29.5205001411
12.9349 45.4876 45.6775 29.6979172171
16.5909 45.1541 46.1939 28.184631153
20.2358 46.3853 45.3398 30.5984603609
17.9452 45.6886 43.4013 26.9457224138
16.8829 48.4234 46.4217 29.180492048
19.8578 48.8137 46.3449 30.4348191619
22.9656 46.6121 44.8 28.8384288139
12.5329 40.1192 49.0671 29.0645599514
15.4335 38.1701 51.3568 32.1063217551
12.3644 37.9235 51.5123 28.7572643696
17.8684 38.5607 48.1689 32.0380709293
17.9517 40.8226 50.2919 29.2363156679
18.7489 38.0919 51.5981 29.6440309138
22.2825 39.633 48.9738 30.9419710979
24.3901 36.9056 48.9889 29.3467774374
21.5586 38.0616 51.2533 31.6294312023
15.5486 42.6475 49.3702 27.9582397149
13.1281 44.4947 49.7408 32.6115633489
14.5546 40.8789 51.0182 28.0614588586
20.2176 42.111 49.4994 27.043529266
19.3222 44.1272 51.8581 33.801799312
22.7293 41.9592 50.7356 29.2715073886
22.2436 43.9628 48.094 29.9080109754
14.5546 45.9966 47.7218 27.0379414735
14.5713 48.7466 51.0367 29.1619208991
13.4778 48.9081 48.5186 27.4656594222
17.8173 45.2426 49.5287 34.9260432456
16.8317 47.82 49.2922 30.1653031662
22.9559 46.4562 49.3683 31.8320157719
21.3059 48.4741 50.2139 29.2436409743
24.5723 48.406 48.3867 26.4180417378
17.9819 38.4782 54.4712 32.0825739506
22.2332 38.7209 55.7731 30.5562510172
22.6691 39.6528 53.1712 29.2965161275
13.0956 41.7746 56.1401 30.8416794469
15.1389 44.0897 52.3512 30.1394378889
13.0818 43.2846 53.7405 30.0828944796
17.1975 42.2398 52.4314 29.0120849449
17.5627 41.1849 55.0598 33.3844784018
20.1655 41.7176 55.8432 30.4734465288
21.601 42.2321 53.5695 32.5688932374
24.1174 43.4274 54.0011 31.3508291063
15.1261 48.1823 53.8187 29.3990364168
15.9154 45.7368 54.2944 31.3712408061
18.8062 45.6851 54.2297 35.0430301565
19.7636 47.896 52.5978 32.2001609919
22.5917 48.015 54.1829 29.1252023207
23.6224 46.0501 52.4363 30.4955732743
23.8747 45.687 55.8378 32.1541990083
27.6469 2.83663 5.90219 34.4604968183
27.4793 0.480733 4.24292 28.0276490091
29.3225 2.22421 7.90601 30.5847240754
31.2797 0.776027 4.00899 34.6126723184
30.5548 0.189199 6.60337 26.9895704575
36.4118 2.80931 7.47595 26.0198894173
33.7965 2.70441 7.42431 33.1624365862
27.5503 5.58013 3.74972 29.6894555364
27.1184 7.36982 6.00679 29.512694384
25.3987 4.24603 6.6738 28.187274741
31.3339 6.80761 4.34114 30.2386421289
29.8085 6.96513 6.57621 30.5283441621
36.134 4.68347 4.96916 27.8188099089
33.0341 5.2876 7.94076 30.573331209
33.7074 6.40497 5.42419 28.2829640435
27.7226 10.5172 6.23856 28.8895442513
25.5745 9.46079 4.61624 27.3575456892
30.0327 9.47322 7.9307 29.4920964551
31.6416 9.42092 4.30753 27.0022891291
29.9005 11.3857 4.48777 26.6156887886
32.6513 10.566 6.78456 27.6011472675
34.5508 8.55746 7.08956 35.1071383707
36.787 12.0738 4.84308 30.0284780679
24.8067 1.82246 11.1665 30.6216963449
28.1342 0.263926 9.681 26.0542073636
26.5516 2.99258 9.19192 30.8701023121
27.3389 0.716913 12.2905 26.2206650917
31.7854 2.65025 11.4758 28.9817216656
35.3865 0.364131 11.0374 30.0378253106
34.0139 2.87878 10.1765 28.108339093
27.5845 5.52395 10.1866 30.9978420431
26.2384 7.62631 9.47284 26.5830287514
30.0616 5.02286 8.55478 32.0109954355
31.3338 5.9094 11.2739 28.1229431351
36.8226 5.47964 8.22049 30.3736773244
35.7092 5.21416 11.0555 27.9733485076
33.6511 7.41898 10.2123 31.2864211256
28.1728 9.62537 9.85074 26.6106888613
25.4635 10.9091 8.82589 28.716953956
26.0072 10.9405 12.3656 30.2225665796
31.3572 11.7772 9.93092 28.2734322558
29.9206 8.21831 11.6991 29.7252568009
28.9152 11.8119 11.5554 27.6461765628
33.7663 10.0579 10.735 28.3749861647
34.6945 12.2471 9.11526 30.045653915
36.0738 10.2211 12.2419 31.9028513758
24.8288 3.58137 13.3939 28.1208374559
25.3108 0.158084 14.2328 27.2831644009
28.2779 1.03618 15.495 27.8489027516
26.2198 2.98698 15.894 30.8812596189
32.3522 3.19626 16.3358 29.8464831869
29.1387 2.9058 13.0594 30.2455688505
32.7921 1.71534 14.0031 28.7367250343
36.014 1.30414 13.6726 32.4709433244
25.6824 7.47345 13.9327 29.5557939525
27.0944 4.95415 12.862 30.6212290501
25.8246 5.68934 16.2505 28.9090700483
29.9653 6.71194 15.9504 30.9445680312
31.0526 4.66305 14.1191 28.2894571128
33.3968 6.38737 13.3669 28.5615814227
36.761 4.80364 15.7546 29.2809331148
34.8711 4.18632 13.9623 28.8946812881
27.8596 10.8682 14.3881 28.208964762
28.6598 8.18845 14.1448 30.8900174499
32.0686 9.69791 12.9534 30.4062944231
33.1803 8.19292 15.4926 28.6598126739
35.2332 10.6212 14.8235 29.7666046292
26.0965 3.0511 19.6677 30.5547286525
30.1639 1.7639 17.6544 31.3912660382
28.9889 3.82991 19.2532 33.0241976478
31.9317 0.366948 20.1999 28.5628994458
29.3885 1.03031 20.9446 33.3276391669
35.089 2.34637 17.7027 29.6214429568
34.0232 2.05305 20.2774 28.1624783599
24.9925 5.17606 20.1505 26.8654262716
27.7159 6.4403 18.0873 29.1718584711
32.6683 6.07445 17.4916 29.1823450755
29.7135 7.21369 20.822 26.6471161405
31.2216 5.31836 19.794 29.8233034386
35.284 6.0758 18.2727 29.9526024783
28.0503 9.05945 18.6377 30.0163769034
25.8365 9.74863 20.4726 31.5140777276
27.1397 11.3848 17.1084 29.688130926
31.4695 11.6206 16.918 30.7702159065
30.792 9.74158 20.4548 30.4574544619
31.0985 9.03474 17.5951 32.0653271349
29.2103 12.0548 20.7881 30.0115651059
35.8453 8.56216 16.8992 29.4749368413
36.7037 9.7747 19.1548 28.6781251038
27.2805 2.83368 23.9185 67.5286808347
25.3013 1.06959 24.2043 75.3191453453
24.7113 1.25604 21.4059 30.4984920487
29.6543 1.70851 23.7464 40.5006833556
32.0323 3.02187 24.0831 63.4998252537
34.0522 0.803141 24.2496 84.8843640963
36.1442 2.04502 22.1924 30.4356830709
26.9556 6.96556 21.2821 30.2549674245
27.221 7.42947 24.4167 99.8783589803
26.0299 4.99658 23.6437 39.6176721361
32.2093 5.83385 24.7253 123.3648663288
29.8456 6.78583 23.5125 37.6943217941
32.7604 4.14219 21.6858 29.2326138375
34.5822 7.09974 24.1706 48.4613030014
34.6274 6.09009 21.524 32.1696643756
27.9536 10.5652 24.6298 113.4558426327
25.2729 9.67647 23.5588 33.7308120611
30.3225 9.60227 23.6629 38.3642014858
35.6359 9.08789 21.4422 28.1698157432
33.4971 10.2587 21.7493 32.7146726407
33.0591 9.63028 24.5297 89.6555314844
26.5001 2.85797 36.6386 31.1575013531
28.93 2.29549 35.4436 121.367433049
32.6008 2.21121 38.1816 29.2245820244
30.8802 3.69177 36.6024 31.8715912044
29.4793 0.136398 38.625 26.4336541118
34.0715 1.25393 35.8771 60.3416472335
35.8546 3.47098 35.4816 89.3304968703
35.3986 3.12714 38.7846 28.1646333164
36.206 0.357195 38.6731 27.5478490454
27.2135 5.5029 36.0114 66.5119762457
30.6367 6.51211 35.9918 81.3039451513
28.9822 4.89656 38.3591 27.7595328275
32.2717 7.69775 38.2416 29.536209095
33.2212 5.23553 36.0628 55.4676983582
35.1192 6.128 38.0154 26.929533669
33.9568 8.14236 35.8812 68.7549053879
36.5406 6.41777 35.4138 90.5035765521
25.8561 8.97886 36.0513 74.2376694991
28.5573 8.29699 36.7576 33.4961313534
24.9549 11.9619 35.8491 76.6312458269
29.2901 11.3139 38.6178 28.5170433079
32.5936 10.9213 35.9041 67.5124627443
29.7589 11.0108 35.9785 79.3714157018
33.6798 10.4021 38.671 27.040040809
36.5129 10.6845 38.5407 27.9685513115
36.6973 11.2589 35.6105 75.3554847253
24.7663 2.94766 42.7707 28.9760609668
27.5714 2.16148 39.4502 27.5961765547
25.8735 0.632688 41.7264 29.136330156
31.3377 1.69512 40.888 27.9267949062
28.7914 0.112986 41.5884 29.5389732905
34.1373 3.64995 41.9757 27.4910264804
33.3428 1.11419 42.5836 25.8436277345
36.606 1.0023 41.9352 25.695809019
36.8656 3.6854 41.8877 31.9717904604
28.6515 7.73252 39.5421 28.0998466783
27.1264 4.2767 41.8408 26.7868006602
26.1997 6.22848 40.0309 27.5849929256
27.0924 7.11312 43.0642 28.1738853356
31.3074 6.45455 43.1132 27.7895781081
29.9991 4.40876 41.1326 29.2807354761
32.8193 5.79092 40.3862 29.5410262165
26.8022 11.3002 42.2687 27.6985336959
26.9468 10.2361 39.5943 30.8645961499
31.3425 11.0305 40.392 28.618560136
30.6212 8.65657 41.5271 27.5465817425
36.1778 8.23076 39.7623 30.0071019731
33.9537 8.2333 41.5793 26.4867327925
33.9442 10.7971 42.3526 27.3547334499
26.1993 3.05132 46.9026 29.3411512479
27.3917 0.95651 45.6346 28.0435652292
31.403 1.97742 44.6223 27.635383103
29.0108 2.16531 43.5577 27.3834024106
35.1034 2.61394 45.0155 26.4381785252
36.0741 0.037724 44.407 26.5184011725
25.6316 7.91705 47.3508 29.103633941
25.1538 6.67766 44.852 29.2158237896
28.8321 5.26488 44.3829 30.8087505344
28.8942 4.26615 47.1723 29.6653005204
32.7262 4.21577 45.5606 28.8685967453
31.1925 6.87927 46.2893 32.8293574159
34.1821 6.28906 43.6582 28.6147479374
36.4305 4.42602 47.4596 32.0696164308
35.128 7.97129 45.415 29.8485946776
25.5518 11.784 45.1502 31.4369429187
27.3569 9.82931 45.895 32.3040163081
28.7035 9.37522 43.3929 27.9118248985
28.5275 12.2165 46.9257 28.1311522845
30.742 9.86507 45.6297 34.6663186669
32.3034 12.0189 44.4419 29.4637922539
35.9358 10.5025 44.2258 26.8848629296
35.56 11.2299 47.4439 30.9860502324
28.0006 0.967163 50.0623 31.1678839911
25.3174 1.71228 49.3941 26.2472820847
30.5423 1.78652 51.7491 32.4133954374
29.3127 1.35467 47.6504 31.1458571728
32.7046 0.00146949 48.6076 34.9975873136
34.4909 3.21577 50.472 28.1957984458
35.1424 1.70977 47.6928 31.0672751825
27.2222 5.972 48.4999 31.3970813004
25.1929 4.62267 49.9702 27.987449714
28.8643 6.96299 50.6819 27.626772938
31.7843 4.29974 51.1705 30.3980000166
30.7612 5.85041 48.9853 30.6899575461
33.4509 4.77749 48.1945 29.6666258805
35.0599 7.9332 51.6556 29.0656334718
34.0512 7.7569 47.8197 30.9825109859
26.2525 9.82046 49.9715 30.8832629908
30.5481 11.2664 48.3811 35.5039617003
29.1535 9.69336 50.6439 31.612929044
36.7081 8.69591 49.3497 29.7714232916
35.2148 12.0146 51.8629 28.2096104058
33.2144 9.86307 49.6129 32.2415042323
25.4018 1.75246 55.5497 28.0990782178
26.5336 2.93118 52.3515 28.8749209608
28.7767 1.93643 53.9848 31.7220894081
35.7182 2.19373 56.3526 27.9925939498
34.079 1.36757 52.9085 32.1063519109
36.5729 3.82088 53.6718 27.8387911832
33.2337 2.44856 55.0293 32.0618656441
24.9877 6.2058 52.316 26.4530193716
27.8138 5.35717 52.8734 26.1640149788
27.1865 7.56869 54.5456 29.7248521053
25.1937 4.50233 55.0866 27.6622104693
29.7562 4.69171 54.7018 32.4689422972
31.0101 6.78933 52.3821 27.345706176
34.6117 5.42375 52.3505 27.1253299033
33.0732 5.18725 54.6024 28.7959153729
35.1686 6.93801 55.5705 27.3659368444
24.9233 8.67335 52.054 27.9688976252
27.9783 11.4142 54.9708 30.6082850231
25.4163 10.0588 54.5961 27.0092405304
30.0101 8.47449 54.528 29.0136475519
29.7551 10.7802 52.9032 28.9845864458
32.5615 9.38417 52.4881 30.3246596874
33.8115 9.38282 55.16 31.7235989101
35.5042 11.4007 54.7661 28.5309138571
26.6603 13.3692 6.84251 30.3760468506
25.1621 16.0598 6.55115 32.7630256864
29.0614 14.4436 5.62583 27.3862052386
32.2062 14.8293 6.61964 28.0289284281
30.3771 12.6804 7.42553 25.0182457644
34.2312 12.8117 6.26009 27.1189287183
36.3553 14.7371 7.10554 29.8106642532
28.0611 16.5946 7.79943 32.3822048013
24.9917 20.2827 4.75985 29.7366880272
25.915 16.5087 3.79561 33.3514198644
27.0598 19.0523 3.73813 32.9173377042
31.378 16.3547 4.42211 30.8490163655
29.4794 18.0867 5.18604 29.2023614685
31.9969 17.6772 7.4344 31.7336159678
35.7967 19.0629 6.22753 36.3241517854
34.7284 17.0658 7.88707 29.6489993044
26.2144 23.0823 5.81329 29.6168194361
27.5845 21.4937 7.86779 33.3284595223
29.7313 20.7704 6.13254 31.3032322976
31.2061 22.6717 4.59598 29.3171960432
33.585 23.1912 5.84256 28.9712030841
35.0856 21.1952 4.33133 35.0451412581
28.1161 13.8325 9.23158 28.0114589654
25.474 13.2326 10.6735 39.0546536297
28.6168 14.8409 12.2293 30.1952825631
32.7515 14.3153 10.593 30.6804842169
30.8207 15.6889 9.20288 28.1737292094
35.3459 15.6612 10.7176 31.1703711488
25.1084 19.8082 10.9005 28.0611783292
27.6318 18.0381 12.211 30.6607514016
26.6332 18.7056 8.93165 33.4706988292
30.4265 17.1142 11.8895 30.7276631789
31.23 20.1579 8.34941 34.1219048897
30.5377 20.1573 11.1412 35.3484038789
35.1947 19.0099 9.95981 32.4254183549
27.9961 23.68 9.36884 31.510245446
28.7145 22.4659 11.8733 31.138143202
35.8601 20.9358 8.28635 30.6080949376
33.2442 23.9277 10.7043 30.3839681528
33.3187 22.3562 8.35356 34.0309722905
35.7944 24.4505 11.478 29.6906071013
25.6792 15.8662 12.5983 29.9848974573
26.0777 14.2518 15.0569 33.548017766
28.9788 13.5391 14.9249 26.7363499098
32.1318 14.8441 13.3498 30.7804538791
30.1119 15.8245 16.7249 30.3706884703
31.5048 12.2653 14.3223 28.3912287509
34.3784 13.2183 15.1177 30.1467142023
36.7911 13.5888 13.6587 33.2345881665
35.0846 16.0729 13.4269 36.7241230774
26.1764 17.1228 16.0082 29.2763032273
28.1988 19.138 14.8126 33.0737166265
32.2554 19.2058 16.6271 29.367174221
30.7963 17.6843 14.6473 30.3487278255
32.5371 20.2895 13.2894 32.1475454111
34.6358 20.396 15.9811 27.7046323132
35.1586 19.998 12.6437 31.1196782904
36.1552 18.4334 14.6475 30.9201222752
28.1408 23.606 14.6359 29.5768169501
26.3665 21.2135 12.8611 31.5633349588
30.7302 23.1143 16.1264 31.3388934925
31.6451 22.9545 13.0831 27.6902256851
36.4034 22.8892 13.754 28.3447091769
33.8623 23.1098 14.8781 28.1434258936
26.9456 14.6388 19.8265 31.7341963277
32.0625 14.9979 18.5088 28.7326756184
31.4986 14.0029 21.0965 30.4571064317
29.4331 12.9435 18.0561 27.5097953657
36.3061 12.6708 19.0036 33.5125411504
34.1954 12.9292 21.237 31.7723284745
33.8934 13.3833 17.6435 34.6085593194
24.6977 17.9602 21.1315 26.8944934584
27.1162 19.1208 20.2867 27.841158704
28.062 16.9596 18.2625 31.7771634349
27.9211 20.2798 17.3236 31.2006162431
31.3916 19.3508 20.3529 29.8871575745
33.0266 17.6535 18.6734 33.5197798392
35.6114 18.1132 19.3398 33.2323324937
25.267 23.5802 19.2305 26.042486358
25.7885 21.5799 21.241 28.1216572012
28.4274 23.8286 20.7627 28.4574173121
27.0154 22.783 17.3476 28.0851605447
32.3147 23.1255 18.9782 27.8143514135
30.5795 20.7863 18.0196 27.7053754206
34.8024 21.755 18.3412 28.8023428511
35.5502 20.6782 20.8836 30.7597178123
26.3133 14.7878 24.5324 97.0751600228
28.2203 13.0853 23.4881 28.8861544373
25.8447 12.5334 21.527 28.4878668433
24.759 12.5862 24.0812 43.4769786816
30.6615 14.0746 23.8776 45.2576311646
35.3278 13.4163 23.493 29.3409083738
33.1081 12.7114 24.8343 126.7105301167
35.5838 16.0764 23.6967 41.5241758554
24.8602 17.4415 23.8573 45.7316078328
28.202 16.7002 21.7672 29.428394204
27.8119 17.9603 24.3548 84.7153852704
30.8228 16.7434 21.688 31.0025205964
30.7266 16.8267 24.4323 89.5742645954
33.6 17.7095 24.3517 86.4446771078
36.7086 16.6643 21.3006 30.7446941722
26.747 22.9883 23.6515 45.7673828219
28.3552 20.608 23.8952 54.4264685674
29.0129 20.7477 21.2954 27.5048918787
30.8401 22.013 24.3693 88.0687863391
31.1188 23.4589 21.6353 26.5160894035
33.1969 20.5601 24.2898 58.1116142651
32.9833 21.2092 21.7481 27.6591630509
35.2627 22.0116 24.5143 93.3635425446
26.3665 14.1057 35.7861 70.6489588041
25.8023 14.7413 38.3479 28.8055734089
29.081 13.7674 35.8441 78.0364626193
32.0686 15.0637 38.5595 28.8757338247
29.4367 14.0723 38.7907 27.6947830107
33.8981 15.9913 35.6524 89.1641348702
34.1591 13.4734 38.2257 27.1019251975
36.3218 15.5055 38.4427 27.1937283118
34.4895 12.9426 35.5106 88.1363134446
28.1232 16.7834 38.239 29.5334404346
28.676 19.6192 35.5774 98.0459692349
26.6599 19.3455 37.7379 26.5596073966
24.6457 19.005 36.0241 65.4303264933
29.5123 16.9343 35.6836 85.5582687195
31.951 18.1975 36.1469 41.5945110944
32.6349 17.7884 38.6752 25.6789208914
36.3748 20.0105 36.6871 31.0387092537
36.2788 17.2048 35.9974 65.8055012227
28.0083 22.777 36.0422 43.2804029447
25.4507 22.2366 35.5539 89.7956124697
31.0443 21.1811 36.5499 31.3748569264
32.1576 23.1113 38.4424 29.4231773899
31.0787 24.0656 35.4414 97.3669628182
34.879 23.7798 38.5515 30.5905568867
33.8791 20.4507 35.5824 91.3638826692
33.8789 23.1329 35.5071 74.4320885013
27.6334 13.7357 41.2769 27.8508801385
24.8788 13.1817 40.3788 28.0032643476
26.7541 15.9873 42.578 31.7388107423
30.3615 12.9298 42.5255 28.5146467522
32.0298 14.8407 41.3317 28.9694839011
35.3907 12.8114 40.9636 30.1300799509
34.5955 15.0276 42.3802 25.6404495807
27.1425 19.7252 40.9422 24.8094084115
28.3102 17.491 40.9034 27.578977693
24.7804 18.9098 39.9162 27.9090965564
30.2337 20.0614 39.432 30.1322882758
31.1569 17.3479 41.0768 29.7416993375
34.4276 20.016 38.8267 27.2473917514
35.1847 17.314 40.3305 28.1962962264
34.8824 19.2973 42.9693 30.5098255732
25.3224 22.8588 40.3687 28.1052932175
27.8204 22.2154 39.145 30.0962154219
25.3519 20.9548 43.1736 31.3069036905
32.159 21.4313 40.5981 29.3130995448
30.2383 22.7637 42.4284 30.21394581
29.6268 24.1588 40.0619 26.4540729668
35.0288 24.2522 43.0536 32.4691958371
35.153 21.8133 41.3475 30.8464419951
25.4609 14.4367 46.5081 37.4655310738
29.2207 14.027 44.9015 31.0416550062
32.5561 13.2272 47.0761 31.0532933425
31.1408 15.7471 45.9757 28.8560546699
35.0028 13.3445 44.9848 29.6912010651
27.5596 16.4281 45.2394 29.3518531472
26.1687 18.1287 46.8306 27.1923175774
31.973 18.8528 43.5002 31.2106901432
29.7539 18.2707 45.4377 29.7164234436
33.6312 16.359 44.59 28.5933380848
35.3652 17.3492 46.4892 31.4662450334
36.8734 16.6146 43.2762 30.8247263713
26.5778 20.7871 46.0386 28.4394739333
24.8176 23.0711 46.609 29.6941354188
28.6786 20.4711 43.3286 31.9601767508
25.4601 24.0285 43.4443 27.2355997095
31.0359 21.3128 46.7186 31.6608167144
28.8459 22.7321 45.4727 28.8515768654
33.5088 20.9939 45.2349 33.0777503777
35.5089 20.8583 47.5006 34.544306603
33.7025 23.7274 45.1825 32.0639515219
27.4155 14.1096 48.746 33.0423631189
26.8994 12.455 51.0161 34.3084670177
28.9246 16.0532 50.047 31.5522632159
36.0942 16.1772 49.0428 26.7377700306
34.147 12.6817 49.3218 27.399481639
33.487 14.3507 51.9213 28.4175555929
27.8381 18.4667 48.9253 28.6861784923
26.473 17.7126 51.5122 32.9734632877
31.5562 16.4149 48.5222 32.9073563274
30.4659 18.8917 48.1895 30.5597695968
33.8543 16.3897 50.2349 28.0974261105
33.5685 18.862 51.2427 28.6376529908
35.819 20.1225 50.2087 30.9347971475
28.652 23.7253 48.235 28.5874330583
27.1234 21.3507 48.6955 34.0261957439
26.0528 23.3762 50.8689 30.4357226356
30.9472 22.4778 49.271 30.010705367
31.0809 20.4356 51.0777 29.1338307427
32.9807 24.2802 49.6077 31.1856835319
36.6236 22.5035 51.5039 29.6933715389
34.9968 24.2024 47.7258 29.7867337185
25.9919 15.3473 53.4629 29.2081344953
27.8713 14.1289 55.2851 33.4767560991
31.0563 13.5922 52.8538 36.037497159
31.0114 13.575 55.7736 29.9470215953
29.1796 15.7181 52.7301 31.4922684268
34.8438 15.463 54.3025 26.4049728041
34.0367 13.4425 55.97 32.6772466513
36.8949 14.3256 52.5885 28.9532792262
26.7111 19.5863 53.5994 32.416701156
31.035 17.8522 52.9228 32.4969311168
30.803 19.8432 55.7996 31.8678699157
35.5647 18.679 53.2615 28.2380245118
33.6737 20.0948 54.9311 27.088460857
32.9175 17.4483 54.8761 29.8746675249
28.5784 23.348 53.6234 27.8709088974
25.8776 22.1603 53.473 26.6443842996
25.1075 23.1213 55.9091 29.7830470773
31.0918 23.4762 54.6599 29.4707237591
32.7123 21.8931 52.9726 31.2065742133
29.3601 20.6428 53.3112 30.3518653382
36.5669 21.4181 53.9251 27.7241829323
34.5038 24.2137 52.1169 30.6783189649
27.6009 26.8311 6.70258 28.1357475941
28.4867 24.5246 4.99385 31.7562742164
30.8928 25.4707 6.12159 32.988489523
31.0754 27.9189 5.21982 32.2250148972
35.3842 25.6364 7.44494 37.0364098532
35.3979 24.9223 4.33072 33.3484380841
25.37 32.4172 6.42754 31.504571496
27.6225 31.29 5.19899 28.224962996
26.8182 28.6905 4.52223 31.9743372298
32.6351 32.5527 4.80099 29.9105317363
29.9382 32.6119 7.67404 33.3501466295
29.183 29.4114 6.5641 29.611867455
33.2563 29.7061 5.69159 29.3526769686
35.5039 29.2634 4.4342 32.1316997479
27.7332 36.1308 7.32966 30.0980897914
25.7275 35.0696 5.99317 27.0576881396
29.7989 33.1963 4.71318 27.7694919543
29.5787 36.0603 5.34708 28.8899425697
33.0451 32.8851 7.6276 30.0029746969
35.9385 34.5618 7.81526 34.2722219195
36.2477 34.1823 5.05468 26.5822292417
25.5971 24.7619 10.5416 33.9547579287
25.3076 26.2424 8.16195 28.3195855566
31.9535 26.0363 10.0231 31.227747291
30.9281 28.2364 12.1613 28.1968614273
29.5789 25.6988 8.50396 29.5816494347
34.5118 27.3 9.39803 30.7937800069
35.7471 27.225 12.1523 31.684064732
26.1812 28.9954 9.70245 34.2073288467
27.1704 32.5621 10.8578 33.6382338724
24.8679 28.6853 12.209 30.197073302
25.2336 31.5197 8.98121 30.0591154956
29.231 28.75 9.24436 31.0145360085
28.8044 30.4699 12.0483 28.6928643662
31.1121 30.9599 9.81506 26.4674919756
35.8469 31.5542 10.8421 31.7205273076
33.515 29.5597 8.4372 29.4876781504
35.6107 31.5451 8.2882 26.9389870886
33.518 29.7774 11.585 28.8150825782
24.9463 33.6816 12.212 30.9962048176
26.8823 35.9062 11.8577 31.1777538535
28.8522 34.617 9.56482 30.9160691888
31.994 32.9781 11.3599 27.6504021637
31.1598 35.5176 10.6838 30.31098864
32.9807 35.7491 8.59992 31.5078540859
28.277 27.4863 15.1006 29.5442269706
25.7061 25.4025 15.3126 29.0582028235
32.345 26.0137 13.3873 30.4775910609
29.1631 25.7745 12.9519 36.3297168481
34.8565 26.7137 14.7757 27.8978531114
26.9308 29.663 13.9755 31.4286301022
24.7937 32.5374 15.0334 31.1795768868
30.8624 28.6301 15.5849 29.0447552926
30.6432 32.2415 13.4645 32.8058974051
28.9068 30.6204 16.6522 31.06490993
34.4244 28.8489 16.5697 31.1700243831
32.9932 30.4095 14.414 30.2555586357
35.1018 31.8849 15.3633 29.4138137719
26.525 34.9685 16.0653 31.9504438594
30.6391 34.1355 15.4297 31.7796060766
28.938 36.1522 14.704 32.9415886946
34.3492 33.2466 12.9393 30.8325629522
32.9829 35.2803 16.5109 27.9217463774
35.9107 35.6094 12.5991 30.664579541
27.2961 27.0858 18.0086 29.57851436
27.9038 27.7991 20.9064 26.3689752255
24.7669 26.0544 18.1146 29.8785242259
32.0774 27.4216 20.4619 27.7391409755
32.0882 27.4893 17.6864 27.9095420687
29.1292 24.7532 18.1678 32.0322467339
35.6105 25.0265 18.5016 29.7429632655
33.8967 25.3814 21.1594 30.458795629
33.2286 25.0551 16.9944 26.5271586364
25.4903 31.8643 19.3459 30.920598006
25.9573 30.4929 16.8965 33.0261319816
30.668 30.5881 20.7004 27.8882853976
29.8248 28.8208 18.7251 27.6747837234
35.6538 29.5408 18.9935 33.1850666752
32.814 32.5015 19.8969 31.6850815806
27.7594 36.231 19.6979 30.3572599703
27.7416 33.6091 18.7903 29.2018080985
32.6893 35.1961 20.3317 28.8228636787
30.2303 32.8163 17.6924 33.9511698365
35.8839 36.6039 17.1162 30.9779453093
34.5429 33.3624 17.6006 32.1069516955
25.9349 25.8272 24.2381 73.4546848747
25.9652 25.8297 21.3971 29.3339646885
27.7469 27.979 24.1009 58.72034363
29.9673 26.4798 21.8565 27.7029834783
30.5485 27.6559 24.4162 100.8942032216
31.6495 24.9246 24.4043 88.8583151898
36.4436 26.971 24.6051 100.4331543079
36.0805 27.371 21.9008 30.9489797861
34.4641 24.7453 23.9371 44.4780217056
26.6672 30.3313 21.6695 27.2465222406
28.579 32.2249 21.4329 30.4626031915
26.4895 30.6021 24.2706 69.6961117077
31.1548 30.0864 23.4102 30.4113549551
30.4538 32.4064 24.4551 91.4905607054
36.7178 29.5795 24.5235 90.0721045348
33.9478 29.4788 21.3277 28.8940842373
34.8754 32.661 21.8766 29.1956449575
33.8635 30.6913 23.8051 51.1864127568
24.9703 34.1178 23.8581 40.2951360384
27.8118 33.0381 24.4003 84.0108496976
28.529 35.3095 22.3604 30.544012476
30.9601 36.3351 21.9281 29.3871736914
31.8485 34.9247 24.085 85.045533984
36.2307 35.6193 24.0248 59.2997343223
35.3718 35.7722 21.3015 28.2668674513
34.4467 33.5377 24.5635 107.6923831332
27.5889 25.4493 35.6958 70.2924300489
25.5446 28.2368 35.6282 80.0393270622
24.8014 24.9458 35.5668 77.0383093673
28.439 26.349 38.4706 28.949230588
30.4882 27.0323 35.9125 55.5170185634
31.7389 27.6025 38.3926 27.8227410614
34.4929 26.6937 38.6194 28.4782775882
33.0172 28.4428 35.6258 91.9631758579
35.6528 27.2014 35.9646 60.3276569205
36.3438 24.6024 35.5803 81.6987072311
26.4335 31.4103 35.6529 79.192619753
28.2668 29.1887 35.9989 51.4424955321
25.3456 28.779 38.4639 26.7130939204
30.0128 31.1775 38.575 28.876298053
30.3484 31.3304 35.7097 74.1625266288
35.8406 32.3962 36.6622 35.83380074
32.888 30.3965 38.7737 29.5034805849
33.2096 31.0907 35.9747 69.7078584891
26.353 35.7469 35.318 110.9507313583
27.9335 33.5622 35.8762 45.4005331864
31.5044 35.4333 38.235 30.3268870658
30.9232 34.3267 35.6418 87.7717659437
35.6836 35.1699 35.9776 86.8004125978
34.2737 36.0393 38.6104 30.552763517
27.5346 25.2899 42.3212 30.1473262982
26.2253 28.5322 41.7872 26.4572800096
25.9036 26.1673 39.9612 26.9622008627
30.1361 28.3718 41.9338 27.8495724428
31.2207 26.431 40.6046 26.6100035993
34.1703 26.3083 41.3018 32.4094543732
26.9919 31.6968 40.6876 28.0420265351
28.1463 29.0094 39.4635 26.9607324788
31.1938 31.2119 42.6159 31.1176783218
36.25 32.0215 39.2972 30.7189789374
34.1926 28.9828 42.485 29.166831002
35.0459 29.175 39.7306 27.5555821567
28.4282 33.5584 38.8591 30.1320497717
25.2953 34.5182 39.484 29.4571270786
26.3151 35.8872 41.4543 31.3639241987
25.1594 33.684 43.1882 30.3416383105
29.4662 34.8543 40.9593 32.0311421359
31.6001 32.991 40.3395 29.261610058
34.1961 33.7218 40.162 29.8410991561
34.5473 36.5474 41.625 32.30927095
25.2672 26.7688 44.3929 27.1271500614
28.3944 27.7398 43.7834 24.8300559543
26.5489 25.5384 46.4118 27.3794540484
29.4039 25.955 45.9796 31.5173816859
31.2142 28.0075 46.3593 32.031214948
32.13 27.4822 43.8077 30.6214069523
31.3392 24.7976 43.9567 29.8345348524
35.8539 26.757 47.4426 34.2738394077
28.1596 30.034 45.1759 28.9997936454
24.9292 30.0023 44.5417 29.2571075563
28.4762 32.0491 43.2523 28.6465698865
30.7593 30.9702 45.7528 35.4782646964
36.4722 29.8224 46.0958 27.7398973401
34.0366 31.268 46.5824 31.2106045803
36.8105 28.9241 43.6283 31.8284783178
33.7568 31.5874 43.6312 33.9993430758
28.1681 34.7347 43.4922 28.1223579417
25.6479 35.3495 47.1067 30.8520734098
31.5821 34.9168 47.545 30.4845027722
29.497 33.535 46.1326 33.5538083387
36.9018 34.2751 45.5743 29.9871228529
33.971 33.8173 47.3597 30.3560683281
35.2938 33.9793 43.2422 33.0733492258
27.0207 26.8523 50.5026 29.2210705627
25.2932 26.8067 48.5521 25.4476214366
31.4424 26.3418 51.277 33.8692966553
32.7666 27.0291 48.3089 33.782456647
28.763 24.5894 50.9604 30.9170726765
36.0544 26.8886 51.9335 31.5098721041
27.1433 29.3133 47.9557 34.6100799696
25.2894 31.3193 48.4804 29.7878515833
32.5597 31.6649 51.7732 26.370066432
28.9115 29.1488 50.2689 35.1486702628
29.8068 31.5524 51.7038 30.5048005927
31.9146 29.0585 50.7187 32.6130038416
34.0217 29.8865 49.2951 29.9490140882
36.5633 28.8304 50.0297 27.5762870026
36.8887 31.2262 51.7256 27.7027106889
27.7477 36.0819 51.7355 28.3220205311
28.1449 33.6257 50.4785 28.449248866
27.3889 33.5811 48.0297 33.3315503723
30.6675 34.9516 50.1105 30.0429868207
35.2084 34.542 51.7317 27.4186672273
34.656 32.7269 49.9318 27.1537738507
35.9053 35.8117 47.9641 28.9766165978
27.2307 25.0687 55.0662 28.3643388119
28.0785 27.8416 54.7364 33.0543092522
25.3984 25.8769 52.9231 30.9060523248
30.7333 28.0625 55.0926 32.2652815702
31.9183 25.9581 54.0753 29.6719635323
34.536 26.2579 54.4795 32.8806257628
27.3223 32.1203 55.1617 30.8580871289
27.1307 29.5685 52.6574 28.6134132126
26.2364 32.3378 52.4581 27.124101905
32.4471 30.3976 55.2831 31.2006135724
30.2539 32.1719 54.3767 30.0812341345
34.5598 30.852 53.4557 27.539952737
35.8912 28.7238 54.3866 27.425611005
36.1755 32.4565 55.2833 30.2211864645
27.4974 35.023 56.1539 29.8436627407
25.8928 35.6115 53.502 27.3729981728
31.2241 34.8457 54.5389 27.8510838902
32.3587 34.505 52.2567 29.9111052865
35.6875 35.2154 54.3462 27.6406909537
33.4483 35.0238 56.1602 29.6004426082
28.6868 38.215 3.71956 30.7796230443
26.1543 39.3468 4.33549 32.5703303327
30.7799 40.3396 7.15065 31.5554456612
31.6476 37.3879 6.94921 35.3602049846
30.2733 40.3352 3.87512 30.4514279865
33.3737 37.5836 4.70527 32.1334148521
36.1893 37.5198 5.0216 30.0268292393
36.9027 38.8717 7.17766 29.5954563779
26.5623 42.7175 5.03863 34.9276114746
25.5017 41.1685 7.13466 31.6517864217
32.783 42.4981 5.14191 29.5861359373
29.2222 42.5667 6.01792 29.6555769658
30.7655 44.3464 7.72998 30.6684858216
