20.3412 40.5986 39.7396 34.2049453376
23.1049 44.6188 41.2095 30.1266716651
14.8615 45.1392 38.5033 30.3838988048
16.111 37.3325 40.2555 29.896894358
17.1436 46.3017 37.584 28.0062364192
19.2623 47.1202 42.2359 31.2908234833
22.1148 37.7358 40.4097 28.1910348361
13.9489 48.4336 35.9889 57.1088074508
23.6156 41.8251 42.4607 32.2903454022
12.6463 38.513 39.4936 28.7839778343
24.5521 42.6272 35.3532 111.8758578685
24.2317 46.7869 37.9114 30.0843552173
22.6507 37.2191 43.0544 32.6425787132
15.2865 38.0303 47.1651 28.9614187216
16.0287 41.2459 45.8771 27.4026131239
21.6211 44.3341 43.4102 30.7388149136
23.3436 39.4325 52.6253 29.8722612576
22.6647 46.5344 51.0209 29.841355706
18.8742 37.2596 43.9598 25.037653984
15.484 42.5046 48.4021 34.4345330766
22.8993 41.7911 56.4892 27.4798503498
13.6798 40.4428 44.4105 28.6275931383
19.559 42.7786 45.9159 30.4945227931
24.2234 42.1105 46.6629 28.6713708246
18.4299 46.5039 46.7332 33.4487606665
12.7246 45.6058 51.1488 31.9136771173
14.0277 45.279 55.4163 30.9506866567
17.9491 37.7932 50.9421 31.6649092552
20.3362 46.1859 44.7337 28.5700928832
14.0427 48.5272 45.4512 28.1521215257
16.3072 37.8768 55.6644 27.2851561677
13.4324 40.3246 47.4014 27.0972377208
20.8904 41.4067 43.7429 32.7331687148
16.8759 47.9602 51.1101 31.298020822
15.1304 47.0472 43.6499 29.8852090736
20.6551 45.9541 53.0388 31.7657003805
17.4613 38.9055 45.9393 28.9553139568
23.2473 37.9432 49.1081 31.194624514
21.9116 41.8299 53.7696 33.828491453
22.3313 48.275 54.975 28.1061095547
17.1065 43.4495 44.6655 32.4673013294
17.6107 42.429 50.2307 29.6202290558
23.4724 42.2664 49.3523 33.4482481108
19.2558 44.3091 48.3704 32.8779117928
18.3015 47.5397 53.7821 30.4801697293
19.7083 43.6335 52.0383 33.0834812329
21.6837 44.3272 49.7081 30.0456939549
19.3702 40.2284 47.389 33.6237690887
24.6287 39.7516 55.6063 30.2654711959
18.6603 48.2019 48.8117 33.4064873039
14.1413 44.6722 47.996 26.9768981775
22.2665 46.3025 47.5041 28.8908533662
22.164 40.0606 50.3433 30.5244431685
21.1712 37.6486 45.7719 31.7772015279
22.078 40.2493 46.0378 31.8925340507
17.1025 42.4652 55.9414 28.4825338997
15.8239 45.5769 45.9015 30.5663851782
19.0621 40.1491 50.3493 30.353643773
13.2434 39.2243 50.0215 30.8250165854
15.5143 45.6419 50.6901 34.4036442509
14.6617 49.033 52.2383 26.2584723068
24.4698 47.3113 43.6102 30.7535521069
20.5982 39.0127 54.8143 29.8152921629
12.873 40.9942 56.3204 30.092933947
15.8871 38.1134 52.7268 28.852022404
22.6764 44.4409 54.5352 35.1900968412
16.4919 42.1221 53.3135 28.4895043444
12.8153 46.9446 47.1412 30.6020106261
16.1295 45.1244 53.4339 34.4923363947
12.7943 41.8385 53.6709 32.895284656
22.2925 48.5059 45.0652 33.9601317622
14.6946 40.3195 52.2178 32.6289491256
18.896 40.9163 53.3202 29.1906771227
21.5343 48.615 49.3735 31.1710694025
23.765 44.6965 45.4338 28.4937622205
18.0699 39.8297 56.3953 27.4033629495
24.6765 45.849 55.9243 25.6841979728
36.7017 1.58866 10.0745 29.3737365807
26.2068 2.84472 5.86578 31.6313620353
30.9895 1.85488 6.21851 34.9047549105
34.9415 4.40713 7.57263 34.7178587585
29.4799 4.91607 6.71172 30.6508484455
31.3775 1.79226 16.2679 29.81160594
31.4852 4.58159 4.5907 29.546332372
35.3344 1.49477 7.58108 34.8130533372
35.8089 0.555874 14.4786 29.2165117144
27.2299 5.44877 5.22394 31.8222491284
30.5677 9.15807 6.1225 33.7947905392
33.1365 8.47013 6.74095 32.2201169037
33.8653 5.90815 5.55609 29.8590103547
33.6265 2.67517 14.06 30.370284377
36.5636 7.87778 15.9081 32.348597845
36.7495 0.899949 5.38322 34.9534165096
28.8951 11.2962 7.16742 29.8968691279
27.0876 0.615249 10.078 33.0106647626
34.0924 5.26022 14.7431 39.1681444699
33.9968 10.8565 5.418 31.4103836577
25.3005 1.05085 3.99113 29.5392828045
25.4906 6.93385 6.75512 31.9678655068
28.4462 5.17765 9.89755 30.566016983
27.0251 10.2697 14.861 32.7800761538
28.4424 2.49918 8.26612 29.7559191005
28.3813 0.968413 5.55291 29.3525639844
28.1847 3.05836 16.3481 33.1628074389
31.0957 2.09772 9.50005 29.4168369709
32.8859 4.29453 9.54317 33.6132417707
27.4369 8.71554 7.88778 33.013309582
25.9454 5.86673 11.4727 36.1243028204
29.9403 7.26115 8.37289 29.0663147541
31.7122 6.66132 10.4661 31.7287913014
33.4594 8.64991 9.61887 33.3374757032
30.8223 5.75419 12.9402 34.4950102647
35.9735 8.12417 10.869 34.7675770508
26.5947 9.20574 10.5147 28.5725518153
28.5739 7.66132 11.6732 27.844650514
31.9277 9.42255 15.8319 37.4302244296
29.513 10.5185 11.4247 33.6842808298
35.6095 10.4976 12.7999 32.150982306
35.9953 7.0892 4.15595 34.4795958462
30.3781 7.14748 15.3819 30.9747812561
28.824 12.0477 13.488 30.7015502454
32.2053 11.0056 10.3505 35.7864593822
34.8752 3.36059 11.622 34.1875229262
29.718 3.55835 11.8804 27.919005361
36.58 10.9082 6.87798 30.5841895535
26.9257 0.188454 12.9119 28.385300243
31.1912 1.11976 12.8024 31.3675316427
27.6844 2.67676 13.4892 32.7838770817
27.9475 11.8647 9.58933 29.2254193514
30.118 8.27445 3.51427 28.5184670209
26.5171 5.16471 14.0266 30.1657603754
36.7399 5.44253 11.8232 32.6916637779
27.73 7.49196 14.6436 29.0026469961
34.6965 10.0127 15.4928 30.9925564971
27.6219 12.2178 4.74633 31.5546965972
26.2687 6.29434 21.9778 33.4472499704
30.2963 2.90277 20.7106 32.2867742116
33.8991 9.57216 24.3897 86.8457366383
35.4509 0.168334 18.8978 28.4575135767
33.2507 3.75539 21.6244 29.4369975309
27.9942 5.67012 17.9267 30.73713438
26.4133 11.1264 17.6567 26.8890659746
30.6851 5.55165 17.6591 29.1248838718
32.0455 3.42236 18.3238 29.0453829338
34.5092 4.92289 17.7143 32.2812182047
32.3198 9.75534 18.4262 27.302082317
33.5866 11.7482 21.424 28.7609991578
30.1313 0.221406 19.8058 31.0529676747
26.642 11.1547 20.835 27.7425232342
35.0449 9.10333 21.7669 28.7269876514
29.827 11.0102 18.1972 29.064113875
36.4548 3.02823 18.4134 31.4017435252
32.0461 0.352028 23.8866 60.1482795544
36.0919 7.39317 18.7184 29.6995173456
25.9411 2.59982 23.7943 83.5849843285
28.0106 4.48356 23.7598 63.0216090842
35.0823 1.61071 21.3399 27.1839676579
30.4359 8.52829 21.6599 30.6593204474
26.0704 1.45454 17.5766 32.0392502888
29.547 7.80337 24.134 66.012028886
27.8261 8.62563 20.527 30.4271371205
27.7929 4.21617 20.5597 31.8519728946
31.1984 5.59008 24.2471 88.1563613299
28.0121 8.81722 17.7472 27.1517880162
33.8054 6.58419 23.9099 48.8047272912
30.6808 2.95881 23.6009 58.9791241311
31.8352 7.22826 19.6275 33.0736955179
34.5946 3.89909 24.239 86.8228075967
26.7602 7.40162 24.2385 101.6640720297
25.5895 10.0248 23.4414 34.7387440604
35.1199 10.1413 18.7449 26.3691753559
31.0509 10.3246 24.2061 76.1433412208
30.7182 11.4345 20.9887 27.5487291818
35.1898 0.788575 24.131 70.7998125002
25.8372 2.27303 20.6506 32.6315138488
34.2126 6.25085 21.1892 26.9294892147
25.1923 7.12312 17.8292 30.6436261294
29.1667 0.285511 17.0873 27.2554352664
26.1268 11.7961 38.5458 27.5890430289
36.1593 8.93485 38.903 31.9490100868
34.1143 1.29706 35.8215 69.5120494345
33.1508 2.87837 41.1385 29.9238904607
27.875 10.7923 41.7175 28.7320633355
26.9875 2.42691 36.1204 66.7080639415
27.1579 9.09509 39.457 26.6082050101
35.188 11.3873 39.8275 29.2439732655
35.7961 3.07222 39.9264 28.2642223423
26.3142 10.8741 35.8323 94.8072524575
28.0319 5.03572 36.1805 70.4398124559
27.0382 7.9844 36.6836 37.8467706456
32.1301 6.64874 35.5408 106.4082978318
29.8468 8.90551 38.7906 28.856201257
30.6498 4.23523 36.1757 53.46385969
35.7163 3.68154 35.5721 105.7343840131
34.8935 6.43637 35.8946 68.1504932447
30.9881 10.8943 35.8261 76.6032237287
29.9107 8.4572 35.9493 69.3170827357
34.1329 5.37702 42.5117 29.6391626275
24.6002 0.602362 38.9541 27.8876721417
34.4142 10.6242 42.6895 28.056454159
36.1773 9.02028 36.2795 54.1455042755
31.32 1.59504 35.8627 68.1690522466
27.3037 1.42589 39.7546 32.1354591695
30.6105 3.9641 39.5214 30.2617677726
30.4785 5.53812 42.2265 30.0992200749
34.5243 1.08497 38.8323 28.8011671833
31.6333 8.23714 41.5039 30.0993623114
27.2409 6.7102 40.6233 30.5777174289
30.7469 10.9142 40.5807 26.7469878978
27.5673 2.11699 42.7062 37.6101200237
32.3635 0.792466 42.9366 32.9775251706
31.7736 6.52814 38.737 32.9482844095
32.7317 10.968 38.4222 29.4912748856
35.695 5.52134 38.3142 29.6974921161
34.2367 7.03515 40.1626 31.4790259668
34.1454 11.0676 35.9564 75.8445466165
27.8818 4.24577 38.7465 29.7135745173
31.2326 1.28986 38.9086 29.3245895054
24.6498 6.93682 41.1468 26.9466055284
25.0461 9.5413 42.341 32.316871842
24.6813 4.14524 39.2278 30.532369588
36.1762 3.18105 42.8317 28.7289717629
24.8413 2.76326 41.8946 32.8314565403
28.833 0.284107 35.8218 69.9608567024
35.2607 11.5289 47.8431 32.4810812725
30.0582 0.586351 49.9967 33.3218070974
35.5154 6.9495 46.4356 30.3832932906
30.3162 11.3666 53.0594 27.6871090082
35.6625 1.97568 46.2933 26.9575607514
36.091 10.2998 51.4954 27.1618657215
32.9638 2.57635 47.0169 30.2969882875
26.6705 10.0864 50.7013 28.2492377053
28.0797 6.69082 43.4292 29.1119840018
32.2939 0.0889211 55.3382 26.746729129
35.9652 4.43391 47.8569 29.6320294289
35.1845 7.8235 43.8424 33.9874872631
33.0476 10.6091 51.674 29.1024981934
31.2636 2.99327 44.719 31.1514200724
32.6224 7.84904 46.1464 33.2190718605
30.2739 7.12358 47.8343 30.7094415591
32.1396 5.51683 44.3786 31.0189034453
24.9197 4.2215 51.123 31.414151935
34.8843 9.59003 56.1217 30.2728891104
31.7277 9.74656 44.0198 29.6636766624
29.1356 9.73428 43.9723 31.717434931
36.0152 9.15002 48.7711 27.3495599275
36.4113 3.8617 54.3914 34.0184231141
28.424 10.933 46.9428 32.5179797635
28.6736 5.01743 54.1672 29.4850669201
26.0911 3.06645 49.06 34.2184616942
30.1141 1.68636 47.3755 28.96215678
30.1723 4.37584 48.5851 30.3466192214
28.8364 5.3184 51.1352 33.4043239444
31.3834 5.79844 53.0928 31.1159037755
33.2648 4.80054 48.8898 29.683916196
34.3403 3.0211 50.8466 29.7632397455
25.3954 5.40615 43.2907 28.947079674
30.7348 1.47402 53.4494 26.2695974615
27.8179 4.64227 47.3792 30.5626242815
25.9742 6.92156 48.0081 26.5893078432
28.2609 7.87541 46.2865 29.9494092688
31.1832 9.03422 49.775 30.9819811896
33.6922 7.51014 49.2175 27.9684224814
33.7559 7.92674 53.2508 33.8450649041
26.3626 6.47068 50.5998 24.2707523238
32.3148 6.86045 55.7888 27.7097706848
30.4098 11.546 48.8692 33.8026324934
34.6074 1.2248 56.2222 34.8909480893
25.982 11.2344 55.5633 30.8057265258
27.0548 8.21047 52.5158 25.6810456771
32.6815 3.24535 53.0408 29.4214470179
25.7148 8.41754 54.7481 31.24338975
28.4965 4.08812 44.5533 31.3929589149
35.3779 0.806437 43.8369 29.9934689279
29.9872 2.65234 56.024 33.6160270421
27.8052 1.4564 52.6981 32.358105797
33.7884 3.87083 55.5279 30.7146071278
35.5693 6.92263 51.2395 31.2224597205
26.0767 9.76916 48.0443 27.6659471066
29.805 8.21264 52.2881 30.4555006962
28.802 10.5308 55.2122 32.3850621662
36.6817 4.40224 51.8496 28.5214529596
26.1612 3.5819 53.7861 35.1983086241
32.5635 0.278915 51.428 31.3333981154
36.3758 1.05782 51.1208 30.0438188376
25.6434 0.203879 48.1812 30.5279886974
32.2638 10.1237 54.847 28.839767259
36.0892 0.93924 53.9529 31.9292398759
27.8249 6.91521 55.8612 29.6138997883
28.453 12.1467 50.8276 33.5163095487
27.7824 0.215108 46.5229 33.7057178904
28.3779 15.8482 6.42259 28.9212455447
25.1364 13.3581 5.30513 33.2135198608
26.0017 16.4876 8.92484 29.3573219064
30.4493 18.8336 5.73802 30.6607303438
30.8576 21.2535 14.3912 26.8446878143
29.8659 24.009 8.03914 33.3593704841
36.1506 19.1644 5.67625 27.1941971334
29.9985 22.0738 4.41988 31.8831555285
28.4115 18.2347 7.70397 29.8223010328
26.2639 23.7904 4.87255 27.8880742835
33.8061 18.9979 6.86223 28.2538619824
33.964 21.4247 8.11735 31.9034197689
25.4963 13.0646 10.2617 29.0686444668
33.071 13.3793 13.9772 35.0838135638
35.8778 16.2164 14.8377 30.9962517478
26.5879 20.3805 7.6498 33.1360488708
35.31 21.5521 12.5173 27.2294588413
28.1248 22.4706 6.54947 32.5410055576
34.4357 24.2263 9.31609 27.9238235413
24.6548 20.137 5.76253 28.6285729923
25.811 20.9438 3.56984 32.0296991333
25.9816 23.6884 16.0484 36.3055622299
31.3701 14.8336 4.86156 29.2826241855
31.4621 15.5278 9.53106 33.2332492283
28.3497 15.0557 9.80767 30.1592870108
30.2395 13.7335 7.39207 28.1151360056
36.4838 21.1476 16.5476 30.750560886
33.3306 16.4706 13.6653 33.5137466091
35.5071 18.2084 11.2766 28.2041183296
30.153 18.0426 9.94649 31.5569413447
28.4859 17.8604 12.1239 36.5040252844
33.3361 19.5404 12.2465 28.869596385
36.3055 19.5257 9.10384 30.077852241
30.7044 12.3217 15.376 31.184303254
33.9413 15.8994 10.9044 31.4417531298
27.3023 22.3986 11.783 32.1530315725
25.4382 21.5056 10.0484 32.5327811945
30.6739 22.1877 11.5816 31.5592043889
31.8378 20.2964 9.97497 34.8064864723
35.8921 24.147 15.9797 30.9268247918
32.5441 20.7671 4.68262 30.7595693958
28.3729 16.1134 14.3054 29.0464483104
35.1591 15.3139 7.03278 31.622808425
30.0387 18.2206 15.7639 28.0520550675
33.7498 22.5129 14.8871 28.3105686661
33.9157 23.1553 5.8104 28.4216500052
27.6067 14.1113 12.6105 29.9168450702
32.5815 16.5911 7.1517 29.1644590787
29.0623 24.5749 10.615 29.1829063802
35.9167 13.0978 8.47695 27.2727484029
28.3404 20.3423 13.5659 29.6977839659
26.0652 15.8633 4.5854 27.4573879979
25.9702 17.0114 15.5049 29.8383019648
25.5612 23.8653 13.2938 31.1149483067
32.6146 19.0196 14.9044 27.2088069429
26.7521 20.9541 15.5839 30.4016327628
31.4956 17.4094 3.64776 34.2660461472
34.9797 14.9581 3.98921 30.097164951
29.5249 14.6751 16.2628 31.6033172463
30.5328 23.7231 15.8493 29.3804189943
36.7655 13.4432 14.1972 28.4404876455
32.9387 12.6422 8.10756 33.5942083505
36.2627 14.1978 11.0212 28.0854995221
33.2356 23.7907 11.8379 27.3764789305
34.7954 12.7577 16.0814 26.7005114066
24.8427 17.4059 11.2335 36.8000333398
36.7816 23.7777 5.76524 33.0066344858
24.8487 13.6689 12.9507 32.1266127734
34.1668 12.2893 11.7776 27.9732719529
36.229 24.4024 13.093 29.9133600296
27.8252 18.8956 20.1084 28.331867182
29.8756 21.3132 17.6473 31.0567984148
28.8378 16.2806 21.2959 29.5737620955
30.7311 18.4854 19.7674 26.2388915315
26.1604 14.9801 21.4139 26.8227522141
35.0053 24.3381 20.3617 34.8256987966
26.9798 21.1724 21.4949 32.1508326223
36.7338 19.3356 19.4089 28.6819699519
27.7776 19.0767 17.3954 30.6243806237
34.2497 19.2967 17.1441 29.2394180843
28.6898 22.8298 19.6913 35.4691405067
29.5209 12.4555 23.7098 33.0775793801
28.5598 13.6394 20.7878 24.4913182833
27.5964 13.4809 18.2161 28.3438357007
31.1799 14.6434 19.5785 29.5338593797
35.2419 15.5714 19.5694 25.4408501724
33.7471 12.8728 18.8381 28.6965026311
25.9 15.0748 24.1488 54.2631874829
30.1704 14.9008 24.8874 127.5708629108
28.885 17.0091 23.8603 37.9240616085
33.131 15.0408 21.4978 28.60448021
31.2022 16.6119 17.5727 28.0458656401
25.9099 17.9671 24.4414 99.0490396795
26.7723 20.6727 24.1579 63.6992186059
30.5265 19.1162 23.8962 52.1541653266
30.4042 20.7159 21.5739 27.6817256393
34.451 20.8036 21.4156 26.780027226
32.983 17.9155 21.5105 26.6370085555
32.831 15.4631 24.3148 75.4406484505
33.3009 18.4751 24.1946 76.500804362
25.7128 15.3726 17.8691 32.7364539806
32.7921 20.5394 19.0809 27.632013825
35.5793 17.606 21.2258 27.8348709909
32.3287 23.311 24.4632 99.5292472329
29.443 21.9505 24.5212 93.4089941889
32.2853 22.946 21.7923 27.5409411063
34.0498 16.5248 17.0847 29.0591797741
34.3219 21.181 24.2615 79.1527431772
34.5991 12.6855 24.04 73.462433227
25.3431 17.3596 19.9002 28.4741184486
36.5539 16.6439 23.6234 64.7136264035
27.9148 24.0337 24.0514 58.8801663328
33.8134 23.1786 18.1849 30.1657750524
26.9588 12.2349 24.4362 98.9853858731
36.8199 22.4579 24.0079 54.6744619559
26.4718 14.6334 35.7088 96.1765895088
30.2602 16.742 36.251 46.3388131622
31.6494 14.2873 35.7865 82.2430483793
31.861 13.6672 38.8161 29.3300138306
24.9175 22.8095 36.3312 48.2200964038
36.8069 17.8282 42.7412 27.7016626469
27.4124 17.5838 38.708 28.5733349675
27.4357 17.3945 35.9507 76.2356398347
32.2134 18.6422 35.5371 110.2682013809
30.4829 17.6023 39.1078 32.7070391362
28.8334 24.3499 35.8247 86.4371600554
34.1051 16.5683 36.0876 50.2995669612
35.7781 18.7129 35.7725 75.2319908201
31.6678 21.1933 36.1316 58.2367777684
33.2136 16.0444 38.8526 28.8434260133
35.8792 20.0214 38.3835 26.778397475
35.476 23.2236 38.4622 24.4659339431
26.3066 20.032 38.6002 26.5268939682
34.7882 18.1403 40.1105 27.9871969816
28.9293 21.7437 36.6432 35.4996389092
33.446 21.1243 38.358 29.8495636174
28.6917 12.8161 36.0176 57.4096595177
32.7427 23.6961 35.997 54.316057994
25.7994 14.8535 38.7397 26.8850658397
26.5018 20.9157 41.3627 28.3500385389
36.2697 13.6801 38.4546 30.4246993646
29.7687 16.1761 41.6728 33.5417352131
32.1007 19.4441 40.4629 29.4233838935
25.5551 17.277 41.2849 28.4059150677
34.5594 15.1377 41.3996 26.8552854713
29.1839 20.9518 42.8386 28.3374217292
34.3625 24.2733 41.0813 31.4963161659
28.2087 18.2217 42.0046 26.674905604
34.9561 13.558 35.9374 57.1633361148
26.718 20.6455 35.8076 90.7326732804
29.055 12.742 39.0591 32.2187768083
28.0849 22.6945 39.1834 27.9999804415
27.333 14.8298 41.0744 32.8403664776
32.1797 24.2457 38.71 27.489676031
35.5951 23.6519 35.8154 73.2764458088
30.5017 22.0346 40.5336 31.1301157489
32.7755 12.907 41.8596 30.1534825705
25.1785 23.4246 40.5185 29.4816557759
26.3637 12.6176 43.0387 36.9883794409
32.5247 19.6567 43.1411 28.8220433831
34.1926 17.0957 55.3228 33.262357719
34.0688 23.9485 50.9325 30.1276982953
35.0261 19.865 56.1063 29.3985786365
31.2884 14.0885 49.9022 29.9151154649
30.7893 20.3127 45.3861 31.5768049473
28.6398 15.4764 46.2709 31.6560355249
34.8703 16.9068 46.0058 27.8155943267
27.066 17.1033 53.4374 32.9593262804
25.7664 13.5423 51.5077 30.072973775
27.6681 23.3867 43.7305 35.7832628453
36.3548 12.9101 52.9165 28.5168829909
29.8615 16.1425 48.4917 32.2357118073
29.0872 17.8736 44.6964 30.5434293018
30.8971 23.4821 43.9418 27.999110041
32.2472 18.776 47.1948 31.702823125
35.6876 14.6807 44.3138 29.7769348992
30.143 19.0335 49.01 29.3466594185
31.5212 22.3593 47.6316 30.5740199464
32.1597 15.6251 46.6672 31.8856350925
25.3031 22.3731 52.8539 30.2061293179
36.9115 17.2881 52.7839 29.8414445573
33.5829 22.9171 43.6132 31.9502343764
26.3479 18.2258 44.8688 33.422086331
27.036 13.1113 45.78 33.983847248
31.1069 19.2877 51.5397 32.3135884948
34.5774 15.3944 51.3717 33.0007480653
30.9502 14.4394 52.7547 32.6052233427
35.9584 22.2256 49.4019 25.1585455951
28.4621 20.2218 56.0608 29.9294999314
36.0684 20.5151 46.1977 28.5324677019
36.6245 23.3993 54.5365 29.3736160474
25.9769 19.8295 47.3673 33.5261161686
35.6029 15.1051 48.1973 31.3819319554
30.0452 22.3482 50.0585 28.2227861725
25.7234 16.3861 51.0328 30.3889829773
30.259 22.3645 52.9557 31.8918387523
25.6418 24.1137 54.9746 31.9272155454
33.7543 19.8689 50.5973 33.3248895035
32.5794 16.9928 52.7498 35.8683280939
33.9454 21.0021 47.8463 28.8354862375
26.4124 19.867 51.8737 29.6255399043
28.1018 14.4442 53.5635 32.6243317294
26.0202 16.319 46.8184 29.1486645817
28.908 20.1128 53.4231 32.2672328917
27.813 20.7756 49.6043 28.0275047282
24.8397 16.1556 54.9948 35.5913462609
32.839 22.0916 52.5103 29.4577292963
28.4352 17.441 56.4462 30.7790649601
34.0814 22.5574 55.0863 29.7587779686
36.8848 17.2128 49.8164 30.6144257538
33.3148 13.1073 53.4957 29.097130596
35.2332 20.5652 43.4441 29.2000372344
26.2705 23.2757 49.8192 32.18117616
26.436 22.8709 46.7297 35.013728884
27.2625 17.3623 49.0656 31.5147849672
31.5493 15.5247 43.9432 29.0816773686
31.6644 12.886 44.8545 37.3259092338
34.4631 12.2815 45.1979 31.9750955761
35.3193 19.9455 53.1914 29.3179158056
28.9815 14.3001 56.3001 31.1691335493
33.7081 13.0684 49.6328 29.8238992358
33.1683 12.9449 56.2872 32.6889953719
33.8125 17.2142 43.3188 26.0470119915
32.4894 24.9307 7.42987 31.7296786594
29.0339 26.6377 7.31015 28.7698915292
31.4861 27.7969 3.60043 30.9366288919
26.4144 29.5119 11.9142 30.1143852564
26.0823 33.8304 14.4776 27.3976760349
25.5751 26.756 12.343 35.2255196171
29.6747 34.3953 16.7217 34.683268771
34.1233 34.8652 14.2335 31.5212562176
27.8426 34.266 3.80591 27.6941270594
34.9521 32.3395 14.9499 32.8506993227
31.8669 27.7456 6.797 28.9480149828
30.0597 30.9934 13.7373 30.4325524802
34.1933 29.2162 6.20192 34.0673744355
35.78 28.1617 16.1292 31.0083339557
26.7099 36.1164 6.741 27.4537741655
31.0443 33.8845 6.21881 28.9804051397
35.6908 34.4802 9.50642 31.5660148201
25.9993 30.9423 14.1343 30.3564060755
29.1489 27.2456 15.6112 34.0056878351
32.8737 36.7101 16.0097 31.5326481108
24.5894 35.9644 8.97293 30.1984325565
26.9676 27.4223 8.84006 27.1803419247
26.4503 25.2741 10.0378 27.1245203432
33.8901 31.4787 7.67688 31.1575985914
30.6227 26.2575 12.04 28.3028732091
27.9931 25.8483 4.94334 30.7340335832
34.1473 26.8645 12.0386 24.934612243
26.9103 28.4565 4.13584 34.0389621207
26.9565 30.7552 7.64448 25.433170299
29.9879 32.7494 4.07077 30.884172163
34.5163 26.9489 9.25394 31.1254349862
26.7151 33.2154 6.25251 29.6813695706
31.454 28.2428 10.133 31.2845503302
34.7242 31.8374 10.1315 30.2527155259
33.6168 29.5475 11.6366 28.6273245594
31.7158 31.9963 11.3531 30.1580248091
27.063 35.686 10.4208 27.4611891005
29.7764 36.7366 8.86503 30.20980493
27.5797 36.0976 13.1004 28.6650950891
31.0547 31.9376 8.26159 27.3672958318
33.7111 34.696 7.44614 30.2978140557
28.722 33.9424 8.56467 28.9726040182
35.422 34.7062 5.29456 27.8393546861
25.3419 29.3871 6.19373 29.4376326747
29.2292 28.1883 12.8819 29.7380348113
29.493 29.9134 4.16332 31.3851740168
31.9982 24.9224 14.0292 25.909004827
33.4854 27.3146 14.9293 29.509650185
29.3701 33.7516 13.9186 30.4201633722
35.8217 31.9546 5.08033 39.7684094902
26.4574 33.0205 11.5923 29.8354086336
29.8756 30.0075 6.9732 28.5222483862
28.8928 31.9205 10.6078 26.1741420216
28.7356 29.2794 9.9232 24.8985467986
32.8111 30.3093 14.4119 30.6935637874
31.7977 34.6904 12.5438 34.8283493205
36.6194 28.4247 7.80873 39.3550422156
28.0239 29.9182 15.9058 32.7274802593
34.8207 36.3083 11.5362 33.4777632445
33.0703 24.7808 3.52347 30.032112714
29.3728 36.485 5.55726 24.784911223
36.668 28.0724 12.1322 30.4783557046
36.821 30.1415 10.0908 31.924629522
25.354 31.4275 9.60228 28.5603149655
36.7603 36.3301 14.7577 32.7326344276
32.7918 34.6637 3.60687 30.7580302973
30.263 24.8822 3.56062 30.2016544573
27.0162 33.4797 17.1787 30.3149840393
34.4144 33.1072 24.4245 84.0663319687
31.6833 27.7083 17.1209 31.5685424217
32.5555 28.6836 19.863 27.3818883375
30.6907 24.8075 20.5326 30.8523085941
27.3588 31.1344 18.489 29.7911481141
34.6672 34.6564 22.1823 29.1077918722
35.2483 30.4414 21.6551 29.3988287311
28.1378 29.0778 21.0996 32.3890368772
30.5054 35.5079 23.9551 85.5595342595
32.3746 30.5577 17.2824 30.3176040251
29.5385 31.5589 20.4549 30.2845556891
34.9624 29.7516 18.1468 30.564883466
28.1847 25.1842 17.247 31.1077290906
26.7873 34.868 21.4727 28.6352434707
24.8211 30.5974 19.379 27.6142869988
29.0033 33.4949 22.4383 34.6593182897
31.3181 32.9366 18.4887 33.4355247538
33.4311 34.4217 19.6923 30.1593093896
30.5201 27.5013 21.2077 28.4481753521
28.1428 26.8531 24.461 110.4719692241
30.7183 27.3861 23.8318 49.3182274585
34.5715 27.1246 21.2554 30.9807118932
33.2153 25.9211 23.7226 50.1437105865
36.061 26.7334 24.1164 68.2325621549
26.1055 28.0608 17.6615 34.5762033179
26.8179 29.4545 23.8027 53.3322094248
34.7419 32.8593 17.7641 29.5669831062
32.1408 31.0984 21.3225 31.4009460664
31.8638 30.0151 24.2368 66.261799772
25.8519 36.1904 23.804 80.6508135469
36.8526 28.3401 19.9291 30.6002972609
34.7126 30.0039 24.435 79.8976690739
25.6527 35.0733 18.8589 26.3673889527
24.923 26.4208 21.4775 30.6913575218
28.8455 31.4839 24.4365 116.8864915903
31.6918 32.7753 24.491 78.4660153858
31.6769 24.9658 17.9489 29.7110372001
27.3162 26.5235 19.9695 34.7385242762
25.0639 24.7758 23.8789 60.4094141235
32.7678 36.607 22.8833 32.7129801136
34.6043 36.4615 18.1658 28.5113658923
36.3864 26.0806 38.479 32.1250286253
27.9654 29.3362 35.4976 106.4332873392
36.0793 34.1531 35.6748 111.4270573572
29.3788 28.3978 38.3907 26.1435830965
33.9125 29.8121 38.7618 28.9246970206
30.5489 28.5829 36.0355 47.7227030574
34.407 26.7836 35.7488 72.1511716024
31.1862 25.8833 35.6116 83.6753300999
33.7737 27.0105 38.8048 29.9661956163
29.5281 25.5327 38.4979 26.3829979102
28.9601 35.416 36.0926 44.653320364
28.5984 32.9539 41.4717 32.1873673161
26.7202 31.4795 36.2721 46.5068168525
31.7652 35.3401 41.2036 29.524403386
28.6231 31.1639 38.312 28.8911440616
32.169 30.7592 36.0327 59.2922209139
33.2436 35.0325 36.1776 49.368810331
34.5589 29.4775 35.9077 64.9328317914
33.3285 34.5731 39.0551 29.548128334
28.9256 34.6952 39.0996 30.5677840749
36.4187 31.0113 38.6908 30.97451713
28.0552 26.0996 42.599 30.7199891713
32.116 26.8811 41.3689 29.9549103721
31.072 33.4133 35.5803 105.4253680607
30.496 28.9716 40.8015 26.4208230166
31.4046 33.1528 42.8202 27.3586901917
26.3806 34.678 35.6408 103.072997992
26.3041 28.3508 38.8094 33.7692465401
36.2727 26.0023 41.6284 29.3263949523
30.2992 24.8282 41.4674 26.2941970604
36.2949 33.2428 42.1004 30.360827462
25.6788 34.884 38.4291 33.4785989823
35.1529 30.7872 41.7977 28.4897217899
36.0313 33.4458 39.5362 28.2498905189
26.8921 25.656 39.8946 30.6061955094
27.4108 30.4452 41.0005 28.7435399401
32.2396 31.0639 40.3844 27.7233057948
25.4632 33.6137 42.7266 30.3257783752
31.0085 32.5901 38.4431 26.5701544661
26.1449 27.3892 35.8657 78.6691396343
28.9301 28.8755 42.8074 28.8115368314
36.7471 31.3822 35.7272 82.3126973997
26.5086 25.1219 36.9171 28.977844877
36.3605 28.5182 42.6997 27.7273805277
25.1645 36.1889 55.0461 32.0629391013
33.0752 30.9304 43.6637 26.2884283616
34.2779 34.6367 43.3216 27.7966100634
27.5657 29.0334 46.4958 26.7160941149
26.5833 32.0224 46.4223 27.878480389
33.4306 28.0478 43.7141 30.456406316
31.7143 27.8552 46.2097 28.9064374836
34.8005 25.5447 47.3564 30.1287639931
30.8679 24.9988 46.1382 29.6497399039
29.5028 34.7251 53.1727 27.620053986
31.6066 33.2348 54.4274 31.577471414
30.3775 29.7373 44.8304 27.6699994035
32.27 30.6291 49.3397 29.7730307988
29.8439 32.2135 48.6543 29.9781638323
28.2753 27.3991 48.6284 27.2364200756
30.4567 36.3626 46.04 34.3278744519
27.777 33.9031 44.1317 29.0228648301
31.8963 26.8627 53.8385 32.5910114945
32.5104 24.7993 48.7375 26.3120652967
34.3559 32.3992 45.6792 27.2413454875
36.1348 27.9986 47.3248 31.0760023741
33.7393 29.8589 47.0533 30.5906470357
27.6959 32.8342 52.6552 29.8783893153
25.3302 36.3732 43.443 29.0347523947
29.435 29.6661 50.1927 31.2451644514
26.8406 25.9806 53.3813 29.7693684239
26.4873 27.092 44.7619 33.2069888638
24.6234 35.723 50.7343 30.4943443278
28.5738 30.1999 52.8452 34.2522911639
27.6384 33.4469 49.9477 27.0354648013
29.512 31.8999 46.0481 28.341835456
34.2679 32.5743 53.1698 30.3969823443
31.3453 27.4285 48.9721 28.6910720951
35.3226 30.0082 50.193 26.8823516312
25.6805 30.7272 44.0539 31.4531506115
26.0461 33.2971 54.8144 35.2125995186
32.2717 34.2292 49.0196 30.0964293627
34.2184 32.7858 50.3964 29.6992266846
34.0195 34.7961 47.071 28.5219709048
28.1534 36.3537 44.8269 28.5734323717
26.9915 25.8603 50.6006 29.3793406148
34.8207 35.2062 54.4323 31.5468959382
33.3025 30.0561 53.8103 28.105092147
26.8244 28.3813 54.4288 31.8627683352
34.7016 29.0731 56.1107 30.8611969993
26.895 30.7685 49.231 26.9408117492
36.7197 33.8059 49.8933 32.8402203891
29.8707 24.992 50.6691 32.2718989488
35.0799 26.4558 55.329 28.2357113692
31.4952 34.0111 45.3191 27.9637104237
29.442 25.1497 53.6256 32.0281209547
34.5919 26.2618 52.5922 30.6040666516
27.1405 36.3479 51.9575 29.8392922884
25.4273 34.3198 48.2385 27.2857178329
30.6571 30.2086 54.4804 29.9476025807
31.0046 35.5478 51.1594 29.1711341428
36.5273 30.7334 53.0347 27.3859555768
33.0933 28.5969 51.4042 30.2886739838
28.1856 25.4871 46.4708 32.5922320475
34.6188 25.2846 44.6507 30.369547244
36.0143 36.3379 44.855 27.6137564653
36.6221 36.1004 56.248 33.6746381012
28.4542 36.3652 49.3548 31.6238278167
26.642 36.6374 47.227 29.8253051483
24.8769 28.7474 47.5793 30.1342047589
32.8957 36.5341 52.9136 33.0403559471
36.7994 44.8573 9.12992 29.502657077
31.2419 48.2898 4.87957 36.6711716662
33.3308 48.4314 14.9569 28.7130330213
24.9704 37.2321 12.799 28.8640788547
25.3209 48.184 14.9018 29.2445614365
35.1473 39.0332 7.62944 30.0738018431
34.5785 47.7985 8.69099 34.8955231588
30.0551 42.1215 6.39453 25.5371957286
33.8129 41.8676 5.8474 28.4543070142
34.6858 41.7135 8.46798 29.2148054212
35.3632 45.5845 6.8087 32.5668833881
36.2724 43.5352 5.03866 30.1161154906
31.7437 37.0952 10.9841 29.7357794846
32.9082 39.4368 5.01179 27.9039552951
28.1286 44.5494 6.00947 31.5512203395
32.9242 42.7738 14.6856 31.2101846824
27.5219 47.2357 6.3345 30.524744871
24.5875 43.7934 16.2818 29.610971078
26.2046 41.5056 16.6533 26.1501670159
32.4666 45.8289 6.43827 36.0040676743
28.5238 39.2472 4.75144 27.1993797727
33.4549 47.5741 12.0398 29.3918973131
28.5745 46.4045 16.7486 27.026955797
29.1414 37.9952 14.0265 30.3290089392
31.4257 38.1787 6.84775 25.8649179696
26.8148 38.8383 11.1364 30.2299779447
27.6096 38.7701 8.04041 29.8276027796
26.0757 37.6208 4.32113 27.1297559897
35.6947 39.0088 10.5562 28.7617131342
25.3848 43.8837 7.34525 29.6091567849
30.6868 44.4263 7.98698 30.5876211881
30.2194 40.1966 8.1528 28.3389894633
30.7466 40.8568 10.753 28.6799341352
26.1348 41.4011 9.0999 33.5994420134
32.2872 42.8727 9.8548 32.0867487315
33.9433 40.8752 11.6817 29.9582739624
30.9402 40.8855 4.0834 26.9504904596
25.3164 45.9601 9.37079 29.3496563116
29.8233 46.2122 9.97783 34.3592627942
27.6873 47.3576 8.90027 27.9622412981
32.0657 43.7938 4.41132 30.2648158123
27.2866 41.4385 6.26582 30.3379202048
27.743 40.0582 13.0103 25.1943678124
31.2383 38.9842 12.7429 24.6219594642
28.1053 41.9805 11.1658 34.8632774365
33.4163 39.0611 14.4633 28.2566284521
35.9413 38.7244 13.5834 28.6597872031
27.4795 44.2547 15.3336 31.0182655326
33.3289 37.1674 8.62055 27.9560689587
28.0515 44.5918 12.5348 31.0774634756
30.3473 41.382 14.5396 35.2633025779
36.0518 42.1262 13.4994 27.7227584353
29.1179 42.3386 16.8592 31.9158854692
33.2366 44.4987 12.206 31.7380671285
31.8899 48.6616 9.92173 34.8254365017
32.2741 45.7949 15.6355 30.8602000739
35.8702 45.3357 11.913 29.6949829602
26.4284 46.43 12.0908 27.939488292
30.4668 45.8852 13.0876 30.9476519067
29.3772 48.2982 14.0972 30.3337309058
25.0277 43.4638 4.4344 28.5009032537
25.5103 40.2638 14.5716 31.367435609
36.2184 48.4081 11.9372 28.6385674123
33.8615 40.9556 16.5606 33.0013816488
30.2237 36.9786 16.5271 31.9899149113
36.3729 43.401 16.1969 29.7139521565
28.6373 46.807 21.0526 28.6571125442
30.1332 38.4208 18.8057 29.0637067747
26.3431 48.2539 20.584 29.0238491897
27.435 39.5899 18.1903 29.3284828123
25.4915 37.5697 18.0637 34.0928458774
31.7431 40.9127 18.8667 31.4034217244
30.7978 43.7003 18.9413 29.5372068054
34.4957 42.7805 21.2922 30.0433159072
31.1855 46.4918 18.1377 25.7830541962
25.1912 44.8079 18.7432 26.4577117541
27.9868 37.3051 20.7436 32.7288023655
28.7169 37.5364 23.4537 43.0093479963
27.9894 44.9765 19.2453 26.0021725393
27.6046 43.1434 21.4853 26.832468351
36.3385 40.9141 18.0735 28.2703841616
32.6745 48.3511 21.2522 26.4270755478
33.6507 45.0395 19.7415 29.76885717
24.9184 41.7773 19.2513 28.1051829833
32.7056 48.9164 18.1083 27.8802439277
26.8673 40.4416 20.7156 24.7261946089
29.8965 40.5507 21.3969 28.0861147905
25.8005 38.8672 22.8683 29.5045950462
35.3256 47.0232 20.6603 27.5431459839
30.9137 47.1507 24.4594 90.3902641294
35.4012 38.9501 19.4475 28.0454358247
34.8281 45.6583 17.1504 32.1929494843
26.3159 44.4174 23.8223 49.133659793
27.0288 41.5428 24.1068 96.6935022031
32.6883 39.438 23.6753 40.6004232947
29.5876 40.0314 24.0785 94.331265965
30.3086 43.1745 21.9849 30.1629217802
35.1446 39.1421 24.8742 156.8518975141
35.5129 43.8627 23.7622 42.7191938527
33.4331 39.9809 21.0991 27.1176977666
26.4082 48.7455 23.7105 58.5127561648
28.2279 46.5033 24.0954 79.0717249346
32.4672 42.6407 23.7667 60.1463121875
31.5227 46.0527 21.8158 27.0742040157
33.1185 45.46 24.7311 122.6071366528
35.2557 47.0604 23.5244 33.1220671462
32.4913 37.4308 20.2006 31.8855394496
26.2289 47.6536 17.8367 26.594281727
36.0136 36.9911 23.5069 35.303622579
36.3967 47.8912 16.7699 29.9453308276
25.6932 40.1828 36.4483 36.1344778328
33.2014 38.8232 38.1144 31.0131141415
28.3456 40.5844 35.519 91.0111837049
26.0146 40.2621 43.2319 33.6004458732
35.2943 47.5128 40.7026 30.8363861243
29.4628 43.1353 35.9712 60.7693508508
32.2538 37.9366 35.6855 74.9009471342
33.872 40.3161 35.4423 104.5800126323
32.4311 42.8739 35.8459 64.6261891451
24.6576 37.5668 39.3045 29.2178768422
32.4864 43.0159 38.6887 29.9447873718
25.0178 37.456 36.2063 52.4329876411
31.9673 47.2795 35.495 94.4874222164
28.0245 46.4496 42.9522 30.7120520984
26.9716 44.815 35.9619 62.1774797666
28.3272 40.6165 41.7034 24.6508709136
30.4301 45.0784 38.8833 28.1754056987
29.7744 46.1931 36.3481 38.7973840215
33.2552 46.5736 38.3568 28.8165640599
36.4834 39.4112 36.2891 49.8604719745
34.192 45.1598 35.5231 84.4886112893
27.9089 43.627 39.1312 31.0275383917
34.0218 37.1559 41.9638 28.0439999008
30.6089 43.3591 42.4637 29.0669108253
26.714 37.6832 41.3465 30.2764931588
32.2403 48.2256 40.622 28.6476087774
30.407 39.5861 39.4116 28.8966764237
27.8417 37.4621 38.0955 28.4785616685
35.8234 40.6751 38.8913 28.6378987406
26.2232 40.2222 39.0099 26.2402321537
27.3842 43.1411 41.9616 31.2528705368
25.4568 43.9997 38.0006 29.7006199221
29.636 38.3153 35.4786 92.4480778768
31.809 41.5046 40.7725 25.6587520067
28.5511 40.99 38.3603 24.8784814494
29.6458 47.0277 40.6874 34.2343914294
26.237 47.7936 35.6682 89.4729855795
35.4435 47.8072 36.175 44.9656230848
29.6718 37.2746 40.8663 28.8870365741
34.6491 44.5369 39.8287 29.6739665088
34.1303 40.3958 41.2839 28.5558778671
34.6408 36.89 39.245 28.7202842049
33.6872 43.924 42.3599 30.2990891468
36.7722 43.307 38.6998 30.0366196789
36.5362 47.5709 43.2494 28.0125876201
28.9964 48.8247 38.5489 30.0862214868
27.5767 40.6412 49.5346 30.0110105719
26.2669 44.679 44.0966 30.0119344763
33.067 40.4913 47.6935 29.7060073797
32.2614 41.6442 45.2153 28.9299106619
35.772 39.5267 47.0459 28.6943998154
35.3765 42.3041 48.5516 31.2229740747
34.8507 47.5872 51.0676 29.0713016559
26.8668 48.7216 43.9385 34.7196604397
24.7733 47.4557 53.5379 35.3173102584
29.0861 42.1902 46.6427 29.12059825
31.4498 44.1148 46.2211 31.3130874926
26.7241 48.9417 54.7393 30.8667895201
29.166 46.6057 50.9708 30.1092395876
36.0368 37.8908 50.7353 32.6486463834
28.9005 46.5192 46.645 30.1648822078
27.0496 44.3157 46.9509 29.1791160968
34.0166 47.4032 54.0235 29.8559411703
34.6747 45.5124 44.3882 32.1175389366
30.4373 45.8815 44.2052 29.725822135
25.3319 46.0063 50.5771 30.7086286447
36.0887 45.2906 54.4996 29.9864488606
30.4899 47.186 53.1131 30.0045309248
30.2481 41.0985 49.0329 32.5448634739
26.7493 41.5746 55.7776 32.4144166476
32.8262 48.5603 47.1562 28.862966593
30.5491 38.3879 50.173 33.2224976122
30.3127 42.7347 51.5306 33.6680649647
33.5426 38.7721 50.988 31.0704489745
34.3023 41.5596 51.2046 31.1049447193
29.2384 47.5429 55.7899 30.9911762481
27.7194 39.4961 53.9777 31.6218551084
25.7055 39.2066 47.9029 30.6589564962
28.1974 43.6388 54.4012 31.6310129345
34.5823 43.2664 55.7151 29.5349017441
32.959 45.0727 48.7027 30.817797076
33.2449 44.0657 51.133 27.2592759247
26.3743 39.3073 51.7954 35.2346683535
28.0479 44.2292 51.6359 32.597455185
36.2663 41.286 53.0523 32.2918977495
30.6871 47.0476 48.3779 29.020223121
35.4232 44.9256 47.1993 30.8172730534
29.5245 41.4575 44.2148 26.9442263298
25.1407 46.5919 47.9243 30.2642942773
26.2705 43.1058 49.6807 32.6064511613
30.5972 40.9319 53.9028 34.2897669438
26.543 40.9733 45.9241 30.2647841115
35.0099 40.6313 55.7903 32.1406124262
34.8139 41.8144 43.5203 30.3778138307
32.371 38.976 43.58 28.4148827911
30.911 43.7767 54.8858 28.3914025471
33.7943 37.8775 45.5481 27.7899497709
32.6026 39.0023 54.8082 33.3308379506
32.6862 45.2262 53.5385 27.2510491297
29.7522 38.4186 43.397 29.5375065479
32.7084 47.5575 44.5144 30.4791291288
27.4915 45.4293 56.137 28.1484205058
34.9038 47.6073 48.1598 29.9041590587
32.2576 37.6102 48.1059 30.4367312234
35.9182 45.0118 51.7242 29.8516746034
31.3345 36.9169 56.387 28.936016712
26.9395 48.3251 50.8491 32.8530443561
28.6369 36.9236 55.1498 29.7400005271
39.0094 6.18126 10.2977 26.1603735837
39.2744 1.56828 4.92901 29.8466113986
42.0589 0.589252 6.05329 31.6365441025
39.5896 1.71057 15.1667 34.8922063903
43.8911 2.77798 5.54159 27.6651625062
48.5767 2.55776 6.39816 31.3038300742
43.694 4.54642 7.58492 27.0939685164
47.6752 4.7844 15.2388 34.8884922298
37.3981 8.98743 8.5121 30.4990572689
38.6938 11.5875 9.59294 28.4238869967
40.7418 6.33842 5.67072 32.4452080918
47.07 6.90242 6.00158 32.0848870307
41.3791 5.48442 8.48466 27.0417943846
40.3443 0.257256 10.1951 27.0295566739
39.9255 9.68909 4.52626 33.1711816337
42.6083 8.52659 5.34221 31.1723478536
39.2 9.12655 15.3434 34.9461356512
48.3617 8.5589 11.7246 30.7824391069
49.0656 0.59951 3.98675 30.5071021303
44.6675 8.36932 16.3517 31.9393339952
38.104 7.4998 5.90417 29.6787198937
39.0317 2.80756 10.1901 31.939424564
43.8542 2.88889 11.0965 28.9058111249
37.0664 2.96752 15.9181 32.8237265515
47.9681 4.58549 4.38662 28.6079877283
47.8393 1.59332 9.34616 27.2437972085
42.375 0.517291 16.317 28.15563498
48.5356 2.10887 11.8568 26.3007401476
46.5628 3.98068 12.6336 28.3924388723
39.6175 3.24696 7.61744 32.5366395847
41.3604 4.84411 11.7352 29.422766415
42.7226 1.35259 9.12273 29.2994018047
43.6209 8.42219 13.5454 32.2450664373
44.6877 2.10857 16.4158 30.0296724579
45.6525 3.42418 8.92239 26.2235110275
47.5789 5.40757 9.16797 29.0473896226
39.2031 8.9319 10.9737 26.9800150218
41.811 8.14063 9.62785 30.7605655523
46.1044 11.3166 12.7156 29.7274434143
42.0822 11.4412 5.63495 32.6386150552
44.4777 6.9501 6.75791 30.5763973982
45.9347 1.33715 6.58354 29.7093180112
45.1937 11.0418 10.062 32.0110731524
43.8388 4.56534 15.43 28.3136707398
38.4619 10.6302 13.0139 30.9319360794
41.2717 10.6636 8.31852 31.313039928
42.897 1.34924 13.587 26.6474337183
44.3327 5.57454 12.8151 28.5231052825
37.5239 5.51874 7.7711 32.9960155673
45.7494 1.17175 13.7028 27.8491588126
41.202 3.5992 14.1771 29.0936018282
39.8418 6.33221 14.9813 30.0589551142
46.1845 6.99486 11.1258 30.9681055039
41.2514 7.7205 12.9134 29.671967286
48.9353 10.7819 13.1929 28.8950820162
44.4731 8.33555 9.24385 33.7511670057
39.9775 4.11527 4.2207 30.8217159292
43.8061 10.9456 14.2818 28.5420399193
49.1109 7.7308 7.59158 29.2791165037
49.1004 10.0148 16.0464 32.6637695674
45.5021 11.8215 5.76728 38.6880471393
47.7309 0.164585 15.8697 30.0159042077
37.1735 5.54981 14.5303 29.8986897385
47.7351 11.216 4.15163 32.1333749391
49.1676 9.78679 9.42559 30.3886227125
41.9171 11.2785 17.9488 31.6240702362
41.5648 1.87422 19.032 36.5572556355
41.7828 6.01826 16.8312 29.3592277235
42.1797 0.47678 21.5677 29.1261336573
44.1231 2.81901 21.3642 29.2807492783
45.1403 4.23311 18.5719 28.8893721251
48.9272 10.883 21.4459 28.9510578661
39.1952 10.3535 17.8964 30.3134989485
38.3498 4.6348 19.8374 32.8832172882
43.4325 7.67313 20.6582 27.9190521884
45.6119 5.74993 21.2177 33.0161032073
46.5868 10.577 23.9902 55.8814137324
47.6472 7.04479 19.3848 31.1457831484
39.2304 0.392968 21.4762 32.0072476922
40.9017 4.32441 18.681 30.6196977296
37.8724 10.8649 21.6999 28.2425048856
38.7465 8.5345 19.9285 31.5359124334
46.9352 9.56031 19.814 31.9797869668
40.226 12.1106 21.9001 26.0398574432
37.6452 2.41509 21.474 29.8971861843
42.4372 8.39724 18.1861 31.5479686493
42.8341 2.30347 24.5772 104.8826823553
45.3149 1.75082 23.8342 40.9388023611
42.9841 11.4393 20.9842 26.9434811595
37.2337 6.53661 21.4081 32.0358809678
37.5754 7.65852 24.3525 91.3159212257
42.1641 5.00277 21.0404 33.2723797109
44.8933 9.70524 21.6747 27.2650828912
41.9281 4.84757 23.9971 60.822661984
44.4261 5.95641 24.0717 55.2521258295
46.5385 3.98008 24.3571 96.7246384611
37.105 10.3403 24.3666 89.8563700658
42.2685 9.95588 24.2026 73.7811054221
40.9908 9.02905 21.7588 28.9203064341
40.4127 7.60731 24.2853 83.6046533408
37.5634 2.73062 24.312 90.7741471861
48.9251 3.81519 21.1594 30.3302364407
44.5787 8.7316 24.6024 113.4951183889
46.877 2.18803 20.031 32.1707235395
46.2173 10.561 17.095 35.2509861749
47.9298 2.61739 17.3027 29.0649004902
49.2127 4.33498 24.0889 53.274027511
37.0898 12.0383 18.0678 28.3846859858
38.7928 0.210209 24.5492 95.8067515379
41.4909 0.0970227 24.0973 48.0754662823
46.2541 6.28114 17.3209 29.3083551042
38.4433 1.71153 39.2517 28.445509309
42.5621 2.39108 35.7891 67.3197960211
44.3515 3.7756 38.4529 31.2246466372
45.7011 11.0548 35.6445 77.6821180453
44.0606 1.18574 40.1292 28.6561237839
39.7102 11.2904 35.9558 70.9005717967
41.4261 10.9761 42.0234 31.8915749776
43.1612 5.03583 42.871 32.7507793153
48.2438 6.28125 39.3748 29.4423383091
39.9436 4.50086 38.8684 26.7230666407
37.2333 11.0389 42.6462 27.5395442335
45.1577 3.68042 35.7655 93.5625496882
47.0709 1.10629 36.0602 54.6501879053
42.407 5.57237 40.3131 30.409727548
45.4991 6.44997 38.8218 29.4734605543
45.1778 10.2823 38.3429 29.7936787501
45.2121 6.71216 36.0357 77.3882719672
47.5633 8.22929 36.4262 50.371853174
38.7023 3.92875 41.7061 32.5205088045
42.6776 7.92776 36.1615 45.381356003
40.3404 6.38239 35.5029 116.6257250737
42.5077 10.4991 35.785 82.0355350466
39.1799 11.2799 40.443 33.209440578
41.6568 1.74927 38.4823 29.0841430302
39.0221 8.65225 35.9647 63.3433530523
39.952 6.50652 42.1425 30.2611712718
40.3373 4.01961 36.3436 36.3684533795
47.5479 9.30404 38.9573 26.4115478334
42.3101 7.99969 39.0226 30.817444263
42.7593 2.15733 43.1375 31.2563842272
46.7797 1.86868 38.617 26.4698715514
48.8683 3.50187 38.707 29.6742908713
49.1039 0.273533 42.407 29.0274621566
46.0138 7.87245 41.633 30.1903485586
39.4423 8.29476 40.0584 30.7015200451
38.3178 6.51755 38.2473 28.9065654067
38.1358 2.41447 36.3699 43.5885264892
39.9962 1.57416 42.7898 29.8400612418
43.4047 9.71791 40.8592 32.7483457829
45.891 5.2814 43.2466 29.5270392798
48.548 11.3221 35.6307 76.2484479369
46.5315 1.63426 41.9534 33.1207632896
48.0955 9.89662 43.2682 28.4140068698
48.8525 11.5391 40.9208 30.0954702086
44.764 0.0311858 35.91 54.8333630902
44.1864 8.80346 55.7678 34.0189706192
46.7651 8.68172 56.5532 31.8058097816
40.8056 2.52306 47.7683 28.3607414315
45.1524 6.25788 45.6072 28.6325887134
45.1653 3.28023 46.4964 29.5439835442
46.1872 0.777693 56.0622 29.6040903657
48.5698 6.09458 43.8257 28.3915160905
44.0478 6.15177 54.6971 31.5597446484
42.3226 3.79584 55.6066 29.7409935069
47.9532 0.842264 51.2279 28.4730759885
41.39 11.5286 52.9278 32.116566334
38.1884 5.56414 55.585 32.8467319161
48.5939 8.3903 52.4257 30.0285567915
43.5542 8.55119 45.4362 31.5576222738
48.6765 7.57041 55.0288 28.8287066808
39.7746 10.9232 47.1278 27.8807321891
43.7988 5.19717 48.6211 28.9260358034
40.1646 0.0933007 55.6134 31.6220461589
44.441 9.27657 47.9878 26.979601241
44.0956 10.8605 53.7077 33.8773484511
39.427 5.18122 51.0916 27.6521065643
38.4573 3.59199 49.1174 27.8774856483
42.5701 1.55591 49.9366 27.9338259083
41.1812 0.680766 52.1485 30.6765266829
40.409 9.70501 44.6338 30.8984701089
37.0115 11.0329 54.7934 35.2395685976
45.8003 2.07767 48.9046 29.6155375007
45.8422 2.70736 52.2752 29.5797917409
38.6377 8.63734 47.697 27.6021536232
39.0636 1.03591 50.2708 28.7855421418
41.4501 6.91282 44.7795 28.5047500791
41.3471 5.17106 46.9822 31.2288774538
46.1729 5.37285 53.3074 26.6584423587
46.0182 6.98631 48.9057 29.5392002749
43.6411 3.64683 50.9713 29.2759572435
48.1117 4.25211 48.1349 28.8902906674
40.8126 9.93157 50.5189 28.7537589431
40.0164 6.88686 48.9065 27.7682854674
38.3165 8.34665 51.3999 28.6179818127
47.8303 6.81164 46.9152 27.7012755931
48.4844 9.49819 46.9818 31.9407221677
43.001 1.33922 45.7903 30.3747154528
48.5529 4.94639 54.6255 29.7310280629
48.8126 3.91624 50.7895 29.1309255507
42.6557 1.33687 54.5527 28.2342404161
37.4758 0.294036 47.4876 29.5595113471
46.3632 7.41351 51.7285 30.1704396581
39.3653 1.79467 45.622 28.1014858341
42.0592 6.69362 52.6858 31.7373399975
45.1139 0.420888 53.4772 27.983346378
38.4819 6.56397 45.8825 28.2793791644
37.6056 3.70682 45.2785 29.1659929641
39.865 9.81583 54.5571 34.7317585375
41.1528 4.13156 52.9109 32.1061434948
42.6849 7.84364 50.0398 29.0105546453
45.0024 10.0303 51.2753 30.432654552
38.2689 8.36934 43.4538 30.8135840801
39.4014 7.24648 53.7636 31.6457702225
42.4438 11.358 48.3421 32.2222768832
46.465 10.9975 48.4297 30.2056741148
47.1651 2.90745 44.4693 28.2976971995
48.6855 0.411281 45.1425 28.4464717601
45.4246 3.77046 56.4029 31.1106747134
38.2322 11.7813 50.6874 31.1551274055
38.0899 12.0994 45.0767 29.9430761179
45.0873 9.79544 43.4366 31.6669616899
41.6089 20.001 4.05479 27.0354932244
37.3507 16.6445 5.16301 31.7623012838
41.5637 14.2588 4.89239 30.6013397155
37.9396 15.3213 8.60902 27.8545289704
44.9124 16.6625 3.87477 26.2200699296
37.328 24.0835 9.84189 30.4291053553
39.2755 15.7936 11.153 29.0707166617
44.5244 20.6874 3.79492 31.0605676837
43.2395 18.1429 5.92665 28.0071957287
40.3525 20.6046 6.55959 30.2039026925
42.1234 23.1666 10.2788 32.1439576051
40.1265 20.8358 15.166 25.2321045949
38.9526 24.0309 14.4666 30.441936646
43.3105 22.7538 13.4493 31.4738451829
46.5326 17.2727 6.01013 30.4928532137
46.0469 20.017 6.24423 29.9997971986
46.2208 22.0058 14.5796 29.1544293773
48.4457 20.0336 7.53157 28.1570878894
43.9331 19.5918 8.35641 29.5974635456
44.592 22.1427 9.58701 31.9690091177
49.1364 16.3508 5.33417 29.5097381744
41.4447 23.3542 15.6019 25.5601926223
47.2071 14.5684 15.117 31.2989385474
39.7107 13.5502 7.74342 28.5607011785
37.7672 17.5783 12.7469 30.3910094713
46.5914 12.8941 8.1563 30.4013947011
38.6199 12.2827 5.4343 30.391787695
39.4202 13.1639 12.1263 28.0899620275
41.145 16.4382 6.45733 28.0367303695
46.6348 15.183 11.0115 30.0098311758
42.9387 12.3895 9.95019 32.9586192475
41.834 16.7215 10.5348 31.0779432437
38.4019 18.2346 7.79983 30.2731413828
41.1074 19.0485 9.35388 30.5770474839
43.043 14.9523 8.38772 32.9875200533
41.2014 24.2002 4.71939 33.8714387704
46.4989 17.2083 14.2585 30.8826490724
48.7122 23.967 10.7882 31.5052600617
41.218 23.1278 7.46871 34.2956232107
37.6628 21.3874 10.7079 32.1971641773
40.4677 20.9129 11.2886 33.0648263218
37.9775 21.4069 5.48759 29.647661768
45.2541 23.8057 7.3736 29.5226478638
47.5787 19.9144 10.5921 29.480057085
40.3587 18.6267 16.53 26.7857664836
46.5432 22.2351 11.7633 33.1475616627
39.2856 14.4124 15.2447 31.306304926
48.5469 12.8822 10.9719 29.9827029446
42.2602 12.8271 12.7007 33.4030695142
49.029 21.2554 14.7425 29.372889708
45.3487 13.8353 13.3129 27.1370023938
37.6159 20.3452 13.9428 32.0544936952
40.1439 16.9697 14.4794 29.5422193091
42.7609 15.3913 13.8105 27.0016066693
45.1041 18.2704 10.3403 32.1617207908
45.7682 15.4217 8.30951 31.5327019445
39.9769 17.6074 4.0048 27.7993515975
42.2077 19.9778 13.3938 30.7599257737
43.768 17.5761 12.6425 27.0235203074
44.258 13.8946 4.25204 32.0125113263
44.7579 19.4329 15.1429 30.7149974587
48.4246 18.763 15.8126 28.4393048873
48.8685 16.7688 10.9103 28.8499671648
42.911 16.0848 16.3887 30.2133916158
47.8337 23.6521 7.46403 29.3843074171
49.0801 19.4293 4.04273 30.2123612602
46.8322 24.4524 15.4958 28.0500991757
38.7564 24.3106 7.62865 29.2215148551
44.1553 12.2907 16.4184 27.3901587803
43.0307 18.8809 17.6229 28.9567206553
47.3498 17.7205 24.6915 95.7444550766
46.2482 19.0084 17.6894 29.5317960901
44.3634 23.1208 18.0097 29.8227217183
41.0095 14.1347 17.4324 33.8044302924
39.0715 21.5537 17.9408 27.7330632114
46.6831 16.71 19.0167 26.7273330561
47.234 13.347 21.2648 35.0162943069
46.8089 21.4505 18.8963 31.2124197822
39.6879 20.4395 21.4223 31.3687099853
38.4911 17.6386 18.2309 32.3961816498
40.1821 17.4743 20.898 30.5727411721
39.9687 14.4362 20.3222 31.9452831598
45.4602 23.2183 23.7515 36.8780732816
43.1317 12.6094 23.5694 48.7043515769
48.5346 13.9555 24.8538 101.9740733428
37.0232 13.9651 23.2853 32.3773324368
47.5037 17.7278 21.5967 30.0512259972
41.8742 21.6168 18.251 28.1273912896
43.776 20.1544 21.671 29.0843421798
45.0723 23.3561 20.8308 26.0353940482
46.5821 20.2771 21.7807 26.044397625
45.5607 15.0155 17.1894 29.2189546534
37.1947 15.2257 17.2739 27.5139580052
41.8196 15.0848 22.5066 27.4810978229
39.3751 13.5926 24.1341 80.2237610993
44.5973 13.4299 19.4327 31.7849128028
48.9668 21.8245 24.5684 75.0226956164
45.9958 13.4393 24.0538 58.5655785338
39.0914 17.8578 23.8472 38.8593700511
38.4083 24.1501 17.2163 25.5200332299
42.7267 17.9689 20.3413 29.1480508145
40.7544 16.4008 24.8602 130.6786798022
