1.65756 14.7407 4.80169 36.5857288008
7.82848 12.3778 6.45821 31.6415087676
8.14535 14.9973 5.39138 32.0397888741
11.9186 16.0265 4.70772 34.183580963
11.8202 16.0454 7.57457 32.3352162869
2.82487 18.8085 7.20292 31.534297764
1.91193 19.7248 4.57893 29.4746112668
5.33127 19.7305 7.16628 27.2711613206
6.43017 17.3947 5.67359 30.002085799
8.88773 19.8691 7.38781 28.2871083563
8.35364 19.118 4.8746 29.9929880427
0.471127 20.9051 7.4119 31.3369028575
3.32623 23.9278 5.86428 28.1198105591
3.64553 21.5741 4.21358 30.0548598742
5.97189 22.0092 5.886 27.961239147
7.27426 21.2089 3.83247 30.513773693
11.9017 21.0793 7.48949 29.7089024206
11.066 23.1176 5.27878 26.988632758
8.87938 22.5756 6.88261 26.5492190126
12.0533 20.7475 4.11703 29.7744034
0.908567 14.3053 11.5753 31.7026809534
0.373372 14.8727 8.66366 29.7148396052
3.85239 13.9845 11.8082 32.5272231043
5.83398 15.6222 10.5842 34.2577161599
8.02178 13.2495 9.52745 30.4345793649
7.38474 12.5858 12.4038 30.5774642467
7.85251 15.7258 8.20221 31.3470872318
10.3811 13.03 10.8033 26.1054419876
2.43816 18.2707 10.1268 29.8073323678
4.3582 16.5659 8.2461 31.1810336517
6.88795 20.4066 9.50197 28.3122996812
6.86317 18.4838 11.4276 30.4216855891
11.0853 19.8226 10.7048 33.2019017609
10.0391 17.418 8.82769 30.5662328105
9.56482 17.2038 11.7045 34.421106128
4.02323 20.8682 10.2225 30.3356707299
2.58981 22.8349 8.40136 33.7164320137
3.9739 23.6519 11.0881 29.9152072161
0.323253 24.3106 12.1899 32.1885844728
7.5618 21.9132 12.0231 29.8029287373
8.52444 23.3232 9.53083 29.5805389405
11.9121 22.9479 9.70713 27.7057319197
12.1876 22.093 12.5086 27.6942198871
3.74963 15.8264 15.9623 29.4258462
4.86187 13.7495 14.5953 30.0001780954
7.34403 14.9339 14.9671 32.7207100598
11.4583 14.2532 15.1005 29.2955205019
9.6669 14.7472 13.0173 30.0551892216
2.43958 17.0075 12.6212 31.3021617917
2.29081 18.3363 15.6823 28.2687696382
0.092858 18.3307 13.5007 27.0169390208
4.25562 19.5243 13.001 29.6648723988
7.5068 17.9988 14.5632 32.3311555676
5.19633 18.9303 15.9903 27.3181173097
9.84886 19.0416 16.225 27.8990901513
9.42038 19.9457 13.2711 26.9535010776
12.1663 19.9051 14.5491 31.9397542204
1.75881 20.951 13.515 34.1680807685
1.44261 23.497 14.6518 28.7827965369
2.75558 21.257 16.4144 30.8826174741
5.43493 22.816 13.6394 26.8550884691
5.5398 21.5613 16.027 28.5868810159
8.71094 21.4315 16.652 31.4830134097
8.9965 23.2405 14.4813 31.6895255912
11.5658 24.3395 13.8594 31.6853286541
2.51629 14.5193 20.2564 30.2205624106
1.78139 14.4159 17.1936 31.214514988
5.51799 15.0513 18.0111 28.1965369502
5.98509 12.4519 19.7986 31.9493917977
4.97351 15.2208 20.6801 26.3797563096
7.55101 12.7786 17.1535 28.5843131658
8.96621 14.5959 18.7439 29.2664410879
11.4245 13.5007 18.8582 28.7859136397
1.70613 19.6045 18.5046 33.637217683
0.756397 16.7049 18.9342 29.6977892235
3.07947 19.0677 21.0989 30.1476589285
5.6984 18.4656 21.1218 28.539415652
6.27823 17.8488 18.5013 33.6172180418
11.9664 20.2547 17.9994 29.1477738189
10.2757 18.3862 20.2378 28.7623814177
8.96419 17.4809 18.3355 28.6450447446
3.91218 21.9347 21.0441 28.4338829981
7.70152 23.4777 20.6194 27.4206256499
5.71268 22.6372 18.7932 35.4411238684
9.68055 22.7492 18.6849 30.8600867723
10.181 21.0573 21.2516 30.1253207977
1.60122 15.2137 24.6017 102.6245287872
0.915647 12.6974 24.298 76.2153072182
7.98502 14.2134 21.4709 31.9059569526
4.88313 14.7003 23.4403 33.6395110821
7.12102 13.5853 24.5301 105.51168135
11.0436 14.1254 21.7085 29.552048586
9.7649 15.0361 24.495 77.4566739012
1.77295 16.6216 22.2148 27.5528082252
2.76203 19.2632 24.0947 61.3778731029
0.0853044 19.1516 24.4694 75.5386951944
7.63942 19.1498 24.4627 88.632694509
5.21128 17.7525 24.0902 68.4874397924
8.50817 17.2426 22.6309 31.3167682609
11.5329 17.0988 24.5761 83.142291832
10.5796 19.6766 23.9329 49.068850811
0.561182 22.5028 24.1423 90.3055302118
1.23645 22.6807 21.4734 29.6109366131
3.74348 22.1621 23.9502 51.2755737499
6.82875 21.182 21.8842 30.0883477825
6.49983 22.0066 24.5049 87.7607535618
3.74679 13.1814 35.6633 88.704043181
1.09744 14.8837 35.875 65.107880298
2.32749 12.5481 38.3556 28.8960269792
5.8837 14.8493 35.6786 71.1471797352
5.99476 14.9974 38.5226 30.4646920244
8.67988 13.9055 35.5888 77.2437651637
10.0525 16.3125 35.8116 61.1594063172
10.2317 16.1453 38.5914 28.4552953294
11.5635 13.5485 38.7513 27.1086331207
0.60367 16.3467 38.5845 31.010754431
1.12184 17.7941 35.6422 81.3942579264
3.43688 19.4588 36.7907 28.4279725763
5.38542 17.9142 35.6419 91.7607365524
5.25543 20.3245 38.7613 27.7018370737
7.55502 17.6909 37.8234 28.3353985034
9.62504 19.1621 35.7758 78.2993535284
3.86773 23.0465 38.7845 32.1633978294
2.06369 21.3936 35.4146 110.3333493913
3.61808 23.4657 36.0212 45.9691890503
6.41303 23.1895 35.52 101.9249685426
6.86552 20.4638 35.744 68.5930800958
8.23152 23.7821 37.651 32.7882733186
9.71488 21.0866 38.3208 28.8797171111
11.8108 20.7512 36.0026 68.1102424138
0.699345 15.8403 41.5216 27.254029727
3.45562 15.2246 41.8696 30.9953790016
0.910768 13.0694 41.2765 30.5691089277
4.34551 13.185 40.0937 27.270377382
9.01941 15.0756 42.4408 31.3663622318
8.39357 14.1784 39.963 28.2864445893
0.794647 18.4232 41.821 26.528908461
2.43055 18.3676 39.396 28.4876493589
2.86119 20.1762 42.8694 29.035445118
4.93652 18.4241 42.7741 30.6439138338
7.28625 20.1815 42.9587 29.7922043145
8.05121 19.4805 39.8494 28.3277729803
4.99914 17.2416 40.1545 31.6323411299
11.9353 17.1915 40.4254 28.6688555438
9.32563 17.9311 41.8718 34.2716031529
2.43436 21.0917 40.264 29.699947262
6.84111 22.5185 39.6232 31.5516580892
6.93873 23.0637 42.5284 29.3693920365
10.4554 23.617 41.6647 32.6848806418
11.7404 22.5619 38.944 25.8532334308
1.84663 12.6537 45.0684 37.8323946166
2.95324 14.9775 46.1245 34.7632016062
7.37517 14.2523 44.3539 34.5342735906
4.82747 15.9631 44.2825 30.847163596
12.0956 14.3243 46.1842 29.9694205489
9.53408 15.4338 45.9549 32.1227611409
11.8024 14.1214 43.3356 29.3027803876
1.04224 19.2495 45.2568 32.4439319141
0.632131 16.6811 46.0651 33.1346844049
5.90626 20.2079 45.5545 29.6446121534
6.28514 17.4066 46.2027 32.7763217778
10.1184 19.9592 44.2793 28.737913888
9.22129 18.2848 46.4644 29.2453447244
1.61554 23.4289 44.3035 28.031588122
1.69819 21.5823 46.5029 27.9186330237
4.29544 22.4751 44.1288 28.1052005225
5.27083 23.9674 46.7665 29.4550009553
8.09045 23.8821 46.4926 28.2713957981
8.5042 21.1721 47.1182 27.0186776586
9.59691 22.6237 44.1372 27.8047152573
3.59132 14.6192 48.924 33.3636867754
1.34071 16.3315 49.0244 29.3134728562
7.94567 14.2994 48.1369 34.0258253472
5.95897 16.0968 48.7827 27.5921458877
4.46975 13.4482 51.3913 31.4263631172
5.80191 16.0853 51.6171 28.05987497
10.2691 14.1312 49.9054 29.3310872759
2.9166 18.848 49.2344 32.3720632761
0.13464 19.825 50.1882 29.9050773106
5.17856 18.8248 50.9909 27.6046947951
8.07169 18.3507 49.0802 30.6642478625
10.0057 16.8995 50.9465 34.9054079671
0.537353 22.3207 48.7521 27.6857468987
2.13413 24.4295 49.7758 32.1625582735
3.22418 21.8071 50.8922 27.1175236633
4.14602 21.174 47.6286 28.3076913749
5.32918 23.5048 49.7859 29.4370424054
6.8603 20.8804 49.5427 28.0811855077
11.41 20.6405 47.5975 28.7092360843
8.61595 23.9296 49.2891 31.8263837213
3.63624 15.1095 53.7314 27.3505794699
1.68086 12.9493 54.783 32.7615546733
0.17778 13.2874 52.36 31.5043914117
6.04585 14.722 55.2163 32.8829036063
8.01884 15.3473 53.2262 29.3467015636
9.06069 12.9898 52.0571 32.4174957484
9.96059 15.003 55.8739 31.9863578706
10.8059 12.4526 55.4337 32.9135433768
2.42989 17.1231 55.5999 29.071802123
1.91617 19.2096 53.8683 29.5465286544
2.56097 17.1327 51.9985 29.4332289626
6.06548 19.2959 53.8152 30.7311904723
4.94996 17.4596 55.6812 30.7378967753
8.87992 18.3297 53.3087 31.6881990568
10.7691 18.2312 55.7162 31.0339701657
2.75579 23.8202 54.926 30.5794249474
0.555661 22.2143 52.2948 29.5140254402
3.94576 21.4081 53.3691 33.8040766599
9.02667 22.9269 55.624 32.1549603234
11.6127 21.6299 51.9387 28.1279550108
10.4957 24.1384 53.3404 29.8803814341
8.81684 20.8191 51.9545 37.8822138389
0.262451 25.39 7.97305 31.1185160727
1.03763 24.9684 5.12308 30.2500830677
2.89843 28.5041 3.98795 30.2057583485
0.483188 27.6606 4.74908 30.4730495347
4.64908 26.3609 5.64055 31.6859979295
7.06419 25.0457 6.03623 29.1768371837
8.73963 26.7779 7.81228 32.8729662022
10.7896 27.1926 4.63688 28.7792614066
11.0247 28.4605 7.31926 33.6064417515
8.37313 28.5044 3.95479 29.6321394402
2.05496 30.6866 7.63789 30.6174493784
3.88439 32.2134 4.1541 29.478518653
6.76 29.0387 6.30983 31.3252621493
4.21296 30.065 6.0621 32.826113696
1.72097 33.0123 5.65955 25.8996833297
3.35239 34.8335 7.15569 29.2953007171
5.89976 34.1793 5.29378 28.1162527339
6.9666 33.713 7.85047 30.3913845234
4.99189 36.2574 4.06339 26.1661520013
11.3616 33.2922 7.49152 30.7762708093
10.7779 33.0829 4.83473 29.9415341767
8.91674 35.2168 4.87335 31.2031040141
3.21043 27.7785 10.4591 32.723022472
1.73608 25.373 10.2691 28.3741765432
6.26999 25.023 10.2898 31.4313153623
5.56194 27.3069 8.90294 31.1800282162
7.73036 26.278 12.3188 29.9685153768
10.4744 25.3986 9.45216 26.1960460153
10.6803 26.3141 12.0117 28.8875418866
2.1862 30.6229 10.4158 27.949210853
7.05387 29.0461 12.4916 30.6470488731
4.50044 32.0244 10.5659 29.4978402896
6.13515 29.8243 10.1145 29.7418149249
7.71942 31.0571 8.21384 33.6198144917
11.3234 31.7083 10.9064 30.4551231858
10.5154 30.8555 8.43586 31.799622649
12.0165 28.6475 11.5449 32.3373564284
1.53795 35.2733 12.109 33.0664902245
1.16338 34.4416 8.96122 28.5494904966
4.98094 34.4365 9.43354 28.6107008038
6.93777 35.7114 10.6022 31.5018431309
10.0399 34.2757 10.9086 30.9041817198
9.42729 34.8257 8.40015 27.0497332228
11.4826 36.5578 11.1466 30.3673966005
3.77851 25.2441 14.496 29.7243040826
3.10319 27.6819 13.2759 31.4726326948
6.90103 25.2591 14.5844 29.8683811464
5.69381 28.285 16.5282 30.3966834398
9.93933 28.0817 14.3195 28.6044071095
11.8936 27.6869 16.234 26.2124374805
12.1725 25.0964 16.5648 29.1778440505
8.23626 26.8599 16.5799 31.1482779647
1.33494 32.2415 13.3962 32.7357440926
0.89704 29.4391 12.9925 28.3663053024
4.87542 29.4614 14.1383 31.6608692223
4.26742 32.1483 15.4914 31.0003478193
9.2043 30.9006 12.5373 30.1352718296
10.1171 31.1745 15.1699 34.1109039469
1.70817 33.8138 15.9496 28.0453226566
2.31944 36.7426 16.8888 30.447317426
5.66 35.6441 15.5078 29.2544141582
5.31669 33.0042 12.8441 28.4463143616
8.13404 33.49 12.8865 31.407969044
4.3405 35.521 12.9115 33.2793665002
8.30284 35.171 15.1216 29.5866265575
11.4641 36.3915 16.1892 32.7514402542
3.92186 24.734 19.3906 32.4160044828
3.71063 26.3591 17.0112 33.2272192783
1.33428 25.3341 20.7151 27.3111895709
1.60108 28.1377 17.5891 29.4862359357
7.80454 27.4833 21.0974 32.7150856809
10.588 26.7153 20.3041 25.1028175039
9.906 25.5227 18.1632 27.6154037003
1.50658 31.9392 19.6941 27.6285841946
0.863319 29.0602 20.4459 29.4483560237
2.8442 30.5687 17.7048 31.2422345497
5.58545 30.329 18.7884 27.4352893721
7.51047 32.5624 18.4512 29.738081824
4.13942 32.1388 21.1151 28.5790651359
7.94493 30.5767 20.9143 25.3659544948
10.7328 29.0611 18.3628 27.5539077172
8.38701 29.7561 17.3469 30.0826321729
2.86663 34.5647 18.8209 30.5870566429
4.76152 34.931 21.1632 26.8168192458
6.22077 36.6146 19.015 29.6003987627
5.33897 33.8263 17.546 26.5334017845
9.01821 36.3632 18.4263 34.8469950305
9.65892 34.8706 20.9554 32.6350936003
11.5342 33.2995 19.5804 29.7498279848
10.0126 33.7645 16.9131 27.9726864687
0.639538 28.1379 24.1137 98.0623273236
3.75918 27.4936 24.511 103.9543530673
2.86651 27.469 21.9178 26.9262404057
4.84722 24.8762 24.1727 62.6030993214
5.45591 25.617 21.5101 30.0504505691
7.62019 24.6609 24.4235 78.0515483204
11.0336 25.7262 24.7869 110.0392088373
8.5991 27.5484 23.9763 51.9431034907
9.55337 24.8732 22.2204 29.326238037
3.38762 32.0663 23.8508 69.9256206532
0.952897 30.9655 22.9343 34.6412805732
4.9532 29.1327 21.3229 29.7122089309
7.75607 30.9381 23.6299 34.1981276336
5.22403 29.9311 24.2446 81.8084654531
10.5972 31.0243 21.3526 28.2264186807
10.2735 29.9895 24.605 104.9234414078
11.3658 32.4353 23.7509 43.1409442592
12.0806 28.6727 21.7013 30.0412433296
1.5419 36.2479 24.3342 105.5186260026
3.97795 34.8598 24.2004 74.6331561911
6.68278 35.7378 24.4681 95.8542553028
7.22876 33.4277 21.4099 28.0832813212
10.8832 35.1646 23.7733 44.7999982881
8.33565 33.8157 24.2988 81.3125762266
2.51797 26.1992 35.8903 78.5835018348
5.0433 27.5981 36.7396 31.1860284386
7.02803 26.0665 35.8633 70.9147291184
9.41047 27.8689 35.9811 55.8374914988
8.4981 26.6581 38.697 27.8784094293
11.1733 25.3482 38.4845 27.3366242813
11.5121 25.9201 35.8784 86.8785264417
1.51579 28.8519 36.1553 42.5103461778
3.35125 31.0919 35.6987 76.4040616709
3.72137 30.8003 38.6744 28.2378321289
7.67305 32.0062 35.9997 46.7450791778
6.01304 29.7723 35.2576 120.2241579933
8.10667 32.013 38.7786 31.8616074676
9.26088 29.3305 38.6808 30.6209289146
10.6442 30.5788 35.6491 72.2479441533
12.0547 29.6538 38.3443 29.3179214485
0.201053 34.5557 36.0537 59.9145418407
2.63899 34.5812 38.7458 26.5546483831
3.12563 33.7516 35.9047 74.3955688786
5.8836 34.2622 35.9209 66.3651930039
10.1754 33.9022 38.2634 30.9984942163
10.2947 33.7051 35.5907 81.7103879093
11.1188 36.5644 35.5631 93.0676876132
1.80544 24.9237 41.9217 25.470192752
0.62388 27.129 42.7403 27.9410630929
2.82926 25.9661 39.0151 29.3855159561
4.57746 28.2099 39.4292 26.8094231412
4.48182 24.939 42.1438 30.2928142931
6.73574 27.5 40.9795 27.805244479
10.82 28.4813 42.9236 34.0778201488
9.37685 26.2781 41.6065 27.9737796811
1.07578 28.9749 38.9476 27.3317563939
1.44501 32.1713 39.7039 28.3100859543
2.26495 31.4339 42.5885 29.422385375
2.48261 28.6629 41.3802 27.0157640151
5.45242 32.0984 40.1842 30.7052820195
7.39995 29.9256 40.9516 29.9683301934
10.8525 32.5317 42.0789 31.6860877618
9.15312 30.5454 42.919 30.6067299196
0.335994 34.6931 40.9615 29.191632756
7.66934 35.4335 42.5775 33.9416150408
5.1742 34.8463 39.1152 30.7403271848
4.87044 35.4194 41.8469 27.8204009626
10.1887 35.0329 40.6657 29.5127007763
3.43196 25.7189 45.6783 28.3856975359
0.271541 28.2862 46.1729 27.8187565515
4.57724 27.3826 43.3341 28.8742308629
5.13421 27.2962 47.4662 29.4569092951
6.79662 27.8753 45.0506 29.8711853164
8.03266 25.5867 43.8975 28.8382199729
9.21985 26.8076 47.0594 27.6861532687
11.3383 26.9144 45.3062 31.4594694235
1.73395 31.8926 47.1125 28.5999071048
3.99996 30.1216 46.8456 27.8986323735
2.47862 29.3644 44.6565 29.3446432589
7.97579 30.3571 45.3824 30.3744514627
5.69633 31.9681 45.7269 34.0045736558
10.0454 32.2216 46.2756 32.3791272701
2.95758 36.4442 47.1895 30.1718510315
2.6119 35.9649 43.403 27.3372580901
2.0564 33.5756 44.998 30.2009860476
0.446774 34.9734 47.1896 29.8424884312
7.56732 33.5821 47.084 31.0554185035
4.69564 32.9833 43.1725 34.1367274568
11.0836 34.2424 44.221 27.6591450901
8.89645 35.2212 45.3851 29.1281410568
1.79731 26.6113 47.7364 26.1733794189
4.64749 28.3152 50.8295 27.6423284057
6.91249 27.1014 49.7288 28.1750761232
6.94353 24.7485 51.539 34.251110459
10.4341 25.9988 49.2753 30.0734839469
2.8782 28.8087 49.1468 26.2329742538
0.844363 29.1596 51.1769 26.2050454483
1.50969 32.4004 51.3116 28.7995613234
7.61717 32.2865 49.6196 33.9854814934
5.31886 31.0082 50.7791 28.2288750698
10.4537 29.553 47.7122 31.3921321261
8.32561 29.6576 49.6438 32.0968533483
0.655797 35.4483 50.248 28.5170788945
3.64065 35.4796 50.2297 27.9585488049
3.63063 32.7525 49.3716 31.8149412317
8.0128 33.9481 51.8401 32.7375129522
6.38443 36.5057 47.7166 34.6655437801
6.71423 36.0005 50.5369 29.1386052345
10.2341 35.5453 51.2478 30.6246191622
2.91486 27.7083 52.8477 29.9233988034
1.15412 25.3296 52.4953 29.4331767964
4.26963 26.1423 55.2388 30.0765255175
6.31217 26.5091 53.6201 30.0822581008
7.86517 25.5087 56.1779 31.7907606252
11.8836 24.9308 55.5895 27.50282123
9.77291 26.5313 52.0811 30.0695288012
2.78557 30.3459 54.3076 27.0200967269
0.195094 30.2486 53.8297 25.5662052848
5.209 31.4916 53.4396 26.3317727335
6.91236 29.2096 54.0898 30.2262705546
12.0581 28.636 55.3485 29.1096589908
9.33957 31.2169 56.0156 31.8058379046
11.0055 30.5992 53.8901 35.7703221034
8.91265 29.331 52.4302 32.8461609529
1.53749 33.8498 53.8235 26.5077926935
2.55199 35.3053 56.1785 26.6274802315
4.28 34.0614 52.7343 28.5155192796
7.03535 32.7264 55.5328 30.8850965885
5.70451 36.155 53.8364 28.5814584496
11.201 35.091 54.8136 29.7269579769
8.27403 35.0995 54.5527 28.3671075981
3.47797 37.849 6.81108 27.9536235652
2.67474 38.7086 4.22506 28.4688267382
1.18486 39.2073 6.8823 26.0200062369
6.61157 38.6995 4.27975 29.933522274
5.86858 39.1857 7.06439 31.6193219999
4.84151 40.8168 3.84521 29.254192283
10.5725 37.1396 6.53277 30.9699343004
9.2353 38.9255 5.00472 28.6560237951
1.27891 41.7732 7.72463 26.3474074843
3.18023 42.8598 5.40311 28.7864246743
0.439129 44.5656 6.72706 28.4295625074
0.943498 41.4051 4.29128 25.8209272463
4.78111 42.1223 7.70728 27.3371725376
6.03224 44.8854 7.33646 29.2450085121
7.72777 42.6219 8.04677 28.5734734798
7.05077 42.8284 4.0105 28.1041476243
11.7526 43.1587 4.90658 33.095215361
9.16295 41.7387 5.59819 33.6659860543
3.4578 46.1144 6.02028 29.4366717714
1.10642 46.2955 4.45346 29.0181868878
7.17181 48.2101 4.53235 28.3296011499
7.75651 45.4404 5.02974 27.5432156291
4.59486 48.5943 4.97432 30.3350737401
10.6736 45.5787 5.55384 30.2031844527
11.3571 48.9511 6.14662 34.1362448687
12.2549 47.1845 4.02898 29.4937842846
3.56095 38.7865 9.83112 32.0300178726
1.29427 37.0869 9.77418 29.1698276521
7.20961 38.5624 9.2771 32.0115504935
5.56081 38.2906 11.8083 34.4476504696
11.303 40.0233 12.0183 32.22436687
9.99829 38.171 9.27712 30.0754669811
10.668 40.8117 9.46564 29.7539223127
1.18763 42.8321 12.1933 25.2614225077
2.97064 41.5495 10.1937 26.8923215567
6.43261 41.3741 10.2414 29.4332837452
4.17576 44.2784 9.87331 27.8977315286
6.50835 42.944 12.3508 26.1674799162
10.1565 43.9226 8.95459 32.158559074
11.933 43.3485 11.2836 27.254766611
0.114757 48.7608 8.4733 29.8923308695
1.87437 45.4923 11.7057 29.6156297194
2.5295 46.3563 8.65179 29.5565141672
3.74428 48.7748 9.5136 29.584568662
7.8472 46.1291 9.1621 31.1018337538
6.22812 45.6031 11.1328 27.825198257
9.10928 48.0853 12.4224 29.7428660684
11.24 46.6944 8.52202 31.9944632035
11.6021 48.685 10.9212 28.6738056063
0.417884 40.0233 12.9479 33.2030954692
0.559905 38.1954 15.1101 33.9283032309
5.94298 40.1502 13.9822 30.751108637
4.98125 37.9819 16.8441 32.7383025757
9.78916 37.1023 14.0412 33.3113281108
8.69395 39.8013 14.4925 33.6347444571
0.823288 42.7242 15.3031 29.4335984466
3.69485 41.7666 13.4431 32.1148465599
2.63024 41.0173 16.7358 31.3886929229
4.99316 42.5894 16.6631 27.8680037044
5.34599 44.5102 14.5385 27.7542491476
9.32755 42.176 12.9571 28.6897037562
9.92584 42.7228 15.5046 29.5037905795
2.64948 46.0772 14.8443 28.2594399543
0.898557 48.4602 14.2073 26.9960754082
4.77748 47.3974 16.3515 27.5380035235
4.47172 47.2951 12.8186 30.4823827562
7.95325 44.9786 15.3286 26.8680938356
11.9788 45.309 13.2452 30.275057548
9.02976 47.5587 15.4953 30.9365219028
9.0403 45.3827 12.5294 28.5701750304
3.95838 40.8133 20.9682 29.0779931111
2.78183 37.1583 21.275 31.5030397269
1.85122 40.7513 19.1725 28.13102688
1.20187 38.0426 19.2922 28.9114908827
7.24638 40.7802 20.1913 33.6303537365
5.6799 38.2681 21.1227 30.2348931225
6.53883 40.3039 16.9836 30.0230337403
11.5759 39.6757 20.5517 30.2391072714
10.9232 38.708 18.0671 36.8318813512
0.388552 43.4443 18.7468 24.5759216018
2.71765 44.4579 18.4427 27.1373428134
7.64752 44.2297 20.5027 26.3743906262
4.96387 43.0217 19.3778 26.6492542586
9.33307 40.8626 17.5447 30.2807854902
9.54744 44.1852 18.306 26.8039611224
10.1815 42.1598 20.5852 29.1333824441
0.704614 47.7382 17.1082 27.5428219039
3.06751 47.0799 18.421 27.6675073461
3.05313 48.3501 21.2416 28.2232596823
6.86541 45.6705 17.7122 27.9824820059
7.5914 48.1958 18.0659 27.3903884837
6.28854 48.464 21.2132 28.6487836793
10.0278 48.1055 19.4595 25.6023421655
11.045 46.35 17.6378 30.5769631587
0.158578 39.785 21.7259 29.0545748433
2.09958 38.8912 23.4849 38.6266811407
7.1646 38.3938 23.4225 34.045878586
6.61122 40.6903 24.5773 123.2979176306
9.84474 38.2755 24.2596 96.6568435787
12.0133 37.621 22.2576 27.3620390676
0.846463 43.6009 24.6269 86.5550993174
2.76501 43.8242 21.5027 24.9110197537
4.02969 40.8895 23.9343 53.8910702138
3.53571 43.4521 24.2114 60.4937857079
7.88494 42.3667 22.8505 28.9553728728
7.9362 44.8677 24.1309 82.2163919925
10.5249 41.2369 23.6901 73.0865814174
0.112736 48.9361 21.3324 27.6970419595
1.20818 46.1352 22.1105 28.2008525422
5.37992 48.5798 23.8669 57.3226838585
4.8975 45.7427 21.5709 28.645931782
5.25087 45.6827 24.2213 83.547324377
10.8825 48.9157 23.4334 35.3453918542
10.2856 46.3896 24.2019 104.902297013
8.78694 46.5951 21.5075 31.6279939094
0.642087 38.4341 35.663 91.5983728838
3.80386 38.4604 36.2164 50.9535848882
1.47742 37.0731 38.3143 27.8588175004
5.34739 40.7511 35.7389 100.1655861307
7.59859 38.8694 38.6208 27.1485529272
6.3149 37.0547 35.6192 103.2103474554
8.8258 38.0237 36.385 44.1422756371
10.2263 40.6175 36.4245 64.2502331349
12.158 37.9943 38.2833 32.1099150615
3.15645 42.6039 35.8707 68.0170805912
0.792175 41.0867 36.119 52.7919034506
4.00474 42.6236 38.5967 28.8767558484
7.66871 42.0026 36.6786 43.5683750937
12.1465 42.7914 36.3298 45.0793523201
3.47718 45.2811 35.6118 98.4569827934
3.69525 48.8786 35.7464 63.8773025656
1.14381 47.1203 35.9843 51.8898763706
2.82495 48.3332 38.5211 28.9824143749
0.130051 45.9081 38.6414 32.2365988919
4.94668 45.2036 38.1125 27.7725151427
7.1959 44.9474 36.4446 58.2950309626
6.09524 47.8717 35.9312 69.8400037628
9.26532 45.4314 38.6121 31.6439908509
10.6056 45.0597 35.8566 96.6137038834
12.2568 47.1849 35.6038 104.4842277459
1.25804 37.5185 41.3028 30.0431639934
1.21418 40.6884 39.1271 29.6988517506
3.37532 39.2932 40.7324 29.5785823893
6.23577 38.5759 41.8887 28.8619971566
4.97762 37.6646 38.799 28.6208610422
11.1999 38.7096 41.1396 26.3360912247
8.66048 37.6321 41.0588 30.0147156515
10.0952 40.6942 39.3833 28.7881516709
0.893265 43.3783 40.0085 29.4718242346
3.17808 43.3368 41.5019 28.1064957904
4.03884 40.9868 42.9422 28.6022555194
6.51326 41.3715 39.2865 27.5551086633
6.65669 41.863 42.2346 28.7478645715
6.70346 44.4792 43.0474 25.7918268742
11.7755 42.7438 43.0111 26.936743295
8.76278 43.142 40.1106 28.2914481447
9.36568 44.884 42.2821 27.0034391653
2.98998 46.1283 42.5658 26.959977048
1.4108 47.4792 40.7163 29.1515382159
7.3602 47.5781 41.8218 28.2543980226
5.60885 48.1668 39.0262 29.5116605146
5.20622 45.4237 40.786 27.8418037981
4.38217 48.9829 41.6072 37.2051104423
9.61497 47.5065 40.2435 27.3781548096
11.4506 47.825 42.282 31.9614150159
3.70852 37.6249 45.1193 28.3543485963
0.268372 39.7204 45.9617 31.4681622583
2.90299 40.3426 45.2511 29.8932666815
7.86097 39.645 45.5059 32.0292479079
6.36345 37.3267 44.5568 29.1313674985
9.42872 37.5078 46.8319 29.8335616206
12.2681 37.339 45.9714 27.4340819372
10.5689 39.5036 43.995 31.2476802764
3.59009 43.6096 44.6278 29.1077885948
1.21331 44.1452 45.7078 27.2450840039
5.9128 44.839 45.7731 26.8656866613
9.27139 42.0443 43.5509 25.8514902698
8.91545 42.8863 46.1569 28.8976891069
3.67195 47.1603 45.1225 31.6771601123
1.03961 46.3796 47.3779 25.3051066246
7.85631 46.8639 44.9039 29.210747139
6.02654 48.209 46.5454 29.6554586569
10.1113 45.2786 45.7542 31.6160161521
11.9671 45.4227 43.7967 30.4216544048
3.95939 40.77 47.935 32.5186662647
2.71527 38.5079 48.9971 29.3563714398
0.356963 39.4532 48.7894 28.7196229247
7.59862 39.7828 50.2482 30.5020483162
6.61517 40.5634 47.9295 29.6330174329
11.6014 38.9345 49.5902 28.7474320872
9.22582 37.649 49.6365 27.4184896402
2.69968 43.3814 48.2968 30.4408558619
1.86881 43.1312 50.9276 31.0731051171
6.75178 43.2788 47.8171 29.1559601073
4.96054 44.2583 50.2728 29.3967002881
9.38413 41.7336 51.0104 30.7080727051
11.8376 41.1501 51.5781 27.4959889432
11.0416 41.4085 47.8408 32.6528367545
0.969849 45.9292 50.2511 28.1081803363
3.96985 46.404 48.0489 27.1160501047
3.52892 46.6589 51.1572 27.9730464814
2.34678 48.8123 49.0959 28.8889965768
7.62117 45.6131 49.6737 33.1525173742
6.22045 47.6494 51.0635 27.6833662862
10.3939 47.0209 49.8146 32.8876700478
11.8099 45.8542 47.9284 31.5943531186
1.46609 37.5625 54.4499 25.6271789805
3.00747 38.3009 52.0986 31.6755242756
5.97604 38.5231 52.2591 28.5705351302
10.9577 38.6865 55.4997 26.2283458923
8.66368 38.9474 53.9469 32.6943017686
11.3636 37.2556 52.9322 27.9901555485
2.82226 44.7473 55.3206 30.6875501465
2.43017 41.0685 52.6901 29.5487003678
0.888992 42.8504 54.5728 29.9188903393
5.0822 41.0203 53.492 31.8170672078
6.26016 43.5859 52.7215 30.3867284168
8.37985 41.8918 54.2184 30.1571209761
9.13448 44.332 51.9413 28.0190406029
11.8796 43.5781 54.4025 26.8871122295
12.2199 40.8684 54.3087 29.4494537417
2.18999 47.0666 53.6544 31.5414248801
4.76633 48.0062 54.7314 27.9294720137
7.62515 47.5438 53.4105 28.7907905175
5.86502 45.268 54.9361 28.7845674742
10.4412 47.5719 54.2678 28.6173955204
11.5008 45.9855 52.0072 32.9817250267
9.18391 45.0441 55.0854 26.883887658
12.3477 2.53225 5.30025 29.9916912581
16.3675 0.24926 5.27044 33.6502375328
12.7498 3.60609 8.06039 29.4589584606
13.833 0.763205 3.87752 31.1719820602
17.3731 2.83457 4.94848 28.6077188592
19.091 2.99911 7.19858 28.6654321486
22.663 0.544466 6.22331 28.6712867998
21.0461 2.60535 5.04621 30.2046404002
24.5642 1.05186 8.08004 30.5790473699
15.0214 7.20054 5.80676 28.7202316974
14.8222 4.15381 5.19271 31.6625919672
17.5405 5.83487 6.5648 29.4346730475
19.7627 7.90006 7.04136 26.8295868378
21.1243 5.17933 6.47399 31.0652463544
23.9271 6.04883 7.86358 28.5374990481
14.3279 10.0295 4.00784 31.2146879076
15.7097 9.9767 7.11702 29.6803241625
18.2172 10.0344 5.84883 30.0794596583
21.2805 8.53174 4.90229 26.4354983968
23.096 10.677 6.50501 28.2109454873
24.2277 8.89082 4.15216 29.042425711
15.6047 0.367817 9.34258 34.6756907627
13.2534 1.80075 10.1798 30.25087513
17.1375 2.771 9.42292 33.1161380936
18.946 3.39016 11.151 27.5425538361
20.9369 0.455541 10.7495 30.1381057445
21.1751 4.0258 9.80891 33.5372230353
23.0969 2.01807 10.0297 30.7603867074
16.2146 6.71727 10.346 33.3820981701
15.4553 4.8146 8.33905 29.0247368152
19.8775 7.32378 12.056 34.3424572329
22.0751 6.54366 10.6634 30.5470970042
14.2601 8.30285 9.08989 29.5099274361
14.7255 12.1548 11.1413 30.6580998181
12.9329 9.96901 10.6332 30.698956565
18.3498 10.9065 10.4558 31.658257322
18.335 8.44289 9.64101 32.561379593
24.1711 10.5143 12.5181 28.9227203092
22.2208 8.26867 8.34839 28.7972614156
23.0525 10.5158 10.2491 29.8001261567
20.974 12.1683 9.60199 33.0623960718
15.8164 3.22687 14.5455 31.2320949593
13.4532 2.94991 12.6255 31.935749556
16.2529 0.659019 14.6304 31.0641342853
18.8694 1.08007 12.6767 28.1477776168
20.0001 0.24094 15.0561 27.8543243326
19.2966 3.48541 14.7145 31.6067535671
22.0084 2.66017 15.3741 30.2373459968
23.5241 0.328676 14.8671 25.7598421706
24.5345 3.75384 14.3933 30.6253784899
14.9517 5.58951 12.7646 31.5117924473
15.0016 7.21629 14.739 30.7677542262
13.6017 5.8177 16.5722 28.786789339
18.782 8.15749 16.7437 27.7881755585
19.8724 5.76607 16.6517 29.0751808581
18.1079 5.17253 12.83 30.6644385567
22.3867 5.79916 15.6343 28.7566562962
24.2318 6.11441 12.75 33.120983096
12.8562 8.74965 14.5208 30.7696530593
13.5086 12.0321 14.6155 28.4750295746
18.9349 11.0429 13.1285 29.7610301731
17.1173 9.36213 14.9864 34.4444374678
16.5617 12.2302 15.4912 26.8393996673
22.8772 8.55509 16.4139 27.8083056395
20.7347 9.05557 14.2112 32.0509666933
22.2404 11.739 14.364 28.6862799777
14.9593 3.62265 17.2566 31.9287496003
13.4247 1.84471 18.8657 30.143612674
18.574 1.60282 18.2892 32.0084930937
18.207 1.07296 21.0853 27.3804323059
22.8907 1.46947 20.9657 26.1429143742
20.5979 4.08236 18.7554 27.6047846821
22.4367 1.40471 18.1467 28.672685278
13.8405 7.46895 18.8729 28.3638158348
17.3574 4.44402 18.52 30.9694919432
18.3661 7.56629 21.1951 30.5206715636
16.9656 7.24566 18.616 29.70884808
22.3153 7.62479 19.7103 27.0321071237
23.3703 4.41141 21.0832 27.3860461807
23.3721 5.37838 18.2117 27.5419403745
24.5819 7.81766 21.2409 28.4931556269
13.2761 11.176 19.4602 26.9924544343
15.4623 9.73853 17.584 27.2408648742
15.6751 11.8133 21.269 30.2271626853
17.2958 11.0524 19.2315 30.0106935136
19.4779 9.94658 20.7259 28.6202268556
20.7342 9.61404 18.2996 29.8859859907
15.0009 3.14753 24.351 84.2387527914
14.432 2.16621 21.3792 24.9257061221
13.4714 0.602788 24.1249 74.960426404
20.1512 3.25517 21.7161 26.7399178488
18.11 3.10629 23.7664 36.8257600298
17.3703 0.29625 24.3285 75.0231785117
16.5435 3.78678 21.5208 28.3671022534
22.2951 1.10261 23.9004 50.1216511383
21.3748 4.01944 24.46 93.2935270221
14.4077 5.71669 21.7076 30.6528445617
13.6077 5.57882 24.3433 85.3738417763
18.9537 5.71398 24.6642 111.1617717576
17.07 7.95928 23.7481 41.2331161383
24.2975 4.86893 23.7229 50.0395118206
21.4279 7.28238 24.0094 52.427999495
20.6344 6.08551 21.3055 26.5788663083
24.1633 7.9325 24.0057 49.65070044
14.142 8.20221 24.0403 57.9957863917
14.8397 11.414 24.0789 55.7022161688
13.878 8.88183 21.406 30.820414444
18.0584 10.333 24.4584 103.5720016278
22.2603 10.2824 21.5034 28.5924487492
23.3551 10.8125 24.5928 99.6229024901
20.7886 9.86049 23.8529 40.0903680986
15.8377 1.33148 35.8463 82.2379866234
15.4708 4.02207 36.0214 56.4832185142
14.6422 0.443873 38.4232 31.7537647555
20.1307 2.42675 36.8678 29.9316072375
16.6603 3.6203 38.6607 29.7048702652
18.6744 0.419107 35.7037 87.6433309187
22.631 2.88826 35.4819 96.7797230385
22.4842 3.46004 38.7716 28.3337437868
14.1645 7.10764 35.5522 112.208689385
13.8208 5.38792 37.7408 29.787070495
18.473 4.72012 35.912 68.2622799606
16.8181 7.25584 36.0151 54.7141898064
20.3778 6.48259 35.7979 69.5833063546
21.1108 6.15501 38.6409 29.4522810493
23.0694 5.61423 35.6631 70.5281194948
14.6124 11.7049 36.0476 70.8092359709
17.3326 10.0672 36.0151 68.1565358226
17.8875 9.01945 38.6124 28.0928730562
20.8604 9.51536 35.9839 71.8708169018
23.1596 8.57456 38.6797 30.4418226715
23.5117 8.53382 36.0092 58.4911489234
13.6179 3.11053 39.7234 32.1499544538
12.6629 4.02385 42.1601 28.8949812043
16.9678 1.2629 39.9132 27.1243306634
19.6809 1.16127 39.2621 29.3578326623
19.6705 3.9229 42.6499 31.3543702177
17.4014 2.52148 42.4268 32.2047579955
23.016 0.233617 41.8138 33.0033261355
21.6577 2.3525 41.1251 33.5561916885
15.3522 4.8079 43.1586 34.2579061693
15.1208 7.5895 39.3558 30.169507087
12.3551 7.75947 40.8742 32.8406132493
17.96 6.00074 38.8887 28.1557717726
19.6262 6.5573 41.4242 29.5755850752
16.6514 7.08077 41.8685 30.9323948788
22.3858 5.95015 42.923 31.3136594661
23.9858 5.89266 39.844 30.7324738799
16.1271 10.5531 40.5142 27.7533023282
15.7474 9.4803 43.0124 27.5540852844
13.9891 10.6164 38.8498 29.9461643757
20.5044 9.6807 39.0405 27.9810508646
19.1737 8.87544 43.1161 29.572629457
21.3315 10.3927 41.9777 31.4532916077
23.5999 8.89072 42.6549 30.9682579956
15.2882 1.54732 46.5349 27.8758090915
15.169 0.700126 43.7464 31.5487608651
13.2266 3.75107 46.777 31.1193765901
12.677 0.510028 47.4304 32.8043096341
17.2942 4.03396 47.0766 30.6975662467
18.1159 0.0826273 44.3906 34.2784281523
24.2986 2.77369 45.0348 33.5609188803
21.5631 2.61637 46.3396 30.4828966497
20.7434 0.018759 46.0809 28.0524638838
15.7017 5.64318 45.8514 31.150425124
12.9866 6.77772 45.2002 28.7197886857
19.6641 7.628 45.5528 30.0209830809
19.5766 4.50279 45.3697 30.4459700977
22.2645 6.03801 45.7532 33.5605734097
13.9779 9.12012 47.0825 30.2712544511
13.1411 11.5968 46.33 27.3768600827
13.1199 8.69219 43.2567 27.8939174004
16.5598 8.30716 46.7014 28.67516103
17.4914 10.3325 45.0892 29.5679987093
24.0996 10.1216 44.7873 29.9332356812
21.3724 9.99945 45.6209 31.0357323902
14.1184 0.16942 50.6257 29.4235952264
14.5245 2.62113 49.6158 29.5995998475
17.3244 1.3353 48.7594 31.7146027018
20.4446 1.79947 49.1543 29.879887113
24.1403 3.14158 50.9398 27.3066808162
21.5392 2.18243 51.5087 32.5495999589
23.2626 3.95111 48.2255 27.6797188717
14.3309 6.85553 51.3128 31.2850931562
15.8378 4.33579 51.4271 32.8240260885
18.6329 4.1749 50.1222 30.0432939295
18.8993 6.32954 48.3683 29.9062000799
21.6784 4.98786 51.5725 28.0205820656
21.6429 6.26651 48.8619 32.6630771479
16.2174 11.6016 51.3042 29.1906353077
12.5539 10.6675 51.5567 28.5434876541
14.4761 9.26647 49.9118 29.3222807002
17.5153 8.84283 49.3677 32.9497337186
18.6097 11.6664 48.9777 32.3310422232
21.3749 11.1944 48.4387 32.6700458727
22.4097 9.00459 49.6998 35.2279879119
14.4604 0.697486 53.4554 31.1420834572
15.1302 3.38209 53.7872 32.6029382102
17.9418 3.92106 54.5056 30.5862408684
19.4969 1.61606 55.111 34.6639795302
21.9722 1.2029 53.9686 33.0513830571
23.7324 1.8495 56.1218 32.7198902293
12.7475 4.11788 55.2247 29.3840945666
15.1985 7.69663 53.9164 28.927821799
12.8254 6.74562 55.3756 31.3170492487
19.1851 5.49242 52.4878 27.210419635
17.4719 7.87191 52.1254 30.0202538107
18.3317 5.87956 56.1727 30.786183487
23.7564 4.72695 56.1045 30.9464185849
20.6178 7.84582 53.4446 30.0081225684
21.2984 6.23599 55.9927 29.2656526562
23.5846 5.99891 53.357 30.0660461861
14.5813 10.3237 53.578 27.9211621799
20.3638 10.4973 55.6209 29.2867704777
18.1269 10.0116 53.9193 28.5716688549
17.1835 8.77224 56.1657 28.1165095443
24.3265 8.57088 53.9448 28.496838567
21.0971 11.957 52.9555 31.1095111106
22.333 9.70125 52.4619 28.0450765862
14.1609 14.5362 3.7922 33.5599852671
14.8092 12.6651 6.02799 32.4268214296
12.3163 13.0535 7.57986 31.4736528093
16.7449 15.9846 4.56514 29.4703435768
17.4902 14.1449 6.47868 33.8408707884
19.5125 12.4192 5.20645 30.4514447757
22.4101 15.9701 6.69972 33.6023782154
24.3446 12.3964 4.55502 29.4116729536
20.8357 14.9329 3.86147 29.7592839352
21.3885 13.1895 6.99124 31.983353309
14.2217 17.7927 7.98444 34.6505998955
16.1269 18.3852 5.93601 32.1887272094
19.9119 19.6561 5.01459 34.6878157951
18.9061 18.5888 7.33688 35.4477973639
21.7386 17.8032 4.36278 28.8513546613
24.1165 18.892 4.88671 33.0510846106
14.2143 20.7912 5.55998 29.4418674589
15.5167 21.6236 8.07006 28.328391143
15.9111 23.0285 4.66974 30.7638486619
17.741 23.163 6.80543 29.0371922492
20.1458 22.5763 5.43982 34.3700896472
23.7876 20.629 7.03313 32.2228121689
22.5656 22.9952 6.56899 32.4539091531
14.9536 16.0122 10.219 32.8500284213
12.8053 13.8976 10.1388 27.3744556367
16.5034 12.3065 8.9097 29.0982336449
20.3937 14.9881 10.7125 29.3773899976
17.5752 14.9101 9.34522 35.7713557346
22.8295 13.6678 11.9807 29.9662917049
13.8637 20.0021 9.56027 27.4473085648
16.0075 20.2752 11.4758 37.9699958959
15.2783 17.5978 12.3816 35.4451166932
18.041 20.1615 9.49363 32.0367702014
20.2684 19.6104 11.3017 31.725975155
22.3202 19.4325 9.32238 33.862877227
20.9921 16.901 8.76739 33.3166426839
24.5345 18.9735 10.8863 30.5111988976
14.2501 24.0554 8.90913 30.0309126123
15.6256 24.5029 11.2869 33.9537568809
19.4499 22.7642 9.26084 32.2899027399
22.1518 23.6922 9.18029 30.1099995336
24.1725 23.3832 10.8779 28.7303902146
13.6329 14.7159 13.0537 30.8716998003
17.5652 15.7568 13.0625 29.5466792007
16.4737 13.3347 13.0509 27.8513711911
18.7673 13.7904 16.1368 25.5952665444
17.7655 16.1795 15.9176 29.3780774952
20.0867 13.494 13.7849 25.8550299964
22.1697 15.7486 13.9185 26.2748971996
21.9007 15.204 16.6433 27.7029598686
23.8141 12.2903 16.5214 29.4060967745
13.6919 17.2159 14.8154 32.1222435596
15.5924 17.3331 16.6393 30.1838653487
20.1536 17.1327 12.6308 30.3877910925
23.9863 17.7988 13.4287 28.3401674873
21.085 18.887 14.8318 35.533633696
24.1858 20.2132 15.081 28.2774984114
13.9667 21.5943 16.0436 30.3620554322
15.6614 24.0881 15.5725 30.8530319996
14.92 22.3497 12.9493 33.9578772166
20.2676 21.7205 15.7795 34.9246339106
17.7825 22.9327 16.8969 33.1351083557
23.3197 22.5794 13.3923 28.810997823
20.6791 21.814 12.9727 33.2541230404
14.3725 13.0376 17.3789 28.0845024215
14.8529 15.3511 18.6702 29.4872174287
12.3374 16.0692 17.3111 29.0278664275
18.0352 15.246 21.0461 28.2727644398
17.378 13.8471 18.5682 28.9583502076
21.2026 12.753 17.885 32.5118608775
22.4068 12.9563 20.5584 30.5052874808
23.7665 15.5136 19.7704 31.7096923405
16.1352 20.0342 17.3151 38.9605245605
13.0937 17.9914 19.209 28.2325104349
20.3535 18.5038 19.3365 35.012798229
19.8901 17.1588 17.0827 32.9105843974
22.8981 20.2927 19.6177 29.7333085482
24.4327 16.5344 17.2762 31.86235896
21.3236 16.4886 21.1142 30.5011089495
13.9979 21.99 19.2667 27.9196096533
16.2683 20.5137 19.93 28.2462092703
14.2661 24.4338 17.9234 25.7743769763
17.0528 23.0544 20.9849 30.2549869206
19.1831 24.2619 19.029 28.8073828024
22.9293 22.6676 21.091 29.0374550568
22.5632 21.943 17.2998 31.4561423283
12.4053 13.3175 24.2956 59.857874661
15.7037 14.4797 21.7801 28.6776271726
14.7621 14.6306 24.5387 76.8721852398
19.981 13.6288 22.3313 32.3730916993
18.3348 15.9755 24.3616 70.4803485326
17.4983 13.3094 24.1242 56.4278973131
22.4829 13.8357 24.4722 81.3929460823
21.1517 16.2951 24.1203 69.1455033181
12.315 16.5001 21.7447 30.2873880179
14.7769 18.867 21.8902 30.3104849584
14.5032 17.275 24.3849 60.9178478739
17.4524 17.8315 21.7711 29.7915911843
17.131 18.3805 24.5712 80.210532834
19.3993 20.3182 24.2951 71.3887105952
19.0593 20.1889 21.3314 30.323928433
22.8176 18.7965 22.1042 29.5994329647
15.4318 20.9509 23.8538 49.4913946118
12.67 21.9333 24.5559 114.4423025501
12.4415 22.3702 21.7197 29.1093718379
16.4575 23.5804 23.7734 49.530218459
19.9545 22.949 21.4416 26.6665695888
19.4455 23.3571 24.1618 73.1050663885
22.2649 20.4322 24.4135 103.2509162464
22.7346 23.1403 23.8708 49.2935302533
15.8128 14.4642 38.518 26.1768717556
12.3455 13.275 36.1837 39.3546366808
12.9456 15.9547 35.6433 88.4840486263
16.6462 13.988 35.8048 84.3596160996
19.7417 12.3168 38.7358 27.403863346
18.8911 12.3594 35.9691 69.0184549346
21.968 12.6475 36.2684 58.1533303517
20.9426 15.367 36.2549 54.5219731351
14.4659 19.8358 38.4156 26.4305526184
13.9322 18.8943 35.7386 63.1381006584
13.8666 16.7842 38.0778 29.4536979661
18.3699 16.3407 36.0856 66.67228178
18.2054 19.1269 35.9595 51.0065451227
22.7339 17.4867 35.8276 68.8390159166
22.4793 17.9521 38.5889 29.2857403304
23.343 20.3468 35.7578 79.5003642951
20.9895 20.2545 38.5443 32.1494081837
15.9992 22.1627 37.9711 27.8660783335
15.7655 23.3695 35.4045 95.1010395097
16.0441 20.5373 35.121 109.9749298071
13.0611 23.3205 36.1975 47.1766052094
20.4871 20.7917 35.6531 76.7337609687
17.9984 20.5555 38.7836 29.8361641768
20.0142 23.5534 35.688 77.6462662669
23.4289 24.2459 38.261 30.3058012541
20.8012 23.3977 38.2874 29.9571864451
14.1362 13.1868 40.1611 27.0942973951
15.4403 16.0834 41.1572 27.1049036121
14.1221 12.395 42.9513 29.0941437839
17.6705 12.9264 40.346 29.058615639
18.0937 16.01 38.938 28.843947573
18.726 13.8832 42.6437 31.8896789909
21.8797 13.2091 42.0352 27.0023457752
22.2249 13.4815 39.6642 30.2324108624
20.7846 15.8327 39.5191 29.0035396792
13.2626 16.5535 43.0249 30.5434407773
12.4789 19.9287 40.2198 31.0467275045
16.5164 18.2402 39.4405 26.0913162326
16.568 19.2461 41.9657 35.4026563748
20.5652 16.4142 42.3191 30.8685787986
24.5322 18.8323 40.3368 36.6720949838
14.4955 23.7319 40.1585 28.3093933003
14.0105 21.0292 42.2737 32.2806026887
18.0607 21.6941 41.6697 29.8699943378
17.1031 24.1221 41.4753 29.2255814896
21.0259 21.2924 41.3811 31.077997809
21.6293 23.8822 42.045 31.2978415172
16.052 14.8546 43.6168 26.9885048514
14.7137 16.0708 45.9944 28.6355147929
15.5871 12.616 45.7539 30.0013313435
17.6042 13.8317 47.5015 30.4189674509
19.242 16.1121 47.3646 28.5549150153
20.0114 12.311 45.0776 31.2404451391
21.2347 14.6188 46.4599 31.232097241
22.6225 15.5714 44.2558 33.8319652375
24.0145 12.7635 43.5962 32.0668222983
13.1231 18.6909 46.7074 27.5686260359
12.8459 19.2969 44.099 31.2331434434
17.9992 18.0037 45.9365 30.9013586693
20.0931 19.7285 46.0784 30.9874756916
17.9767 16.9367 43.3675 30.1748756082
24.1713 18.0458 47.189 29.6214883391
21.2857 19.0578 43.1707 32.2948919369
23.9535 18.8919 43.1895 31.3551547994
15.3159 21.9002 46.8746 34.1819055689
12.7396 22.6657 46.7406 28.3091781708
12.747 22.9691 44.0423 28.3914341708
19.2194 21.8933 44.548 32.8396966864
17.0441 23.2936 45.3398 33.7493322147
22.8265 20.4948 47.2506 30.3787180821
21.3421 23.8766 44.9326 33.156564524
23.7126 21.5513 43.4188 33.0409132759
24.5675 22.148 46.0606 31.3720609392
14.2403 13.1395 49.6632 29.9977138203
15.4542 15.5077 48.5218 26.4669025544
18.8984 16.259 50.9141 30.0397091463
18.9798 13.391 51.1955 34.0405790708
23.1101 13.5601 48.4627 31.9321938057
23.6914 13.1947 51.5122 33.8299118031
23.2931 16.221 49.0974 31.9266128919
13.2851 17.5293 50.9797 27.7193224756
15.9245 18.9674 47.6942 30.895524243
12.7131 20.2313 49.9617 29.7936279313
16.2243 17.258 50.444 26.1454003537
12.4491 16.3418 48.3993 30.0625472231
17.12 20.0143 50.5264 31.3614592096
19.4327 20.1954 48.9454 37.819658212
20.63 17.2843 49.2721 32.1045756957
23.6099 20.0535 50.2323 28.3818467222
23.9598 17.2455 51.6755 29.4777370971
14.9506 21.8545 49.6573 30.8078934437
12.9241 23.8182 51.1534 30.4013414542
21.5156 21.9699 49.7758 29.7140686326
22.0153 24.3853 48.7329 33.7140058723
13.2982 12.7687 54.1602 30.1961556389
16.0756 15.8208 52.7882 26.6352372969
13.75 14.5774 52.0109 33.4318738049
17.3793 13.0236 53.537 33.5649057479
18.631 15.3701 55.0197 29.9737716715
22.4798 13.1992 55.0972 29.9881620517
23.8667 15.1013 53.5448 31.3750016869
12.8873 18.5309 53.5728 33.8014670671
15.4573 17.343 54.7694 32.4244526686
17.6709 19.157 55.8333 30.1767898769
19.2114 17.5966 53.3812 30.2315676454
21.8519 17.453 54.1863 30.3839027733
22.6043 19.9325 53.2235 32.8486330109
15.764 22.9825 52.1665 36.6296484615
13.2512 21.0981 54.2846 30.245667636
15.9847 21.4575 54.902 30.0529954277
18.1369 20.5489 53.0442 32.8327978687
19.9193 24.3525 55.7995 32.6911121365
20.754 21.9 52.4456 33.1094831934
23.7312 22.855 53.7766 33.2760006879
14.6767 25.2511 4.20167 27.9207853273
14.9905 27.9404 5.87288 32.4124266879
12.797 25.1595 6.62611 30.7899372066
17.3016 25.9188 6.97099 30.3322161976
18.8143 26.6513 4.86458 30.1482729694
20.805 27.8798 6.23367 27.623032098
22.5863 26.2161 4.43699 31.2402790385
24.1901 27.1037 8.00233 28.177122362
13.4535 32.4722 4.02618 32.0989576454
15.3757 32.5094 5.99776 32.0695171963
19.5398 30.2172 7.26696 32.3221063799
16.6435 30.0135 6.91576 31.4457137595
17.52 29.2829 4.11856 27.2693856263
21.1097 32.0118 4.8823 26.7378273917
22.4594 31.6419 7.30745 27.611614314
22.6286 29.5851 4.70549 27.2987210657
16.886 35.1143 6.10712 33.8087684502
19.424 35.4338 7.11468 34.0933808083
21.7118 34.8164 5.30732 30.0236176083
24.4413 35.5479 6.44367 30.9194088852
12.7157 27.3109 9.02616 29.5756677617
16.7994 28.3632 11.2636 31.6347949876
18.309 27.0229 9.1455 28.1041043115
18.4166 24.8037 10.9079 31.639467981
21.1661 26.3265 8.60273 31.8334438487
14.0262 31.5349 10.1512 32.5850452687
15.2254 28.9906 9.11974 31.6945328882
15.1679 32.5774 12.4491 32.0244696955
19.4977 30.0178 10.0974 30.738817125
17.797 31.063 12.44 34.5212169073
23.1061 32.5256 10.8325 27.4164068611
20.7393 32.6267 9.49225 36.1265386453
23.824 29.9955 9.55045 28.0900504251
21.7349 28.7225 10.8413 29.6272439692
15.5848 35.2621 11.8549 30.2288853481
14.251 33.5521 8.29259 34.4816442732
13.9312 35.8167 9.8289 31.2913338644
18.4087 35.6336 11.7667 33.8142231118
20.2915 35.4397 9.8729 30.6047866993
22.8661 35.7202 10.9617 32.5522050615
15.9359 26.654 13.2006 31.4881627226
13.5022 27.9848 13.8728 29.2935188695
20.1706 24.5918 12.9855 32.3863267997
19.4676 24.9177 15.4642 29.0293673655
17.161 26.9947 15.9494 28.896818898
22.8515 24.6357 15.1391 26.9196548435
22.6577 26.5281 12.6143 32.9074438281
14.4672 30.4593 14.489 30.984090893
12.7973 32.5444 15.8673 34.901687459
14.9566 28.8204 16.8022 28.9871434136
17.1156 31.3046 16.2458 31.1907701523
18.4352 29.5586 14.6319 32.3842095013
20.8442 29.7163 15.8633 27.1103631176
22.0356 30.0526 13.5083 30.405125772
24.0838 30.762 16.0 24.7570385686
15.2298 34.2072 15.5017 35.7614850419
20.4249 33.4486 15.0146 33.0074611147
17.7797 33.6542 14.059 29.4719812811
23.1727 36.0848 13.9151 29.7687954099
22.978 32.8221 13.5449 29.1234441791
21.0351 35.9381 15.6956 33.7220115348
15.1536 26.6727 18.952 30.9900505382
13.0701 25.0744 21.0082 31.393810289
18.1739 27.2038 18.7574 28.13050383
24.2075 24.9592 19.6466 27.438663937
20.7464 27.142 17.1558 29.554609082
22.5484 28.5928 18.7518 28.9702321968
21.7911 24.6656 17.8937 27.3026245907
12.6795 30.9424 17.9606 28.2890584719
14.9243 30.8671 19.8341 30.3568212467
17.8374 30.6025 18.9662 29.6241574599
20.1761 31.8818 17.4541 33.1778399871
18.9466 28.7434 21.2525 25.449124919
22.7425 31.5793 18.1242 28.1639233471
21.8342 29.549 21.1836 25.8421675815
13.1739 35.9686 20.4581 27.8601306372
14.2828 33.1215 21.0406 29.5451625937
16.2357 36.0971 17.3866 34.477688174
17.0613 33.5955 20.2437 33.2439776984
18.0665 36.4034 19.7839 31.2190040837
20.1915 34.5049 20.8466 32.0391611662
22.7558 36.146 20.1575 28.5764086569
24.0623 34.2323 18.3439 30.1414843197
15.5539 26.733 24.4997 88.7428905989
13.4983 24.6916 23.7208 32.562546984
12.3409 28.1246 24.1627 44.3167558604
16.8276 26.2765 21.4547 26.717666475
20.168 26.116 21.7446 28.8637059074
18.098 26.4577 24.0868 59.332520716
23.4543 26.5002 21.851 26.0744498332
21.5214 25.9072 24.1067 69.5926793972
15.3823 28.8439 21.7595 28.5079884149
15.0155 29.4264 24.2445 72.2536516126
14.2167 32.4719 23.754 47.7015907203
18.7913 31.7681 21.7048 27.6727118199
18.1123 29.4455 23.8537 42.4862062146
17.2727 32.3088 24.0604 57.5719758047
20.3416 31.1738 24.5963 100.5766528752
22.3535 32.2238 21.4363 27.3756169762
21.8555 28.835 24.2035 68.4479020623
24.6082 29.2036 21.6032 28.2701153623
13.8102 35.2129 24.2834 89.2680934204
16.153 36.5933 21.5291 28.1257974917
18.2772 34.7284 24.4347 98.4953859767
22.5219 32.9749 24.0048 62.1905889616
20.6538 35.0097 23.531 38.139165552
14.2938 25.4998 37.9887 28.7299438496
13.1228 28.4392 35.8895 79.9851851194
15.839 27.9729 37.2438 27.9139577219
20.4695 27.4157 36.2259 45.3965132303
17.8348 27.5843 35.4226 103.5742729149
17.1576 25.5406 38.6583 26.6700920192
17.7349 24.9885 36.1416 31.7182023742
22.2318 25.4248 35.8381 83.577571209
13.2351 31.9173 35.6884 79.592908679
15.6469 31.5237 37.047 29.1073251357
12.4185 32.3619 38.4233 27.0333219884
17.9685 30.5361 35.4988 108.2641742124
19.4926 28.6395 38.7015 27.6470790803
20.3018 31.8878 36.1485 45.9567809477
24.3355 32.2326 35.5318 99.6132461752
22.4556 30.0368 36.0569 60.2171553614
23.251 29.7159 38.7052 29.1206690185
13.6726 34.7616 35.8122 73.2242615141
19.5266 34.809 35.8544 90.1716830544
16.6257 34.3675 36.3183 52.6607393863
19.6302 34.0374 38.5921 25.7752565227
22.4149 34.3277 35.9208 63.22165474
23.1775 34.203 38.5048 28.6817879472
12.7512 25.8206 41.105 27.7868066166
17.4265 27.9442 40.3279 28.102451454
20.0507 25.3382 40.1846 27.0838799311
18.7366 26.2246 42.6367 27.1083688035
21.6046 27.8307 40.3171 29.625859651
23.6276 25.6597 40.6917 31.9506568518
15.5844 29.8539 39.2173 25.5586827272
13.4211 28.7491 40.92 31.1541022992
14.7831 29.6897 42.9215 29.2813927297
13.5483 32.1433 42.6953 27.4358479836
20.3176 31.3169 39.1923 26.3287114347
17.9194 31.2751 40.5849 26.8916122379
17.7315 29.6535 42.9889 28.7319978128
21.1904 31.4519 42.2368 29.9996768022
23.3368 31.846 40.1743 29.1170619768
20.7004 28.6239 42.8113 30.2210047817
12.9187 35.709 40.3987 30.4234117013
12.7619 36.6527 43.1135 28.6565414212
14.3146 32.9875 40.174 29.172589725
18.0467 32.8989 43.056 32.6227664862
16.9854 36.049 40.0571 26.5541451085
16.948 33.7218 39.2463 25.2520376218
16.6978 36.12 42.7648 30.6495849462
21.1706 34.3097 42.4943 29.7031088859
21.0478 35.5505 40.0003 29.3950746504
15.9071 25.9087 43.889 30.0700455086
13.5584 28.4786 46.4323 28.891761126
16.1086 28.0107 45.4868 25.1418092347
13.2005 25.3727 43.6953 28.5641483442
17.2491 25.5512 47.1245 38.2399807869
19.4366 25.9508 45.4594 31.6123811409
21.4229 28.541 47.1044 29.9187531596
23.9109 24.8383 46.2183 30.9287018354
14.2433 31.1633 45.5732 30.3619477937
17.1572 31.1746 46.3437 30.2827420972
18.6574 28.9197 46.4026 29.083422693
23.0638 31.8644 44.6718 33.1631732521
22.7627 28.9743 44.6047 34.4901747835
22.8244 31.0928 47.4851 33.3003517198
13.4289 34.509 46.2195 27.7857319283
16.0079 35.2284 47.4344 28.0552029961
15.2704 33.8401 44.1029 28.5756643833
17.9936 33.8763 46.1291 29.3914448248
