6.90233 41.7363 42.3582 26.3393213955
4.13241 48.8768 35.7127 92.2300871551
9.35972 38.5157 39.3463 26.9849562099
7.28775 42.64 39.8674 26.2871205042
9.45457 40.9428 42.4988 26.4476158453
9.20123 42.2289 36.0561 52.8118570225
1.28055 34.057 38.3525 28.6032982319
2.90862 44.4611 43.8696 29.9212161043
4.58763 35.8775 42.121 31.7582528874
3.57205 48.5617 39.8195 30.2553720567
4.39205 34.0526 38.559 31.8241041191
7.0912 43.9065 43.9554 28.3258606494
2.94515 36.7349 44.2675 32.325315186
11.0746 45.3888 38.8934 26.7909180018
2.45749 38.2399 38.655 32.0014529468
0.621601 39.8959 41.5516 29.5200157365
5.88193 38.3439 41.8623 31.4305147597
2.38115 36.0452 40.1692 30.8275148024
4.95349 39.4945 39.4452 28.0260828912
8.88148 38.1832 42.0211 29.0934653838
11.3821 37.3889 44.05 29.0139476069
5.28386 42.0318 37.9639 28.5603066858
0.942138 42.3088 43.2249 29.6007366613
9.48962 41.3844 38.9013 30.1945284336
4.77644 44.4414 41.6407 28.2747750114
11.3718 47.5183 40.7472 28.7288076467
6.7246 43.5204 35.745 83.133968916
0.659422 37.4058 43.1464 31.5928906646
0.279668 40.2969 36.1531 46.1669890275
8.41524 44.7941 40.2759 28.491317843
4.62252 45.9212 39.2019 30.1919040391
11.5572 34.7023 45.2094 35.1223148548
5.84693 35.2116 35.8085 86.3322823888
0.88031 32.9901 43.1405 29.7557791305
1.30722 45.3556 41.0444 31.1817526792
8.91611 35.482 43.093 30.5181321936
4.1525 40.2179 35.6878 79.963458585
2.35473 34.2073 45.2672 29.7775091321
8.83277 48.3693 41.7644 31.7659750641
11.6826 43.6004 35.836 68.9018632486
2.24863 42.4904 35.528 100.3181412973
7.1312 35.148 38.7841 32.4376410915
9.99515 40.026 45.0809 32.6358747095
11.4903 46.8085 44.9409 29.2520482907
8.5534 34.0809 36.1393 61.5510614092
7.09501 46.1023 42.2583 27.7026316595
2.88458 41.0144 41.1156 27.788266321
11.7705 42.9656 39.9736 27.6499503236
4.75755 40.4586 43.234 30.4795616365
11.1048 35.4483 35.7859 102.3474007073
11.3262 43.3478 42.7153 27.2725611171
3.77709 32.6881 35.8833 69.098956052
2.93599 45.1033 52.2427 29.4828892244
10.0289 48.0527 50.0364 30.3004891568
1.84543 41.2555 46.0357 33.897420911
7.29035 34.473 48.0022 30.8603301078
6.18675 47.8386 54.2075 27.4362516667
3.12238 42.3746 51.8506 27.0669178864
3.63093 44.6277 55.2411 28.9254652687
4.18366 46.6164 47.7566 31.3061373924
10.1191 47.1183 53.7675 34.0524613672
3.94601 44.4169 46.6667 26.094453837
2.13745 35.8645 55.5428 28.7278436674
4.20319 34.7234 47.6508 32.5634978768
8.80969 38.3351 48.9695 33.2526811635
7.19568 40.6306 50.0398 31.3276073893
7.93635 44.6134 54.0914 32.7300085422
3.24974 38.2879 46.9159 29.6576416306
0.746754 45.3166 55.3641 29.4440166646
4.51546 39.963 48.9866 31.1507882728
9.98192 42.4446 46.8936 33.0123173161
6.04953 46.3163 49.8602 31.3497972661
4.26182 32.6389 49.7219 29.4210989428
7.78739 42.797 48.3546 30.7023273132
8.01216 38.5257 46.2675 34.8097145716
11.8185 39.1201 53.0011 31.854467622
4.53102 37.2639 56.1555 30.7673300933
2.16667 34.9182 53.1419 32.8327803664
6.76573 40.5851 55.2063 28.4026073053
8.38303 38.0118 55.2283 27.3605335652
11.6222 38.5182 49.2818 34.738639527
0.273978 37.9513 55.7492 32.9255477953
6.04051 36.2146 51.9662 32.1015136927
1.27456 40.3148 51.9961 28.3382185706
8.1682 36.1204 50.2141 27.6302138719
1.93372 36.6711 48.7889 29.092938856
5.58395 45.6484 52.2723 26.7358357439
8.9458 43.5382 51.3831 32.1703342779
7.79952 33.8208 52.7384 28.1020184102
3.37759 38.3906 51.2878 31.8999099061
0.277988 44.5687 50.6671 27.5410775139
1.49854 47.7477 51.6497 33.2785236413
11.3876 42.0921 55.7445 31.6081390073
6.02872 42.4882 52.1608 28.9589529349
8.64565 45.7407 48.6435 30.8798017468
1.66862 40.4654 55.034 30.2500235766
11.202 45.3739 50.2969 29.5513093456
12.1401 48.4276 51.9896 29.783137885
5.82708 42.706 46.0612 29.3600372024
10.3951 34.1651 49.7763 30.4478629043
3.64159 35.0892 50.9054 29.7899341549
9.5462 37.5237 52.6041 29.9807678423
3.84164 42.5115 49.0786 31.6709388731
4.95894 38.7203 53.5065 32.8912129137
1.25385 44.0908 47.6003 29.6794764303
11.4549 39.3663 55.9291 29.4011008068
1.38597 47.1166 48.7908 32.3712940197
10.2491 34.8376 53.9903 30.6890701263
6.82941 35.8064 55.0737 29.2871065119
8.64177 40.5053 52.7756 30.9340407122
0.123796 47.941 55.0819 30.8364646217
0.0461422 35.7702 51.2899 30.0555141837
4.31468 42.069 54.6829 26.8177691429
11.2998 42.0243 52.6933 29.4000999005
6.07766 45.884 56.1061 31.5914053
8.75462 42.6932 56.1576 34.1894587188
11.7585 33.3443 55.7577 28.544934512
9.21188 47.4739 46.2877 29.1158550232
0.591094 39.6423 47.8627 28.4393459746
0.049123 41.9619 49.8467 27.0915429464
7.99178 48.983 52.3051 27.3320430434
0.504354 48.7179 46.8323 29.0203213057
5.37091 39.9056 46.0025 30.2322015338
12.2936 43.2132 48.3023 29.3746391427
0.238083 34.6256 47.1678 31.5776174134
10.7112 48.7582 56.1294 28.3792015035
3.87174 48.9152 52.8039 34.257854353
0.46631 33.1802 56.1899 30.4156855378
11.5149 32.7437 47.1944 31.7242798461
6.07308 47.5194 46.092 31.6812607364
12.3862 10.0799 10.9786 29.4915010064
12.6281 6.54198 6.75437 34.5548598714
14.665 12.7409 8.44307 34.8222752787
23.5817 15.5856 7.86243 31.6051570647
14.1088 2.15974 5.37406 33.2909734428
17.4808 15.6283 5.91223 32.0721815386
23.3327 7.94282 6.47638 31.3495341682
20.9332 5.83773 5.74781 26.4199174673
18.0051 2.16931 6.16718 39.2901298306
18.1544 5.02653 5.47214 29.0008280929
20.8942 14.4819 9.67647 31.4583210744
15.4837 11.3013 4.4573 29.4292526092
16.6174 12.5258 13.3403 33.6672096619
20.4648 8.68763 5.38121 33.3382068201
18.1484 12.4965 5.35754 32.7741278681
12.6621 7.34712 12.3585 31.789594924
14.6612 8.52908 6.95665 33.1782468756
15.3052 5.47418 3.58464 28.6519927418
13.5605 13.8708 10.7301 33.8943415842
16.5228 5.54041 13.5453 31.9699875111
22.9785 8.9682 13.9034 31.8205583498
23.8037 13.963 10.3755 28.6871001804
23.5442 1.83237 3.58048 28.4693899649
13.578 2.08023 8.83616 30.715475232
14.8615 16.0888 11.3471 33.4011720367
23.4266 1.4147 10.7964 32.0611314436
15.3949 8.25683 13.3712 29.2494118351
16.1341 1.15916 8.67927 38.5798847674
22.6073 3.29722 5.62387 27.392791624
24.0533 6.16859 8.47997 33.5636161816
23.0798 14.0569 3.67381 28.3451516438
14.6899 4.53833 9.37984 30.1826427113
20.7545 1.61226 6.84945 32.1884743173
21.5079 5.36251 8.40184 29.2530468264
20.6364 6.93101 10.4406 33.308127502
17.693 6.51975 9.80292 33.2072112234
17.8134 9.34966 6.18546 32.5763281966
21.9804 9.27301 9.75927 32.2227378468
20.5178 10.4157 13.3778 30.5483303101
12.9966 3.01495 13.5245 27.515328552
17.1689 13.7832 8.08646 30.6425993726
20.8486 11.5859 6.68256 30.7438349629
14.8876 4.804 6.58366 28.7854842609
21.6218 14.0765 6.34745 27.7740194849
23.4988 10.6073 7.38134 32.0887406651
18.1952 14.5195 14.2128 28.7387203258
15.1047 1.84717 11.7915 29.6690177304
19.2461 3.20402 11.3366 35.3798089543
19.7097 0.586465 11.7445 32.8121391479
13.8519 11.9316 12.5646 30.8042526373
22.2881 0.440982 13.143 32.7972516763
13.1234 12.5122 5.88919 35.225164954
21.4803 2.77013 9.23297 32.9986247385
17.0525 6.97643 7.33821 28.5817469769
16.6116 3.91398 11.2717 27.2996316263
20.826 5.18995 12.7546 32.101678824
23.4751 6.20608 13.4158 33.5501134991
14.7224 10.1556 9.26398 32.4323014581
24.2334 7.7154 11.0077 31.063803803
19.2665 12.0671 8.93971 31.4318823349
18.0707 11.0553 11.4358 33.1880372491
16.6986 8.91268 10.7448 32.1230399457
12.5593 9.88093 4.53043 29.6450557171
21.9552 11.6596 11.1469 27.2495702908
18.1381 16.0031 9.61855 31.5567226507
22.0705 14.8837 12.6515 28.4018485325
15.319 0.142452 14.063 32.1129047614
19.9959 16.255 7.1493 29.2073358157
16.4229 1.89303 3.54939 29.5200932551
24.1254 13.3268 13.6524 26.2779619438
20.9903 15.9752 3.73526 32.3375199243
19.1848 15.1859 24.331 72.0876982795
16.3035 1.65679 16.4974 32.0007046781
21.438 7.77973 21.0755 27.7799759226
22.1733 1.81973 17.2837 30.313556372
13.5892 2.98495 19.3455 32.3842672109
15.9109 15.5812 24.2956 81.5106600068
20.6038 12.9482 14.3099 29.2487565271
13.2524 6.04138 16.2667 27.9875285443
20.1325 4.27147 16.8709 33.4774405845
24.4214 3.62305 21.1152 27.5130081101
15.5193 3.9786 23.476 35.7286608596
24.1827 1.15242 24.0267 61.3883394708
17.2093 12.6698 24.1219 67.9798518574
22.021 6.1797 18.7104 28.2816598701
16.1683 10.6915 15.5405 28.0545233954
17.3923 9.9086 19.0072 22.9852130325
20.5228 0.123209 18.7485 26.4180093228
24.5679 7.22479 17.5606 28.2108515569
24.6202 0.665039 21.1545 29.552149504
21.3519 8.07024 24.043 66.2171879647
15.5746 14.6542 18.077 29.6484985728
13.7531 14.5215 21.1572 29.6056729647
20.4798 15.1661 18.1821 33.7990762869
23.7799 9.05257 20.1204 25.5895011571
24.2942 11.835 17.979 28.2548066221
24.728 10.7709 24.254 76.5731760197
18.3091 1.30974 20.1312 28.7797503648
20.3232 2.22064 21.8791 27.8324695873
17.8721 15.4928 16.8766 29.3671320803
21.7961 4.48081 21.594 29.9847934741
16.3403 6.06014 17.4945 27.6669646082
17.9439 3.17517 18.0101 28.157147353
19.0679 6.21218 18.6672 26.5767003474
18.9579 8.52783 17.169 27.628399969
21.8302 9.12717 17.5208 30.3692029381
15.3151 8.48223 17.9375 25.3727163376
13.7876 11.3734 17.5385 27.8081201485
16.7269 8.79441 21.5298 25.3187583983
19.7179 10.3094 20.6794 28.1544464974
17.2295 1.63049 24.1713 91.2252178286
14.5875 6.77125 21.5315 29.2914243272
15.2445 12.3481 19.7004 24.9837680835
17.7379 12.0935 17.4586 29.4604018545
20.6279 12.1006 17.2527 28.1657294237
19.6365 14.4715 20.8852 27.658187733
21.7137 13.3988 21.8561 28.5688435423
22.0748 11.5099 19.6715 25.8950527669
24.2691 14.9304 21.6749 29.6679099781
13.7969 13.6166 23.6676 42.8000386393
18.9742 6.12692 14.8548 33.0446833085
19.7792 2.74014 24.3535 86.6461523525
16.9293 9.19039 24.3246 79.8683036336
16.6532 6.3422 24.5761 113.3991877038
24.0295 13.4201 24.397 96.8945881909
12.6262 7.42746 23.338 42.8702186107
15.6425 4.78774 19.7809 26.3389019981
21.2013 12.7158 24.3951 90.7994259025
13.5141 8.74829 15.5454 27.3804773552
17.4048 3.93831 21.3639 27.5700137627
19.5144 5.81893 24.2651 69.5052390858
18.5379 6.56908 21.5686 27.4851923585
23.166 5.09498 24.0796 62.9100481254
22.7603 13.6984 16.3185 28.5630368742
14.9277 4.15011 15.1493 29.9574549762
13.2987 14.1298 16.6261 32.4722322579
12.9618 8.17031 19.4802 28.4718851903
14.7919 11.001 23.9117 43.7486064643
14.3022 10.2953 21.2644 29.0148572175
17.7758 12.546 21.2665 29.9323499384
19.3862 10.2689 23.7241 42.1845549588
13.0327 3.05934 23.9604 61.0764314845
13.9531 0.559697 18.0067 30.627344613
18.1758 8.91205 14.3898 30.1455714631
23.6465 3.74626 18.4429 31.4271651328
24.22 7.77524 24.3872 85.3064340422
22.1681 2.77015 14.4739 34.0124269264
16.3642 10.3798 44.6231 28.5366520958
18.856 3.94927 35.7657 80.9951339142
12.6528 8.29974 42.9641 28.3364592621
12.2737 4.17622 41.9954 28.7932676293
23.032 0.381182 39.9805 28.2750037886
17.351 15.2502 35.7852 70.2670842427
13.7067 10.8535 44.0788 26.8331471927
21.8177 3.78767 35.9598 68.3626249935
24.5124 7.78183 38.8963 29.3854170248
17.4318 6.56414 36.0375 50.4965532592
17.1163 2.8589 38.9795 25.8761133706
21.6339 4.12482 39.3951 31.1813180959
15.078 10.0336 35.8656 66.2139235228
17.0691 7.97046 44.1388 31.2898633089
14.0641 10.0385 38.7259 28.2473012591
13.4627 14.7861 45.5249 31.7600225654
19.8601 11.1297 36.4879 34.5675242355
20.5845 10.2554 39.1629 31.0099018129
17.1525 12.7485 38.647 29.5607946551
12.7541 14.1943 40.1584 32.5506085039
22.4428 12.4154 38.5241 26.7514072074
14.5362 15.8332 35.6524 78.2951712704
14.8138 15.9867 38.6671 29.5707163678
22.4141 11.9534 35.5507 98.2333841548
14.9178 7.33786 35.7536 88.0258755285
13.5616 11.4532 41.312 31.7545557483
17.2052 11.9723 35.8923 84.1875287038
19.7271 13.9376 37.5464 26.2460565025
21.5528 14.9714 35.4628 96.7658534145
24.014 10.1861 41.0379 31.6574595688
12.6783 2.61775 39.659 30.0369662262
23.3387 5.83253 43.0472 29.0050721308
19.8181 2.34466 38.285 27.972287475
19.0281 2.10642 42.5819 30.8124589545
14.5599 4.20075 38.3168 28.7898866631
12.6495 11.0812 35.8038 79.4911894874
17.5576 6.05899 38.7862 33.5671728345
20.3588 6.53783 38.7138 31.7592269381
21.197 14.7345 40.3016 28.469727568
16.5334 8.319 40.165 35.0578085468
18.2658 10.7547 40.2184 33.1086706849
21.9788 8.05684 40.4552 29.1597349006
22.2239 12.29 41.7853 32.3741881343
14.6848 14.0762 42.953 34.2564912789
14.2812 6.76017 38.6509 26.2702324573
17.6008 14.3022 43.4295 35.7037866589
17.6915 15.5684 39.091 27.4750168306
14.2912 0.859832 42.247 31.8260886272
21.5377 2.47587 41.5575 31.249347364
24.0185 8.13409 35.8177 72.3405232231
13.7502 2.83624 36.0339 56.7658552062
22.7133 3.28952 43.6444 32.0553661256
14.7925 4.46376 43.0978 30.4277171303
21.805 12.9117 45.4656 31.2170253375
16.5026 2.7324 41.7053 32.2218317779
19.3488 8.24291 45.6215 27.5012290604
18.6139 3.11388 44.9744 34.8880515049
18.8267 15.8955 41.3656 29.840582167
16.5684 0.203174 39.1727 28.4339153039
24.0137 13.8276 43.4763 34.3979306655
14.6543 4.37304 45.7913 31.9624821082
20.7866 7.52124 43.1531 41.0407070596
18.2906 11.5849 42.9077 31.8242356812
15.2536 7.03722 42.2355 30.9656508237
20.6453 10.5711 43.9619 34.3765761563
21.7022 6.79099 36.0471 54.6060975545
23.8687 3.12937 38.1564 30.4303428403
14.3855 12.8189 38.3293 27.6805783775
16.6908 2.2827 36.0311 64.5724106807
23.7211 15.5312 38.9169 31.2425419549
22.795 16.2563 42.5518 30.4276923193
19.7478 0.638076 35.9226 93.4502057333
22.0196 6.81858 45.799 31.3852901483
19.4699 8.23058 35.6738 100.0178493257
17.3901 1.01784 46.001 33.2153702968
16.0695 6.74407 46.4437 27.1607709588
16.4327 16.0597 53.7133 28.5136589714
23.1118 8.10057 48.0973 32.3821222633
21.3985 1.84812 47.8978 29.7360121724
17.2059 8.35937 52.3507 29.7364255552
12.3851 9.42575 48.8762 26.4074565713
15.2477 15.2094 49.3972 27.1877651962
15.8661 15.1882 46.8109 30.386122245
18.508 5.69664 46.8114 31.1928337734
23.9378 0.862218 48.3145 37.8296734991
14.535 8.11026 55.752 29.067439133
19.7585 11.0205 46.9756 30.4374676572
20.825 9.40755 49.1923 29.9187833168
16.3295 11.2483 47.4462 29.3127113545
24.2049 13.6211 52.366 33.1511116403
14.4611 1.08094 52.1965 29.0837468055
18.717 14.4214 56.2257 30.5659333261
12.3558 5.95828 50.0356 30.5894785676
15.003 2.12074 47.3088 31.3503300781
14.9802 3.65968 54.5451 29.36043833
13.0742 0.415835 46.5638 31.2941609446
15.7385 5.05036 50.0369 30.4839655774
14.3157 12.4199 49.2163 31.9205523424
19.7891 14.2588 49.4822 29.7560898135
16.9346 9.34869 56.29 28.815344685
17.4268 2.16184 51.4712 32.4291310262
14.502 2.61342 49.9747 28.3380546263
14.7992 7.4418 48.9302 26.216191813
16.3524 5.72744 52.9731 27.6781552871
18.6595 5.32713 49.5245 31.9069010865
13.1742 13.4486 55.2027 27.7822516912
17.9458 11.9541 49.9058 30.6780445098
17.9139 10.7166 53.8053 33.9800579227
23.8766 12.5327 47.1299 31.2498088603
19.4377 7.79199 50.8283 29.3645174887
22.5466 12.5058 54.447 33.0570794213
17.0626 8.91676 49.0912 30.0067858187
23.0946 9.93842 55.131 32.7673175267
12.8984 1.47557 55.8012 28.0457020463
23.5908 11.9231 49.8506 30.8993690347
13.8341 9.71452 51.226 27.5776019429
14.1171 7.64943 53.1437 27.8646900698
18.0187 2.27193 53.998 26.1577101921
22.6159 5.66107 56.0971 29.1624082925
20.9845 11.7081 50.8244 30.7879834209
22.5584 14.8482 50.1831 30.7961789644
17.7902 6.56175 56.0075 29.2876999646
19.0791 15.4448 53.5259 29.9295197189
14.7554 14.3451 52.2042 28.1048345803
22.6574 4.60032 53.361 27.6054755891
19.0899 5.06446 53.8789 26.300415563
20.6352 1.14449 55.9564 30.9147571043
20.6532 2.99024 52.2086 28.1853134549
21.2122 6.98436 53.0009 30.7161953928
24.6139 6.13606 51.7236 34.3986739861
20.9408 3.80864 49.6597 30.6794495208
20.1635 14.7869 46.7095 33.8789693462
15.6865 11.6361 51.8535 29.8077567009
23.3778 5.33929 49.2116 34.9477859517
19.9814 12.6951 53.4868 33.0763651456
13.5964 8.85989 46.2971 30.2515220583
23.6626 8.76107 52.3212 32.4169061707
21.3352 8.1745 55.7097 32.0590047245
16.0862 12.9331 55.055 29.1544466924
17.9123 15.6407 50.7728 30.2392338888
21.2923 0.324794 52.3864 35.9180530246
20.196 3.95393 56.207 27.8211581495
15.3609 15.6238 56.3139 34.4248959568
18.0756 13.3273 46.0836 26.7964922861
21.1311 3.87496 46.1064 31.040436546
16.2261 20.3134 5.05115 32.1642077788
21.2218 32.1818 10.9893 29.2376319114
15.5856 28.6601 4.38513 29.6218940964
12.6571 31.2672 13.8829 29.7222583111
20.721 18.6051 5.72798 33.9429015252
15.4793 22.223 13.8481 34.4227109584
19.2901 22.7835 4.50813 31.2892455388
18.9896 20.6387 6.27874 32.4214493584
18.5378 25.8511 6.28406 28.4602190489
22.8912 23.1241 6.7555 33.7400464213
14.175 26.2804 7.56919 33.2900417519
17.2681 23.2752 7.78602 26.4131028641
13.1674 18.3246 12.1474 33.0516434175
16.3323 16.6916 13.726 34.3048882639
23.3567 25.4633 5.06644 29.3782232882
17.5838 31.9366 5.06708 31.4965754991
13.4283 23.197 6.98822 29.4923719341
13.8528 30.5754 5.70774 34.1733197399
21.8787 31.2198 6.21565 27.2548855112
13.424 20.1387 9.68417 30.3864860959
13.4154 23.3952 3.71381 28.9152133035
24.5058 30.2908 9.82707 26.84374212
21.9386 29.5695 12.8921 32.2778202612
15.788 18.0726 9.27109 32.8340250174
19.0629 31.264 12.5544 30.8593486309
19.4698 18.3602 10.6536 32.3245556277
20.0499 27.675 12.7784 27.5921499438
24.1409 19.4439 9.56279 29.9146803022
21.0521 22.347 10.759 28.133538641
22.3468 22.2616 4.05365 30.6527890045
14.5855 23.5899 11.511 33.0625748961
21.151 28.8635 5.06792 28.5955331169
17.3961 20.3069 10.4771 28.9385612074
20.7197 24.1737 8.36478 31.3852526302
14.5155 29.7578 12.8183 29.2800970916
16.7805 26.1659 8.68682 28.2473935149
15.3765 28.8724 10.1089 31.0275280993
21.4308 26.6647 6.81612 28.5514838954
19.0183 27.4924 10.3224 29.3164884285
17.6688 25.1075 3.93496 27.534583413
21.3609 27.7016 9.13024 26.2106060754
23.3131 23.5926 10.4687 30.7958817085
19.7129 16.5552 12.8149 30.5548319856
17.5935 29.5334 8.87242 31.6736979867
24.3876 31.5918 6.82535 28.3366812199
18.3268 28.7952 6.16885 30.9063606413
13.518 20.1904 6.44642 26.7672149443
23.3729 27.0055 10.636 28.7044224303
19.1117 21.6461 8.82009 27.3078928547
15.1836 22.1496 9.4748 28.0034720063
14.2125 27.1489 13.0766 30.746511368
23.1846 18.1523 7.41307 31.5242708133
13.6391 30.0272 8.69797 27.2283671687
22.9721 19.7574 13.1721 31.8200150387
14.7447 26.0843 4.91716 28.6661062679
17.3649 24.9543 11.2845 28.7243023774
19.17 23.4629 12.4546 29.6220266654
23.5851 24.6911 13.0693 30.514332687
21.8211 30.3967 8.96442 29.0390966961
21.9096 19.6795 10.6734 30.9104957983
15.7551 17.7879 6.61188 34.4512697722
17.7553 21.0423 13.0112 31.455964152
16.0032 22.969 5.40931 24.4958949289
12.5749 25.6985 11.2865 30.8524766859
20.9564 25.2946 14.0423 30.2062462606
13.511 17.5306 4.45274 32.4808706231
18.8244 32.1571 8.78666 33.9286660095
16.9487 30.0786 14.024 28.8943255565
17.0013 26.282 13.71 29.380362206
22.2259 22.0165 24.5629 124.6940604694
15.5252 19.1315 18.3987 33.6738651052
21.0246 19.9488 15.4061 28.4041927358
18.679 18.8841 14.6426 32.3624596328
23.0023 16.5546 17.2646 28.0565411575
21.5677 27.315 24.4289 85.7242383107
17.6447 18.1756 17.2321 30.5270148188
13.6566 31.8335 24.3681 93.4881658186
22.6371 23.7946 17.1922 30.7760950313
23.3357 24.4894 23.6876 39.0061091773
16.5483 32.1122 20.1146 30.4842334384
16.4435 24.23 15.5789 32.11131757
18.475 23.6494 17.0361 32.5565628627
14.8959 29.2111 23.9035 52.3119637137
23.3632 17.0193 20.3094 29.1344812196
21.1299 26.7033 16.5128 29.8972840569
14.6796 30.0121 21.083 29.1455222999
16.2985 32.3899 23.3156 33.2584643468
23.7402 20.6735 19.8203 37.1386140595
22.8489 29.4441 19.0393 30.8844057923
19.1581 30.5397 18.449 31.8031235169
17.3991 28.6164 17.5219 28.6486273982
20.5206 28.6408 20.2439 28.2627554751
24.1452 25.0135 21.0048 27.9087128979
17.811 24.4517 24.2609 74.9852294015
15.9535 20.7586 20.6775 28.8751364536
13.4175 18.7256 16.7087 30.4313051658
22.4466 29.3082 15.9235 27.8761402626
13.1087 30.1843 17.9291 24.9380829443
22.1496 19.2377 17.9364 33.292448089
20.7469 17.3503 21.5876 31.373537617
13.08 20.4687 14.2282 31.6435522177
12.9832 17.8127 21.2132 27.9006606117
21.0055 31.5652 16.4855 35.6645865036
19.5439 19.0329 18.9886 31.3614480612
18.3598 21.6027 19.3126 33.7785756905
20.5838 22.408 15.7478 31.6056410639
22.3225 23.2282 19.9403 31.5229684403
15.4818 16.756 20.0961 28.9333189787
13.4882 27.0771 17.2801 30.9238903789
15.4254 27.9597 19.4275 31.9812380087
18.8904 26.1661 18.3723 31.3781106158
24.1564 26.4925 17.0864 32.1900862841
18.9363 25.8842 21.0892 29.0898001411
22.8431 19.009 23.956 57.717188797
14.2263 18.256 24.4737 89.7555698699
13.7947 16.8046 14.8114 31.4269004655
21.8702 26.5756 21.7394 29.1048062366
17.8042 29.6498 24.0416 68.0418472535
14.9365 26.295 24.2037 72.0810173887
15.4415 30.8874 16.377 30.7525100807
15.8267 20.5035 23.8822 42.2423446661
18.2193 18.9952 21.8615 28.0021516362
18.5196 19.6787 24.3489 86.7336562993
20.2044 29.8201 22.6213 28.0034497434
18.4635 27.9512 15.2313 27.6799971449
24.3988 22.4618 14.7524 31.9903701851
13.261 20.6763 21.8964 28.4329510017
15.1166 23.2634 24.3508 77.1200717793
15.4072 23.5985 20.0338 33.1656959131
20.0725 23.3495 21.1712 31.3171560452
19.8119 22.5309 23.761 40.9958483269
22.1154 31.7301 24.1024 53.6646635299
18.7588 27.0181 24.3016 73.7192409216
20.2067 17.6336 24.3304 77.5379287668
14.2438 24.3968 17.4711 35.2321404831
19.2353 32.4722 24.3238 101.138213714
15.9658 25.7709 21.5873 28.8704132548
13.0344 23.7654 21.6055 25.9693845593
24.6772 27.5503 20.0085 28.5706625683
19.3177 31.9262 20.936 30.9587938212
23.0841 29.3813 24.5628 103.8307736506
24.1259 31.7645 19.6852 29.6392206979
12.8178 26.5154 21.4003 28.9682033651
17.4233 16.4935 22.0373 28.5081425496
22.7248 17.2626 14.5018 30.6523663262
17.7146 21.8955 38.3254 28.2779868801
14.8243 18.5554 35.5561 81.4313425485
21.0807 22.4008 36.1317 48.9856603735
22.6377 23.5828 39.7564 34.4924513305
12.1037 18.3544 44.4581 34.2108614939
13.0512 30.2339 45.0027 29.6227356763
22.0817 19.4211 36.0013 67.6216055066
23.6446 16.5419 45.3402 28.7383025304
19.906 24.9677 36.3188 50.4460837918
18.2016 22.3879 35.5615 94.5995672565
14.1796 23.1051 35.8345 66.9923257647
20.6344 21.6142 38.9677 29.0621620812
23.9258 28.2242 44.0332 29.1498609856
17.4898 31.9402 43.5768 29.3144052249
19.7791 30.0065 44.4676 33.1214336275
24.2559 19.2496 43.5149 27.9123481371
18.0941 32.4518 36.0185 65.0000598493
12.3042 20.5582 38.8716 26.6910725149
15.258 27.4258 36.1797 42.3695192467
22.2897 30.1163 40.0015 31.6532026319
14.7667 23.9642 42.6322 31.6347655191
18.6188 25.5167 39.2109 31.8278335404
20.7498 32.4814 38.7868 28.1694920102
13.0617 21.4531 45.5991 30.8189333412
15.979 29.9838 35.8271 85.7971832876
13.2625 31.2093 35.7449 82.5764050493
22.91 32.2935 35.8867 80.2682037444
20.1707 30.0674 36.0613 62.3954663941
13.9432 27.446 44.4206 31.2705191327
19.5593 17.2232 35.5774 74.9552476784
20.6615 26.0936 44.246 30.4107623853
19.5193 29.2754 38.8803 28.8173744344
20.716 19.6927 45.472 31.0515784338
14.1013 16.7609 43.0857 31.3619535085
14.5328 32.2736 43.782 28.3779850956
20.6165 18.037 42.9715 31.9195737411
15.3793 21.4277 43.9795 28.465419398
15.4377 19.3068 38.5091 28.0608182432
17.7601 19.2003 35.8246 60.2142150219
22.465 19.3115 38.9409 29.380664191
12.9575 17.5434 40.4882 28.7699406096
17.1952 23.5642 40.6044 34.1019702349
18.6291 21.6634 44.5116 31.1062955845
18.1435 18.7874 41.6571 28.5840961691
15.9169 29.387 42.7511 32.9915769293
22.2357 30.2001 43.0038 32.4957892722
14.465 19.9505 41.0964 30.4843142453
16.3091 26.9978 38.7686 28.5565568004
16.4081 29.2809 40.0664 29.926840968
16.3193 26.3839 43.5535 33.2111326254
18.9611 21.3066 41.7335 30.7541127238
20.2732 27.4186 40.4575 28.7458229291
13.6573 31.537 40.9688 30.3711521149
12.494 27.223 35.9845 64.6438809379
14.9155 31.0877 38.4956 26.6651499479
18.8763 27.7828 42.9611 31.1023424967
22.2993 26.2026 38.9391 31.915248561
18.2903 31.839 40.4351 29.5642088722
18.4567 27.6053 36.3351 53.571312207
23.2575 16.8902 36.1017 48.3160974162
21.8741 20.1039 41.7441 26.8696556345
16.0711 18.6777 43.6678 29.2638361287
22.7262 29.2377 35.5356 109.7044478984
18.1977 18.8862 38.6816 26.7362181659
20.5172 23.6879 45.1739 28.1879355833
24.4001 21.0253 36.0953 60.0593475751
22.6042 24.967 42.5216 34.5076659937
23.6738 23.8545 35.6355 102.420841458
22.4114 22.3948 43.3567 27.4805698388
14.6284 22.5789 38.5219 28.5090483972
22.4541 26.3048 36.2808 47.0620161182
14.2165 25.2022 39.7111 32.8033967707
20.4357 17.1393 38.4059 27.6784196192
16.4311 24.9393 35.5261 98.3743637524
12.6174 20.4912 35.682 80.0701003329
12.5459 17.6934 37.4011 25.0057466386
16.0951 19.7878 50.7924 31.8288945995
15.178 18.4932 48.5082 28.7470820491
16.2581 22.6654 46.5039 30.0928861442
20.9485 30.9522 56.0616 26.5995433637
22.818 27.8225 55.9423 27.604133669
21.1047 18.8452 51.3871 35.0892031349
19.5607 32.1144 52.9125 27.9617455325
15.4826 32.0572 53.7616 30.2099367271
13.0297 25.5058 46.2847 29.5496984783
18.342 21.6298 48.0367 32.9732984122
17.3187 22.2694 50.575 33.7499054817
22.5167 23.1676 47.896 33.0640377318
18.7997 26.2707 54.5272 29.4472127287
14.1782 27.958 48.1202 30.367739035
14.3653 27.299 51.0199 31.9905606493
16.5183 17.8853 46.1898 32.6841425122
17.7732 25.4755 50.3631 26.5563080989
24.0999 25.1872 47.0843 29.2310760223
19.7263 24.1916 47.8459 32.8444929194
13.0613 16.8374 49.7654 32.0126050173
21.2181 27.4037 53.5419 27.8004365708
18.6445 29.1171 46.9418 34.8694350489
15.0481 32.4081 49.584 29.1606326207
15.7494 18.6516 53.2633 30.8521757201
17.531 31.3161 48.491 29.8065577365
14.0941 23.4226 52.9118 31.4547412893
12.4801 29.6228 53.0888 31.4322529431
18.2193 23.5 53.1179 31.1914960348
14.3129 28.0107 54.9778 31.8092250058
13.6499 23.1703 48.0867 30.8062142641
23.7131 21.9823 50.3609 33.9556648641
21.2501 17.2379 53.5044 30.0060705949
15.2025 24.3239 50.4155 31.000442217
16.9509 29.7882 53.5356 26.8755252771
19.2817 29.1573 51.7479 30.6596067234
20.2647 26.9547 50.242 32.5672789067
21.8571 25.0173 51.7159 33.5194633285
21.1748 19.0291 55.6927 32.745883298
18.5328 18.3715 50.3546 32.405022108
17.2761 25.0748 46.0506 31.5719301301
23.2333 31.8899 46.1867 32.445299598
16.7603 28.9794 50.4091 29.8640251075
21.0777 28.519 47.9402 31.0219643078
22.8015 20.7367 52.7493 28.0214105944
16.9554 26.9459 48.0817 29.172792049
16.6428 20.41 55.1062 38.2284814435
13.7467 30.6725 47.6002 32.4928803856
22.4038 27.32 45.9973 28.6602920475
18.7291 18.7149 47.5449 31.8035117308
22.0393 30.9732 48.6909 34.0230343021
15.9627 23.2227 55.0564 29.0750323363
13.0436 18.7694 53.5527 32.09122977
23.8112 20.1724 56.1702 30.8457034348
21.3597 23.1815 53.6917 29.3284452678
13.1505 32.1092 51.7592 30.3116001859
24.2782 26.1509 53.4059 27.591817531
23.0811 24.5972 55.3833 27.676073821
16.7371 26.626 52.8625 28.6819904505
21.9187 30.1888 53.7288 27.9349804477
19.4898 21.3532 55.0302 31.9427419005
22.7728 17.5353 49.6957 27.0511321839
18.155 28.659 55.92 28.3475890987
23.9665 16.4771 53.4946 29.2675930479
23.909 32.3273 53.3054 32.2115518644
21.7557 17.4122 47.0007 30.0064413145
24.5618 31.1583 50.3234 29.7316216102
24.5525 29.1968 53.3279 28.5689669926
12.5508 21.2663 52.2488 32.050089005
18.385 31.5142 55.5129 24.0579564078
23.4074 21.1233 46.0766 28.0783402998
12.9374 19.5643 47.6881 29.4644084217
12.4288 26.201 55.9408 27.1580041844
19.9736 32.6247 49.2261 31.8150256003
23.1492 47.7126 9.36776 27.4734170804
22.3267 43.5958 11.7969 28.1281975222
21.6154 48.4831 5.34494 28.7707490216
12.8169 47.3145 9.23953 25.9163393868
16.2076 32.8037 13.302 31.6328724413
18.5837 42.0937 4.48204 28.1196683561
21.292 45.3725 3.89767 31.7873356465
20.2536 37.061 6.10175 26.1631493598
18.321 43.6339 6.74847 26.1765175141
19.7606 33.2789 6.53963 30.3251721141
24.0262 47.8787 6.74932 30.2128047003
13.7505 36.0691 11.303 28.7304379551
19.7447 46.6364 5.92365 34.5799225709
15.281 43.4212 6.33135 32.3864032356
20.5545 40.915 6.78474 31.9485541384
16.8483 33.9093 10.4797 32.860417551
20.2999 45.6427 11.8695 27.7559898963
17.3302 45.8866 4.43001 29.7863619096
15.1996 33.4506 5.53579 30.4759865695
24.25 46.4506 11.4988 28.4908027447
14.7987 46.1063 5.82054 32.977397245
24.4175 40.612 12.0044 31.5358197857
15.3421 38.985 5.3406 28.6023650329
18.4841 43.6063 10.2065 27.9901908945
15.6922 41.0558 11.0137 32.0434560697
22.192 35.064 5.85917 26.7858485035
22.7479 33.3322 3.82086 26.9674530356
18.2024 35.2792 5.29725 28.4017261196
18.5846 38.9888 6.99334 26.6382490812
16.6108 46.5326 11.0145 28.5887084217
24.2442 34.2498 7.41264 31.626859635
21.4834 36.5573 8.73429 34.4475114361
13.7399 46.3466 11.5197 30.8449872288
20.6097 39.8797 12.2433 29.3858953852
16.0815 36.5444 6.44346 28.98291346
18.6799 35.8242 11.8422 30.9126075169
17.242 38.9709 9.48639 30.0474433315
17.1776 36.3833 14.0622 28.7461010364
22.6329 39.1916 8.12971 31.8621381282
13.0094 38.5264 10.8178 28.3030422231
13.6653 38.5886 7.94429 35.6218704004
13.5753 43.1325 8.78732 33.9312055404
20.4948 47.5383 9.91774 31.1964816583
17.2535 41.759 8.41105 30.765668256
20.8915 43.4053 8.55029 30.6564477472
23.4002 44.9315 8.46886 29.5092298355
15.427 47.321 8.38231 31.5623376145
18.4116 46.0739 8.79841 29.4010589907
12.4879 35.5796 4.56594 30.6947030945
23.433 44.717 5.66765 31.5538215898
22.239 34.5633 10.8768 37.6204210394
17.5518 48.2592 12.6647 30.0236278899
13.6711 41.3903 4.86556 32.5554606425
22.9346 41.152 3.93682 31.1608387133
21.0336 35.4757 13.4557 31.248303259
14.319 32.9147 8.88019 36.1771160874
15.9656 36.3418 9.51863 30.2843525912
19.722 37.9634 10.3271 30.6929541359
13.4546 40.2905 12.897 26.5129592721
22.8384 38.69 5.13019 30.1966111163
18.4205 41.5304 12.5251 29.3108937495
22.0268 41.156 10.3357 29.3142431985
13.4636 35.6326 7.29666 31.7074768059
13.8462 43.5504 11.7469 28.9153520301
17.5937 44.5447 13.2159 27.0919108556
12.7853 48.8228 6.48205 27.9684637026
14.2265 36.4323 13.866 30.0127680594
13.014 47.5522 13.8678 29.7925061234
13.6734 37.869 3.414 30.5389332254
17.9032 39.2532 4.11456 29.6795825751
14.9049 47.7194 19.7397 29.4981392104
17.1661 36.5021 17.4791 30.6693978083
14.6229 42.9027 18.881 27.8321793422
21.3154 38.6755 18.505 33.7911289334
14.2657 47.4878 24.3208 88.8028235442
21.5444 49.0785 24.1559 86.6857698667
14.6463 37.4152 18.181 29.7704088004
17.9152 36.2123 20.236 30.8792132396
21.2086 38.1092 14.7543 35.5912717764
13.3338 38.6837 15.9749 29.2889838995
20.3623 42.8772 17.7945 31.5888616388
13.9051 34.5269 17.4046 31.680780806
23.4201 42.7158 18.4506 28.963489445
19.7484 43.1865 14.9113 30.5357713651
16.4662 35.3399 23.8943 61.748375444
17.5605 39.2787 14.2371 32.4915523504
24.0349 48.8315 16.4522 33.4062437428
16.3298 33.1873 17.5204 28.8217284304
16.9043 47.9708 23.6196 41.0177428272
18.932 38.4854 16.7516 32.5295436731
19.2634 45.2595 18.3353 28.6784740134
13.7245 44.5319 24.1196 64.6486846143
23.4776 34.5028 14.6548 34.7280728484
24.4819 39.0554 24.1303 75.8241997628
13.1121 47.5524 21.8141 30.9289257673
22.3693 35.3577 24.139 79.8474420652
21.884 48.929 21.1388 28.1887770543
13.5924 45.276 15.627 30.8566724298
21.6198 46.0094 21.0174 29.5688451372
21.9942 36.7799 20.4441 35.3012988262
22.2767 37.6706 22.9304 28.1813714307
13.3799 35.7376 21.6522 29.1714240628
23.5908 33.0027 16.9572 34.2272081356
20.9917 45.8858 14.5745 30.6976695418
15.2162 43.3917 14.3674 29.0483921041
13.5079 40.2403 21.019 28.6592787059
15.963 39.9097 19.3011 31.276631067
18.8236 45.9125 23.9672 71.0300898901
19.4791 40.6536 21.4309 27.3643447496
18.0703 43.2423 21.5477 33.1491490061
16.7242 41.9581 17.0313 30.9831975199
15.1779 40.3857 15.0013 27.4552153667
15.4452 42.51 24.1913 72.4844633994
14.1212 45.557 18.4637 27.2373471399
23.1748 43.5436 21.1782 30.7432208747
18.8118 45.9159 21.0565 28.4156431861
18.2217 48.8473 16.9011 37.2144917417
16.8823 45.2302 16.7732 30.6543030883
14.6773 39.7632 23.7944 45.5309781148
21.5992 46.1088 23.8756 62.5180977624
19.818 35.204 23.5715 34.1518318285
12.8123 44.6037 21.3259 30.3250797035
22.8012 33.5018 21.4253 31.4146995038
15.9091 34.8321 21.2458 28.6290644463
20.154 34.6907 21.001 31.7649735988
17.0303 48.0125 21.1181 30.203932576
22.1066 40.6378 21.2188 29.6275405189
24.082 47.2165 18.9049 29.4151233707
17.4781 38.6143 21.5981 31.2085983562
19.8296 33.0484 14.4137 29.865910415
13.4966 33.7545 14.5349 29.1617988252
24.6124 37.3258 15.5417 30.8517421746
16.934 37.9977 24.1715 69.7004939344
13.45 36.2437 24.2769 78.1189942212
19.6842 38.0988 24.3041 80.5491452133
21.3684 46.8466 17.479 31.1351115034
23.1608 43.7419 24.1503 81.2320316748
18.0946 43.2922 24.309 74.6213759518
15.2154 42.8851 21.5057 29.1889082753
17.7132 34.2841 15.4406 30.089555803
19.094 40.8887 18.7753 26.9211849723
22.2419 41.1025 24.3592 81.9554767959
22.9817 39.6048 16.4751 29.3912481118
19.257 40.9846 24.4992 82.0605830386
18.1341 46.5944 15.1637 26.568326578
12.4064 32.704 18.5911 28.8313619649
12.502 37.8665 20.3588 28.1614811628
23.5887 46.9703 14.1569 29.5468550402
24.5344 40.2285 19.4653 29.9474484133
22.1931 41.7626 14.2062 30.5972142862
14.1519 41.5599 35.2888 103.6957339375
16.143 48.4644 43.8393 31.2609295052
15.615 37.9097 39.0385 30.9822405842
16.5817 46.0666 35.9269 81.7538624531
15.3963 37.272 36.1867 43.8687583456
24.5858 40.1725 36.6838 36.6006413094
23.6944 46.7468 41.0182 32.4282248421
18.8614 33.9298 42.1566 28.4346781885
20.8024 46.7044 43.553 33.1215949248
13.7081 45.9929 38.6612 28.3767304764
17.1218 40.9908 42.4175 31.7236381732
14.6455 34.9303 45.5382 27.6978931547
12.7969 45.7282 42.5599 31.1126248531
22.2542 38.0838 39.069 29.1443866384
22.2452 37.9152 36.1839 56.1069789851
19.7136 36.4455 35.9599 68.9231110411
12.954 38.9311 35.7071 79.0627797082
13.3116 39.4486 38.3171 28.7398108015
13.7948 42.1827 37.9116 27.9049082177
13.5716 33.8432 36.5462 37.0859240037
15.5063 42.7838 44.039 30.7572854568
17.0243 33.1626 38.6247 27.1623388676
22.2624 44.6686 41.9893 29.4567860001
18.1964 43.7699 35.666 76.1508705198
18.7712 48.663 42.8814 28.7887156836
16.1771 34.6896 35.85 90.0836643878
14.2138 48.9023 35.8012 75.117454269
23.4274 43.7726 37.8576 31.8256893142
13.2289 34.0829 39.3877 28.8970211515
17.9807 42.6115 38.3568 29.0596308533
24.3498 40.8064 41.5896 31.8828373408
22.7726 42.5032 35.6082 104.964770721
20.8271 44.5962 35.8043 78.3414650748
23.1651 42.7716 45.6557 33.7060022959
18.4176 47.7265 40.3629 28.1512138065
21.4214 47.2234 36.4378 40.9679030159
19.2512 43.1673 42.2488 31.539258243
13.7129 48.6588 39.4953 27.9513700894
15.7477 35.4038 40.3702 31.1731146606
14.0047 39.3069 42.5095 28.8469386146
19.4762 35.3728 38.9249 28.4044747789
20.844 34.3889 44.1941 29.7233981574
14.066 37.5291 44.6545 25.4082052999
13.0302 41.642 44.0495 31.7701427755
21.5725 35.9399 40.6148 30.9968253205
12.5836 36.7519 41.4379 29.1005094146
21.0953 43.3625 39.7667 27.9516855546
18.5764 38.1422 38.7557 28.8974693853
15.8617 41.137 39.6322 30.5085160979
19.8309 40.5397 38.1371 28.9309920462
17.6562 38.4442 35.5221 88.512458012
19.4905 45.3342 38.4549 31.2232119055
20.5877 39.1485 45.0561 32.4260379512
19.4418 44.6544 44.6604 30.5913227537
12.6157 34.2632 42.7014 26.8625434549
15.3083 44.0943 39.9743 32.6331066587
21.8426 40.5508 40.4326 30.0323180786
20.5958 48.4072 38.7271 29.2412870798
24.0382 43.0952 43.0432 30.6482905326
22.9606 33.0118 43.1556 30.7671542925
16.5871 35.4543 43.0185 30.8945839654
19.9061 39.961 42.5609 32.0242346951
15.2894 45.5795 43.7286 31.2728798494
13.8013 46.072 35.9779 61.2860495285
16.7131 41.2595 35.5591 66.750358507
20.5934 33.776 36.1167 61.3674604711
18.9442 37.3446 41.5615 30.8466628559
16.9025 38.2843 43.8835 31.4855840333
20.9187 40.3011 35.7019 81.6230968173
21.9025 36.9994 44.4375 29.6243392038
17.412 45.329 41.3721 31.7857063231
23.1323 33.3946 40.1462 29.5864425468
17.333 48.7834 36.7397 29.8925428683
24.061 47.9865 35.8076 97.4651037516
24.2866 37.992 42.7693 34.6292284037
17.4864 46.2231 45.6449 31.3220818936
24.0478 48.3795 45.5579 33.1949403826
16.7956 33.1588 46.2456 30.9399722106
22.5718 40.3711 46.7043 32.7038221259
20.1454 42.8104 53.436 30.9253687677
13.6321 38.4968 47.0815 31.9346776652
12.8836 40.9819 50.2024 31.4055940781
18.2243 38.3804 46.4046 32.4445482592
14.2513 41.5064 46.9091 31.9055740724
19.6919 48.9582 47.6816 31.9307283241
16.7763 36.2621 49.1002 31.2717525393
15.3593 39.9708 51.0751 35.2437179431
20.1551 34.39 51.2824 28.0270613051
21.527 36.5546 49.526 31.676825367
18.7531 40.5785 52.8034 31.1887746924
23.9096 35.4672 50.6618 34.3584848023
16.7996 42.7661 46.5861 32.2470966131
12.5497 35.8208 49.9246 32.490688153
20.9436 40.6063 49.0045 32.6615678642
23.0471 36.3365 46.6821 32.4947452491
12.6323 46.1786 55.0938 32.7195188714
17.4592 43.7517 55.7619 29.8295484526
14.9038 42.4982 55.4439 34.7809480273
15.1382 47.3002 48.7859 33.9111043507
19.3612 36.0877 47.7219 30.7782548464
18.1348 34.7531 55.5698 27.6805161401
19.2614 37.4362 55.3525 30.3316959809
12.8922 46.1738 47.4556 35.817498569
14.0325 45.5071 51.2253 28.7651335815
21.7792 36.599 56.1705 27.9933325825
13.1823 34.8816 52.5468 33.7925987082
21.2519 47.4874 46.1079 34.1735961527
22.3291 35.1187 53.0598 28.7819895186
16.9185 48.6434 50.6108 28.8901295982
23.6313 44.3148 51.1195 40.5680491831
14.747 38.393 53.9398 29.8016423675
15.9382 38.7126 48.5977 29.3316806663
22.4575 41.6593 52.416 32.3391449632
17.8087 36.24 51.733 31.0104697857
21.0068 42.7335 56.1548 31.906358051
21.8464 38.9436 51.1381 28.9174923504
17.2256 42.1131 50.6798 30.7630259296
24.5431 48.7529 53.0133 30.0482267177
13.1732 43.8685 53.6277 32.3646885257
18.2257 40.9039 48.1928 33.4200106768
16.6616 40.1727 54.7128 30.1276744151
21.3398 43.4706 49.6942 33.4810373271
18.8629 48.5397 54.3164 29.3045641549
16.8163 48.1239 55.985 31.0525706819
21.4108 47.0355 54.5759 37.2541256339
16.9811 45.0873 48.2123 28.5057911976
16.1199 46.8477 52.7379 30.3207148861
19.5794 47.9365 50.3313 36.7687706151
14.5515 34.9653 48.3345 27.6717372528
19.1316 45.1161 50.1319 32.7472791029
24.0907 45.8099 53.1867 36.8706698119
14.3934 48.065 54.6508 27.687945675
16.8868 33.3314 51.9317 30.5774461665
20.6328 34.0859 55.0259 25.3820245756
19.4884 33.8394 46.4421 30.7282993781
15.7358 35.9568 53.9358 29.1153835298
19.5368 38.0818 52.8261 30.7737248019
21.3892 44.5873 46.8034 39.0261898822
23.9056 37.4602 54.2667 28.2781851992
15.0521 43.6488 49.468 27.7166377912
17.9607 44.5424 52.8775 33.8866191954
24.0158 40.1639 54.5324 33.3750104122
14.7213 33.9279 55.8769 29.7817507514
32.2575 1.06931 13.2883 31.5841929304
32.0659 6.2994 3.81089 30.6410301781
31.2409 3.48201 6.42738 26.9420305925
32.0716 5.99179 6.80893 28.4803718798
25.2844 11.4344 9.44783 32.9265952708
28.1499 5.89233 10.2287 28.8124322846
25.7562 4.01675 3.97944 31.6349697334
28.6812 14.1254 11.2017 33.2251628423
35.4474 15.377 10.6299 28.1049908409
30.9541 8.8695 7.34987 31.7065089863
30.6686 5.28144 9.25409 28.1053264263
34.7329 6.37609 7.04764 31.7063688761
27.7768 10.5655 8.91189 33.752296362
32.8591 11.057 8.02952 32.3908567073
28.8622 2.24875 13.1593 30.0173797117
32.011 1.72254 8.34121 27.7538433147
36.7231 0.528016 4.38557 29.2332425129
29.6464 12.9628 5.486 35.6349721777
27.4017 10.3034 13.3534 32.0635478653
33.4304 14.9817 4.10251 31.7670602761
35.2776 11.2792 10.3854 29.488678095
35.7957 14.6826 6.3765 31.0505877259
26.999 10.7885 4.40782 29.0386675951
28.7169 2.93149 8.06761 27.8351580873
34.7893 2.02797 5.72249 33.0988412435
24.6898 3.67313 13.5875 37.4261384623
34.0919 12.3807 4.96581 33.2251213053
25.3448 3.12235 6.68862 31.1012325056
35.1539 5.16301 9.36643 28.7606080522
32.9737 4.74329 11.5254 31.7118480747
34.7237 2.73006 12.7383 30.039758252
31.6905 12.617 13.2166 33.6908548238
26.1706 0.391512 7.67866 28.9433922128
25.9659 1.22924 10.2923 28.6862429022
31.0674 6.24844 13.056 32.1506838153
31.4697 8.04104 9.80168 28.8216664299
35.5336 8.97938 8.32865 26.2180542224
34.119 7.83423 10.2827 28.1260892066
28.3414 9.60902 6.53623 29.2476544557
30.8482 8.97916 12.5768 32.6946202286
29.563 11.1101 11.1514 28.7680337509
31.1533 12.9019 9.38175 31.0695533873
35.8712 11.5072 6.86238 28.9338295237
24.8728 12.5207 5.28457 34.0526676235
28.8792 4.30433 5.09586 25.849551032
26.0774 14.9084 11.8657 30.7590694853
27.5473 7.09113 5.85138 29.5843173265
31.0059 15.2527 7.86516 32.4514531237
30.851 1.83622 3.91822 31.6619228466
26.0903 14.8269 6.54911 40.0964270562
26.9826 3.70489 11.7098 32.3440327939
31.5927 11.1925 5.15485 32.952458849
30.7553 2.67074 11.1929 29.4020568692
25.1652 6.82676 4.49715 29.3779615602
28.2953 6.40251 13.2245 31.7648663582
34.7924 8.74046 12.8299 35.3355140543
27.7905 1.82557 5.00846 26.5965831128
30.4737 15.2182 13.2483 32.4294152336
33.4619 13.1987 11.1157 33.5645675805
26.9583 8.57726 10.8916 31.0846092274
24.5548 10.8274 12.2967 26.9996815144
26.7871 5.38895 7.84831 28.4648180267
35.5286 0.879892 11.0934 31.6338213853
36.4525 6.93807 14.049 32.703230414
36.0973 4.43325 5.30177 30.1648596581
29.2887 0.564992 9.38962 27.4865183515
34.597 2.38848 8.68879 32.227316537
36.3734 11.1477 13.5843 30.7877934774
29.4139 2.87618 15.8379 32.6003041749
31.2174 6.63081 15.8304 29.2522426277
33.5623 7.54416 16.8177 28.2120038803
27.5574 3.08391 22.5142 27.7887677553
35.8857 2.74873 15.4784 30.6053546555
31.9064 11.5286 15.9709 31.5566888554
27.5 1.80376 17.7837 31.7507717058
29.8142 5.16828 20.6067 30.8074281559
35.0842 1.06848 20.3069 30.6933902634
34.4106 9.98951 15.9712 32.642693953
35.024 8.2858 19.2362 29.4969231728
35.7104 6.01883 16.6604 26.9947001687
31.3153 13.5635 18.1991 26.0926406522
26.518 12.109 15.629 29.6710687216
25.2274 7.09658 21.7462 29.6102648485
36.2436 14.3603 24.1419 67.2064602083
34.1135 13.6512 18.7747 28.4639089843
28.9963 14.4926 15.576 31.9311179016
30.0757 10.9816 24.0653 75.2312832256
33.2721 0.896485 17.9119 25.337200945
26.2026 14.8722 15.1239 27.5971400662
24.8999 11.2344 21.4324 28.464139635
33.3962 15.0861 23.9059 61.9797266412
28.1945 0.585273 23.8789 64.7505327706
28.5503 6.42813 17.4005 28.0412311443
31.4837 2.94499 20.0838 27.6456469073
26.3837 4.20292 17.8553 26.7186002468
31.5617 6.88228 19.1223 28.6729174742
27.3146 10.3144 21.1448 26.8823608276
29.7653 8.96996 18.8767 31.4299190833
36.115 11.8501 21.2312 28.0480294116
32.7602 8.28047 21.4484 31.4889937643
25.7472 13.6933 19.6957 30.0409318425
30.5727 13.6612 23.9032 69.937631829
28.9117 12.0248 17.3828 30.1670143348
31.181 13.0886 20.9526 26.1559619831
31.5812 3.9844 17.5321 29.838720035
35.122 5.81016 21.6341 32.5432317763
27.3628 8.40478 15.43 27.6480745562
30.6155 1.1849 22.0116 25.9369878805
25.7533 15.9205 17.6843 31.915034242
35.4905 10.975 18.534 27.4543699701
36.2208 15.8234 18.3921 28.3304885693
26.9651 5.14402 20.3449 26.1881683966
27.7119 1.09267 20.305 28.9172811439
25.802 15.8201 23.9278 55.7287642161
31.1015 3.00544 24.0343 90.7126741629
34.333 3.54818 17.5543 30.3387965107
33.6588 3.26653 23.6636 37.7526195729
34.0038 3.29712 21.0233 27.9861077606
34.4382 5.97453 24.1487 84.5303162788
26.8084 8.06377 19.3529 29.0201471132
24.541 9.61701 16.1238 27.9257402077
27.5136 7.11888 24.0721 87.7203007669
29.6177 5.36487 23.3262 36.2787174613
33.0087 15.4905 20.9743 30.2883951554
33.3726 11.433 21.6513 30.4719329251
34.4345 0.80284 24.4495 139.3660214572
35.6016 14.0137 14.5536 30.4065236031
30.3587 10.2019 21.4425 28.9574663854
27.3821 9.87825 23.8795 58.7090659891
28.5755 15.4727 23.9921 75.9632777157
28.2634 12.6907 20.022 32.0744227488
31.7878 7.17506 24.2338 87.7719105615
30.0605 9.31355 15.7825 28.4729278394
35.7216 14.6564 21.4986 25.9091662951
25.4627 3.41694 24.3564 100.6753998985
35.0002 11.1257 24.3967 98.9399792667
31.1902 0.792772 15.9203 29.9946877793
32.5412 9.80334 24.249 70.7772451258
33.2835 14.4899 15.9354 29.5538921112
26.0094 5.69846 15.4483 29.6906563724
36.8213 1.09692 23.2439 59.6263057984
30.7942 16.1905 18.9775 30.2509900767
24.8776 11.3048 38.6134 27.1592200747
35.0016 6.19711 45.135 30.7938968858
25.1448 6.90359 45.486 32.097522295
25.0781 3.84187 35.4013 109.7485053079
31.1833 2.35414 36.1304 59.0316062055
31.7421 0.873702 38.8619 29.7306952252
33.6084 12.1071 36.8123 38.1088786959
25.0999 1.77672 44.3357 30.2310124855
35.9358 10.6763 38.3701 28.7475924848
30.1924 13.6761 44.6569 26.6472915144
29.5425 2.55645 40.212 30.6185865681
27.6295 9.41661 36.2858 40.2187045348
32.5846 3.47699 39.1293 26.0937280376
35.6561 6.30592 40.6599 27.9163896238
31.0099 15.9517 42.9189 28.5825372869
32.4506 6.14991 38.509 28.7370731701
31.4153 8.79485 44.7223 30.8809004787
35.477 14.186 35.6764 97.2440507298
36.582 4.82073 38.668 25.4942898232
35.1035 2.26513 38.6234 27.3450364941
31.9568 10.0485 36.0793 58.3579248108
32.1328 6.05349 44.8761 31.5358745832
26.8862 14.2384 35.6852 97.364180725
26.6924 1.61009 35.9144 55.152681968
35.9276 5.57669 36.2676 58.4288884584
29.4443 14.9358 36.1975 63.035605098
26.1953 13.7122 38.3303 30.0279771122
27.2801 8.46056 44.0613 31.935450129
33.1772 4.33769 36.0835 66.9851898345
25.7831 5.30315 38.7407 28.2419685768
28.4103 4.48944 38.626 29.2913057877
32.1732 4.26961 41.808 27.7429455116
34.7223 7.82054 36.1328 45.2258270487
25.1857 0.955354 41.7038 31.2617786982
25.1014 10.5988 35.7972 72.7152686133
29.5504 11.1854 35.6813 107.7145454128
29.4941 6.87875 38.9594 28.58130829
35.1857 9.17842 42.2569 29.6749124266
34.7359 4.73481 42.6472 30.0076024311
27.8566 12.8268 40.7802 28.165824396
27.2519 9.00144 38.8346 26.904037738
26.3582 4.11816 45.3501 29.4636313476
30.2399 12.5067 42.1104 27.4356663923
28.8957 6.7874 35.962 65.9954736484
29.4585 12.8465 37.9725 26.0861561156
30.2524 9.87464 38.9922 30.0424305117
29.5227 4.13295 44.9499 29.0639178371
32.8718 12.5831 41.1619 27.5694617288
32.0059 13.215 38.7154 27.5457254858
33.5248 14.5396 43.1899 27.0568302558
32.9281 13.1428 45.332 27.4400775841
35.5883 15.0187 38.5458 28.8623421266
34.3744 8.2796 38.857 26.7024316677
28.6605 3.56451 35.99 69.2107921049
35.5298 2.18664 41.5735 30.7950204975
30.5477 1.8722 42.7604 28.882113696
33.4095 1.36215 43.6566 32.7279061875
24.8335 0.376823 37.7052 27.9747433601
28.2712 5.59401 43.0078 33.3571789433
30.0568 9.65603 42.3774 27.1445431868
30.9471 6.76352 41.7359 31.1889665303
32.6883 9.67851 40.6004 29.0722122656
29.4425 16.0055 39.0782 27.6358457787
27.8074 0.530584 40.8723 30.1966871642
35.7234 12.9657 40.3699 29.2446562148
27.26 10.2324 41.2999 27.8528117644
26.1138 6.24865 35.9591 51.6851991899
33.8623 10.4117 44.514 33.5731210483
28.0722 11.5662 44.5298 28.8060337889
26.9669 13.95 43.3266 32.4235002607
32.7951 16.0142 38.585 26.634871827
25.2808 7.87635 42.1324 29.840468913
31.7693 7.12053 35.6812 93.9261865641
28.2505 16.0342 41.9096 28.4039782995
25.8995 4.91083 41.6688 34.8363941227
36.3455 14.2986 43.1212 33.8015813122
36.2242 1.63577 35.5699 113.8746386584
36.1598 10.1558 35.3966 122.1169912377
36.8087 7.43453 43.2665 26.3244456602
28.8882 1.48407 45.569 35.5168438673
34.3792 7.94317 51.6882 28.7137807668
28.1801 4.67708 47.7704 32.728374105
31.9069 6.45867 47.7648 31.6507339293
25.6452 15.6935 49.6232 29.3704064096
30.8051 13.2865 49.699 29.1773003123
28.1119 12.8633 55.8093 35.243385296
32.5266 10.0739 49.8565 26.4019425365
25.2658 3.36515 48.0886 33.6366006641
31.5399 3.48045 47.931 31.3071102563
26.2789 8.19551 47.6183 29.7206738502
28.3992 11.7907 48.476 30.8719733461
30.0211 8.4914 50.1301 30.0073954709
29.1062 7.52905 47.7752 29.4829992362
35.1298 12.7321 54.7328 31.8664636757
30.9211 8.99434 56.3725 31.2142049023
31.7993 11.445 47.7944 26.8062700628
34.0991 7.7757 49.0085 31.7499592496
34.5673 0.29003 47.2652 29.2795691191
28.9749 12.2901 51.925 25.9557174362
31.9771 11.4802 52.3009 27.8146604044
28.686 14.5194 47.0242 29.1940729025
34.648 11.5721 47.6852 29.8074864545
33.9402 13.7183 52.2376 29.2723932893
34.5662 5.98222 56.2621 30.7950896949
27.073 2.37571 50.2187 31.5694369732
32.0503 2.21168 50.6115 33.6510522323
26.9396 14.1653 52.0639 35.1334034463
29.5104 3.87715 50.299 29.4101585956
34.8778 1.70644 49.5363 28.8197366577
31.1543 15.4751 47.7989 26.0321218458
26.9058 3.80998 52.5999 26.9423274685
29.7719 10.0511 46.5374 26.4982663719
29.7639 6.24892 51.9417 33.1627141715
27.4391 6.41218 53.3658 29.9608905368
34.4443 4.41253 48.9907 28.3159637322
34.1762 4.53418 53.8123 30.7435875829
32.6369 9.4893 53.9978 30.7995202689
26.7662 8.91928 53.0812 30.4731128864
30.0428 14.9605 56.1804 27.0164638855
27.9481 9.96715 50.7927 28.1361437237
35.4116 11.8483 50.7111 30.2066291002
33.3375 0.511854 54.8405 29.2136631585
32.0934 6.84797 53.4493 31.4461163356
30.5538 13.9104 53.6851 30.666000229
