17.1895 36.2778 40.3384 31.9749455008
17.9576 29.4587 39.3012 27.9830125262
16.8293 27.1238 35.6606 80.8806453993
18.5083 28.7439 36.4442 35.3103161125
21.3159 30.0495 35.3234 132.9777925473
15.9757 31.3617 38.92 27.52951778
18.5424 33.2653 41.0384 29.6978250197
13.3857 32.2108 35.5538 94.5833046575
23.2185 26.0578 42.5643 26.6151198253
13.2538 34.9987 38.7885 26.4410838266
19.9608 25.2213 35.6828 93.4431458034
22.2249 31.6488 39.0719 31.7324735048
20.9084 33.6536 42.6632 28.4493724897
12.4829 26.2375 40.7758 26.0355465411
18.827 31.809 35.7534 79.5590613554
22.2067 34.3352 38.4634 28.578729299
15.2207 34.3403 36.0816 44.7222447578
14.3884 29.6557 40.2805 28.3945217332
21.0014 28.9177 42.9282 26.1470048891
19.4601 35.4769 38.8733 27.8397242165
14.4445 24.8202 35.3926 92.6248958056
14.0241 28.7933 35.7428 73.0919676038
15.6986 32.6808 42.926 33.6405217792
18.9633 34.5888 36.1066 43.0736818694
18.3304 25.3957 38.3031 27.6082637643
13.4755 31.0745 42.3279 26.2167560603
22.4292 35.8733 42.1377 31.3185715208
23.6069 31.4905 36.2826 40.6265680051
18.7034 30.5385 41.9213 28.7224558608
22.5867 31.3247 42.0889 30.0827835094
16.2536 27.093 39.8702 26.8037619485
19.3482 27.1541 41.0002 29.4576208994
19.6169 31.8661 38.4114 29.1326692719
23.1486 28.4588 40.8846 30.1209743218
21.5746 35.4978 35.7648 94.1345893873
23.6225 36.1023 39.6704 30.9013768456
16.1059 27.3952 42.6193 27.7475596043
17.7917 36.8096 43.2312 34.7043618181
14.558 24.669 40.0706 26.4731799492
16.9333 36.517 35.4157 113.7645696263
13.0769 35.2936 55.5142 34.3605021832
12.6028 25.8385 46.1729 29.1884875015
22.7195 29.1162 51.6135 26.8548812966
23.2548 29.6797 48.2775 32.3392421813
15.1829 26.6098 46.9831 32.0169920403
12.2827 28.1775 51.1717 27.9485009518
24.3114 32.5101 53.5475 28.135585489
13.7761 34.2612 52.7501 29.139789689
13.0288 29.6842 44.6964 28.6156356627
19.3141 30.3597 53.6404 28.3599938417
15.3167 29.3269 46.3418 29.6386599116
18.9634 30.8019 45.1218 28.0813932253
14.9435 25.661 49.6762 36.0223039113
17.7188 24.9015 52.6173 36.111696859
15.9972 32.1025 49.4866 32.145582675
15.9339 35.3134 47.6668 33.6807864723
15.6041 34.9523 50.6309 29.3691054341
23.3414 24.6904 49.3818 28.2641340791
22.159 34.0091 47.299 37.5398691401
20.8409 36.2331 46.555 30.2158871528
23.0374 34.3713 49.9182 31.2230854489
21.5519 25.6231 47.5631 30.4000719672
17.8836 35.8899 55.5244 31.3562960871
24.5483 32.1999 48.9224 29.8727726897
17.9564 27.6172 52.9246 30.8126771203
16.2926 27.855 50.5352 32.4905853841
23.5327 26.6627 51.5357 26.7606370158
16.6537 29.6567 43.7301 28.0708956521
14.6779 30.1058 50.6576 31.090201882
17.2941 31.157 47.3227 30.7131044354
18.4377 29.15 49.0532 32.8877603658
19.8309 30.8187 50.9359 33.6286346743
17.8798 32.9256 51.4903 31.706992209
21.326 27.6499 49.435 33.8567465491
21.7965 29.3666 54.1873 26.7202457723
20.1133 28.7788 46.6589 32.5476944662
18.0946 25.7835 44.08 30.0238753263
24.3613 35.9964 44.1428 34.2298933594
19.8803 35.2572 51.725 29.7845809811
12.9408 29.6774 47.9905 29.3855970297
16.9908 33.4069 45.4645 33.7983938253
24.0612 25.4005 53.7389 28.9128105775
24.576 30.7176 55.5137 25.3440564391
21.7444 32.7298 51.9409 29.092107695
20.2968 35.7783 54.3823 31.1702793
23.4828 25.4194 45.41 27.7941101045
20.7263 33.1003 54.5956 28.0080871579
14.4548 30.6856 53.7441 29.0053746007
15.7202 28.2818 54.6072 28.396991778
19.2536 34.8435 44.8016 30.7430027604
20.6516 26.46 44.3065 27.7895507309
20.4616 27.0132 54.3343 31.5843354541
16.1388 32.854 53.6291 30.3943592923
13.5475 26.6671 43.7301 25.9927991728
21.7173 32.3072 45.0586 28.4401822382
13.233 35.0692 47.0655 29.2215668645
18.1346 32.1978 55.6809 28.2199561705
22.5754 29.5902 45.5688 27.6485354782
13.6614 34.8319 43.2724 31.0122313702
12.8174 27.5156 53.8967 31.6104297771
20.8039 24.448 53.1071 28.9742905845
15.18 46.8992 12.1358 32.8741939136
19.8284 45.9541 4.58321 29.3867486867
21.2943 39.9405 11.9421 30.4927745182
24.1217 47.1075 12.0894 30.9819930636
17.7026 38.3668 6.38022 29.584860302
12.4507 37.3797 12.1585 31.5978537977
15.036 48.8637 4.85394 31.7463496346
21.8574 36.9009 5.31574 33.9512948946
14.2137 42.5968 6.27519 27.9744429497
13.6564 44.9326 5.43812 30.6206981164
19.9921 42.2553 7.92364 28.6805435703
21.7107 41.6874 5.26538 30.1987717742
22.6498 45.0852 6.79357 28.3586154887
13.6395 41.8731 14.6348 26.3462653287
16.5977 46.6972 15.1116 30.9952766856
14.5522 47.252 6.97503 32.7247261641
14.1005 39.6079 16.4184 25.6670811542
16.861 45.9468 7.72205 24.9386459219
20.1789 45.0945 8.24238 29.1424164058
16.1727 43.2227 15.6766 27.7855041338
22.911 38.1996 10.605 28.3774462956
18.8587 41.6143 5.1991 25.1022297829
23.4977 46.2364 16.1636 26.6991980909
23.0013 44.6058 14.1764 27.9056414909
15.3232 40.2274 10.001 30.1287740356
16.8186 41.0388 7.29134 27.1647051395
15.099 38.961 5.36193 30.5415062364
17.6209 42.6633 11.8075 31.9145896176
21.1667 39.2307 7.10068 29.0814979836
20.0694 41.8819 10.6234 29.0467432713
14.2387 42.754 9.17079 26.9328356642
13.2666 43.395 12.0705 28.7984191835
17.3409 43.4966 9.05788 26.0859714342
19.4568 46.1409 12.5005 30.4848563867
19.7405 47.5141 15.1667 28.0662988097
22.4272 43.3973 11.6167 31.4424911098
20.7717 43.2702 15.1576 31.0381435083
17.7183 44.3919 5.59488 27.0319015443
17.3525 46.2862 10.441 29.1344409917
14.1053 45.6243 9.96341 27.8867915751
22.3161 48.3866 14.4468 28.5035546324
13.8254 45.2876 14.3735 29.0735446839
16.0104 37.3201 9.34258 29.1490206762
22.4388 47.5204 5.53545 29.3910950331
21.6087 46.0229 10.6398 26.6907818593
18.6828 47.9313 6.84042 30.5528449369
15.5579 41.0581 12.5918 27.8457598976
16.2448 41.2973 3.84863 26.2374133313
16.9589 39.1789 13.8202 32.6205135984
12.7006 37.0297 7.6418 31.5349051666
19.4023 38.027 4.29386 29.3638521585
22.4011 40.5646 14.4701 30.6336450448
18.3978 44.1985 14.0296 28.2371090339
16.8181 40.8418 16.3433 30.8451106684
23.7429 39.1769 8.24996 29.9494792348
19.0974 37.926 12.4474 32.5760519921
19.2053 39.034 9.19281 30.153835172
24.4334 38.2773 5.53351 26.9747679998
24.1033 42.8732 6.08245 31.0640573283
12.6745 39.0522 9.88725 30.9220408846
15.5802 36.8218 13.8516 30.3213434795
12.5183 43.5261 16.6212 27.2376726064
24.1061 45.7741 9.03896 28.5611727809
12.8058 48.4531 9.03652 31.5467866446
19.1043 48.6261 9.62049 31.0203835741
15.2969 48.6379 16.6458 31.3636301992
24.5162 42.3407 15.0338 25.9282565859
21.5345 49.054 7.57067 30.2322918995
23.0402 38.9947 16.4847 26.7352891984
20.3933 38.4324 16.7487 31.8380737924
15.6856 44.7721 17.758 29.0409806067
14.0695 47.1511 23.9185 62.9764209181
20.7956 37.7261 19.6262 29.6888677669
15.8835 38.2205 18.3422 29.2396636328
18.9365 40.7986 18.1016 32.8834335382
17.3543 40.0957 20.7192 27.8831215519
17.8128 46.5878 18.5517 30.646128182
17.9414 43.1092 21.1909 30.347054089
18.7535 45.7643 21.4397 30.2049900665
13.3324 46.1354 18.2569 26.2393661026
20.5667 41.8856 20.6254 29.7529365623
15.0406 43.1632 20.216 32.6883462519
13.0748 44.3268 21.6984 27.009454316
21.8787 47.2426 18.6009 26.2912715922
21.2065 46.9104 21.4208 27.4124666182
16.4556 47.7812 20.7856 31.7117749864
12.8555 41.2125 18.2788 26.8885209504
24.5273 47.3198 24.1197 64.330702593
13.2017 38.8241 24.0039 32.6837223399
12.5749 38.8416 21.421 25.9378370027
18.3566 37.5605 21.3428 28.4997844726
19.9232 37.3165 23.6969 46.1172718604
23.863 40.5908 19.1062 25.6090657414
14.5984 40.2154 20.0738 27.4168806059
14.2855 41.5586 24.3058 93.8161858855
22.9181 44.4049 18.6982 26.8906109556
16.9889 37.4788 24.4509 81.3799875682
22.1726 39.7547 21.2975 29.6688646899
21.7369 39.4487 24.057 58.3407948695
18.0505 42.5196 23.8673 46.7639887026
20.45 41.5794 24.6511 116.0279531561
16.4452 48.3264 24.1584 69.4702251915
16.5565 39.9695 23.541 36.27802626
14.8006 44.542 24.1278 69.8256002233
17.5505 45.4695 24.3746 90.4146409681
13.7299 46.927 20.9636 28.5810195453
19.6769 47.7656 23.9196 51.6629380783
22.2412 44.0936 21.3628 27.7031190281
22.1068 46.1601 24.3902 92.738770997
22.2967 43.1109 23.9289 42.2166351042
20.2865 45.4211 17.0297 31.3112798634
21.6327 41.9375 17.6539 27.8654941197
24.5798 47.6216 19.4557 29.0553709019
18.3231 39.032 36.3504 46.8587645164
15.6784 44.2015 41.5122 29.21659643
21.5104 47.5049 43.1899 32.135869291
16.3487 40.7881 41.0796 31.2830149183
22.5846 38.3443 36.3345 45.530514057
16.6738 38.9062 38.8511 29.6071125596
20.4349 37.8615 42.7064 31.3104395944
23.1975 40.2178 40.2796 31.4546465324
16.7895 48.3754 36.7556 30.5931536731
13.5391 37.4718 42.0033 28.8293836232
13.5596 47.6945 38.7823 26.8104512014
19.8385 41.4054 35.7837 82.8574716869
15.1693 42.4579 39.0249 29.1554390213
16.0472 41.033 36.6755 37.3469748112
15.4308 45.4622 38.6439 25.5958209326
23.4578 42.1555 38.175 30.0851925624
12.5815 43.3228 35.4476 101.8362333376
22.72 41.1795 35.394 86.3926457912
21.3362 44.9117 38.539 27.7972413062
12.4608 44.4656 38.3053 25.9896244302
15.2062 44.2335 35.8615 64.6399601798
17.381 46.4447 42.5815 31.1198734356
18.695 46.1294 35.6096 94.9251792023
17.9079 43.3104 36.1957 48.2687598072
19.5003 49.0711 42.2264 29.1256158819
21.6902 44.884 41.7508 30.4992651029
18.3343 45.9521 38.5184 25.8002856816
21.3481 46.0906 36.0209 45.0364195647
20.1924 37.938 38.2387 28.3771226803
23.2123 44.011 35.2498 105.4836078901
20.3165 42.2301 38.4985 31.8252423907
14.4833 38.0917 35.9631 57.4466918506
13.3172 40.6879 35.8059 76.336231815
18.9657 41.7006 41.3095 31.0341668468
23.1896 47.3466 38.7091 37.1014169283
14.5401 46.9108 35.9036 78.0924026723
13.6108 42.2866 42.2093 25.9116646596
18.2226 47.9455 40.0981 25.6052769488
20.6624 39.3945 40.3387 28.8906621143
19.0809 44.4891 40.7347 27.0234673008
14.1993 37.794 39.1769 28.8528304284
24.2563 47.4209 36.069 71.7650661256
13.2675 45.4982 40.9177 28.8587130761
12.2403 39.6377 38.2658 29.7196901634
15.3366 39.0813 46.6093 26.4120280974
17.2849 39.0341 44.7666 32.8667372647
16.1936 37.4646 53.9168 28.717352193
21.3652 38.3932 53.7796 30.4114020049
19.4188 40.3854 45.3426 30.8012987975
21.5131 38.5439 45.1239 28.609048526
14.1025 37.9894 55.6602 28.7815359358
22.1323 41.5884 47.7688 31.7512782334
20.9219 45.9899 53.138 29.2256029852
15.8018 44.237 46.9136 28.9198588143
22.394 47.9979 46.0219 31.5353859356
15.2485 43.0338 49.3221 31.8521887206
14.1889 44.3448 44.4946 31.1977939003
18.5818 44.1615 46.5487 36.1064293538
19.5987 45.5064 44.186 32.1581572282
13.0936 37.1302 51.8735 26.986708867
20.3856 42.4335 43.5445 34.9957372158
14.9582 46.6307 47.9779 33.4171972862
24.0999 42.7049 45.945 29.6055629432
14.8864 47.2799 55.2681 28.6889780991
23.5199 38.7066 50.5873 28.9454407954
22.3208 47.0549 48.918 32.3556290474
21.6547 41.9461 52.1421 28.9688284155
14.4505 40.0929 50.0818 28.178855678
17.8554 36.7491 51.4711 28.5731841801
19.175 41.8091 47.8077 32.5696346834
18.9468 43.1559 51.8347 32.20112929
14.8975 44.1783 51.9655 29.3698121184
20.9153 36.8069 49.22 30.6256736923
23.5846 42.7874 43.5271 30.4262369095
18.5816 47.0149 52.4109 28.978853208
17.0014 44.8742 53.5147 26.3047150355
14.888 42.0045 53.8715 28.9127608394
21.2882 45.0839 50.5396 30.7207336961
23.0462 42.7658 49.9879 27.8621283725
22.9104 38.9196 47.8267 30.4014984206
24.415 38.9773 44.6552 30.8042393813
18.4932 45.2204 49.2228 29.6736351448
16.4497 47.485 50.3035 29.0442774547
19.6113 48.2398 45.8761 33.9212942304
22.9199 47.6436 53.145 32.1081232153
19.5362 47.6228 48.6797 30.2356041961
14.2048 41.505 45.9234 32.3809183534
20.8473 39.5247 51.3505 28.3351167485
14.3494 39.6783 52.7547 25.9000105272
18.1368 40.1319 51.3529 30.7034298601
23.5749 48.8586 50.7809 35.4764103151
22.8536 41.5711 54.671 27.506101029
14.9562 47.031 43.7718 32.4545559042
14.1117 48.8787 46.0623 31.5395358772
17.5208 40.0411 54.1865 27.5722121792
24.1069 39.0811 54.7632 28.8452418271
18.2607 43.0233 55.0679 25.2876640482
20.9062 44.0077 55.5015 34.3637495158
14.792 47.2174 52.3863 26.7684118237
12.5773 47.3602 48.878 29.7665011368
17.2682 39.8045 48.521 28.119283418
14.0909 37.5441 49.3967 28.8536295933
19.5954 48.3012 55.8308 29.0591403089
20.1515 40.1593 55.2463 26.4003347576
13.2327 37.3044 45.6953 27.2237600733
24.2834 45.3598 47.2551 34.5329938631
12.6844 43.1358 48.0935 30.3959282768
12.7796 40.8923 56.0764 29.9241744038
22.1905 48.9853 55.6727 30.8209664812
17.3158 48.5632 54.4109 28.0727202391
17.9751 37.2445 48.7917 32.1625465331
15.8219 44.618 56.371 29.7145510918
14.6093 39.6681 43.0703 28.5603025599
27.4322 3.23224 5.30089 31.4304556483
29.6408 0.708327 11.9843 31.2467369459
27.1884 7.03188 15.5956 30.9196771759
36.1011 2.22547 9.60605 33.4475050241
34.8711 3.36072 7.0979 29.5912578177
35.4089 0.789995 6.06053 32.3115575743
25.3735 11.2803 5.18919 32.6532480045
36.3575 8.05598 7.53568 30.1022059754
30.0545 9.36055 12.2528 29.5657297109
28.025 4.86315 7.54198 32.3226196898
27.8909 7.68635 6.81824 31.8666719103
30.1503 4.47581 9.24968 29.0017886501
32.8838 7.69002 8.2125 27.8754925231
29.3697 9.54589 8.944 27.4370787181
31.9337 3.39188 5.37806 34.1499218121
35.5125 4.77034 4.60281 28.1782215204
35.48 2.12339 13.8296 28.5227850615
35.7954 3.8538 16.1168 29.516732182
31.7712 10.0111 6.92622 26.1281350527
30.1831 8.40976 5.27671 34.9917662199
34.5316 10.8168 8.69137 29.5174974625
33.7552 10.9835 11.4381 31.16795203
30.4491 12.0202 10.5127 28.6189766878
26.5966 6.02417 9.66658 30.6536728969
28.7016 1.83477 8.49055 28.807195732
25.4962 3.12173 12.9322 30.94499568
30.9335 3.15331 12.3663 30.2089654334
32.8434 2.58233 10.287 31.3009150125
29.6536 5.73656 16.4008 29.5866046167
26.9266 5.53333 12.8355 31.4055525563
29.4684 5.4809 11.9845 28.044907157
32.5779 4.87663 7.7989 31.1968649639
27.5431 9.12026 13.6973 26.9304265724
34.548 8.05445 10.5564 29.8280496955
35.585 6.90505 13.846 27.4112409103
26.5018 11.3525 14.5615 29.0161286513
30.7984 7.46046 10.1876 29.1379604548
26.0255 0.785218 8.1167 30.1312763042
26.734 10.5119 9.86767 29.2430408508
27.2564 0.461252 15.4686 30.9031005161
35.4717 9.61683 13.781 32.7302536829
30.9684 8.8785 16.5776 30.2339660481
32.9939 11.4217 4.75128 28.6017811325
33.4605 5.28374 15.2312 27.5929282698
29.3961 2.57982 16.6895 32.9769798342
31.5554 3.14864 15.1233 30.0800792847
29.8832 1.65052 5.93377 29.9675991392
34.7075 7.14119 5.72039 29.1733112788
25.9456 8.41696 11.8039 28.981776489
31.6778 6.17623 4.01046 32.1511534524
25.3736 2.63167 15.6099 29.078600887
28.9295 11.0176 4.3068 28.781529764
30.8944 6.85644 14.0085 27.7834799696
32.2186 9.90034 14.0043 30.567469137
33.3699 6.06103 12.1423 28.6807994675
28.0709 11.6762 6.87983 28.2266868871
35.6827 9.54099 4.19295 26.3984749154
25.1268 1.92783 5.84609 31.0343506763
25.085 8.112 8.57749 26.663513239
24.735 11.4069 8.12822 30.3414792991
26.8738 0.988885 11.1923 34.8403078972
33.5637 1.12274 15.2628 28.7648574517
34.9129 3.78762 11.7286 26.4208645991
24.7717 5.35819 15.9272 28.9045529318
25.3905 8.36797 5.53681 30.2833136095
28.3584 9.95395 16.713 27.8361887675
35.2255 10.2075 16.656 32.0552091955
27.6226 6.09394 19.2453 26.9868394723
35.8699 2.50498 24.1837 63.5625707631
36.197 1.0141 21.5727 28.4293558923
26.2597 10.6287 20.9371 31.522413716
26.5998 3.59425 18.0981 30.4920926728
26.6737 4.77993 21.6241 33.8438304758
31.0836 2.37009 24.6553 97.4314801374
25.8536 7.67804 21.8084 27.4542919102
32.8817 10.4647 17.8611 29.7979582164
31.8429 3.57921 20.3096 38.1785810862
29.0782 10.8808 19.7695 32.5205754
35.5032 7.69053 17.9004 30.3054524358
33.147 1.10857 21.6354 29.4915136119
33.4244 0.746152 24.3852 69.8818884245
33.4636 9.05384 21.7636 27.1134658991
26.769 8.6669 18.4498 27.6662070529
30.638 1.25517 18.885 31.0260431319
27.911 1.22815 19.4605 33.9109350664
24.7794 11.3394 23.9831 73.1607129198
35.5064 7.80401 20.7009 29.7474635868
31.4727 8.2428 24.5481 103.4773334393
33.045 6.56853 17.8021 29.3905472439
26.724 2.3175 24.5608 88.5955039577
26.2467 6.88859 24.3845 78.6146011763
31.2692 7.45477 21.7143 30.784128173
28.7187 8.65346 24.0195 55.9718401349
30.5188 6.17837 19.1107 29.575884434
34.1556 9.15999 24.1947 61.3954313764
34.1388 4.03394 18.8523 32.9770190462
31.0946 5.37422 24.0434 45.7141400172
28.9307 8.36093 20.9702 27.6798850134
33.1732 11.5681 20.6327 27.2746869415
35.603 11.779 24.34 83.0711677912
28.208 4.9051 24.5703 81.6301910182
27.6017 11.0549 23.8204 60.713924621
28.7826 0.505112 24.0599 48.5586795018
35.9685 7.03773 23.9164 50.4140347398
32.6041 11.7757 23.7525 51.7095748167
35.4006 5.01168 21.4993 29.8531965682
36.4236 1.661 18.5214 30.2016817605
33.8629 4.67917 24.0888 68.8756393846
28.3916 1.36722 35.7919 74.3391468291
34.0272 9.73314 40.5957 29.6573661004
26.5527 1.62461 38.81 27.1686164533
32.1055 1.43673 35.5392 89.6474951517
35.1217 10.4252 35.4245 103.9201970911
29.3891 4.04297 35.5265 92.6933592053
34.1452 3.63021 35.6576 88.790682277
25.4485 7.82539 38.6357 26.7845539548
35.8282 1.35685 41.0719 32.4387327508
26.788 5.07941 35.8069 59.6527130536
31.0335 10.1601 35.4464 118.6051415501
29.6743 7.12561 36.3906 41.4393008775
34.4266 7.77064 35.8703 72.615620823
32.4457 6.04823 36.5807 35.913415238
25.3907 10.669 41.8315 27.6414614494
26.8313 7.97069 35.9685 59.1434644284
31.3363 9.50431 41.4172 25.9096964626
29.0349 10.4153 42.5772 26.26142773
30.9598 9.12059 38.1582 29.1870298072
28.5552 10.3949 39.0781 27.3006655381
36.0213 9.22887 38.1991 28.3133007715
29.2736 0.156837 42.6522 34.7644748039
33.0859 11.7122 36.572 31.5274762323
28.9191 3.12488 39.2754 29.2923569952
27.1301 8.92468 40.7043 26.7652439503
32.1582 4.52257 40.4087 26.2994450036
34.5376 0.528053 36.7308 30.3592461887
34.1448 3.43541 42.2012 30.5333509275
35.8032 5.93961 38.2332 26.4805402166
34.422 3.36643 38.6376 26.5457985548
30.266 6.75898 41.15 28.8434100984
25.8158 4.56419 38.45 25.7685985332
25.2066 4.84016 41.2902 30.6578383632
34.2423 6.21298 42.2617 28.9087862291
28.2234 6.417 38.876 30.2864202687
33.2462 6.77689 39.065 26.9421330921
26.2028 1.23475 42.9085 28.4477404612
28.1079 10.5211 35.9555 63.954665953
32.69 11.9286 39.4442 27.1976710931
31.1857 3.35532 37.3749 25.7429632919
25.7807 0.872517 36.2307 44.8234128834
29.4333 3.22591 42.0231 30.1107655328
24.5909 3.16397 35.4306 102.695741944
32.2729 1.46055 42.984 27.4758390754
31.9518 1.45464 39.8862 27.6531654389
33.7928 11.2779 43.1653 29.993114093
36.655 7.57986 41.9761 29.8530891026
25.8945 2.29358 45.8338 31.5497902913
31.7652 9.77843 49.8506 31.7394002965
31.3021 3.01195 44.8467 28.1554364925
29.7752 5.59953 54.8294 31.214857686
35.8074 5.08021 44.7358 34.3898883896
32.0975 1.35901 54.5627 29.5096444228
27.1859 4.5973 46.6139 32.43216433
33.4505 9.83891 55.0437 31.695830398
30.3616 5.64439 45.4224 32.4234680813
31.4675 6.72889 47.8966 30.7695451897
35.4009 0.730138 52.2121 30.6773249089
33.7257 3.33143 46.0596 36.1127944862
36.7025 5.97391 54.3082 28.6244550159
25.6027 7.11747 43.5248 29.2353014151
33.5417 9.48366 45.146 32.4201958619
26.0888 3.98817 53.4731 30.7423921994
31.2348 9.22854 46.8943 31.2263451224
35.2692 10.2687 52.7962 33.3867745878
36.1689 8.0042 44.8926 30.6328973237
26.1435 7.36526 55.5625 32.8820750382
32.0424 7.57301 43.5953 30.4860779526
25.8576 3.25607 50.6696 30.6790524221
25.3669 6.77612 46.4158 32.2349007648
31.3984 11.4746 53.0615 31.2188120767
30.8748 -0.134634 50.402 31.542976541
29.8763 1.41174 46.5752 31.0909215205
26.3199 7.44224 50.5363 34.7050340368
35.8091 2.49498 49.6213 32.2121238127
27.7461 12.1391 49.5185 32.0913937622
27.469 5.31762 49.3462 31.6778126244
33.4317 4.36932 52.4469 27.7226426596
30.0323 6.77775 52.3262 31.4431798804
31.4171 2.86771 51.2527 31.5350086208
30.2114 5.29835 49.7679 32.255142313
29.1685 2.30139 49.2581 31.7644481569
34.137 1.12072 47.8924 30.4582732832
34.3646 5.86598 47.9513 32.3689368916
35.6477 1.44931 56.0904 27.5027744427
35.5006 5.09999 50.4651 27.8809334953
36.4834 7.59546 47.7208 30.8951827065
25.1217 9.09409 48.5152 35.3889522477
26.5922 0.564465 50.1464 29.6422297602
27.7147 9.62658 54.9002 33.2993188352
33.5054 7.84576 50.1848 30.5763618872
34.713 10.7403 50.1049 31.1636246285
27.6065 1.57798 53.6673 30.0330413141
28.9605 9.39446 45.2969 32.4198417031
30.0583 3.09706 53.5946 30.3616366233
26.6151 10.5839 46.6505 32.4437971554
27.1904 10.0356 51.2902 32.728937285
35.9758 3.34476 53.4518 27.0789133916
27.1374 4.15439 43.3982 29.6599150557
34.0344 6.93377 55.0087 27.2114673727
27.265 5.00271 55.7862 30.4114579241
33.439 3.49766 55.5932 26.1094092766
32.5707 6.87085 52.7168 28.4344897587
29.4563 9.50113 52.2993 29.806269917
29.074 0.544913 56.0621 32.3474387862
25.0174 1.00067 55.747 31.6050345496
27.0279 0.419438 47.3407 34.0623883959
36.8139 12.0649 55.6712 27.5702750623
26.017 11.4967 53.7056 33.5765240153
29.7005 12.3607 45.263 30.9080874583
28.7163 6.89891 43.5428 28.117701899
27.746 14.547 6.56554 28.0218858385
31.6919 24.1336 15.7175 29.2348962575
33.1088 16.3066 13.5627 29.3749233382
28.1328 20.3116 12.5684 35.4506337793
30.1326 17.8977 7.26695 31.5868771403
35.8809 13.3505 10.5859 29.5687080872
36.277 17.3747 7.99885 32.7566855367
30.5941 15.071 6.772 31.9352617971
25.1646 15.2134 5.24873 28.543021599
27.6488 17.9052 5.43849 28.2163114054
33.0305 23.9203 3.80581 29.5872699102
25.0576 22.5701 9.35008 27.9971736326
35.4889 22.8911 12.4964 31.5938753775
36.6413 21.8795 16.0703 29.3886750621
30.7233 12.2999 7.72144 26.9424881732
34.9902 13.1088 5.86272 30.8912036912
28.5067 21.6535 4.14047 23.909333634
26.5189 20.6128 5.86694 29.9386123689
30.5124 21.5989 6.38816 30.1980235466
28.3577 13.7264 11.5947 27.8202252667
25.2046 17.2038 6.97778 27.9315654044
32.5964 23.5403 6.69948 29.5684348243
30.2873 16.2088 12.6601 28.9470934707
26.1377 12.4784 12.017 28.727051787
27.0188 15.1529 9.29006 30.8389317505
31.3457 15.1899 9.85696 28.6725178375
33.7006 13.9195 8.37351 33.6386318488
33.7037 16.7304 10.1651 32.4175600275
27.0115 13.0913 3.56194 30.9066677484
25.7351 22.5103 15.9202 26.6873408087
32.2143 19.0228 5.89357 28.3540692196
28.3337 17.9724 9.19441 28.8384840586
34.3921 19.4275 7.3907 27.9635084903
33.5016 19.6694 10.2465 32.609717105
25.1754 21.6048 13.3357 26.8597540994
25.7655 19.2366 11.2186 32.5792629429
27.0063 20.5505 8.58783 30.7635295253
27.4045 23.8836 6.27835 34.6899431235
31.0694 21.189 15.0473 29.8257647391
28.5409 13.7174 14.5517 28.3552056299
32.9725 15.8584 16.3912 36.3505182776
32.3222 22.4747 12.6753 28.5517081817
32.1768 19.1324 13.3557 29.8654783851
34.9197 20.1761 12.8625 26.5675799099
34.9079 19.568 15.5677 27.8540544936
34.8519 22.108 7.70343 30.2067621258
26.6054 16.8429 12.0849 28.3307157781
25.3781 16.1672 15.083 32.4575665038
31.3504 21.728 10.3258 31.1087285118
28.1295 16.4369 14.8364 32.8106325942
28.6006 22.6479 15.8837 28.1448915273
29.0908 22.8186 8.43058 28.9648100801
36.5233 19.2488 5.21405 29.8436884069
28.8801 23.1147 12.1637 30.2023287227
32.5205 13.6081 12.0402 30.9074623866
30.0836 18.5739 11.4157 28.8302094631
30.9863 12.4458 14.203 31.0319720027
26.1195 23.6503 11.7962 29.8466848954
33.7488 23.5565 9.97894 29.8463376484
36.0274 16.2281 13.6981 29.0084448318
36.7723 16.3116 10.6499 29.6605263141
36.6601 17.5372 16.0562 25.7717947262
32.8821 17.4073 3.7747 30.9312202281
32.1502 12.9526 16.853 31.3502768682
33.2483 15.1412 21.2624 26.2803237515
26.9897 15.9863 19.3498 26.512132537
36.2864 14.7316 24.2989 76.2749710494
30.0754 17.7844 21.8452 28.0772372486
31.407 17.3079 17.8511 28.5942738373
27.285 15.1774 24.2432 76.4160895787
33.2737 21.6534 21.4192 26.838469544
35.1887 23.7308 21.5072 25.2052781026
28.5529 15.0285 21.2976 32.4344814171
35.6991 16.1159 21.9531 27.5324822301
30.2221 14.1057 18.3958 28.881184056
28.7095 19.652 20.3608 30.5513227731
36.1117 21.0664 24.4967 99.3829649222
30.5718 24.0689 18.7453 30.2161979788
36.7547 15.0887 17.8826 32.3743439371
26.1197 20.3303 17.3742 28.4788073651
25.8652 14.3444 17.4278 29.2550059232
26.0598 21.2212 19.9548 26.4127255665
32.6069 19.9095 17.3559 31.0357012143
29.1907 24.2882 24.3863 59.5123309583
28.8815 20.0203 17.2717 32.517608809
36.6313 21.0226 21.987 27.4046395113
34.4687 19.0604 21.075 27.8337138359
35.393 18.1298 24.2985 77.1529773935
29.6163 18.4155 24.5824 80.5846836989
32.9091 14.8836 24.2111 76.1115377529
30.7512 13.0139 21.0011 26.6371696894
30.1294 15.7097 24.4466 77.6935401478
26.8034 17.8162 23.9027 43.6759351607
28.57 17.058 17.6176 28.7812084331
28.048 12.7865 17.3968 29.1385458718
29.0181 21.5569 24.6923 92.4900362133
27.0624 20.6248 23.2582 28.4752255991
32.202 17.295 20.378 28.6223586807
32.8549 18.3504 23.7817 39.7266034925
31.6797 20.7503 24.2406 56.5134981617
26.1703 23.597 21.7738 27.4467735235
32.8638 22.2219 18.6534 31.3638148244
34.222 13.7578 18.8757 29.6628938095
25.9233 18.2564 20.8924 29.2935009637
30.1792 22.0407 21.743 30.1587883933
33.7947 22.5729 24.3265 69.6173190617
27.7716 23.5168 18.8548 28.7153355317
35.8366 12.6872 21.431 30.744957659
34.7746 23.9416 16.9286 33.0711695701
36.0691 19.2741 18.5926 33.6641043459
29.59 12.7457 23.6817 51.7541723609
24.8125 14.3066 23.6989 42.1379014661
24.6849 22.8057 24.376 84.2094774535
27.2549 16.0802 35.3894 90.7927853591
24.9061 23.2363 36.2565 54.3055923875
30.7074 16.0481 35.9747 56.0354202812
31.6148 16.5761 38.6006 28.0178613748
33.1867 14.6034 35.7214 95.1865489447
29.7894 15.6351 40.8771 27.3667680293
33.6958 24.1594 42.4948 33.4016965272
35.2218 16.5974 35.9605 65.1714307522
25.1823 23.0864 39.0999 29.8745000015
27.7257 19.2328 38.9341 27.8434628037
27.7144 19.6375 35.9063 65.111974224
33.6569 20.6652 39.2172 28.7309108464
30.2333 19.2531 38.5547 29.596407983
33.5424 14.6152 38.783 29.1892052885
30.5072 18.8426 35.772 88.1924342852
35.2213 19.4839 35.623 98.5215539808
31.774 15.8319 42.8438 29.0463064568
27.5131 22.4126 35.9724 77.8085046262
36.068 23.0478 38.9946 26.9361331801
27.2779 15.54 41.4114 27.036906083
32.739 20.4829 36.4181 37.5505320923
33.4827 23.3674 38.3024 27.6396181435
25.3374 22.0313 42.489 28.2824922588
31.4809 12.9997 43.1055 32.5453060058
36.3864 13.0241 36.6124 34.493587798
34.5257 17.7525 38.9517 27.1902375428
25.2025 17.9934 40.8465 25.5065381176
29.2646 14.3713 37.8581 27.4930624277
31.7875 24.2224 40.4268 34.5600762488
26.9435 19.6553 42.1191 27.5958140539
36.2171 15.6 39.9874 27.3404750726
24.6415 13.7792 40.5583 26.6667558385
32.2176 23.3187 35.7749 79.9407510867
31.5731 19.8805 41.1293 28.7060474177
27.5397 12.4957 41.953 26.7777253907
27.1845 16.2939 38.5353 27.517279062
30.0746 12.7112 40.0625 26.8731435854
33.6809 17.8681 41.8204 28.7005713355
36.0245 21.4583 40.9754 29.2864234646
29.4679 18.5002 42.5139 28.9791937657
27.7561 22.1694 39.035 30.8618444146
29.7674 22.0387 41.0974 34.0405397496
35.363 15.5617 42.461 29.35328577
35.4221 24.0467 35.5526 88.672070778
28.1248 13.5814 35.7167 72.5008562103
36.7359 21.8043 36.444 32.1783575436
25.0735 13.4092 35.8305 65.2872273116
24.8278 18.8492 36.0755 51.6722766222
35.8649 12.6371 39.2975 31.4461551607
26.2729 12.5225 38.1724 27.5990041439
36.5521 21.3537 49.5386 35.0036202726
36.2402 13.8799 47.9841 28.8752662801
34.1075 18.5755 44.4832 29.2856626494
28.0702 15.9602 47.2422 29.0466915834
34.1727 20.3645 54.2141 29.7334519947
27.291 13.4751 44.9392 26.641317396
32.0182 23.9934 51.465 30.9517833115
34.8911 12.5869 45.9128 29.2949176436
35.0635 13.4842 50.3976 29.3226257728
34.3465 22.5367 52.5135 31.1813326946
31.8864 16.2304 45.4832 26.4768896547
30.7857 15.2247 47.7679 28.8201735966
26.8582 20.5256 44.8639 28.6112193726
34.4626 15.3449 45.2921 28.1750210863
35.8538 16.7583 47.4047 29.7566657083
29.2349 18.1182 45.3448 27.7185977527
36.4617 18.7742 53.9245 27.120756977
24.5864 16.7295 44.2393 27.2002402466
32.2227 18.6226 46.9512 27.1990407809
26.2903 13.4343 47.7079 30.828628504
29.6411 21.6386 44.1035 31.8226370712
32.8971 22.6669 47.739 36.4886022632
26.7848 14.6148 50.9183 33.1525996309
32.129 21.0817 45.3461 32.1995857604
30.3381 23.1167 54.7888 29.766679577
31.9644 12.4241 47.2359 33.1008473568
35.6985 17.4591 51.6252 30.4109682611
25.8456 18.3742 51.085 30.588617346
25.2085 18.786 46.5659 27.8195704541
29.5788 19.4761 47.9997 29.6028800264
32.1826 16.316 49.9156 28.4481229577
28.6767 22.0864 47.883 31.7823620129
27.1102 18.0727 48.4877 29.2984314322
31.0698 19.5732 51.0042 29.3384894873
28.2194 16.1313 56.2829 25.7079258409
33.8931 18.1997 49.0199 27.7631916229
25.9103 21.8947 47.4453 26.9718723382
26.7004 22.0195 54.8187 29.6690335631
25.9512 20.9602 51.8344 28.5397660488
27.7503 22.7724 50.5655 28.7572188181
33.7094 21.0163 49.8931 29.7862248563
29.9872 21.8675 52.0079 29.6330602416
28.8252 13.1544 52.0826 30.3431748419
34.3552 21.4934 43.4669 29.9124691569
24.7053 12.6863 43.983 32.1434238687
24.9323 14.6106 53.8274 31.1936028573
35.4095 23.221 55.4528 30.8231621088
32.781 13.8608 51.6685 27.9542311823
34.9364 12.8782 53.7349 25.9313348086
27.2577 16.2798 44.2534 28.4113410642
29.5421 15.9482 53.0399 28.6863945393
29.8497 19.3393 56.1482 30.3945188992
27.2201 17.4561 53.6332 30.1204870176
32.0608 16.3452 53.6679 29.6366743175
33.0762 18.4753 52.4045 27.0341822869
28.4286 20.1486 53.6222 29.3936573635
29.6202 17.1245 50.5768 29.5720632635
29.3101 23.9415 45.6679 28.4638901492
25.1015 16.8614 55.6149 30.6841560884
30.8027 12.6833 49.846 28.5630366502
36.6438 14.7923 52.2396 29.8764867125
33.9562 14.1242 55.8623 29.2081374132
26.7406 24.366 53.4546 33.7795430862
35.5617 17.224 55.9631 29.926410116
32.1125 21.0195 56.2443 30.2182626968
31.0786 12.79 55.8046 31.5816713533
34.7087 24.8611 46.5258 34.3131428094
30.661 15.5419 56.4927 26.9244635659
36.4205 12.6274 43.6151 30.9142798922
35.1396 27.3418 9.39356 32.4791227864
28.95 26.2395 11.6442 29.7956249546
33.8257 27.1238 15.8975 29.2524690908
36.1836 36.484 10.2302 28.6848699297
31.2082 26.3385 5.78515 27.1740225407
27.4498 27.0348 16.1589 29.6083710113
33.708 24.9082 13.8779 27.8980514902
35.703 27.2585 4.33854 33.320613481
35.8632 32.1851 14.9912 30.6675631643
32.4168 29.0873 6.90249 29.0055206865
26.2169 26.9629 10.975 28.8860416774
29.6755 33.6804 15.1393 29.3046743086
28.5052 31.2983 9.64242 31.0548848483
25.7422 31.5337 5.20604 30.9684592111
32.0591 31.9953 6.56896 34.314710559
29.148 25.2436 14.5988 29.9002659846
28.5731 30.6563 4.63223 32.436512155
33.7507 34.3235 5.66307 32.7347028541
35.5116 32.5993 12.0744 32.5086990931
29.9468 25.3523 9.22659 29.6212741769
26.2538 29.6615 9.66846 28.1794224766
31.3648 27.7813 11.4687 30.1822716399
30.6392 36.2715 15.4068 29.5270741688
26.0469 34.3861 13.614 34.4594489353
35.7023 35.0502 15.5432 26.3667944193
33.077 31.096 14.155 29.3128726672
25.0486 32.9271 10.1654 28.0516782894
25.0345 31.6329 12.9829 30.1097328622
33.1637 34.4054 11.7222 32.9429763761
31.0696 30.0673 9.61703 32.8605168223
32.468 25.8754 8.39224 27.7498031898
35.0789 29.6548 7.76463 32.4507875431
33.8266 32.222 9.1732 34.6712224792
27.7653 33.7872 11.1003 31.7232049735
36.6254 35.2335 12.7641 28.2087161302
29.2831 36.1259 9.95078 32.29595686
27.1137 32.9929 7.83023 31.9054413237
33.1954 36.1289 13.987 30.8569739972
34.1478 35.2218 8.91582 27.6782104703
28.1787 27.6159 8.42517 29.8490876313
32.4554 36.4247 5.17849 29.1185079235
25.7265 28.1565 14.3427 30.0425828666
31.1067 27.3252 14.2263 31.0054450638
34.1131 28.3505 13.6209 30.2761861331
28.5698 35.7086 7.03865 28.1666138363
30.8807 30.1505 15.668 27.8189281803
32.4338 30.0268 3.94156 32.4869821679
31.8824 31.7616 11.8997 29.7760927445
29.3598 28.4271 6.07618 34.3421394994
27.3507 30.1037 12.6501 30.8091552171
29.4208 32.1153 12.7252 28.1223005339
29.5278 32.9931 5.81627 33.5687671158
33.5389 26.32 11.5286 26.9278403646
25.891 26.3578 7.09235 31.6375206813
27.4407 34.2064 16.0871 29.6813445025
36.819 34.6117 6.87611 30.2467560799
36.4065 25.9357 6.95466 34.8457133169
28.2404 30.8165 15.5354 28.8771594546
36.4438 30.3546 4.78828 30.4223316576
36.8723 33.3511 4.50308 29.7380019698
24.9147 29.2088 6.60998 31.0594556937
29.9946 35.301 4.0025 34.9179169412
29.2139 24.7601 4.36819 28.4526326485
27.414 36.8977 4.22752 29.2568918634
35.4753 35.0074 23.665 51.121292763
32.0297 28.8816 18.0345 27.8576496705
29.7726 27.1162 18.5207 31.3731436241
27.2787 27.9128 20.5445 29.9068049921
24.8027 25.2918 19.9796 31.1702559699
32.2509 27.2356 20.6517 26.7500375785
36.5175 26.7252 17.2935 30.3227940545
35.574 24.9847 23.8929 65.6203119441
27.9293 29.4 17.8943 29.3355193104
31.3509 32.6014 17.3708 35.913449037
26.5715 25.0586 24.6579 97.4679258428
35.0981 34.0397 18.4239 32.8368021933
26.6626 27.5042 23.5472 32.5986164336
26.0403 34.9544 21.3801 30.61728885
35.6229 30.3784 20.5382 27.8120848578
29.0173 35.4555 21.1653 34.5226370791
35.0895 26.8007 21.3488 29.9206843771
25.2368 36.57 19.4136 29.637103145
28.8816 28.532 24.68 114.6978458058
31.8141 24.9475 24.0115 54.2907740927
34.8629 29.2922 17.927 29.6698038644
34.8658 27.8461 23.9871 60.9031367865
26.6494 32.5304 20.5217 31.4059458967
26.087 32.4296 24.5404 111.5738967459
28.667 30.6644 21.1866 29.230020433
29.6987 27.2195 21.7974 25.9972157001
28.4362 31.14 23.8358 37.8176150868
31.717 27.7087 24.1151 61.174593654
30.8902 31.4356 19.9314 27.8163004816
32.9615 30.0338 21.1686 27.6420004236
36.5756 24.2865 19.3006 28.7184942132
33.1033 30.1483 23.866 68.8851604205
26.1537 35.1653 24.1685 63.1992735159
31.2347 33.7155 20.9974 29.8244096298
30.89 32.2915 24.0393 71.3076410863
31.3501 34.9676 24.4004 102.9723925114
33.7662 34.7478 21.1319 29.4670649966
34.8742 32.4809 22.6274 32.4024407347
32.1217 24.7636 21.2106 26.0899576692
25.9181 25.0522 17.3687 28.6963100637
28.9654 36.2453 23.9485 56.5372612491
26.0951 32.1553 17.8308 31.5872205957
28.7339 24.5521 21.7886 24.7838958538
26.2751 36.4146 16.96 26.1488375562
33.9617 31.9147 17.0275 27.6867088508
24.7265 29.6452 16.7953 32.3099364066
30.3434 33.5483 42.216 28.0580541991
26.5959 28.0045 38.4244 29.1146919703
27.1826 27.2548 35.6188 106.724613079
33.9942 31.9089 39.623 28.0358610043
33.2028 26.1687 35.575 81.7084222833
30.0469 27.2241 35.7565 68.4661283021
28.9987 35.9363 41.5952 29.6873361483
29.3352 25.0648 39.2324 31.4608993691
31.1281 34.8287 35.7726 68.86372711
24.8771 30.2383 39.2959 31.1609558841
32.6972 26.5856 38.1554 32.2295421574
25.5955 30.045 36.1583 64.1022805698
29.6597 24.3718 36.092 56.4151172336
25.4865 24.8065 41.7933 29.0854613932
27.4601 32.1656 39.0665 30.8080196251
27.9391 31.6218 36.2815 56.8028991786
30.1504 30.0482 36.0439 73.5333194994
35.1922 29.6696 40.2591 26.7597115032
27.6702 26.5243 41.1386 30.5385200477
35.1895 30.774 35.7564 93.6976531184
35.788 25.9729 41.3045 30.8084568512
26.3389 34.9461 39.6807 32.839172009
26.1288 36.4732 35.8253 72.3984431938
28.3594 34.4656 35.9681 72.6068173214
32.3018 32.457 35.9593 73.8766112305
35.0908 33.1106 37.4639 27.6043575783
32.4082 34.7878 38.4296 30.0582298607
27.9053 32.0406 42.4347 29.5892261468
29.2161 35.5226 38.432 24.6260673176
30.3248 29.3947 40.8968 32.1983677717
30.1167 27.6533 38.5972 28.0566859785
24.4768 25.9506 36.345 54.4400685602
26.1595 34.4588 42.3735 31.1043022341
27.4297 29.4915 40.9726 28.1949600263
31.4149 31.0811 38.5979 29.590912986
30.0657 33.0759 39.4887 25.1325541605
35.6201 27.7764 35.6663 71.6200942971
34.9732 28.1396 38.1312 27.7839706463
36.0995 35.6918 41.3806 28.7547172236
35.8283 35.6102 36.2105 66.428054481
29.4476 27.5001 43.0827 32.7205603722
33.5094 33.8593 41.4878 29.1484237262
33.7993 29.2735 42.5389 36.9247307446
24.4848 26.043 39.2224 28.4216082711
33.2076 36.7655 35.4337 103.6708311124
35.6295 33.2363 43.2072 30.9626620133
27.119 27.4959 45.0593 27.7249212239
32.1612 30.1897 51.0648 25.8009923297
33.9247 28.7168 47.0734 30.1307566128
30.0094 30.5169 43.8797 32.1030297783
28.7387 26.1781 47.646 28.2713060672
24.78 28.6564 43.481 29.8980660906
30.237 36.082 47.7376 26.7935549594
35.2811 28.1337 53.6608 31.7533168774
26.9672 33.8742 47.2628 31.4403311325
27.2059 31.1099 47.9278 31.6158008793
30.2309 30.8864 54.5773 28.6950006203
32.2089 32.8759 53.2967 32.4444495483
30.5281 35.0729 54.0217 27.2821961288
32.6426 31.4165 44.0487 27.3938803832
36.5534 29.153 45.8449 30.3718154787
30.9027 25.984 45.0548 32.3360281038
26.9431 35.708 49.6562 32.6416858631
31.7868 34.0321 44.844 30.1344644495
25.749 34.8677 53.6467 29.314697198
28.4689 33.8992 52.8584 32.0672744874
25.777 24.8035 47.9014 25.8479204949
29.0751 34.7397 45.7126 32.1520648992
28.1795 25.4491 50.1504 29.2950126799
28.778 29.5539 46.3971 33.9318269087
31.9594 25.534 53.9375 31.9196826661
24.9156 30.9472 51.483 29.824183588
32.9497 25.3215 49.0767 30.7498224838
35.6063 26.4286 50.1611 32.9109988882
34.6506 29.3693 49.9485 31.1548618421
31.666 27.0909 47.3501 27.1184012284
27.6311 36.5756 44.0437 34.7159789746
29.5251 32.501 49.2057 30.2760681238
33.1601 31.3005 46.4938 29.9684966841
31.7783 33.287 47.9753 27.4580579258
26.8028 24.7757 45.0271 29.6651095498
36.0849 32.0078 46.3575 29.1434858
32.8707 27.1474 56.3464 28.5836695045
27.2356 31.4475 54.6107 29.9387081833
29.5384 35.1704 50.0829 26.6109134953
36.7538 26.8563 47.7293 30.5215079035
33.8608 26.035 44.2042 30.4225851186
25.1539 31.4819 43.6605 32.0023973766
36.0012 34.9013 48.3217 30.0582359406
33.2627 32.535 50.4471 26.7300176918
35.6813 32.0351 49.2767 29.5604407788
24.854 36.2283 55.8145 30.8396319744
25.8456 27.1788 49.9867 28.3205396575
36.5176 25.7721 54.7074 28.8129318451
34.9515 30.4016 55.387 29.0904132036
30.1505 28.7751 49.1138 28.9969219904
30.5515 26.7731 51.1314 30.2471450463
32.2968 28.7907 53.3586 28.0989588923
26.9042 29.1042 53.354 27.342974719
24.9574 27.5879 46.9689 29.6586979044
27.2259 29.2136 50.5601 27.7855009656
29.4874 27.885 53.8019 30.9685539062
29.644 31.0099 51.8339 27.3248341665
35.1872 32.5285 53.8438 29.6505379612
34.8086 35.0006 52.0299 28.668972506
24.7412 33.4097 45.4605 30.1523096402
34.9955 34.6967 55.481 29.7323823097
27.7683 26.1249 55.3641 33.5641103908
36.1317 27.9151 43.4829 32.663109834
37.0104 25.1437 52.2677 27.7731098097
25.2054 27.5591 54.9375 28.3639435851
24.8109 36.1742 51.4556 31.7285090502
35.8783 35.1177 45.4496 27.9784599177
33.3293 35.46 49.1157 25.7327600609
33.5366 36.3602 44.78 28.7173950055
25.0787 43.5409 10.4956 28.284662354
36.0439 47.1651 15.5952 28.4282271471
34.9965 37.7628 16.1878 27.7539388685
35.6985 39.7856 9.77898 32.1827008133
32.7468 40.6843 13.6506 30.0983736778
35.2633 39.7127 14.4675 25.2782260645
36.5807 46.104 4.71589 29.2297347875
33.7794 40.3642 7.26105 29.5304334645
29.9774 37.4236 12.4847 36.3582522911
33.7315 47.5718 6.56758 28.5385111519
25.1613 41.6757 8.43611 35.9739787062
34.0517 46.8811 3.73381 24.3869625792
29.665 40.3143 6.68859 36.1148212067
31.8907 41.2858 5.27253 28.2682229392
32.599 44.0214 5.30618 33.4004509343
34.5987 37.3755 6.97056 29.605849019
33.0192 39.4253 3.63446 36.6763998091
25.8264 43.9602 3.85614 32.62028613
36.1186 47.5865 12.5979 32.9505785607
30.2063 45.4063 6.6863 33.4519441767
25.236 46.6269 5.0169 33.2893193156
31.126 48.0069 6.19784 30.3724595929
25.8549 38.7003 11.9159 29.0104006257
34.6867 44.6341 6.87893 30.0300600805
27.9511 40.8287 8.87636 36.1378040618
35.5728 44.2848 16.1177 26.6791254659
25.3252 41.3145 12.5024 30.101882247
36.4551 42.5378 13.727 25.8402792903
29.1508 42.5905 10.6332 29.8138280245
32.6637 40.1436 9.64562 32.6786780082
29.8613 48.2356 14.5297 30.5995218671
31.9778 37.1135 9.40468 30.0925613221
27.5988 44.7495 10.9255 29.2394594587
26.3113 48.0501 13.2849 29.3165775473
28.4006 45.9623 8.65969 31.4531366818
31.3417 45.3382 9.62865 29.8881766814
31.8903 42.6779 10.6648 29.6419328848
35.8804 41.7979 7.42513 30.8609800393
34.9221 44.1455 9.92061 29.7489667464
32.4705 49.0052 10.692 29.736621907
26.1746 47.0841 7.59641 33.6942936916
28.5889 44.3059 4.3602 35.4076682805
31.6178 42.666 16.274 26.4717434114
28.0177 39.4101 4.23421 31.1296916683
30.6457 39.8664 15.5737 27.0469610101
33.4901 48.2584 13.2665 28.1686050914
33.7938 46.7853 9.24513 34.1536016488
30.6032 37.4992 6.94867 30.5093733509
25.944 38.3858 14.9977 29.1151296474
33.8866 43.3816 12.5979 27.5402615869
28.466 39.3759 13.9542 29.3547425057
32.7845 38.2195 12.257 28.6073311699
27.3954 38.1305 9.87881 32.4257235563
27.2527 43.4398 15.2227 26.206240778
31.0137 46.0998 12.6323 30.1969997399
33.541 45.4697 14.2672 28.0294715875
28.1896 45.7975 13.4068 28.9533406316
28.1324 41.9665 13.1142 25.2320190226
30.4783 43.1346 13.6658 28.2938077816
26.0409 45.9067 15.8977 26.9447956405
30.0006 48.4884 9.07934 30.5982124618
26.159 37.1222 7.16969 27.7831482295
25.3071 40.5951 4.1978 32.6124227074
36.4742 38.4431 12.2986 27.6424681736
34.0126 44.025 23.9251 59.0184653654
28.3821 40.0275 18.0162 29.5772235608
30.1474 38.9131 21.4669 28.505315347
25.0917 39.3145 23.432 34.8002126715
25.598 39.061 20.8459 30.4451074788
36.2503 47.1318 21.3296 26.7952648235
33.1754 40.7532 18.063 29.4698521054
27.6873 43.2805 21.3677 27.7693444238
28.929 37.3174 17.2311 27.6937571389
35.0016 39.4228 20.5073 31.9055829994
34.2179 43.0757 21.3853 26.6879747259
34.6348 48.9321 17.416 31.2375701871
28.657 45.619 18.1636 32.2580061413
26.8021 47.9693 18.0322 30.2224756888
24.8982 42.4244 23.9502 53.0679916221
28.6306 46.1594 21.4663 29.0798179975
36.6716 41.5059 21.5025 28.3868614482
32.3028 48.4219 18.8543 26.7782529145
29.8219 39.0215 24.3131 78.80626576
32.247 41.2339 20.7047 27.4437543916
31.8629 40.8966 23.8008 46.0010632098
25.7637 40.731 17.033 27.4013122447
34.1607 39.7447 24.2801 88.2586894142
28.1012 40.3901 20.7616 28.9784875782
34.5783 44.8275 19.4083 26.9607137394
31.0811 48.3837 22.5177 29.4679899143
27.4827 40.5564 24.6062 102.6649401612
28.4209 43.0705 24.2614 56.9796518244
32.4743 38.0803 16.9931 30.941868842
30.2159 43.0304 20.1163 29.0799658144
31.0321 43.9779 24.13 61.9492754973
30.5332 36.8887 19.2782 33.0526009731
26.207 44.8996 24.3834 77.6352699739
29.0505 46.5185 24.4674 89.9593528804
32.864 46.8081 24.3526 79.9429729808
24.8522 42.6041 20.8628 28.3382055241
31.3459 45.1461 21.6509 27.2530070229
33.4665 46.9436 20.7944 26.0626626612
36.1168 46.7453 24.0612 54.6980858153
25.7133 43.7123 17.9792 29.614903584
25.7078 46.3788 21.4603 29.569560378
29.0995 42.6474 17.3717 27.0804337708
33.6271 36.9719 24.067 65.1247306346
35.9166 37.1149 19.2162 29.7893477715
36.193 41.5919 24.1168 55.4659628857
32.9765 37.5535 21.6321 29.9125184542
35.4713 41.5501 17.134 30.1314279407
26.9829 49.0618 21.877 29.4378824978
30.8528 47.0196 16.9501 32.5415486979
32.7104 44.8643 17.1576 29.3957305669
28.5026 39.1049 35.6091 85.9024089097
31.5556 37.6867 38.3176 29.0037206106
32.5866 41.3057 35.4312 101.7560439424
31.2219 38.9033 35.7739 53.0915914089
32.6249 42.0322 40.5101 28.7050111893
34.3911 48.8969 39.5354 28.9672131448
35.481 46.3798 38.7993 29.2221364361
27.2167 48.5359 40.3465 33.334699848
30.3888 40.8546 41.2536 26.166828017
26.7922 39.6932 40.1718 32.0330093016
26.2821 42.2697 35.7089 71.9361847118
25.9609 45.1232 36.1118 42.7368003817
28.8918 41.6393 36.3541 33.9392431728
26.1878 43.0285 38.8327 29.985940403
30.8098 43.5907 35.5729 82.5691051914
28.7252 41.5376 39.1609 29.9692572369
30.2606 48.1945 36.3766 39.3770316684
34.0606 46.9354 35.6311 101.0202943507
33.1636 42.8172 37.8256 31.2308393567
28.8698 45.8688 35.4647 112.1605821309
28.6597 39.0831 42.971 28.4901914879
32.2991 45.3995 37.3747 29.0567241473
25.342 39.336 35.771 62.7455643349
36.4097 46.184 36.014 40.8685877422
24.6542 38.5454 38.6651 26.258226831
34.1638 38.6126 38.7493 27.0271985425
27.3891 37.6027 37.9854 27.638676794
27.2298 45.8709 38.9593 32.5293742477
30.7825 38.0168 41.0219 29.0550939495
24.4328 45.1172 40.1259 31.7772969158
34.4259 40.2432 40.8551 27.2549384822
35.5621 41.9896 37.0789 30.7136165423
29.9853 48.6827 39.3696 29.8548792326
34.7584 39.2475 36.1506 45.9401231324
29.0384 44.2523 40.1968 31.8018795088
36.4313 44.4799 40.7258 30.5306196703
33.4623 45.7658 41.3652 29.5069118467
31.3411 46.0614 39.6975 32.2953754698
24.9522 45.1918 43.0733 31.4417988508
27.7399 44.4118 42.7647 30.7524748327
33.5115 37.255 41.4996 27.8969798505
24.926 40.4816 42.4834 29.0704570034
32.989 43.6146 42.8115 31.2948641925
36.7201 37.5066 38.7182 30.4136447989
36.3836 41.7823 39.705 25.9533612253
27.3634 41.5746 43.1396 26.085955498
32.3955 40.0773 48.3269 31.5208815638
30.7923 39.9395 44.6577 33.1808579523
33.2582 37.5144 47.3411 27.8053224983
36.4591 37.3687 43.4168 28.3397961407
36.9334 45.9678 52.3946 27.8451901368
25.4391 46.2158 53.2277 32.8694190728
35.6835 43.9653 54.2181 32.0385100987
27.5299 43.6173 47.3073 33.0352409226
26.6091 41.5739 45.6325 29.9594240352
36.7641 41.427 54.4568 30.1073665105
30.6237 44.3967 45.891 30.9794049035
34.9883 42.6484 44.7232 29.3277758949
28.4074 45.5555 45.0377 28.2153054819
30.1017 47.9018 45.0399 31.079552784
35.945 44.5559 50.2485 29.5557568477
27.6868 37.9407 48.494 29.7465429541
35.8832 45.2256 45.8958 30.3828193283
29.2365 46.2284 55.1192 31.1568395727
30.3011 42.8383 43.6074 29.4050782502
24.8703 47.9997 43.7457 31.6459698839
25.6008 39.424 47.2115 30.0686095203
32.1687 40.451 51.1734 26.3933844548
27.6005 37.4828 53.7768 27.564182832
35.5389 38.1028 52.2311 28.8091262405
29.9893 38.9107 47.1256 34.4139333694
28.2818 39.7575 50.6347 30.4793795648
31.8999 48.6391 47.7219 29.2229013409
36.2399 40.6757 51.2371 26.9740058273
35.4827 40.0316 44.4631 27.4784021007
25.6892 43.8985 49.4245 30.6803310513
29.9023 42.1271 56.1771 28.9531791401
30.0603 41.7044 50.1974 28.3262918781
30.0471 43.9825 48.8271 38.2176003047
25.2325 40.8843 49.666 27.2797836793
33.7797 42.5893 47.3454 30.4615504343
26.7349 46.2341 50.8981 36.4255874922
34.1534 42.3227 51.9592 27.2681103144
33.0061 46.7832 49.2629 29.117817435
32.9771 46.0711 46.0447 29.1333884309
32.4571 45.6209 52.5384 32.222930355
29.5579 45.535 52.4386 30.3833720529
33.1787 44.8548 55.1662 26.2376448488
33.3218 43.7829 49.7357 26.9884140206
29.0191 39.7115 54.3826 29.0203185846
28.3554 48.4605 51.8581 30.0651449112
25.8018 39.0809 52.547 25.4557678493
32.9863 37.5334 50.8313 29.6856193809
35.2074 48.7923 43.6592 34.7245375378
30.0425 37.1736 52.1602 28.1993099527
35.6968 47.1218 48.8065 30.4951459311
36.038 41.3658 48.552 29.5361042392
35.8279 47.8357 54.5373 27.8361834036
31.8221 42.5647 54.1842 30.1891486132
26.3931 41.6914 52.3593 29.9201359036
29.1507 42.8609 52.7317 31.6038409285
26.2753 47.132 46.0659 32.2494297863
33.1257 36.6757 53.9954 28.9482754141
31.6415 39.3157 53.7034 27.3659118329
35.6038 39.0853 54.8091 31.2316290442
32.8555 48.6818 52.3516 30.5120694766
25.0587 43.5024 53.9717 33.6024656786
36.115 38.8048 47.2559 31.3556588711
26.7465 47.6337 55.4567 29.3058544859
35.7563 48.6866 46.2524 30.3383946049
31.507 47.9016 55.9977 28.9682343379
33.0693 38.8342 43.7957 27.9388819452
36.9455 45.8683 43.341 32.7501610622
32.8287 47.5361 43.6803 30.884508124
43.4393 1.8858 9.12499 28.6514629541
45.3278 3.8413 10.2851 29.7916067894
48.2752 6.5871 15.3156 32.2836430067
45.9085 1.71876 7.31556 30.7548541321
46.3839 11.2242 15.9848 31.0648453501
38.6797 3.16455 15.8578 30.0696653763
37.415 6.91008 16.2286 32.6154669108
39.3313 5.1727 6.19014 29.7249685968
39.7638 7.79092 10.3532 33.9760514998
47.0865 6.86494 7.58025 29.5791079977
38.5762 1.72875 10.1242 30.7709583305
39.0071 7.95048 6.17338 33.7436007748
45.9385 -0.039194 15.6642 26.062290743
44.441 5.56326 4.80713 28.0488602187
47.7228 4.08827 7.23251 29.0263220116
42.1081 6.87217 5.51353 32.6676398225
44.0414 10.9553 10.1087 29.3287546113
40.7402 8.84444 12.6928 30.5329118826
42.961 12.1146 5.48926 32.0863748434
44.4982 0.490684 4.52795 30.4778978521
40.8515 3.2125 9.63719 33.336360059
37.1416 6.81011 10.1607 30.3647244412
37.6411 4.48906 8.25596 34.5025585928
37.5837 11.6741 9.19635 35.2679088821
47.2729 0.252672 9.16405 29.6791599633
39.1676 10.8666 16.1471 31.8042914129
47.7335 10.7588 12.2856 27.8229887975
41.2844 5.41488 11.11 29.4684252226
42.9894 6.97182 9.60556 31.3341743452
41.9726 4.12337 6.92908 30.3040173343
47.3617 2.54778 10.8326 26.9651260759
44.352 5.13653 12.5829 31.8076567321
37.1186 5.2253 12.405 29.8372689843
48.9437 6.17599 11.5163 29.7971407976
41.2983 8.76409 7.90538 34.4901142175
38.2521 10.3065 13.6234 35.1356857868
45.7021 8.72137 10.2393 30.8061837865
41.1223 6.90348 14.8926 30.1076431322
47.4711 8.14141 13.0189 29.5574348096
44.6515 5.46305 7.873 28.026018079
45.4004 11.3786 13.4219 25.6866167709
46.028 9.108 6.01242 35.4587308754
43.5136 2.18201 14.9996 27.5396947452
42.6288 1.30662 6.3894 29.8548169485
47.2381 4.1836 4.5477 30.1994490211
