34.2013 1.04206 10.3729 31.0665695466
27.1109 6.70865 8.1149 30.6824356905
26.0324 4.40662 9.72925 32.3226525617
30.5241 6.82108 8.08777 30.2749333821
29.0247 6.21361 10.6456 31.1044702724
33.121 6.76007 9.20302 29.777389132
27.321 11.211 7.69824 33.2828723673
27.3173 10.2203 10.5157 30.8555403937
25.2098 8.27428 9.61212 29.7455500311
31.6701 11.0851 8.55626 33.2524291002
35.921 12.106 7.21955 31.6009630324
35.5527 8.36084 9.1353 35.7755540868
25.3584 13.476 7.43852 32.5216498083
25.4274 14.1221 10.2094 30.6087485962
29.4716 12.6504 8.64416 31.1852283532
34.0384 12.5365 9.25255 35.3026925571
36.2164 16.0512 8.90927 31.5243106161
27.8166 1.72418 12.9585 33.2215264157
31.3435 2.11945 14.1238 29.8301777153
33.8718 1.82502 13.3312 29.2343603316
24.637 6.6269 12.1694 26.1137527108
26.8416 4.74806 12.4543 29.2555589403
29.4565 5.69434 14.061 27.2346720664
30.9903 4.11895 12.1968 27.9761794917
36.3704 5.05469 12.2545 29.9454377899
33.4924 7.97544 13.0346 31.3210310295
33.3591 5.36278 11.5949 28.620097773
36.2998 7.92633 12.9886 32.8675381144
26.1278 10.8665 13.2323 30.1278379594
28.5224 9.64589 14.1846 25.7478055444
29.4322 8.83125 11.6128 30.7111734065
31.9084 9.13113 10.6907 30.3718169809
34.7274 10.5276 11.1888 27.5756120235
33.6232 11.5564 13.3712 31.7216135277
28.7061 12.5129 13.6454 35.1055153591
27.9038 13.1399 10.994 28.5345397631
30.3873 15.313 13.6947 32.3594758092
29.8977 15.2071 10.9261 32.0781340937
33.9817 14.9293 10.6901 29.6003923433
32.8382 14.2189 13.1127 34.5312481291
36.7461 15.1715 11.8603 31.6317274839
26.2387 1.24267 17.5468 29.6509791692
26.3817 2.69216 15.2923 26.7603826998
31.2749 3.27011 16.694 31.5756045159
36.5585 0.429019 16.7448 30.8733744864
35.5378 3.52984 14.4375 29.2028666224
28.5925 4.15349 16.2087 28.2396178294
26.8575 7.22213 14.6174 28.5571162248
28.0204 6.75544 17.5687 27.768821374
25.0498 5.1216 15.4961 28.6979366084
32.4839 5.81544 16.7295 29.2258398614
31.5032 7.4393 14.7945 28.9537247241
35.1417 4.75865 16.6631 32.2312527661
26.2862 10.4532 17.7145 31.3407606396
31.6716 10.2713 15.0345 33.8579612098
28.8565 9.37535 16.9632 30.4114970523
26.4182 12.9706 16.9055 30.5083543027
24.8237 13.0659 14.5591 29.0450294543
28.9961 14.1868 16.2789 33.7294090398
31.2597 13.2208 17.632 32.6640665789
35.1973 14.9664 14.787 28.1123692523
34.6486 14.4533 17.5482 30.5118203571
35.8762 12.442 14.8558 30.0131822726
28.0586 3.00593 19.1192 31.366662356
32.0482 1.56392 18.8034 28.6953177533
30.6216 2.99186 20.6382 29.6565332039
34.646 2.3878 18.0202 32.0763392561
34.8705 3.16128 20.7863 28.7375164441
26.7005 6.83274 20.1143 26.9498604588
26.2417 4.40872 20.6223 31.4528991182
30.6239 6.72954 18.6516 28.1018473016
33.625 7.99088 18.576 30.003906586
33.8582 5.84607 20.6875 30.3815166855
24.8515 11.2172 20.2143 29.8403263307
32.3126 10.5653 17.8984 29.1996162504
30.2136 9.44478 19.7799 28.6766377012
36.3771 8.72952 18.7106 26.6204298812
34.9531 11.6749 18.5676 30.2710745114
25.3818 15.2231 18.1415 29.7055751336
25.7787 15.2735 20.9559 27.7416367833
32.366 15.749 18.3814 29.7900742307
30.0326 13.2245 20.2386 31.5933053153
32.8111 16.2417 20.9659 29.0209502265
28.0574 0.839271 21.2949 30.6825099887
27.2498 2.08846 23.7548 65.3557154207
30.1263 2.46115 23.498 35.3014234947
31.8998 0.760708 24.4255 102.0240800446
33.299 0.878493 21.4235 29.6195231596
36.1767 3.88315 23.6028 52.8475056252
34.5527 1.20048 24.1066 78.8511769732
26.1911 4.62197 23.3081 32.6372461466
28.2054 6.38845 24.21 80.2139928761
30.6861 5.00782 24.275 101.9826016342
28.9567 7.31703 21.6796 27.846246275
31.0278 5.66293 21.2875 26.2707988707
32.9656 6.86058 23.7321 41.7578326464
35.6239 6.73642 24.365 89.2177306441
36.3954 6.97669 21.7568 28.2411382598
27.2917 9.01122 24.1194 77.755442887
27.5885 10.423 21.5305 30.4385027931
29.8019 10.5611 23.9507 51.4013213757
31.9775 11.7326 21.6447 26.5785425539
32.4831 9.63079 24.3746 88.8184229691
35.8362 9.77306 21.4278 26.6791643304
34.4876 11.4652 24.1547 49.5820130866
32.8898 8.90331 21.2504 27.1851522364
36.6508 9.32422 24.6434 99.2930981906
25.8884 13.9039 24.2134 72.9260670895
27.5372 13.1081 21.9574 27.7912044821
28.5455 16.2903 24.0968 69.9858233928
30.163 15.2986 21.874 26.6867745408
29.0898 13.374 24.5156 95.0039623088
32.0672 13.0454 24.3066 67.1026130128
33.5308 15.5614 24.19 69.2138013542
35.5493 15.2426 21.3327 28.7297683757
36.3079 14.7701 24.4824 95.4940652896
34.4955 12.5049 21.2511 28.1668116904
27.967 6.33153 35.2926 112.2424981041
28.5037 2.30155 35.7838 64.4995421249
25.5971 2.80337 35.5818 86.9661690052
28.3809 1.10824 38.3105 30.106650299
24.8241 2.25993 38.5214 27.3894177763
32.7335 0.862745 36.0552 49.2839715286
32.2668 4.03261 38.3587 31.5993324381
30.3631 0.205963 35.4875 109.5549202615
33.2949 1.32874 38.6252 31.2511943138
34.505 3.48998 35.5038 122.5682912541
25.1865 5.46076 38.522 27.8297765969
25.4425 5.60035 35.7603 53.4125122528
32.4677 5.51934 35.8678 70.9392386869
29.793 4.5826 35.999 47.0011270015
32.8174 8.15895 36.1238 51.8787915168
28.3236 9.0709 36.0435 48.2469399261
25.763 10.1918 35.4412 106.2784767907
28.1239 9.13717 38.8001 29.5677420353
32.0321 10.8068 35.7484 69.2735519699
29.611 11.7282 35.81 73.8368140793
35.6654 8.33658 35.8081 83.5110381391
35.1039 8.37175 38.522 30.3348669793
36.4219 11.0828 35.8145 66.9379823118
27.5662 15.6238 36.8781 33.9508229624
25.3837 14.5885 35.5862 113.9794223723
30.1887 14.6732 35.852 69.941087548
30.2527 14.539 38.8136 29.3150669894
33.091 15.3619 35.7189 68.1955059529
34.1687 12.7549 35.325 105.5310399765
33.659 12.7387 38.1197 31.0333046229
27.074 3.17961 40.1725 27.3906268495
30.0994 1.43288 42.1334 27.1365722849
30.9948 0.486717 39.8287 30.9833308273
36.8523 3.40214 39.028 28.4069630279
35.985 0.623204 39.8897 27.8657199129
26.7947 6.22174 40.4038 30.232843065
29.4514 4.5402 39.0285 27.3706019355
29.8538 7.13726 39.6398 27.3166564966
30.0287 4.18461 41.7712 28.0815605708
32.3761 8.15177 42.2101 25.5356666382
29.7609 7.12259 42.2795 27.0438922877
35.8369 5.9632 39.9062 29.1467195531
33.0353 5.71317 40.5027 29.351816375
24.6315 12.1252 39.2731 27.4602029594
25.6041 9.50759 39.6227 29.3127454347
24.8968 9.84913 42.2848 30.0175394341
31.58 11.0925 38.9967 25.798390621
32.3332 8.50234 38.9706 27.1352983838
29.4608 11.2352 41.7675 32.9432943447
29.0081 11.9345 38.8796 27.3190461159
32.1418 10.9181 41.6519 26.0863370066
36.7433 10.2674 39.8773 31.4578053662
26.9189 13.9981 39.393 28.1798403024
27.2079 14.8784 41.989 27.818381313
32.602 13.7427 42.3392 28.5163306082
33.4576 15.4421 39.0784 27.9949118468
35.0888 12.4341 40.7956 27.8285451535
26.9451 2.2698 42.716 26.3655733107
29.1358 3.81516 44.8126 28.7087471428
32.388 1.60485 43.8658 33.2716219482
36.0958 0.0750642 45.5007 32.6362216841
35.3816 3.94528 42.4856 30.2947123773
35.511 0.964095 42.8345 31.7034399729
24.9423 5.95133 43.0009 29.639834465
26.2541 4.25598 44.8166 27.3829686113
27.4428 7.52758 43.7549 29.6495425668
32.7236 4.51926 43.5737 29.0428060726
31.8158 6.72426 45.4352 29.0350952866
36.5213 6.5878 42.867 29.9922127065
27.1137 10.2827 43.7401 30.7841901058
30.7312 9.17096 44.5379 29.353512264
32.1515 11.7386 45.5424 30.7755431127
34.5864 8.53281 43.7004 30.623635864
35.0421 11.3264 43.2477 28.9488878688
26.735 12.6555 45.1644 29.5431140735
25.0301 14.0761 43.4283 28.4713710422
29.993 13.758 43.3243 27.9269634531
36.0012 13.2324 45.2869 30.0094283298
33.3516 14.4075 45.0597 26.1366378702
26.1309 2.54142 47.9058 29.5585833525
27.9308 1.57645 46.1109 28.7844439351
25.0078 0.294842 49.2892 26.5370421993
30.5897 1.43525 47.5909 29.8525071771
32.7618 3.63025 47.8893 26.7924282016
34.0706 1.13254 47.0399 29.5499470465
26.5543 5.16842 49.1879 30.9238645706
27.5447 6.41599 46.572 27.8748419415
30.2693 5.07067 46.8878 26.8416351318
29.6971 7.56881 48.687 28.6832828129
34.5207 7.61966 46.36 31.7814181443
34.6627 4.50263 45.9385 30.1634285639
28.4724 9.30013 46.805 26.568759855
25.2182 11.7979 47.2235 34.271450339
25.7571 8.93503 47.4532 29.1274734835
29.1629 11.532 48.1698 28.4138372102
31.5004 10.0921 48.9536 30.1374713986
33.2239 9.93606 47.0825 28.4343342046
35.0388 11.8285 47.6343 33.1522833754
28.2237 16.1639 48.2658 25.9599081172
26.7657 12.2808 49.3555 26.827714795
25.764 14.9723 49.0146 26.5214431441
30.6394 15.8091 46.7108 30.8046706372
29.2854 13.2946 46.0125 28.9752069439
33.4472 15.8047 47.6391 31.0125645513
27.6738 1.07852 50.6427 30.8053657528
28.3954 3.75738 51.0783 29.560788431
31.2303 2.09212 51.018 29.8128320927
36.4336 3.19834 50.1172 25.6771465518
34.1404 1.38643 50.2069 29.1242306591
36.8827 3.90037 52.8705 28.0098776925
28.0987 7.32294 50.7923 26.5051191835
31.0831 4.75143 49.8164 28.4650842783
32.9807 5.98581 51.3452 30.1287270839
34.8841 5.32901 49.6565 29.599463904
36.5474 7.22464 50.7937 32.40613757
26.1977 9.37438 50.1936 29.840731816
26.5321 11.7819 52.3116 30.3580665699
31.7318 8.33274 51.4805 30.4108241315
35.9665 9.06291 52.819 29.6211684845
25.0584 15.2696 51.5369 27.9833507915
29.6213 15.8343 52.1932 29.5077226274
29.3348 14.1347 50.0877 32.8267406527
31.956 12.3169 50.6272 30.9670804052
31.6717 13.7029 52.8998 30.3263876127
33.8838 13.7544 49.583 33.8769082275
36.123 15.2863 50.4913 29.182235564
36.259 13.2836 52.8673 31.1162073629
25.3866 3.50411 53.6992 27.6865786079
25.7623 0.730132 52.9833 29.3370865885
28.1896 1.25307 54.8795 33.3014205474
25.0073 3.01483 56.3232 29.1110771303
29.1161 3.9405 54.0296 28.5197127395
31.9661 2.05341 54.1313 28.8876572364
34.855 1.64886 53.1436 27.4844661217
35.3846 3.5201 55.5638 26.9359547784
26.864 5.74992 53.0285 26.3117675987
27.62 7.45027 55.4315 33.359255885
29.4898 8.04077 52.904 29.6068741934
30.6863 6.15806 54.7279 32.8000864132
33.0825 4.5432 53.9216 28.0587342471
35.758 6.48919 54.2439 31.2183363598
25.9469 9.42383 53.8627 31.8107605079
25.6302 10.6466 56.4101 31.5918301789
30.4429 11.0957 53.819 31.8638838808
35.047 11.4776 55.0459 29.2715837175
33.2128 10.0376 53.1416 37.9944301443
26.9386 15.7939 54.2268 27.7831790102
28.4204 13.2657 53.657 29.2123633623
27.8743 12.5051 56.3676 31.2671066726
34.5762 15.8967 53.0189 30.1684309657
33.6666 13.9621 55.1183 30.1746519041
29.0881 18.405 6.11018 31.5662353297
31.5093 16.7243 6.83742 37.8282293422
34.6551 19.5086 6.60548 34.9787625964
33.1794 17.7887 4.86371 32.9511074179
36.7959 17.3623 4.04031 31.8749880633
26.9493 20.5483 4.43566 28.7528714955
28.6431 21.3673 6.4386 28.3000836165
26.646 23.3816 7.10767 30.8276336974
31.0187 22.0731 5.54848 32.8346788424
36.7868 22.8853 5.28361 33.0880297372
34.4672 24.4591 6.54588 29.9557227155
27.8087 24.8356 4.76622 29.617490982
29.9809 26.3478 4.38545 27.9846174522
31.6416 25.0308 6.18281 29.0117381828
34.0326 26.6438 4.64887 27.3887237344
36.7703 26.4224 3.88884 30.4297060151
26.6161 29.695 5.52208 28.204676091
31.5571 30.3343 4.83475 31.6079073183
29.3079 28.8342 5.84608 29.0001621807
33.1926 30.819 7.00204 30.1716918147
35.3515 32.3712 6.20135 30.6839320642
27.0348 17.2891 7.41679 30.294437985
27.7699 16.7183 10.1368 31.2991925731
25.1874 19.0634 7.92904 30.4626286495
30.8022 19.3258 10.4027 34.3410659704
32.2844 16.8369 9.77534 30.6784042001
34.7181 18.3418 9.11531 31.922261909
28.4593 20.7259 9.3493 31.2798095406
32.0832 21.9391 9.7696 30.1837186022
28.8265 23.3436 10.6165 29.297767084
33.0955 22.0224 7.20956 31.9780577977
34.6625 23.0144 10.6632 27.5340156842
27.2772 26.2652 7.91724 27.1279847788
27.0635 25.5843 10.2729 27.5338443399
30.9629 24.578 9.44705 31.8600739753
29.8793 26.8782 7.95903 29.4006960213
34.2999 28.2799 7.20805 32.9628016925
33.5813 27.8119 10.3851 30.6698121309
35.1878 25.6408 8.84335 31.5934099668
26.0114 28.7076 8.57878 28.1794468913
28.6019 30.1725 8.40118 32.1018390394
27.0754 32.5041 7.7314 30.3951787832
31.1788 31.7221 8.89145 31.1955721955
30.7415 28.9408 10.086 32.5739496925
25.0621 16.5585 11.3471 31.1959978113
26.4044 19.7837 10.9324 28.510782866
28.0815 18.4607 12.8783 34.0195977434
25.5462 19.9843 14.065 31.7496829531
30.5184 18.1313 14.1238 28.6559765652
32.6975 19.4168 12.7511 31.4893975127
35.4128 20.081 11.2851 28.0701314288
24.856 23.9409 11.2432 30.136467109
26.5584 22.6835 13.367 31.5937471315
32.3126 21.9755 13.5843 29.7869343386
29.6482 22.8887 13.1722 28.7404995034
35.1069 23.2288 13.4637 29.0694058839
27.9078 27.2791 12.6725 29.2813801947
30.2642 28.569 13.0468 32.6967218415
32.1083 26.515 14.1283 28.6557649713
32.9298 25.3063 11.429 31.5368216615
26.0377 28.8764 11.362 34.9130587652
30.8145 31.3867 13.8397 30.1560870384
32.6197 31.3245 11.2561 31.4136838044
35.316 29.2131 11.7733 34.6286649144
35.4698 32.0365 10.8505 28.6058749143
25.7745 17.6336 15.8906 35.8440535099
31.348 17.858 16.7658 30.3337390745
34.2641 18.5812 15.4333 35.4776170154
36.8919 16.8995 14.7628 27.6101525331
26.1437 22.7689 16.1371 31.0545284087
31.958 22.5198 16.4805 30.0872244165
29.4456 20.8504 15.2227 31.9516525104
36.1546 20.8247 14.2266 33.479162668
26.1583 27.7479 14.6474 29.4334134156
26.741 25.6328 16.2398 29.2497741458
29.9726 24.9932 16.9587 26.5315358365
31.6173 27.0861 17.4995 27.4271026378
29.3951 25.3749 14.3625 28.9912421351
33.9358 25.0131 15.7869 30.4329858825
33.5788 28.3657 15.8396 28.8002989605
35.6304 27.6442 14.2566 31.1545403172
26.9458 29.8962 16.1992 30.6832741203
25.482 31.9988 15.1929 25.7425899259
29.701 29.3527 16.4297 29.4462020971
30.4005 31.7225 17.2036 28.343116514
36.5026 32.1601 16.9107 29.3036397752
32.8767 31.2166 16.1509 28.6469622796
28.5669 16.5618 20.267 30.8144276803
28.1034 16.8101 17.7396 31.0865617453
24.717 19.257 20.0738 31.9846418842
29.3139 19.567 18.1725 31.9483513623
32.2562 20.4171 18.4465 30.1817020264
29.3442 19.4034 21.0674 27.7897784393
34.7373 18.6614 18.3068 28.4597660615
36.0872 16.4709 18.8101 26.3181176982
25.0158 22.3117 19.2124 34.0521517717
28.7799 22.6561 17.8387 28.921974719
29.2854 23.5855 20.2108 28.990271101
36.6791 22.8177 18.8105 27.8758750027
34.0295 23.4209 18.3416 30.8282552882
25.4764 25.4811 20.3652 26.8751465586
27.9197 26.423 19.0163 29.8065565951
30.6891 26.0588 20.8097 30.3780051073
35.4221 27.2756 18.4096 30.9646518067
33.2717 25.8587 19.6028 25.6222205164
25.9913 28.854 18.6051 28.4229391071
27.8894 30.6409 20.6422 31.3696556849
25.0842 29.5133 20.9941 25.5801428451
31.0781 31.9399 20.0935 30.1913648109
29.4536 28.7336 19.3752 27.3742518095
31.8564 29.3865 20.9518 28.8792243969
34.3068 29.0061 20.3531 25.8196661725
34.1204 31.1209 18.5152 31.0660463104
26.0536 19.783 24.2509 84.4583461624
25.6822 16.7354 24.018 57.6885229517
29.722 18.8704 23.9258 58.5849566688
32.5896 18.2879 24.0546 68.6706637714
35.5757 19.7032 21.5273 30.1945017776
35.1161 20.0283 24.5277 88.6863232166
32.8486 19.1112 21.3028 27.2173589044
28.2593 21.5984 24.4123 82.3624060893
26.9023 23.3684 21.7134 27.6907010581
26.4777 24.1421 24.3102 82.5628161477
26.9103 20.6204 21.5019 29.8146736525
31.2447 21.6267 21.466 28.3232712974
30.8182 22.7723 24.0913 68.2643511999
36.8586 22.4257 24.1417 66.6628345109
33.9562 22.6211 21.5084 29.2520126113
33.5214 22.6955 24.2941 69.0152634145
36.8784 23.306 21.4027 26.2746138625
26.025 27.1087 24.1148 76.6324725732
32.6013 27.1588 24.6125 99.5051533539
29.0677 27.8042 24.4646 102.974876546
30.5491 25.6145 23.4402 35.666426631
35.0202 25.8601 21.6387 30.1611462852
34.7076 25.4343 24.3354 65.0784276956
25.9312 30.0407 23.8111 54.2365278224
32.5297 29.5793 23.7002 32.6717068524
28.7234 30.4441 23.597 33.3974132896
30.935 31.8289 24.5386 106.2219385206
36.4387 32.45 21.2534 32.8549192972
36.5133 29.5757 21.6658 28.3072119855
35.1883 30.1721 24.0377 57.5933473362
28.6308 19.9732 36.413 41.450038248
28.1095 17.8716 38.3114 25.1940304542
25.6098 19.4946 36.425 52.8944450436
32.2859 17.8247 37.6992 29.3103411857
30.5662 17.7096 35.669 118.6582399062
34.7367 17.6581 36.0703 51.7582137078
35.8432 16.9767 38.7728 29.3642197034
36.6546 19.7684 37.9421 31.8120983267
28.0744 22.4083 35.5721 121.626234574
25.4058 22.3715 36.5527 38.3029081099
31.6949 22.2962 37.3002 35.3451616464
29.7235 24.3662 36.7648 34.7203370938
33.9513 22.8886 35.4519 101.659337158
36.1952 24.2421 36.4505 31.7833940798
35.5166 20.7574 35.4854 91.4512628876
26.3002 28.2439 36.2649 41.5051996834
26.1623 24.8602 38.2947 27.5214793986
26.2517 25.451 35.7456 90.004284862
32.1028 25.5473 35.6422 82.3651160943
31.4186 28.3854 35.6074 82.1208116824
32.1351 28.362 38.8069 29.9354434126
33.6436 26.0642 38.2085 26.700981911
35.2096 26.6271 35.7486 72.3361467658
25.124 29.546 38.7977 25.2472448846
28.6971 29.6475 35.7591 80.7256315464
26.8528 31.6188 38.5665 27.9986285544
24.8446 32.3579 35.4058 108.5960222294
30.7269 32.1231 38.5304 31.9277508169
29.1697 29.2883 38.7404 30.9075944677
30.4386 32.6623 35.5965 87.5532774494
33.5389 32.2559 35.8081 65.3041943895
34.3198 29.5874 35.5109 94.5102000496
32.8597 31.0435 38.2529 27.9104168282
36.8446 29.4768 36.8606 31.7410260557
25.4176 18.1573 39.3605 26.8086365067
24.8961 17.3858 42.0429 28.2010996078
32.3362 19.099 40.1943 26.2603663892
29.1263 16.4425 40.2682 28.5933631048
32.1064 16.5202 41.2955 26.5355694853
36.1122 20.4124 42.143 28.5921786858
35.9367 17.6163 41.8412 32.0937471809
27.2784 20.6569 40.0446 29.7769388643
28.1026 23.9822 42.272 30.4025485864
28.593 23.2027 39.2265 29.5120547026
24.7734 20.5819 41.6638 29.4495451199
30.2675 20.4913 38.8626 28.4556152
32.2697 24.5013 41.7258 30.4022908902
34.3808 20.6327 39.9244 31.0981108401
33.4691 23.4016 39.344 29.3639242555
36.5177 24.1187 39.3953 33.8746568775
27.1378 27.6917 39.6689 28.368597198
29.7905 26.057 39.5376 31.6201903813
32.4984 27.6091 41.913 33.3586673343
35.3925 26.7625 40.147 26.801964679
26.6046 29.4063 42.0401 29.6182078962
28.7741 32.538 40.7441 28.6916803351
34.6428 31.8946 40.2799 33.3505084083
36.1941 29.4164 39.6241 30.6261776413
27.1815 17.1169 43.6785 27.0954170337
28.3388 19.6043 42.6767 31.4660160192
25.6289 20.0716 45.7556 28.484135154
30.0519 16.6066 43.6939 29.6112032583
32.0221 19.0026 44.8202 29.3158229004
36.6381 20.0843 44.9904 29.2019179924
33.8152 16.826 43.8287 29.8344650195
26.5713 21.4425 43.6472 29.4757013253
31.0261 20.5332 42.4175 30.6880792789
30.5514 23.0744 43.03 27.7976450909
30.7117 23.6819 45.8496 30.4423521713
33.8301 21.1874 44.779 29.0988115256
34.3284 23.018 42.8911 32.4165364356
27.0641 27.3793 44.0787 29.1876109371
25.8247 24.8504 43.936 29.2230319567
29.4565 26.4698 42.3981 29.4336928172
29.8611 27.0028 45.3872 28.5100712834
35.3344 27.0504 42.939 38.9666425867
36.5011 24.7155 43.4829 33.9100112859
27.9608 32.0996 44.8081 27.4760700239
24.7197 31.2244 44.1921 27.6086965297
31.1169 29.1927 45.6572 31.908253656
28.7839 30.7034 42.6198 29.1445116062
31.6024 29.916 43.098 35.4026553716
33.7651 32.0636 43.0403 31.5351809187
28.063 19.3935 47.4111 30.855369692
26.445 17.0185 46.391 29.1463651399
30.5877 20.4027 46.7506 30.4823421345
31.7579 18.1763 48.5431 29.6197159535
34.2877 19.6766 48.2754 28.8459092327
36.7366 17.3913 48.8904 26.9877332162
35.526 17.4641 46.3462 26.6713022251
28.7052 23.2989 49.2132 28.9525554357
25.5628 23.0011 47.9395 27.3047162634
27.8704 23.4182 46.1814 29.0128859438
31.6064 22.6247 48.0418 27.5078195548
34.226 21.98 47.4063 27.567407843
25.7848 27.8562 48.9915 28.0228176313
27.7665 26.1081 46.9195 26.4887140927
25.4056 28.33 46.1059 28.2964958572
28.8859 28.5195 48.9519 27.7663918368
31.7301 25.9592 47.5104 33.8106976466
36.7859 24.7518 46.3997 32.4994167504
34.5061 25.7128 48.083 35.0952247658
35.0812 28.2102 48.86 29.1799607642
26.1832 31.0278 46.5663 29.5595834688
29.8322 32.1665 48.7724 29.7042797636
29.1011 30.4023 47.2211 27.0592065419
34.1472 32.2774 45.974 32.0146953608
36.5303 30.1434 46.6049 38.3021507133
33.2178 30.0074 47.612 33.1304354691
24.8527 18.2005 50.3987 28.4453216293
27.0344 17.7094 51.9936 26.5720632735
32.2516 19.1491 51.1224 31.399302881
29.0587 18.2437 50.0637 25.6350594777
36.2264 19.4776 50.3322 29.3423206216
34.6848 19.6191 52.4698 29.6590360585
25.1295 22.9628 52.5184 29.3149892407
26.9659 20.8476 52.7114 28.5789546498
26.5733 20.6795 49.7781 29.6913846404
29.7816 20.7347 51.1056 31.2403150433
31.1357 23.3542 51.0876 28.048036239
35.5324 23.7152 49.9475 31.9124725346
33.7734 23.3797 51.9402 30.7189791428
27.2905 25.3673 50.127 28.0133915007
30.5151 26.2347 50.0191 28.9034000858
32.0839 27.028 52.0336 27.9306589508
34.2278 28.4938 51.2817 31.1311418146
26.8715 29.1527 51.0919 32.9341054846
26.3722 31.5734 51.6454 25.1233343325
32.436 30.5896 50.0529 29.8142913752
30.1581 29.8122 51.4328 29.2623431357
35.8918 30.2796 52.3409 28.8566291626
34.1133 32.2669 51.613 31.5923289455
28.6827 17.3191 56.2159 29.497269338
27.0194 19.0088 54.8206 28.1843931493
31.2038 18.1595 55.6522 33.0184559691
31.9925 17.1852 53.051 32.01003113
36.3868 17.6959 54.1712 30.1770066485
27.1684 22.8025 55.6017 28.3488914169
29.4208 22.3862 54.1808 30.8754560807
31.2826 20.8275 55.836 33.4821152333
36.2584 22.4951 55.1952 34.9382513987
33.7202 21.5532 54.2521 36.3346210903
27.6943 26.1433 52.981 29.7574310796
25.6536 25.0436 54.1933 24.5895979574
28.1992 28.0123 55.0236 30.8170416848
25.9008 26.7989 56.3505 30.1121682795
30.1302 24.7345 53.5219 28.8844744765
32.2925 25.1474 55.6816 33.375429623
34.2688 25.561 53.426 32.3510443686
36.8215 24.9565 54.2685 31.4815051985
25.5389 31.5789 54.0803 29.9531067503
27.6444 31.0229 56.0023 28.3028214854
30.9363 28.7791 54.2397 30.0377031527
29.6889 31.3515 54.2538 30.9263912189
35.4391 30.2475 55.0398 31.3960120572
33.1644 28.8541 55.9183 31.3477322316
27.4164 36.2464 7.09778 27.6075394163
26.4811 35.8969 4.37052 26.4809400293
27.2653 33.1472 5.01098 30.0889827906
29.5145 34.4895 5.22469 29.2157868655
31.7316 33.826 7.15777 33.2416282141
35.5899 34.8417 4.60771 35.0536856692
24.6708 39.7654 4.82557 30.3601460407
27.7142 38.9066 6.13179 30.2511941792
27.1079 40.8135 3.82626 25.9636119799
30.3512 39.0877 5.60143 32.2460007027
30.1426 36.9325 3.92299 28.5121824823
34.0525 37.1471 4.28597 32.6011779479
35.0117 39.9209 4.82285 29.6941365481
26.0212 43.0695 5.84395 29.9561942342
28.8651 43.3212 6.75586 28.8126143958
31.6078 44.4269 4.24025 28.8711447317
29.5291 42.6864 3.90907 26.305683804
33.8652 43.7815 6.49008 30.5059595061
26.5675 45.8169 6.34421 24.1251753335
28.3555 45.9395 3.95856 27.7777284869
26.1924 48.6134 6.37017 28.0030845808
25.7007 48.9245 3.72676 31.6274949234
29.9022 48.1229 5.15921 31.5338090557
32.4557 47.3783 4.49795 27.7397883643
35.0728 46.2275 5.50495 30.5699725704
34.8886 48.7445 6.62069 30.5427686101
25.3569 33.8413 9.50416 32.3086552859
25.379 36.4439 8.85547 31.6051538243
29.2173 34.7525 8.79001 29.0022627156
33.6495 35.3981 8.33817 30.7441234515
35.6787 33.5681 8.64149 30.9564289918
28.2131 39.2928 8.94122 29.2394243097
32.2746 38.7963 7.96713 30.9113471249
30.4702 37.2804 9.41572 27.7518102978
34.6944 37.8947 7.19691 29.6943144707
26.0559 40.9795 9.79432 32.670555463
27.1683 43.875 9.85061 27.8139125981
32.4579 41.3564 9.20118 29.809030656
29.3859 41.6476 8.84958 30.307184741
31.4586 44.7648 7.76976 28.6035682829
30.7065 44.0426 10.5996 33.0775746274
34.6313 43.1518 10.4737 29.0292331408
34.8438 41.2334 7.33728 30.7624254044
36.7484 41.8704 9.34634 33.3243251476
26.8803 48.7484 10.1953 30.9758881664
28.6475 45.8254 8.26067 26.5205868436
24.8051 45.4124 9.13517 30.7348045616
29.1629 48.835 8.2506 28.8182801587
32.5227 47.4866 7.95667 29.5038183876
31.7 48.9624 9.97918 28.7039886067
34.5462 45.6823 8.9385 33.6258706306
36.3455 48.2787 9.51957 29.0259371028
28.3821 32.8087 13.7967 34.1491360829
25.9481 34.1924 12.1845 27.5367974219
29.7546 36.5708 13.4358 29.2561483594
32.6753 35.968 10.8948 33.5046315179
28.9802 34.6173 11.5745 34.8121139957
36.4878 33.4428 13.1429 28.1696229677
33.1148 33.7375 12.6904 31.1154638874
36.7839 36.0411 12.7075 31.1855917406
25.3749 39.8082 12.3195 29.739154403
26.8794 37.0201 13.9938 29.3436356391
25.113 37.0245 11.6216 30.705838989
27.8521 40.0169 13.3283 26.0010786816
32.5621 40.2064 11.8801 33.0597902552
29.8594 38.7433 11.6295 29.8150050055
34.662 38.0641 12.0708 34.5232097367
27.9232 44.8941 13.7497 26.8349735403
27.0528 42.7368 12.5549 27.8632398703
30.4805 41.4807 13.8433 30.8837698008
30.7057 44.0826 14.1864 27.6728401375
34.9877 41.2782 13.2566 31.5437248013
35.5331 44.2327 13.0727 31.1068610279
25.6416 46.6901 12.2748 31.1397027248
28.5636 46.5252 11.2774 26.7333120297
26.9169 48.0807 14.1451 28.6843744107
31.0107 47.4766 12.2401 30.1916103827
36.3129 48.6687 12.4164 29.8457138531
32.8469 45.0699 12.724 30.2712369036
26.7045 34.7004 15.6354 28.1961313632
30.8301 34.3915 15.0897 26.0511664266
29.0461 34.3896 17.2773 28.7286832406
32.9074 35.8785 16.4147 29.5171941304
34.2634 33.5725 15.2453 28.3183009794
36.1775 35.1536 17.5939 30.1018074838
27.209 40.7624 15.8848 29.0895821417
26.2181 38.1584 16.5809 30.2836234524
30.4897 37.4564 16.181 31.7556274355
31.0937 40.1719 16.081 30.513404666
34.9927 40.0633 15.9449 30.9896902916
34.8032 37.4744 14.9936 32.0337331583
25.1811 42.9093 15.6918 30.2104019648
30.616 43.8435 17.1967 27.8140042099
29.0773 41.18 17.5599 31.5452956093
33.5552 43.9967 17.0258 29.9745034927
36.1253 44.4779 16.0338 34.8666977184
33.0512 41.3427 17.6103 32.8511183801
26.6417 45.3818 15.9927 29.1882851182
30.5623 46.8377 16.1877 28.0483588245
30.0172 48.7654 14.2047 30.4613146357
34.8193 48.5869 14.8086 32.9428744363
33.1939 46.5184 15.0486 29.4915498807
25.331 33.1573 18.9728 27.8452378062
25.8772 36.6479 20.5512 28.4298474829
25.2214 35.8896 18.0948 26.2890339646
28.1061 33.3738 19.6251 28.4218379291
33.8305 35.6873 18.9557 36.3187047605
33.6144 33.3093 20.6742 30.1169921368
28.5858 37.2627 18.0544 31.2948631791
26.0391 40.699 21.1694 30.4800184458
28.6975 37.2195 21.1534 26.5545842931
28.5333 40.0261 20.2243 30.1038923919
35.6585 39.78 21.1684 26.059869045
36.5921 39.8963 18.3703 32.0481405921
25.6639 43.1669 19.9417 32.3986115608
27.9918 44.9198 18.3995 29.5524003302
35.1514 44.1267 20.7539 30.587404829
33.3138 41.1562 20.5526 30.5841794388
28.1743 47.6613 18.2917 31.5492381541
25.9042 48.163 19.9753 30.4343970166
31.5089 44.9489 19.7106 28.095058189
30.0882 47.5858 21.2297 29.5759579526
31.3603 47.9344 18.517 30.8783148492
35.5137 48.2797 20.8941 30.8283103259
34.0676 46.0481 19.1669 28.401258799
36.5412 46.7633 18.1253 30.302129402
25.6914 34.8886 22.8045 25.9361052154
27.3522 33.213 24.4044 99.6776485835
29.7675 34.728 21.2675 29.6060223196
32.6925 36.2048 24.2133 61.6015326871
29.7847 34.3234 23.8685 34.3937824537
35.5715 32.902 24.1865 82.6481062722
32.9461 33.6043 23.4018 30.8932929591
25.141 38.213 24.0691 70.7842729453
27.4429 36.8749 23.7116 41.5660063914
32.3801 36.799 21.6671 29.6020744859
31.2648 39.2399 21.4255 31.9102887516
30.1478 37.2464 24.6617 114.4264958176
30.5119 40.1949 23.9376 42.8324534229
35.3246 37.186 21.3474 30.257895958
35.2731 37.1995 24.4254 87.0860916944
35.2688 40.075 23.9743 50.2361877194
28.5736 44.3153 24.1263 44.542288177
25.7141 44.5643 24.5127 95.4650574332
28.2562 41.6726 24.6236 105.8284743986
25.6968 41.0075 23.9276 43.9781975233
32.6902 44.773 24.4601 104.5503549669
29.7345 42.2611 21.8522 30.601892249
32.429 43.3565 21.7523 24.8925389144
32.9506 41.8097 24.2617 84.7283455573
26.3674 48.6088 24.1616 63.7838078887
28.6607 45.1485 21.3065 26.8799304458
25.9005 45.4973 21.737 27.8110678282
31.4038 47.0964 23.731 35.736141627
28.7654 46.9911 24.5978 99.8041570476
35.9548 47.9887 23.996 76.3982459278
34.9386 45.4163 23.1003 29.3073037616
26.7379 35.0166 38.1278 29.4140734353
27.496 32.7231 35.8933 64.3031154812
24.7922 36.4017 36.1562 51.2304482243
30.7552 35.6349 36.0235 54.376701167
33.3193 36.363 35.6711 91.5680492895
35.4325 34.2612 35.9022 61.3811935649
36.124 34.2472 38.5744 29.9085962891
28.4341 37.1801 38.4928 28.4574053022
26.3622 38.4549 35.6283 87.2883316699
29.104 38.0194 35.7896 81.8186407976
30.8672 40.6079 36.3089 40.2107917421
34.7868 37.4272 38.1447 31.1835661508
33.38 39.3061 35.8337 77.8318304387
35.5766 40.5836 38.6361 28.2964842707
35.7656 40.4159 35.9392 73.7528610611
25.0194 42.1298 35.8718 63.536549524
25.3318 44.4852 38.0563 27.8522125599
27.7793 41.2216 36.0055 57.0637654943
28.6094 44.619 35.5943 91.2554030324
28.1859 41.4132 38.5668 26.9200321635
31.1601 43.2496 35.6607 98.0099148412
33.222 44.8516 36.6766 33.7210988587
34.6895 43.2536 38.6294 29.8114265256
35.5644 43.329 35.7736 89.5691403679
25.9785 46.0912 35.7937 74.5039811955
26.4263 48.1695 38.1078 27.871311281
28.9815 47.1655 36.6352 32.0602831124
33.842 47.2868 35.9801 74.8896958057
34.6762 47.3727 38.8031 29.6367582161
36.5647 47.2806 35.9006 86.7031599886
26.311 34.1043 41.0822 27.5323696279
30.6845 35.4324 38.9207 32.4071461582
29.7948 35.1168 41.6916 29.8474500651
34.665 35.1504 41.0205 28.5258250166
36.7173 36.4061 42.2661 28.693056442
26.2145 37.0164 40.6708 29.6706691463
29.9512 39.8693 42.1651 25.4630866544
32.5695 39.8514 38.8876 27.7928037425
32.7623 37.1262 40.037 27.9218845455
29.7828 39.5364 39.4756 27.9832945355
25.7609 41.6137 39.5369 31.3593528688
26.7678 42.4137 42.3402 28.9635595226
29.4074 42.7436 41.7527 30.3938412593
30.2515 43.2874 38.8991 29.7487587525
32.5716 43.3853 40.8048 27.5196889925
33.6117 40.9206 41.3172 29.90816583
27.0038 45.7071 39.6867 31.606680714
25.9748 47.0286 41.8069 27.9812989189
29.6597 46.1577 38.8658 31.0613310318
32.0613 47.0039 40.3586 30.8476571314
36.6205 45.0498 39.7422 29.7256423833
36.4472 47.2219 41.8894 26.04355689
26.5502 34.3802 43.8701 29.1654853896
32.387 34.4586 43.0381 31.3873226749
29.8543 34.2045 44.7184 29.9646707329
32.6233 36.5988 44.9326 29.3023467624
36.29 33.3773 42.9126 27.5971042983
28.6251 37.7431 42.7239 28.5162020828
26.5207 39.713 43.1239 30.2436047723
31.5572 40.2224 44.8609 28.1120667879
32.4484 38.4979 42.391 25.9956210162
29.8466 37.297 45.5322 27.2746531366
28.9431 40.3101 45.5544 27.6624668507
34.9688 38.2201 43.7733 29.8442405865
24.7913 42.3305 45.112 29.6390244387
30.9232 44.1957 43.5075 27.3310493541
32.5859 42.6929 45.2181 28.0836774614
36.6629 43.965 42.575 27.7808311874
35.4437 42.6773 44.8234 29.3455947157
36.2152 40.8667 42.8465 29.575764223
27.9309 48.6075 42.9103 31.9909075015
26.7018 45.0881 44.2611 30.5298222968
27.5026 47.9908 45.7225 27.4092966785
31.0587 47.1793 42.9153 34.1834192633
29.3756 45.0369 45.6837 27.3738335219
33.1691 45.9657 45.3276 31.4963425191
33.914 45.1244 42.3682 28.2154128681
36.0356 46.2611 44.6113 29.0895862073
28.4555 35.0252 48.2242 29.5856330533
27.0597 36.1381 45.9233 26.9293195096
31.6673 33.9176 47.095 32.7316923172
30.2891 36.7512 48.8 26.0669181992
35.5398 34.1742 47.4295 32.4050703725
33.2392 36.1225 48.2466 28.1072834455
25.9136 37.1046 48.8176 31.2833200964
25.778 40.8143 47.5973 28.9625563417
26.4326 38.7777 45.8833 32.2182501727
32.4296 40.8031 47.9369 29.5420592727
30.2057 39.2549 48.2555 29.3165391661
34.0842 38.5715 46.8827 30.6055503635
27.8597 42.8256 46.2144 29.4281402415
27.5439 43.8878 49.2296 29.334574623
30.9438 43.451 47.7868 29.0657968399
35.7546 43.6728 47.7465 33.4334387985
36.4741 41.2592 49.1712 30.6961117233
24.8392 48.0841 46.3074 28.7131517732
26.2916 46.7971 49.1709 27.7859183682
28.9354 46.8184 47.8795 32.3971894555
31.8291 48.9268 45.8677 31.4932917068
33.1256 45.215 48.2433 33.7286700127
27.9999 35.3589 52.4905 35.0869528682
26.1848 34.0876 49.947 27.7722720913
31.3793 34.4805 51.6402 32.8247916381
28.8831 32.7217 51.592 26.6981161841
33.5315 36.3362 51.2099 25.0852118337
35.3175 34.2382 50.5818 29.2747353819
25.4274 39.7835 52.7615 27.1607050216
26.7253 39.4739 49.9084 29.3361733714
29.625 37.4932 51.3786 30.3607123895
29.4231 40.5938 50.7518 30.3656493488
32.041 38.3402 52.7215 27.1396912722
35.8248 37.7949 49.93 29.2039674754
33.8547 40.0421 50.2879 32.453831848
27.2392 43.6449 52.6503 28.0592798912
25.8899 42.1191 50.7601 27.2471727251
29.939 43.3979 50.545 27.8030491493
36.6616 42.7692 51.9179 31.5255137809
33.6926 42.4092 52.1597 32.2114206672
27.2681 46.1893 51.7062 31.8427086458
32.1883 44.9456 51.2357 31.2390845672
31.8965 47.8267 51.6778 30.3800547683
29.8762 48.904 49.8671 29.2055099937
34.2055 47.6471 49.7927 36.9459909285
36.0 47.0195 51.9004 28.007428768
25.1656 34.7932 53.0968 28.2114562693
25.0512 33.7505 55.5882 33.1327658044
31.1609 32.8148 56.131 34.1816536024
32.7672 33.7544 54.1069 28.6734848635
32.1124 36.4243 54.9527 30.5831266812
35.377 32.9809 55.1742 29.2136058969
35.4576 35.7384 53.2903 28.1949605853
27.9434 37.0025 55.3085 32.1261139655
27.5172 39.6236 54.3468 28.6018817224
31.1911 40.4531 56.1844 28.9290970191
30.0376 40.502 53.616 26.224854333
35.2759 38.2683 54.5511 29.6518945377
33.5806 40.2604 54.0192 27.9196242972
26.5737 43.4981 55.4477 26.4540935288
29.809 43.1894 53.5868 28.8036159038
35.1807 43.5305 54.4475 30.1284724207
33.6174 42.1237 56.4046 29.1609231395
25.185 46.972 53.4676 29.8386041244
28.648 47.4157 54.4521 31.3362441921
25.4939 45.8383 55.9917 25.914562394
31.949 45.2018 54.2288 27.8518335973
31.3863 48.035 54.3964 26.9790026317
35.4385 48.9418 55.4468 29.7437083316
34.5437 46.5984 54.124 30.7694263962
38.7518 1.99402 6.85042 33.0342832657
37.27 0.673981 4.94035 26.5769061268
43.2201 2.14029 4.64026 30.642869713
41.5432 1.68382 6.97105 32.0303488382
45.6579 0.789826 4.91733 30.9421778355
48.9585 0.355622 5.2925 30.2600587156
38.6497 5.34629 4.60166 30.4696705492
41.3535 6.15175 4.63655 29.8347205541
44.3536 7.64464 6.20944 29.6522440285
45.206 4.70563 5.75654 30.8864900627
47.8507 5.70124 5.52979 31.309896985
38.4169 9.84901 5.09963 30.0505719367
40.9824 8.93595 4.08486 32.7117354186
43.2458 10.0625 5.3533 30.9440040296
47.3517 11.6853 5.16123 28.8017257715
46.259 8.40935 3.97972 27.9140987307
48.1679 8.61011 6.28779 28.846715685
39.4851 12.4984 5.3628 29.0715050885
38.6845 15.2971 4.69423 28.8081594749
40.4159 16.2746 6.72079 28.4345747479
42.0572 12.9651 4.35564 29.4814347518
42.8676 15.1328 5.76747 29.8887053918
45.7282 13.7971 3.88177 32.3195810427
47.7952 16.0527 3.96055 25.8165332977
38.3186 1.28895 9.50775 32.4088700004
37.2767 3.98933 9.5428 31.1610416334
42.9999 3.29401 8.46778 28.7592729955
45.6111 2.8068 7.86273 27.6057113254
46.8417 3.28496 10.1815 27.7750185505
48.5111 1.61219 8.05424 28.1689684138
38.3628 8.0728 7.75503 32.1351601246
39.113 4.93567 7.42984 30.5547689082
40.9321 8.05998 9.13137 31.6322386286
41.9351 5.81862 7.44393 29.0425806438
44.8271 8.0122 9.04626 28.0080295916
43.151 6.0833 10.557 29.6221961587
47.2788 7.27513 8.96234 29.2600173334
40.7618 10.9698 10.58 27.0856240777
37.8931 10.7793 8.59629 29.3990779353
42.649 10.1122 8.22604 30.0955823651
44.4486 11.924 9.32112 28.1869229649
47.9138 10.1392 9.19953 25.6138315509
38.9496 15.481 9.27514 28.6929848595
39.7949 12.9793 8.14749 27.9802276998
42.1955 16.0405 9.83378 27.4551704116
42.5792 13.8391 8.08234 30.8484089997
47.4583 14.9351 8.06117 30.4827061543
46.9467 12.4035 8.07794 29.4493324236
48.7383 13.2224 10.51 29.8045928127
38.736 0.714186 12.7653 29.3305777155
39.4305 3.19242 11.692 29.8093235739
43.4409 0.850235 11.9645 30.5715116923
42.1955 2.94469 11.2128 28.677799581
46.147 0.637893 10.9889 31.3108223277
39.2053 5.72003 12.8714 30.1439239494
45.1178 4.5261 12.2362 29.9413275678
42.1037 4.83544 13.3299 26.8966437884
47.3569 6.24303 11.7484 28.7101159201
37.734 10.4216 11.5852 29.5048592825
40.3672 8.53288 12.384 30.0022183055
43.2886 8.34792 12.3992 30.4149790447
42.4759 11.6162 13.0268 29.8359514269
45.6116 10.0289 11.1102 27.8953398875
48.4457 9.82053 12.7309 29.1903576265
40.1915 13.5088 11.5493 28.4536083643
37.9286 12.7947 13.0487 25.8244257553
40.9807 15.7303 13.2395 30.1732117842
43.2696 14.5497 14.0174 30.6732208333
44.4183 14.1582 11.3117 29.9264149199
46.9691 12.9297 12.5089 28.1046879876
38.088 2.10353 15.2177 28.9133327425
40.7864 1.3942 16.0022 31.5885506037
42.8932 2.71587 15.2055 27.2861438641
44.9801 3.11777 16.9355 28.1627491336
44.8361 0.650767 14.5578 29.44572569
47.4108 1.97948 17.5652 27.7866950115
47.5059 1.76511 14.8502 31.2233405772
38.8647 4.96342 15.3714 29.1210251132
37.492 6.49469 17.2188 27.8686637196
41.3757 5.58201 16.3534 28.4146325348
43.4471 7.49225 15.2822 26.9352718132
45.0567 5.30083 14.9944 26.4026962568
47.5104 7.64367 14.312 26.0071310544
48.1028 4.80587 15.071 28.175592185
40.5235 8.35116 17.2374 28.7864147365
37.6523 8.70316 15.3851 30.804369792
37.498 11.1469 16.8492 28.3644027577
39.6269 10.2277 14.4531 27.0098926002
41.9824 10.4935 15.8084 27.8175992583
48.3634 12.0018 14.9085 28.0506721056
48.7377 10.141 17.114 31.8513636682
45.9962 8.79182 15.9531 24.258303346
45.2214 10.8611 14.2173 27.8985588729
39.4158 13.3124 17.3037 30.4004070668
38.7941 14.8187 14.9346 30.4299891578
44.3014 12.7404 16.4506 26.8757052801
44.8404 16.1316 15.6028 29.0976918163
46.862 13.9145 16.7112 31.6617721258
47.3579 15.7404 14.2713 28.3715838855
38.0692 0.848791 19.333 28.1072279636
40.3714 2.00445 18.6226 30.505281393
37.5734 3.30278 20.5387 29.527852851
42.7236 0.610885 19.3274 31.1882027572
47.4721 3.18675 21.0873 29.1387626893
49.2183 3.78353 18.6506 27.4434565634
40.3678 7.37444 21.1886 28.1607260468
38.6082 5.73009 19.799 28.9119306846
41.2784 4.57246 18.9294 31.8729841204
42.9649 5.51321 20.9559 30.804989818
48.6605 7.29958 20.9482 30.4933439763
45.2024 4.214 19.4467 27.8464263529
45.4794 6.69331 18.1304 29.5721904325
48.4689 6.30598 18.0588 28.908641771
39.0592 9.32373 19.321 28.5407427766
41.6864 12.1997 18.2929 31.3516064492
43.3738 8.78368 18.4756 29.5164676359
48.379 9.91637 21.1705 32.8555392642
45.5516 10.7 18.1839 31.7969214461
45.4873 10.2256 21.1765 26.5635305379
40.8103 16.3361 18.2728 30.9081777217
39.8168 15.6456 21.0296 34.0089381675
38.2364 13.9722 19.7497 29.5652639781
42.1691 13.4392 20.9347 30.0798800567
43.4981 15.2437 18.082 29.4693047256
47.8901 14.0937 19.2302 33.8953169476
45.4624 15.2905 20.2485 29.7007357034
38.4664 0.546603 23.8354 68.8892928671
38.6265 3.07191 23.2137 36.5167137597
43.4045 1.22581 24.0942 76.1546238249
44.1345 2.19309 21.3863 32.5967444066
45.0554 3.90598 24.0506 66.8346679674
47.4586 1.02633 24.4437 97.8907909996
47.7425 4.03832 23.7842 48.3618831608
46.721 0.400003 21.3737 28.9380274092
40.0092 5.1091 24.5249 128.4251046388
39.0176 7.58588 23.7443 33.6943890248
42.5695 5.79469 23.9745 57.3821669662
48.746 7.05023 23.8849 59.9047268785
45.7228 6.78177 24.1065 74.029656312
45.6233 7.48221 21.4621 28.4344784975
38.3473 11.6074 21.2999 30.2605600139
40.8094 9.47082 24.3471 81.798637012
37.3231 12.2391 23.8974 38.7772919507
42.7709 8.93767 21.3886 23.9154637805
41.2443 11.0102 21.7539 28.0414678333
43.6511 8.80152 24.0303 61.880751374
48.578 9.99428 24.2757 87.2665479265
45.782 10.8735 24.0173 73.955813027
40.3236 12.4212 24.5131 106.3642310115
44.8799 13.2742 21.4718 31.3448338542
44.9316 13.9134 24.1683 87.1306325262
42.3057 14.5265 24.1351 57.8422754461
37.0478 2.89538 36.2334 52.5588144528
38.2275 0.248 36.5132 58.3830002528
41.9132 3.05668 36.2469 57.5789004386
43.0732 3.50402 38.7095 28.3127134565
42.2986 0.384323 36.3871 59.0982061307
46.8563 3.86846 35.6987 66.9845126919
48.5283 0.99398 38.614 25.0960979248
47.3744 3.99664 38.432 26.4298122336
47.4766 1.25278 35.408 94.5781485697
39.4055 4.26082 35.966 87.5548916448
38.0801 6.65716 36.1232 65.6731932161
44.0222 5.0399 35.6406 113.7296843551
42.8298 7.07937 36.6696 34.8342451294
48.4269 6.33556 35.7666 78.9621673426
40.3085 8.57958 36.2733 61.796376034
39.6451 11.2684 35.8185 79.6352046145
37.8783 12.2488 38.0424 28.1031569839
44.1658 9.47327 35.9692 73.2143961792
42.5137 11.8659 35.6729 93.4638209418
44.0293 10.2454 38.544 27.8754759672
41.2622 9.5251 38.6639 27.6227979755
46.9958 8.8197 35.9238 71.5208717916
48.9002 11.0966 35.8386 77.5187971337
46.5071 8.38166 38.7908 25.9175182677
48.7488 10.6571 38.7061 28.5906452484
38.7918 14.5293 36.274 58.3093674041
44.6288 13.0581 38.4793 29.2619017374
41.6156 14.5235 36.7185 37.758468105
45.2503 13.5561 35.885 87.2932945028
47.981 13.844 36.0046 61.267058239
37.9417 3.63788 41.5703 27.229370107
40.7236 2.04635 39.9111 27.1262358232
38.6641 0.226362 39.2973 28.8582686677
48.9502 1.25934 41.3114 32.7949939698
45.4695 2.40953 39.7996 29.2216726399
39.4545 4.55349 39.0902 26.545162953
38.5304 7.18377 38.9118 28.6005896826
43.8457 6.16809 39.1275 29.3150735419
41.6332 5.56432 40.7897 28.560111834
46.4422 5.79997 39.895 26.2218603972
38.3281 8.48736 41.4396 28.6008471485
40.3601 12.049 39.7432 30.7856876934
45.0307 9.61179 41.1377 28.1220012953
41.1032 8.22537 41.0812 28.1583258185
48.3493 8.87547 41.3042 28.379485774
37.3916 14.0823 41.3149 29.3775577352
37.9775 15.2027 38.8332 27.4247352259
39.3402 12.4874 42.2674 27.8936267712
42.3566 14.1674 39.7927 26.9448351435
43.6653 16.2081 41.0967 26.2636299336
45.9294 12.2688 41.4718 30.0733412704
47.6499 13.4417 39.0688 33.9803507789
48.1019 16.1201 39.8069 29.606600453
40.4539 2.38859 45.4016 24.2957114523
38.6004 1.42872 43.2961 28.014796674
41.5037 1.28052 42.5286 27.9506418358
44.3006 2.35507 42.4065 30.7419229269
43.9817 0.0112135 44.5223 26.7284414132
48.4971 4.04204 42.6954 28.7718113405
46.9362 2.58619 44.2882 29.4467092895
39.0658 6.59794 44.7217 31.4512673796
40.3396 4.38846 43.5994 28.7579647539
44.4945 7.76105 43.9364 29.116241127
43.2826 5.04788 43.366 33.5609466386
47.9919 6.96113 45.2289 30.2872837898
46.9054 6.49181 42.5747 29.2970340538
40.4494 8.96396 44.3737 28.3427558356
38.148 10.6714 43.8456 29.9842803012
43.9715 10.6633 45.2196 27.4643486584
42.7064 10.0413 42.6216 27.3724825135
46.7168 9.45262 45.2302 27.9231530585
47.8214 10.8199 42.9687 32.0988866713
37.3229 15.7065 45.4728 26.7637494268
40.4572 14.3552 44.0946 27.8074428288
38.0821 16.1968 42.8679 26.3902357805
44.496 13.6411 45.2654 29.0985226115
42.8075 13.0797 42.5762 29.0166612637
45.2911 14.7681 42.6168 28.0082271804
38.2909 1.13362 46.4399 29.400123319
36.9498 3.24878 47.4952 28.4394561507
43.1443 0.740169 48.8479 24.9169621574
42.8612 1.75656 46.4398 27.1447540198
49.0704 2.66542 46.2999 27.3793246374
45.8239 1.8027 49.0168 29.3070288165
45.6287 3.60982 46.8996 29.9547816877
48.9214 3.52346 48.9692 27.8323381837
47.8518 0.0541549 47.232 27.3287621445
39.7503 4.35923 47.1664 30.6398007508
37.0819 6.43473 46.7323 29.9749963684
43.1739 4.73359 46.6059 28.9721800037
42.7116 7.75072 46.0527 30.238138366
42.6889 6.51844 48.9222 29.2061653279
47.0874 5.9 47.7947 31.4554513545
45.5562 7.64065 49.1017 32.7674644287
38.9943 11.9356 45.9132 25.011044545
37.8639 8.36925 48.6788 30.8448785279
37.5604 10.9802 48.1289 30.0230816577
41.7906 10.1267 49.2655 30.9134873603
44.3348 9.76867 48.1104 25.8058722595
41.2464 10.7411 46.5824 28.2529071465
47.1451 11.0422 47.3462 29.6140272643
39.2069 14.7197 47.1574 26.7209234361
41.8776 13.8929 46.7926 28.2709046163
43.9581 16.217 46.8975 33.1754088239
47.2827 13.9964 49.245 28.2196321481
47.117 13.5222 46.4659 30.5842021438
39.8909 3.35952 49.7458 26.8316130842
39.009 0.901598 49.7881 31.5757392879
37.3022 0.487575 52.0188 26.733256267
44.4331 1.9497 51.9786 27.0253395617
42.5491 3.42229 50.1032 29.1858198149
46.5428 3.61639 51.3346 34.3094243218
39.2395 5.61923 51.3277 27.7913258318
40.2189 7.9402 49.8836 26.8164707185
42.4871 5.90389 51.7593 27.5518260304
47.0489 7.88738 51.7604 32.2245167571
45.3843 5.85836 52.1353 28.5840344129
37.8797 11.2021 50.9422 30.8243667928
40.2391 9.5108 52.1376 27.4435320413
46.2509 10.6091 52.2504 28.7539832852
45.3016 11.8346 49.7501 31.6130826261
48.8499 11.6447 51.6222 29.7484586836
40.7585 12.4009 51.1902 28.0201092168
38.4355 13.9225 49.8438 27.237341391
40.0085 16.057 50.8203 27.0423846421
42.7195 15.8562 51.1222 28.8758556974
42.7981 13.4802 49.4511 31.6998702591
46.9151 14.9872 51.8476 27.0754177432
40.4113 0.913006 53.0813 28.1176053505
39.662 3.36482 53.9354 28.6643172453
37.9874 2.87386 56.2124 31.2840954723
42.6516 3.78614 53.4234 27.8147112758
42.5649 0.721247 54.9223 31.046646467
45.6704 0.949339 54.5679 30.1402778356
47.9448 2.02844 55.9442 33.7960211658
37.4421 7.58431 56.0092 25.1507082805
39.8187 6.28381 54.0545 29.0709982085
43.3169 4.74225 56.138 29.7925278652
45.5621 6.07681 54.8959 32.1458675792
47.9299 4.88441 55.8424 28.8854270392
37.8522 12.0469 55.3702 30.8846328967
38.0949 9.58858 54.1268 26.9392574771
43.8987 10.2786 53.8576 33.906580739
41.8465 8.22584 53.9931 30.7769163389
45.0212 11.034 56.2066 26.4379071306
48.2739 8.47906 54.8164 29.8141027301
38.8716 13.7324 53.347 26.6915023448
40.519 15.1533 55.3459 29.6519131157
43.5345 14.2947 53.3047 29.3692118181
41.7491 12.2734 54.1571 29.8371613702
46.0375 13.1071 53.7461 26.4680456626
49.013 13.3979 54.9689 30.0902877963
38.6952 19.015 5.61315 31.6398532873
41.1647 18.9167 6.58372 28.3270641518
45.091 20.0136 4.66355 28.0228394259
42.1794 19.0222 3.88579 32.1898961655
44.4319 17.4208 5.86632 28.889070072
47.0627 17.1369 6.45147 28.1367588068
39.5761 22.6619 5.20542 35.7980393781
37.1812 20.7201 7.03892 28.6432653683
44.5745 22.2033 6.16471 28.7689537843
43.8022 23.4783 4.04501 32.6058455813
48.1213 20.6204 5.61367 29.1319851983
46.9682 23.8243 6.13839 30.9995980933
38.8653 26.6232 5.83061 29.3109122836
42.9421 26.0923 3.80489 32.4647684305
43.6342 27.1378 6.2579 33.3189307641
47.5403 27.9103 4.05766 30.2726460363
46.5077 26.6 6.34048 34.2095859437
40.7933 29.7624 4.50915 28.6295794335
39.7101 31.9241 6.21709 29.7488983461
37.305 30.6391 5.70726 28.5642708113
43.6115 30.1136 5.87317 29.4497106415
46.421 30.7641 4.96876 26.8343030234
43.5668 18.3366 8.43339 34.585893956
48.2847 16.6536 10.0996 30.2257819836
48.2752 18.5868 8.21631 29.4525737291
40.446 21.3914 7.90629 30.0040654796
37.2574 21.6079 9.53556 29.0702314957
37.5121 24.2279 9.54704 26.2778651504
44.4245 20.5946 10.0152 31.796600446
43.1406 22.7076 8.41111 33.1874945119
48.8125 23.9064 8.61166 29.1480270078
46.8049 21.069 8.54431 31.3218632226
38.9963 27.1553 9.27517 29.774425063
39.3785 24.5312 7.68453 26.9325675226
41.8244 25.7388 8.12765 32.8295560264
48.2821 26.5564 8.84147 30.3709676682
40.953 29.0002 7.74552 28.021296939
40.0059 31.4683 8.9496 29.5819450925
37.1309 28.6843 7.31934 27.2845338666
37.3212 30.0123 9.82167 29.1343954685
43.0638 29.3675 9.72852 31.0947704
42.7611 32.2622 7.61518 31.4493428099
45.3406 31.0955 9.58534 31.3439274806
46.8806 29.6237 7.90649 32.1830434037
37.4634 18.221 12.2272 30.0379365535
40.0545 17.6693 11.0158 31.3193465724
38.9796 20.4089 13.031 30.8007802761
43.6249 17.9842 11.6848 28.6415240613
41.7379 18.8791 13.3432 32.060201725
46.0139 16.3838 11.8294 29.2744931401
46.2056 19.1601 13.448 32.7545162299
39.9475 21.0752 10.7153 28.9513243669
40.8675 23.3669 11.4838 28.7259026878
43.6574 23.8716 11.25 35.3036484096
48.4322 22.0313 10.7168 29.298016579
48.7128 24.0419 12.8357 30.4484738795
46.0897 21.6994 12.3803 31.8652563977
38.8396 25.0861 11.8776 30.1629499426
40.5691 27.3495 12.2288 30.2457138045
37.0309 25.2713 13.9228 33.066161362
42.804 26.9017 10.8985 29.3854867825
43.9424 24.7767 13.8489 26.8673414206
47.7397 26.9238 11.4052 30.4483659327
45.1347 27.071 12.3629 31.1867776426
38.1632 31.1614 13.7525 28.2750695389
39.4383 29.9584 11.5145 28.1666392866
41.4835 32.0942 11.7801 29.5258237073
43.8739 30.8579 12.492 29.8630042233
45.5205 32.6729 13.5119 31.2133329032
48.1827 31.7661 13.0528 31.197756581
48.1 29.4728 10.7735 30.1069455307
45.2374 29.001 14.1234 26.3421525572
38.3725 17.4664 17.1618 33.6109342179
43.043 18.4067 15.9866 28.1841980586
48.9486 18.3825 17.1947 31.9697224765
45.3119 19.8744 16.2074 32.0205330188
48.9174 18.4809 14.4533 29.5965957443
38.5861 21.1598 16.3908 31.5972081185
38.1376 24.1662 16.3339 30.4618338367
41.3786 21.2395 15.2852 33.0958523252
44.7098 23.2695 17.6682 28.0401617615
41.5119 23.8455 14.2157 29.9126620428
45.6088 22.9335 14.8682 31.5809709745
39.2507 28.2843 17.2485 31.0774939433
43.6207 27.3651 15.5341 27.0623542954
41.0281 28.2695 14.8914 31.4286821408
41.1933 25.4416 16.5344 29.5744935427
45.6721 26.0111 17.3665 30.6392388586
47.7716 24.9586 15.7765 30.2411407426
49.167 27.1914 14.2155 31.8671196658
37.1829 29.5672 15.8095 32.0775150327
40.6462 31.1823 14.5521 30.5700582167
44.4354 30.9655 16.2944 30.8652040347
41.8451 32.0887 17.2161 28.7519486595
47.9262 29.4506 14.7816 30.4981796073
48.9456 30.0229 17.2102 32.1742971636
37.2694 19.8826 18.6585 28.1732326687
41.9523 18.9768 18.1856 27.3590317668
44.3209 18.1103 19.5399 28.5103159538
