34.9895 12.3587 12.6405 33.1827525059
31.7016 15.0195 21.4635 25.9473235366
31.0699 2.30722 24.2625 68.0386736754
36.6629 14.0049 21.6454 28.4079285399
33.944 2.17265 24.4601 91.1338824267
36.1957 3.7612 23.8633 54.4586258833
32.0709 6.54533 23.9577 54.0473200067
34.0314 13.1099 21.4689 25.9160782512
30.1896 4.70358 24.2006 68.0434515468
36.9004 6.62907 21.0679 29.695876547
34.2806 8.17193 24.6294 117.8901995493
31.1839 15.4695 24.0399 67.9059059359
36.3805 6.55073 23.8823 40.0597316612
37.5652 1.99719 21.8581 26.5893092593
34.8829 10.7475 23.8882 41.5342427029
35.1603 14.8952 24.5718 114.717003383
37.6568 10.9087 24.2035 78.5384284949
32.9085 12.8122 24.3276 89.5602603189
30.7446 11.6537 23.3129 34.0150204172
37.7423 13.7655 24.199 67.8491825101
30.3371 8.92933 23.8998 60.5137025591
39.0143 15.7306 21.1323 29.8638492285
38.1679 1.31749 24.3034 83.4318267039
38.9528 7.11346 24.6271 101.7833359961
34.3019 9.78323 21.1863 31.0725605636
31.1735 1.59157 21.5562 28.9122368278
33.1299 7.07858 21.3409 32.1878703845
37.5939 11.0571 21.0662 33.0239520113
34.3507 1.60982 21.4484 29.5271910365
34.2253 10.4726 35.612 89.9244335212
33.09 3.89137 36.0091 67.9391121816
35.1598 1.41223 36.044 71.8959367351
39.3462 1.57449 35.8571 81.9993805278
30.5834 5.19884 36.3933 37.7846102485
35.2514 16.3418 38.8067 30.1329652886
31.6049 9.22863 35.93 54.9019378439
33.1642 0.488673 38.0641 27.7924912437
35.2908 6.09678 36.0784 71.1136760126
29.5104 14.2329 35.9153 85.6062471223
34.6869 13.2802 35.7851 77.4973033956
38.5873 2.30598 38.3336 27.1166426844
37.8116 13.3357 36.3126 50.9681419996
39.2935 9.22574 35.5879 84.8264964595
36.4593 8.61414 35.6283 80.6780012971
29.5426 7.78381 35.2766 109.7805921391
37.0902 4.18522 36.4199 47.9671460018
32.8766 3.53824 38.8498 29.5401865153
32.1983 14.5224 36.3384 47.5075563259
30.3371 6.67185 38.7742 29.3560242355
31.2471 9.32578 38.4853 31.1963555773
35.6279 2.48773 38.7435 28.2018841071
31.827 1.42846 35.621 77.8621727055
39.5082 6.1558 35.9097 79.4345541096
36.2674 15.7172 35.8145 77.6311110726
29.6224 11.5375 38.7589 30.3997135834
35.2407 7.28818 38.7949 29.9874495855
36.9705 9.83792 38.4453 29.0218230962
31.7658 1.6985 42.9136 27.9747495614
32.9858 6.09341 40.0867 31.0040763995
31.1054 0.393833 40.6654 27.7218724418
36.2921 5.64136 41.997 29.2601553591
36.5289 15.9215 44.967 33.7514677251
29.7096 16.337 47.0105 30.9283479238
34.1484 3.1173 42.8135 32.1172859678
37.5349 13.9381 42.5272 32.7535983127
29.8082 9.04857 43.838 33.2996541182
39.1206 3.41419 41.458 27.5217841099
32.4659 0.501881 46.5255 28.9821700496
34.3189 9.88154 41.5591 34.1403678899
34.1644 4.97869 44.8765 31.7011026496
32.6948 10.5764 43.9426 30.3935893807
33.7756 12.3386 46.0552 29.2174725623
33.714 10.404 38.9352 29.8796837889
32.8144 13.0592 42.5762 31.5389542574
38.3867 9.02194 43.5461 27.8280996214
30.7752 10.7977 46.2582 33.8930377334
37.4944 5.22704 39.4506 27.9945989237
31.7805 7.70226 46.8548 33.036860272
33.7409 14.6773 44.7426 33.2592520382
31.3349 13.8273 38.9379 29.0965297959
34.954 14.54 41.4115 31.4365464435
37.8911 5.01824 44.0198 31.4508978346
36.7977 8.41774 41.3094 28.9164238457
33.4687 7.36063 42.3961 28.3930454398
38.4632 11.2328 41.2741 33.2373121802
38.0457 1.58449 43.5006 30.0511581643
36.2735 11.5738 46.7564 30.4887006239
36.8064 4.1442 46.3798 28.9442811417
36.4264 1.22883 46.2208 31.267528281
30.4725 5.39491 46.0914 28.5369565607
34.0814 8.01558 45.1657 32.2519622272
30.0393 2.74473 38.8109 30.1251472403
30.5261 6.50553 43.3457 34.333316525
36.5717 9.05485 45.6671 32.5645915898
34.3451 13.2913 38.7404 27.6170903849
38.99 16.0032 41.2062 30.3960131769
37.7583 13.1611 45.2733 31.1215330598
35.8283 0.975105 41.1038 32.6677484326
34.5122 0.702463 44.5352 27.2091739981
30.5931 13.9086 41.6281 32.7998951543
32.6903 3.43356 46.9475 29.3804835583
29.81 3.43338 43.3417 31.1158401414
37.3099 12.6989 39.0815 28.9851443406
31.5832 15.1666 48.8556 32.532134586
34.9834 7.1108 50.6484 30.5774335319
30.5963 15.0824 51.3931 31.4647147839
36.0277 0.854573 50.0011 27.6691799019
31.0675 10.1498 49.589 30.2003668767
33.9624 13.7139 54.8797 27.0106417176
33.0687 5.42431 52.2559 26.7667464891
34.519 2.95021 48.9839 26.8871910084
30.2631 13.2881 54.8185 31.7358777975
38.7408 4.71338 50.5805 32.0887162052
31.2568 5.81457 50.1119 25.416332467
38.3856 7.49488 53.5642 26.9606234471
32.9477 8.65728 53.3967 29.7784657917
32.6632 13.3052 52.5051 27.438456604
35.3308 1.53248 55.4518 28.4931665129
36.7858 13.9161 54.9117 28.2266310852
39.2572 13.5861 49.9263 32.3972167354
39.047 9.48346 55.0704 26.4766948321
30.7131 3.18829 55.3416 28.6133753152
34.5284 12.6659 50.2066 31.4593970367
37.6299 14.891 52.0957 32.3149725594
35.2122 15.2622 50.7789 32.2813228322
33.566 2.85228 51.446 25.7448188745
31.0964 3.31794 48.9647 26.1265432865
31.5393 1.24296 52.8249 27.0830994074
34.6691 15.5816 48.0819 34.7232429787
35.8701 8.92739 56.1866 27.6781306145
35.3479 11.4662 53.1318 31.6474419795
35.6599 3.49376 53.2989 32.1702144522
35.831 8.11384 53.1711 26.182360118
36.5076 5.0447 49.0767 29.3559707557
38.9352 4.71416 53.5181 32.9384655052
37.1692 11.7196 49.3491 30.5055254505
38.4159 11.917 53.298 31.1928286226
37.1994 9.09082 50.1189 33.6972240416
31.8386 6.48598 54.8059 25.0464300315
33.5516 10.9404 55.4285 25.5489050119
37.3346 4.3485 56.0519 31.3091093658
31.0923 10.8947 52.0306 28.7232991404
30.6583 10.4592 55.3287 28.4626112963
35.1025 5.8368 55.0155 25.5119703115
38.6222 1.79012 49.8087 30.0656661498
32.1101 0.544698 49.3905 27.746824099
32.2883 12.4372 48.2462 30.843552931
32.6341 7.98898 49.5777 33.0727870135
35.5595 0.386454 52.6369 28.6410339668
33.2786 3.8063 56.3283 29.5023194388
30.4382 0.499432 55.9347 27.2259489603
37.6903 7.34614 47.8138 31.8728963251
30.0224 5.99615 52.507 26.3083767685
31.1333 22.6259 3.99021 29.0916482142
35.0416 23.3052 10.2409 29.4047841577
33.8715 19.8615 5.00983 27.6638315458
32.7392 19.7736 8.66818 28.9761600314
38.5683 30.5051 3.79545 32.5874610954
33.4605 19.1231 11.4024 28.3382108875
33.5875 22.7925 5.85529 28.8700149976
36.8355 32.1285 5.05433 27.8523949171
35.2656 16.4568 10.9031 28.7811788706
36.9522 20.9899 5.33894 28.227172639
36.6629 23.8832 4.52404 28.1330387362
35.1821 21.0156 7.98986 24.8954509608
29.6881 17.7758 11.6828 30.6727509094
34.989 30.6384 7.1039 27.2474059201
38.7632 25.4676 4.41253 28.7836275733
32.5672 28.4918 5.49784 33.1323710244
37.7908 27.7401 5.4635 27.1933288085
30.872 29.329 11.9099 28.8016892098
30.1071 27.7956 6.92338 27.5785015171
32.263 17.1705 4.59331 28.9448961325
33.3924 31.6792 4.94719 30.4128157687
34.2667 25.0152 12.5422 27.3020840977
37.5354 26.778 9.97249 29.8236541113
31.0781 18.8836 6.55549 26.6283379147
31.0085 31.7375 6.86662 36.2614678776
33.5723 16.953 7.57792 27.9105668294
35.5474 17.4248 4.51252 29.2217349347
36.0234 18.4713 7.08759 25.3895514083
30.6284 21.6814 9.46953 30.6284367562
31.4348 23.878 7.68464 31.0392331542
32.8564 25.6968 9.45303 34.34155605
37.6343 30.5379 8.17042 29.1631167026
36.1474 24.0692 7.42648 32.0726299988
33.9258 28.2222 7.9926 27.4164900342
36.2797 27.0838 7.81208 29.1391730473
30.7128 27.5344 9.69973 30.4173987864
38.1045 29.4755 10.7828 32.2186593152
33.3616 29.2552 10.544 26.93425241
37.3215 20.3283 9.91554 27.6487830977
34.967 27.9914 12.0179 30.4510816945
37.7787 24.0675 11.0807 27.9846323511
38.6939 21.6571 7.59803 31.0555585365
37.2819 17.5675 9.36939 31.5682503115
38.5726 18.5903 5.25719 36.074558859
35.2838 20.907 11.6373 27.7368384423
34.1284 31.8554 9.749 31.1797121589
31.5591 25.4096 5.19273 29.0768040624
38.7819 18.873 12.3391 30.6753743948
31.2417 22.3721 12.0901 31.7717835019
37.5403 19.6283 20.0755 28.9778393446
31.5933 19.7865 13.5367 27.8001475624
38.0511 28.8497 20.3025 28.9013282353
32.4365 20.5527 16.193 30.1614955689
33.7429 21.5402 19.8762 28.7717027192
38.0603 28.4475 15.2384 28.6893363753
35.9498 18.7055 17.4163 28.8656720539
30.3179 32.4175 18.2481 30.0568170777
36.551 17.3455 13.3964 32.2654481358
32.0185 28.6681 21.0499 30.4062842202
31.486 26.7652 17.0952 31.430586544
38.1962 32.5711 13.7695 30.7297047975
33.9007 28.0863 18.7991 30.1610896537
34.6301 18.6097 14.9855 29.7931713693
34.1515 27.2662 14.679 27.6915978788
36.404 31.5061 17.2404 29.7831079117
31.9641 24.4027 13.8101 30.9032850989
30.0017 30.0452 15.6484 29.677423811
35.5948 23.2101 18.4624 28.3062661181
36.99 25.7605 15.9639 30.9379233247
32.197 30.8889 14.0614 27.2835348389
39.2575 30.9821 16.4102 28.4764505995
34.3428 29.9769 15.674 33.0803894258
36.9826 29.9531 13.2271 27.8880706685
39.4392 18.1827 15.3987 31.0327095337
31.2821 27.4868 14.5423 27.0154596857
30.1426 23.0141 19.5397 27.2371323599
37.1347 24.4255 20.5939 28.5378250748
30.9514 29.4253 18.2722 29.6620905885
36.5227 24.2633 13.667 27.6342448817
36.5142 28.8063 18.1164 30.9567232423
37.0981 21.2578 16.9626 30.0334977462
33.1438 18.6886 18.6924 27.6837681619
35.9901 21.5488 14.2344 30.4125148591
33.8993 22.8226 15.6009 31.3029636849
34.5004 31.7318 12.6993 29.0499241971
34.2914 25.4615 17.3007 28.5691219161
39.3592 24.6472 17.6096 35.0566407443
37.0423 32.2678 20.2433 27.7849803209
34.7969 25.9941 20.5946 28.1501455716
38.9739 17.4514 18.9833 26.8891115749
30.0968 21.4184 17.4408 31.3425374264
32.3829 17.1171 14.032 31.7842891277
32.6719 24.1538 20.6768 28.8705048739
31.2154 16.6082 18.3522 29.1748573566
31.2617 31.7554 21.1445 28.605292295
30.4004 26.18 21.2139 29.209035282
37.0913 20.0218 24.2656 99.7497858187
38.5093 31.5704 24.3015 82.9334270399
33.5283 32.0059 24.6229 124.0353642477
33.6087 16.8745 23.48 34.0898132085
30.9978 21.9703 24.1191 57.9304317563
32.1195 19.3639 24.6761 121.0150141225
32.5166 24.1674 23.6133 33.586822211
37.129 30.3615 22.2348 26.9868960401
34.3326 21.2498 24.3108 63.1071108348
35.0807 24.2612 24.4793 103.7676234945
31.0616 26.5269 24.2791 113.2123287304
33.1646 28.4436 24.0354 71.3913779484
35.3627 26.9812 23.11 29.5251578002
31.5775 18.5972 21.3298 24.7922520355
37.2898 23.5009 23.3086 30.9012422478
38.5101 26.5765 21.2688 27.8733810695
34.2506 30.6571 22.1825 31.2623640062
35.5891 21.1782 21.9349 26.94809494
37.3543 28.2921 24.4223 105.4454107782
34.6235 18.3883 21.2985 29.1758357479
38.2599 18.2041 22.4162 33.6814420977
30.5782 32.2521 23.9838 75.8566075406
31.3716 21.1614 21.6779 25.847251203
31.7504 32.4027 36.065 34.8766751872
35.8848 26.4587 38.1309 28.1084654178
31.6442 24.6146 38.2919 31.6393652531
32.8985 32.3836 38.53 26.4264613223
35.9179 21.2885 35.5987 85.2899703682
37.4168 29.0192 36.2391 45.0480106867
38.8377 16.5321 35.7751 71.6179128441
35.319 18.6333 36.4584 46.4865141852
37.6951 23.6087 35.6414 75.5935039365
33.143 22.0869 35.6732 81.3756454879
31.7939 24.7229 35.3397 115.7682476708
38.71 31.8209 35.9302 57.8305526423
33.5533 26.7656 35.6539 57.4573482391
35.2414 30.8641 35.9882 55.3254570301
32.4858 17.2571 36.3202 73.7732740875
38.3103 19.2953 35.828 63.3722974295
36.3715 26.3161 35.4535 104.6551221488
31.0885 19.9351 36.2735 67.108421392
32.8756 29.6022 35.5419 95.4816988016
36.7623 23.8703 38.5627 30.550543027
31.6067 29.6367 38.1936 30.0680294487
30.6289 16.6977 38.584 30.1707749598
33.0574 22.2405 38.5168 31.6539826176
33.0622 27.0429 38.1686 28.6602402439
38.6982 19.5069 38.34 31.1576000242
31.0683 20.6063 39.2126 30.6431228895
38.5403 21.921 44.1347 31.4148833222
31.5464 18.1594 40.7002 31.5754468492
29.9422 25.5821 40.4537 32.0196128408
35.9477 19.4658 42.3204 33.702261624
33.9242 27.1617 45.361 31.2183272457
35.3872 23.3431 46.3604 32.7746148308
37.9649 16.9022 38.5178 27.7491784705
31.5131 27.3868 42.1841 30.2311438824
38.886 24.8023 45.0811 30.1295898282
29.7694 21.4113 41.8071 28.5794383933
34.7499 30.0451 41.5973 30.5088474547
34.6949 23.1208 40.7204 32.6679881016
37.8106 29.0988 47.3663 28.5688879105
36.8102 28.5005 44.9172 29.6479458736
30.3063 16.6043 42.4732 30.8425361767
34.1056 27.4236 40.874 30.596938894
36.0766 25.5857 44.2248 29.7088106871
31.7909 29.5983 45.8825 30.0149977492
37.8667 17.6146 43.1513 31.3222867745
37.2244 30.3865 40.7199 29.939852106
31.7378 30.0045 40.9818 29.7865981533
32.8804 24.9729 43.8249 29.6275991793
34.804 30.505 44.4939 31.2667032249
38.8127 26.4528 41.326 32.7165122494
39.3299 17.4836 47.3084 29.9610765148
30.2426 21.3292 44.7823 32.7793452206
32.819 19.2971 46.1258 33.6254989357
30.3198 27.6396 44.7565 31.7443174358
36.6393 32.5226 45.3862 30.9321140564
39.1233 21.9251 41.4585 32.9826495097
36.6203 20.9295 40.0542 33.5089267449
29.5351 31.4185 45.0376 34.8685931282
32.3651 22.6426 42.4327 32.1326296583
33.7434 21.4794 44.6103 30.5532132318
36.4429 20.4402 45.0021 29.9633773595
36.1473 25.5685 41.5448 28.7714490249
31.8275 23.7101 46.0045 29.6569404958
39.0143 31.4852 46.1295 27.1035823592
38.529 29.2413 42.8283 30.7768399558
31.5933 16.929 44.9731 36.8288379712
34.0847 17.5792 40.9771 37.5185967198
39.1298 24.2145 39.9054 32.8217341955
36.8051 18.7229 47.2025 31.2524294731
30.6817 20.561 47.7569 31.1412391897
37.7461 28.4819 38.6626 29.7044303685
30.7867 17.8278 51.5939 29.7528681623
31.4873 22.5928 49.2392 32.8465285923
31.6044 25.7858 48.806 27.1448237442
33.1477 21.9054 51.5146 31.701876244
34.2835 16.5807 53.7428 30.3130073168
33.4191 17.8288 51.282 29.6135461142
38.6557 23.9801 51.4855 31.8849921262
37.8094 31.0487 51.2442 29.8537564229
37.7806 31.778 54.0517 27.4721925187
35.0617 20.1853 51.3613 30.2536369377
36.9406 20.4816 49.5502 32.4633493195
35.7528 29.8664 49.3133 32.9301930453
35.4285 27.6773 53.0283 25.7725041216
37.1258 27.9025 51.0497 26.8428067255
35.5843 30.262 54.0664 28.9974004901
35.8323 25.4876 49.9591 29.2429440206
31.8164 22.5158 53.9485 27.1850892362
35.8969 28.214 56.3961 30.4858140151
31.2173 28.7357 48.3446 29.6294733509
30.952 31.5887 50.6767 31.7435956695
32.9748 29.5022 50.0964 31.8951435138
34.0391 24.2966 56.1908 30.5201448327
36.8936 17.3086 54.6207 28.2742992151
31.8257 25.1562 53.8598 25.3940944139
33.1955 31.2878 54.872 28.8964917016
32.1379 18.1791 54.7126 31.3144878022
34.3775 18.4 48.2695 32.9108407673
34.1002 25.5426 47.6443 31.2778728556
37.4228 26.5531 54.6034 26.7752722843
29.8005 26.8568 55.5284 30.4944070412
33.4815 27.0708 55.9112 27.2983213532
34.298 24.5237 52.0308 30.8116777689
29.5876 18.4016 54.2615 31.551220257
31.8157 28.7334 53.9422 30.0095429961
36.531 19.9735 53.9023 29.5935215428
37.8396 21.8084 55.3338 29.1052067146
32.7879 27.5038 51.8713 26.9972635134
36.8558 23.948 53.7957 31.8507821659
36.8378 23.1444 48.7839 30.9501461101
30.4053 25.4274 51.5756 28.8452652704
29.7826 22.5619 51.3584 30.2902452675
33.8318 20.5263 55.0799 32.5935614904
39.4417 23.8339 47.6306 34.4416830705
35.3753 32.5356 48.071 29.9573159525
39.1308 17.3184 52.7977 36.2855816315
38.8792 26.6111 48.4595 29.8632020157
29.7321 18.4306 48.9973 30.9057619115
38.9322 19.912 51.5886 31.2316041899
34.5795 34.3006 5.78594 31.0979512813
37.1189 45.2392 11.0832 29.9630722081
33.8887 36.6057 3.60566 29.4490307891
32.8765 38.8093 4.88172 31.7629046803
36.6079 44.6166 8.11944 28.9814180038
30.9109 37.1806 5.97391 30.3109108909
30.0191 34.1778 11.0951 30.9590334243
39.0339 35.4193 7.13007 28.6641757071
37.2439 37.475 7.45514 34.9548747825
33.2127 43.2179 5.68054 27.7207442909
34.2855 40.7589 6.49653 34.4922065926
38.7231 33.943 11.3839 34.926605607
31.4245 44.9465 4.24623 29.9035829138
38.3558 34.3839 4.91897 28.9414941462
32.2181 44.6247 7.78368 31.3617961974
35.4787 44.6179 5.13825 29.0845797105
38.578 33.1958 8.83775 28.670018652
39.0155 39.4515 8.51308 27.3130934418
35.4695 47.1965 6.77145 29.0021636557
29.9353 34.2611 5.94035 33.9689378099
29.6286 45.7917 6.36318 32.933242384
34.1731 46.1403 8.93626 30.3857131009
36.9294 42.3256 6.33848 31.6990571158
35.9982 33.6131 8.28097 28.8780244577
38.0587 48.4281 5.09224 28.1616010845
30.9871 43.5325 10.5221 34.9215038095
32.5523 35.6192 7.85259 32.2721836855
32.7309 48.5389 10.243 30.1103594999
35.4458 36.4736 9.31 33.0357422879
36.8007 36.6371 3.94006 31.3802413961
32.6506 37.7976 9.90479 33.2482497932
30.5701 39.6013 7.48698 29.8864582147
32.4682 41.7499 8.53221 29.7945824309
39.1021 46.523 6.60597 30.8623026837
36.5811 38.762 11.0541 26.8428054514
36.8401 35.7496 12.2194 31.4880913042
33.8382 40.6012 10.9109 28.9314819313
30.4671 37.1088 11.6437 28.7683366813
30.1972 48.5983 6.82342 30.9178598693
36.1532 40.389 8.82743 29.3795806431
35.1712 43.1322 11.2097 30.5905008314
31.7585 33.1563 9.02865 33.5293603822
39.0973 42.3581 8.57047 31.7434294439
31.4087 41.6483 3.62084 29.4741253539
33.4211 47.0353 4.44056 27.4659018431
38.9372 46.7444 9.41705 30.2181688453
34.922 47.1634 11.7364 30.1280039038
39.0918 40.8723 4.94428 29.5949509676
30.0473 48.8192 9.59459 30.3093438281
32.1776 48.8337 13.0155 27.5535277024
29.7198 48.5586 15.8975 27.2514641428
37.7828 40.3651 16.7689 27.9256688664
38.9352 39.2835 14.5209 26.3764718929
37.5085 37.0656 14.5559 28.4877543357
39.1621 34.9572 15.9342 29.4285168239
36.9653 35.695 20.1391 32.7215955364
31.5156 40.3907 14.5964 28.770548951
35.1458 39.4148 17.3439 27.499674142
33.5833 35.6747 17.3552 28.5887283394
36.9431 43.5557 20.4078 27.8420150517
34.628 46.3312 14.6005 28.5929512323
34.7282 33.668 21.1766 29.8404371861
32.6832 36.082 14.4611 31.4188239044
33.9576 41.7104 15.907 31.6693508942
34.052 43.0058 18.2484 25.933747462
33.6219 48.2852 17.5835 31.4018662835
32.9187 38.5405 12.9514 28.389110197
31.5382 46.5232 14.5978 31.1899345181
35.8938 45.1767 16.7524 29.0070286901
38.8753 45.0189 13.3917 32.5900728593
39.3332 38.9047 18.3946 32.0898401414
33.0909 33.4564 18.7129 35.2328615957
32.4842 37.6252 20.887 26.3695266156
34.6042 34.1865 13.2669 32.42810022
37.9891 43.0851 17.6722 33.4866032737
30.1809 36.6345 16.4808 28.4017388358
35.9621 34.0486 15.8209 31.1299967512
31.5881 42.2859 19.3111 27.0452487215
38.6387 46.8324 19.6397 28.4498262085
32.2312 37.9439 18.1651 27.9051320817
32.7181 45.4668 17.0219 28.1483794105
30.5401 42.8128 13.3912 29.5857261214
36.0247 46.9466 19.0066 31.9878189225
36.2336 36.6702 17.3708 28.7673061312
35.5792 39.1546 14.1402 28.7982744959
38.0794 39.0651 20.9408 27.1828597036
35.671 40.8722 19.8846 27.1402485834
31.6611 47.7229 19.51 28.7092648542
30.8982 40.096 17.3685 30.0619201796
33.5129 43.5786 13.5714 34.1797908014
38.0941 46.6666 15.5109 32.6938944836
31.2316 33.5399 13.8222 28.1966982454
30.0851 44.3007 17.4482 33.503129301
39.3354 42.4126 14.3803 28.1797539222
29.8756 33.786 15.731 28.8536986504
35.2247 38.1866 20.29 31.2258987805
34.4148 45.0108 20.7851 26.8517713916
31.4896 44.9357 21.1588 28.2471650374
39.1631 33.2021 18.1585 29.0063338345
31.2028 34.999 20.6472 32.7325160827
36.7379 41.3166 12.7114 30.0666536645
31.1193 35.2045 23.8144 63.0827379529
29.3899 42.6462 23.909 56.1140755236
31.0222 40.3092 24.0623 53.2104592753
34.9795 34.4265 23.7847 51.0934466745
33.324 36.6524 23.4447 40.8715764596
34.719 48.4644 24.5178 109.0492350974
38.0385 46.0286 24.0692 62.791134782
33.5523 39.416 24.5034 115.9358915004
38.007 41.9506 22.5284 26.9433868676
36.1388 48.1563 21.7598 29.5387436816
38.9591 43.5247 24.598 116.1932653194
38.6973 36.5377 24.442 98.019658395
37.5161 34.1331 24.1265 60.6782003145
39.2642 36.6297 21.4536 27.777271039
35.8629 40.812 24.0633 52.0507364379
38.2445 39.2881 24.2465 73.5826194783
31.5913 44.4357 24.4112 103.0621384306
32.7221 48.0562 21.9804 25.9615071862
34.1072 43.2402 24.3443 84.4488430218
35.3139 45.5514 23.3866 33.0599359092
30.954 46.8532 23.4616 35.3497879269
39.2521 33.2153 21.541 27.921597676
39.1693 45.0332 21.5959 29.7588696509
33.6644 41.9416 21.7103 28.8507651865
31.3221 40.1399 21.4701 27.0507921124
33.4971 36.9055 36.1941 55.4335193771
37.2838 42.6899 38.249 29.2428577695
34.0017 39.8791 36.187 61.8899172535
37.6776 36.0149 36.6002 36.5543245813
35.1842 47.482 35.9293 55.3527152197
31.9259 41.8989 36.4373 48.9660632435
35.2044 36.4845 38.2312 27.4929358436
30.8606 35.1904 35.3882 104.3779266129
37.0012 33.7054 35.4045 99.5397875462
34.8434 46.4025 38.3409 28.8827475216
33.9087 34.1372 35.2771 98.3706511817
33.4612 44.7485 35.7744 74.0376315203
39.063 45.1443 37.9528 28.7125799543
32.0156 47.2145 35.4461 95.0052828366
36.2807 40.5854 35.5975 107.0392642636
37.7546 46.2082 35.4728 96.318792319
36.0802 43.4723 35.7657 71.4888257044
31.4179 36.2554 37.7752 30.0846091534
30.5803 48.1028 37.8034 28.4183760587
37.8811 39.8385 37.7256 27.4185270392
29.7818 42.3793 38.7045 26.6854532081
29.6358 38.3621 38.5371 31.7341005694
35.377 33.124 37.8682 27.1900405858
38.9625 47.977 38.657 31.7030572487
29.4329 45.5667 35.8661 63.6227478991
33.2996 43.7092 38.7018 28.9741860595
32.1915 46.4545 39.6971 27.1117232724
32.9872 46.644 47.2112 31.7097187774
33.0852 42.3082 47.3534 37.4287765539
37.2567 32.8283 40.0286 29.6640600476
35.2738 41.2111 45.7137 27.8096403553
37.055 45.0049 41.5246 32.1966102965
37.2305 45.5734 46.4618 30.0702425775
33.2404 32.3613 45.93 29.8304598907
32.262 40.394 45.0015 31.1987769531
30.6894 33.3677 47.0905 30.6132452206
36.7221 39.9611 41.3564 27.1918936344
33.0281 36.2736 46.3909 28.5368403348
31.9449 42.5971 41.0761 25.2960981737
37.3779 37.3385 46.0793 29.3294840156
36.5651 47.4972 40.0037 27.922102342
35.036 47.4119 43.206 28.8071608385
34.7755 45.5729 45.2042 29.5410374216
32.3561 47.083 42.2745 27.6905841944
33.5606 32.9068 41.3538 30.6524117817
36.949 35.0901 44.5836 27.8175711114
38.3758 47.6861 42.7869 30.8866871866
32.4997 44.3422 42.9252 32.4839835767
35.4602 43.2718 43.6775 34.2973680552
32.4991 34.2265 43.842 31.2304219953
30.7272 34.0015 39.1664 31.499361031
33.5379 40.4995 42.424 27.018001869
34.6924 35.1884 40.7232 28.1063179256
30.1215 33.8535 42.1955 31.9019012073
36.1139 39.0322 43.9329 27.5037310581
34.5977 36.461 43.4876 29.2141384643
30.5635 37.886 41.4144 31.1892188353
31.0907 37.6868 45.7016 28.4204824583
34.7246 38.4557 47.1943 28.026551347
30.0254 45.376 44.0157 29.1570943445
33.2253 37.9571 41.3048 28.2441608733
30.3338 48.754 44.6079 28.3327507048
30.1242 40.6723 41.7691 29.9493717605
35.5093 42.5966 40.4072 28.7046223082
37.5612 35.1729 41.5999 29.9274323728
39.0282 39.1912 44.0929 28.7504836219
39.2999 46.0929 44.8431 31.4133203508
29.7752 46.6187 46.8756 28.1536460804
37.8673 37.6631 39.9481 28.8722453535
39.0404 41.4195 40.5305 25.029809934
39.5973 44.0897 40.5293 29.3327552182
39.5521 39.9222 46.5485 31.588791939
32.2341 40.0907 39.0549 28.3633551821
29.9121 45.0738 38.9499 28.2899067397
34.9269 39.2052 39.1138 26.5074375728
36.6806 44.61 51.1265 34.9677302561
37.6501 34.4703 54.5872 29.5978449703
34.983 46.1518 49.3186 29.3984785886
36.9782 33.8841 50.8914 25.7615594589
37.1587 43.5613 48.4789 32.456813253
29.6914 48.9097 51.2476 27.2975622073
29.8608 46.0523 51.6361 32.0778530478
30.2729 36.9363 49.3995 32.1903540031
35.4289 38.7817 54.6984 32.4462120475
37.0861 42.6959 55.0415 33.8244993015
36.6773 39.5118 50.1963 32.9742884634
38.9538 40.1287 51.7122 33.1028517705
30.3428 33.8053 55.8252 31.5428565664
32.168 39.4544 54.9146 31.0732003088
32.2975 44.7369 50.9452 30.6645212546
35.0308 43.5723 53.0822 30.1156264829
29.9663 39.3891 47.455 25.0356486545
31.4507 32.9417 53.5534 29.56185215
36.447 48.0139 56.0402 26.9802518475
33.1083 48.6757 54.5347 26.0918828059
38.2441 48.2757 53.5132 34.1440299189
30.3293 40.7211 50.7582 30.55673644
37.4365 35.9223 52.4238 27.8145100978
38.7673 46.1957 51.6378 28.8524887733
35.0656 33.4505 55.7231 27.1792892276
31.7562 42.5171 52.5338 29.2755998181
32.981 35.4836 54.0577 27.5403545706
33.0311 35.9447 49.1095 29.0077919222
33.3124 33.2722 50.0285 31.1897391016
34.7843 37.2736 52.4749 27.1701899927
36.603 47.8871 47.9997 27.6759731615
38.7528 38.6557 56.1601 30.6848923297
31.8778 37.9993 51.3709 28.5305952136
34.087 39.8759 51.2632 28.8806048858
34.0591 41.1342 53.5593 27.7264957139
35.7837 36.8238 49.5746 28.3562883982
38.0563 40.3938 54.2527 31.2187007809
33.0114 46.017 53.734 28.6353214655
33.4908 47.8493 51.1975 28.5054675639
35.3833 45.4573 55.4472 30.7021488122
30.7938 37.0459 54.1659 31.4078234869
31.1654 44.3523 48.2249 29.8033038177
34.6168 33.2639 52.4316 30.0744971367
32.4694 39.9618 48.9091 27.6390094824
37.1987 34.8447 47.9975 28.1957297866
39.4545 44.0715 55.1468 29.6025968405
39.1693 47.6108 49.1212 28.1314215771
30.2291 43.0947 54.6384 27.3401329334
30.1416 46.3103 54.6586 28.3767974283
36.9946 40.7839 47.7008 29.6362721756
39.8993 11.6209 3.99292 28.417305576
46.9716 10.3907 10.9661 29.8003905711
45.7179 8.03667 11.2526 29.6515924298
46.4964 3.1605 11.3875 33.2648253533
43.0193 14.6816 11.1605 28.5988317999
41.8455 2.65296 4.80131 31.9816456129
46.2122 13.0635 4.86565 28.1731794588
45.0077 4.60629 6.48806 30.1329682951
41.1907 5.42449 3.98401 31.5185878386
45.2889 9.93945 4.35583 33.1025509472
46.3559 4.66721 4.08263 32.5854827243
46.7384 4.00171 8.73117 32.2449290502
42.9753 12.5063 8.37712 32.8816753412
41.2207 11.2272 6.51526 30.4944279659
45.6249 12.7533 11.6374 30.6023328983
45.3287 16.4899 6.58593 29.7917222489
47.9518 15.1242 5.11197 26.8988376374
44.0501 7.01858 7.35051 33.736830825
48.6971 13.19 11.8908 33.6787974313
41.8286 1.9503 8.89971 31.033542354
49.2217 4.70603 7.63136 28.9000564343
49.1422 11.8053 5.21187 27.8049565258
46.8125 7.54657 3.80292 29.649160558
45.5204 12.8514 7.63427 29.7304440571
46.5769 1.66065 3.77035 37.2413382353
46.105 0.391437 10.6792 31.0806067546
46.9399 14.3481 9.58842 29.838169765
46.1674 1.30284 6.82984 29.6059062751
41.2834 8.84379 10.1381 30.825372964
47.4366 11.0795 8.22373 31.280888458
46.7324 8.28349 7.16055 32.3776001157
41.9171 7.41612 5.52352 30.017254555
40.3283 8.84722 7.47258 25.8149802857
39.4724 1.93615 5.61509 32.3775449403
41.0513 4.82759 9.27472 33.4266637673
42.4031 11.2563 11.0839 31.0477489143
47.5172 6.91257 9.39732 30.3541008909
41.6631 14.9969 8.22672 29.1450487769
43.1412 6.84641 10.0017 35.6756177546
43.6472 2.39414 6.83501 27.2992123372
42.6533 9.79302 4.20999 30.3919559992
49.336 4.44129 4.55513 29.3647613406
48.9776 1.0451 7.39646 31.2359151507
42.3617 15.6333 5.54244 30.1176924342
44.628 15.9072 9.15209 27.1507894172
39.7112 16.1882 9.8082 33.5631824509
48.8761 11.163 19.3097 28.3649717958
46.8853 3.13713 15.1775 35.4711181376
44.8592 4.09392 13.3051 34.2068943836
41.5767 6.18869 14.4099 29.9060313223
45.6437 15.5241 17.2218 28.6642460351
42.8403 2.81083 14.4633 31.3763860919
49.4387 13.5106 16.3156 29.0798958143
44.3702 6.835 13.7487 28.7419654985
48.8436 3.18844 12.7323 29.9374340319
45.4842 13.454 14.6615 33.1741309838
43.5918 9.77679 13.1054 29.9167934142
44.4467 11.1115 15.6368 35.2146683688
41.1723 8.87276 13.5633 27.0189989994
46.8622 10.0757 16.787 35.1322409536
45.6919 12.0128 19.2214 31.7597470468
40.1141 0.871303 13.1429 35.7130380548
43.2174 14.2674 18.997 30.4549244942
47.7184 14.3332 18.6824 26.5811613322
41.0924 15.2566 17.3631 30.945614027
40.1029 1.86665 19.0808 30.9492172662
47.4507 8.21843 13.6562 31.6687180724
47.6476 3.41124 20.9495 30.9522241967
46.5894 0.622099 20.3951 35.2275958284
40.0393 11.851 19.7857 33.7153117939
42.9511 3.36713 20.32 29.7633117876
46.4115 0.482435 15.8011 31.3315600028
41.7562 9.18408 19.125 31.9015126272
48.1014 7.26955 21.0024 28.13910077
40.5635 13.1065 12.3787 33.2685045183
42.8873 11.4152 18.0289 35.161157611
42.4857 2.60794 17.6636 36.4525687351
41.3717 5.43123 17.3245 29.9664162712
49.1858 10.8383 15.2848 31.2975633291
46.5725 5.43651 19.5229 33.2649199975
45.6365 7.40187 16.2389 30.7890091051
47.585 5.47201 16.8062 31.9832562992
40.6568 8.29338 16.6316 33.3502595453
43.5771 7.17877 18.1521 32.1577392233
40.3183 3.68422 13.6938 28.5931789588
40.4336 15.2139 14.7166 28.9715215385
47.993 14.5616 13.9918 30.5679809306
43.5087 15.7636 15.0516 30.5467922302
43.9412 5.94845 20.5183 25.7895267897
48.9803 5.86633 14.0415 30.8538430022
43.3529 0.109263 15.7999 32.3313414703
40.744 2.39954 24.3184 69.1820616782
43.4624 1.57583 24.4164 105.0542890471
49.1333 14.0858 23.8937 48.4338117424
48.5362 6.64007 23.8735 50.6815578452
45.3408 11.6675 21.8809 31.1263989516
41.1605 5.23938 24.4341 90.1273140328
43.0206 9.51436 24.0329 73.3666191472
46.043 7.87906 24.5445 104.2986654033
45.4645 3.6988 24.0551 80.7344650576
45.0394 8.60375 21.7744 31.0518244005
40.239 15.2023 24.1925 104.3496723056
48.2064 3.69841 23.6909 50.9273604945
40.2633 9.45263 24.0539 64.2641587957
47.7659 9.93838 21.6462 26.1220726143
47.2649 10.6092 24.4755 88.4164519226
43.8688 5.77837 23.3683 33.6742694342
42.7748 12.2879 23.6025 46.3829434271
47.2051 15.5008 21.439 28.7712610875
44.0903 14.5028 24.6052 107.7991019224
46.5159 13.4185 24.0745 53.1121510494
43.9576 1.27339 21.5293 31.7719457318
40.3215 3.44701 21.431 27.4626092428
39.6138 6.24863 22.0168 27.4457166698
41.7472 7.87588 21.6619 29.7034127474
42.8691 16.3359 22.375 25.7224942557
41.3987 13.8744 21.4771 30.6795487816
41.987 2.5667 35.8114 91.4472989841
49.3071 3.25222 35.7002 78.1300090318
41.1329 14.8993 35.781 78.7422955911
44.825 12.8019 35.621 88.4365489242
48.6371 5.83016 36.0928 45.2654218509
44.3812 3.64215 36.4272 35.5281909794
42.586 6.36821 35.9414 67.1960438033
42.6736 5.34777 38.6131 27.5142710863
47.8553 11.5256 38.7412 27.2313355698
48.2397 9.70691 35.7083 67.1751666455
45.472 6.16894 35.8713 72.8177099769
42.3677 9.33519 35.8996 65.1645087659
39.7681 9.02553 38.1507 27.7989729036
40.6504 12.1941 35.8951 71.9136448278
39.7104 14.464 38.5048 25.7317470001
46.6631 1.93257 35.7241 86.6027597368
45.5686 9.13152 35.6672 76.4916689471
42.0421 10.805 38.5756 28.24462569
45.32 8.68659 38.9443 30.2686067563
44.0009 15.4174 36.105 43.9717990341
47.5995 13.7834 35.6345 94.13983639
42.6157 0.455379 39.0272 28.6452703962
47.0173 1.78804 38.2959 26.781851826
48.8267 8.99211 38.7785 26.971512129
42.5794 15.6775 38.6964 31.1742535092
44.9051 11.4806 37.8819 28.109025355
39.9683 6.50929 38.9429 26.9202216432
46.9106 6.19678 38.3295 28.0780918582
48.6465 3.54645 45.981 27.0240820387
44.6845 13.6611 40.1108 31.4469924784
45.8252 16.1598 39.1951 29.0629430227
48.5046 5.94789 42.023 29.2433595124
47.2356 12.7408 41.232 32.0121148427
39.286 14.7992 47.0895 31.947641031
40.6674 1.52601 44.8504 27.1577076382
45.8021 2.58584 43.3169 28.3165578463
45.3247 10.74 44.5559 32.526704963
47.1865 14.5921 43.5688 40.3318120733
42.4191 8.49507 42.843 30.2890306752
43.9519 6.38923 43.4364 28.657656581
42.5581 11.3821 44.1724 30.3032406219
42.7536 13.3915 41.9746 35.4610686101
47.5177 8.50886 41.3476 25.5824417756
45.1605 9.5004 42.0693 30.0338826574
47.6969 0.571294 43.8275 27.315606339
45.3447 4.00625 39.3455 26.8149470945
40.8522 5.78981 41.6892 30.08270126
47.2381 3.51449 41.1378 27.5184118857
46.3541 7.52223 44.1432 28.5351729929
42.5523 8.28225 39.9396 30.625947388
42.2064 5.84711 45.4353 28.0270365069
49.1194 1.41687 41.4223 27.8881063566
45.2347 8.98945 46.7591 28.005769215
42.9998 2.91751 45.4875 28.7873752134
43.6388 3.98471 41.7845 29.7206266975
44.0134 0.602781 46.8975 32.1096141275
42.6178 12.9933 46.3273 32.318670199
40.5736 8.61565 47.0502 31.0874738777
39.5452 2.69646 47.1294 29.6031788906
46.2924 4.56243 45.5018 28.5004357072
41.4068 2.06246 41.8688 28.9902487887
39.8444 10.8081 44.9891 30.1136017931
41.7113 16.1563 42.5562 31.9398808639
40.0209 7.08834 44.0884 26.351429682
48.3998 8.40318 47.2507 26.464971415
48.2363 10.1137 44.8335 30.6200613556
47.1593 14.0476 46.8836 31.9342614995
40.7796 12.4899 40.2719 30.3023671523
41.7775 15.5982 45.6697 31.6887396463
48.2434 15.9259 40.7864 28.6799397816
44.9583 0.409126 40.1603 28.1088281342
49.2132 0.753134 46.4492 27.5053313219
43.2255 7.39481 47.3315 27.3622832676
41.1152 2.84919 38.8215 27.1522093037
43.1741 3.27794 51.2976 30.2229871464
45.8485 7.78365 50.6482 30.3245250345
42.9305 0.637706 55.7355 30.3515052066
40.6607 -0.0760756 47.6299 30.1918697935
44.7046 5.24983 54.2723 37.3115641015
48.2532 0.228383 54.2039 32.8422936728
42.0895 6.66543 51.6259 28.4849240736
39.8987 8.67217 51.463 29.3735395047
43.9554 5.81641 49.5499 27.1179629143
46.9955 6.34139 48.0736 28.6301774437
41.9002 5.3371 54.2673 29.3246655178
45.2035 0.5945 54.2279 28.4540237932
47.6673 12.9679 55.1129 28.6259193456
48.798 7.39894 51.6459 31.4662473294
44.6429 10.8538 48.82 30.6241812329
47.3492 10.191 49.6751 26.6855457328
45.2447 2.87478 52.9152 28.2307785962
46.094 15.1947 54.3485 29.8711022946
42.9955 0.665302 49.687 31.5915642246
48.9227 12.314 48.4584 30.5521693891
45.0408 14.15 51.9567 28.2787253153
41.8783 9.65223 54.5667 31.694109388
48.2519 2.55681 52.8163 32.7890564543
46.4236 10.5351 54.769 32.2065463571
48.0264 12.3829 51.634 28.767012486
41.542 15.977 53.6069 29.7449397095
40.31 6.47695 49.0724 26.409282395
44.9759 3.4085 47.7111 28.3810096907
44.7475 13.7347 48.2736 31.6858423301
41.7156 2.40075 53.6513 34.2904202377
43.8119 8.9979 52.3453 28.6313778156
49.5389 6.41494 55.3534 29.4092895069
48.6908 14.823 50.2447 30.5490464052
40.4624 11.839 47.7766 31.0486752886
41.2142 12.1306 51.4944 30.1205820128
42.7126 14.7375 51.1007 29.3480291531
42.1139 9.86963 49.9542 28.4031256004
46.6652 7.66311 53.9261 31.8779318587
45.5001 11.328 52.0853 29.2690467899
43.7306 13.8519 55.9972 33.879249784
41.3287 12.3242 54.2967 28.4048539248
46.4864 2.5314 50.0916 32.9712498269
40.1166 0.620529 51.94 29.5742577936
43.5291 16.3926 48.1882 31.6410166941
40.9472 14.7479 56.0479 28.5172848501
41.7443 4.31304 48.0522 28.2967034303
43.4588 20.8538 5.73884 31.0163958545
41.4856 18.2247 5.5541 32.7592278842
48.7266 22.9101 10.7666 30.3617924492
45.608 18.9527 5.65361 27.4657260189
47.0772 27.8124 5.45623 31.3116510322
47.99 18.4684 9.558 34.5736893194
42.4682 23.4813 5.48019 27.2523244836
44.5161 20.709 12.0795 28.6366446336
40.7042 28.5218 10.8468 31.7359792663
46.9593 22.4866 8.46348 29.6336299475
44.0144 25.4657 6.05083 28.0097872459
42.4608 30.7089 12.0497 29.3387041569
43.1586 26.025 8.53035 29.5874123899
47.8029 20.629 4.84837 31.645899649
43.6541 28.6457 9.01225 26.8637689875
39.9961 24.1601 6.73115 30.470819378
46.661 24.393 6.3545 29.002899268
44.177 27.3212 4.2632 29.4318594734
41.8401 30.3572 7.89981 29.4220661123
45.1541 31.1289 11.5415 27.3386794933
46.3464 29.4227 9.17229 32.9636751873
45.1828 29.6591 6.62207 34.84108406
44.1267 16.9946 12.4649 29.5603928957
44.8624 28.0915 11.7649 27.3902739077
40.13 26.6424 8.40722 33.2938185215
46.8001 18.3752 12.0988 34.5299845293
41.6663 32.4741 9.67919 28.3857088142
40.6891 16.6463 12.3834 27.5409627443
48.5961 32.0536 10.9896 32.9815099245
43.5357 18.7225 9.64026 32.8926717102
49.0708 16.3058 7.41154 30.8417657149
41.7847 20.2041 7.80964 34.9064053252
45.6602 24.7665 9.66796 31.2374628748
43.7025 23.1278 10.8747 29.2840035771
49.1089 31.3342 5.45949 29.8028135959
39.7183 29.1599 6.66464 27.581799329
45.9164 19.9981 8.39602 30.8612319963
41.3819 29.3707 4.31314 32.5255523181
42.0405 23.1151 8.79034 29.0247314286
46.7112 23.2026 3.94723 30.613546841
49.3857 26.0468 6.86209 27.0777437029
43.4438 31.6313 5.35875 29.6699989186
48.2686 25.8949 10.5869 30.410255192
48.9394 30.9797 8.41525 33.1745196595
39.7568 22.5047 10.3724 30.8822459663
49.316 27.9634 8.62817 28.9101221441
47.3645 19.6366 19.7147 29.4810809116
44.4772 22.1242 20.9671 32.5230634205
40.9544 29.0581 19.6006 33.2804183889
48.5127 20.5592 14.5253 27.6247275928
47.7226 30.416 17.9972 30.4534703767
40.3697 20.7136 19.9194 27.2570461471
43.0513 18.5069 15.3121 26.5094229919
46.8579 17.9454 16.2406 29.1804986217
48.6434 17.2945 14.1497 27.5123514088
45.2666 20.4145 15.1453 28.1160650052
42.1518 23.8282 14.6619 28.9596576158
43.4896 26.2459 17.982 28.3914907273
41.1427 18.2004 17.5693 27.0612664308
43.0375 28.1668 13.7794 24.8271177184
45.7053 24.7594 14.3455 28.0744898969
45.0007 27.4306 15.8138 26.5372412378
39.5498 24.9157 13.2958 33.7539740416
40.338 27.4779 13.6547 28.5904421591
43.1263 30.4321 15.9425 28.5254053405
44.5874 16.3687 20.5868 30.8932503142
47.1339 26.9665 13.0438 29.2925134496
48.8161 27.5193 18.6627 26.9444312792
42.1778 19.3273 12.5615 27.4648749127
44.9228 18.3548 18.7658 30.38844126
41.2732 26.1591 19.8658 31.0194522451
43.0037 20.3577 18.8336 28.9594594116
48.6879 31.0853 13.7597 28.4044065144
43.5556 25.0654 12.7934 29.9100335639
41.4489 25.9087 16.2006 25.8242901919
43.5301 21.8981 16.73 28.2340092397
44.2995 32.1077 19.9774 29.5376079803
46.9281 22.6693 16.4493 27.94160512
41.5427 31.698 21.2387 30.0304038495
45.042 29.6555 17.9672 30.5718352099
45.0571 23.9553 18.4308 29.8009439582
41.3641 32.1512 14.3092 31.2457186764
45.8932 30.2068 14.1495 28.6105494439
47.0474 25.4771 19.6001 29.7128558827
41.2328 20.8741 15.6199 23.9610947472
40.8853 28.7272 16.6268 27.9065079926
44.8384 26.4027 21.0837 33.0305353523
47.7568 26.9383 16.0033 26.8454114447
47.1764 31.2692 20.7184 29.6358622731
43.8822 29.2021 20.6784 29.9052150392
48.3747 17.3422 18.5485 26.7882543512
49.0251 21.2488 18.0212 32.4252874127
48.712 23.5335 20.8974 28.753118472
40.3379 21.4387 13.1138 31.693249829
39.5979 21.8118 17.4777 29.4148522012
47.4468 32.5572 16.1791 27.9818505225
46.6759 22.5356 12.9103 30.6610538586
48.1058 17.9522 21.8728 26.6541646585
42.1292 19.8964 23.9642 58.7408166277
42.681 24.2063 21.4865 28.8350949599
41.325 31.7631 24.0208 52.6463160572
46.7757 18.1028 24.298 76.0987200706
40.0361 24.051 24.6663 111.6830575399
49.0665 31.3163 24.2202 86.4599477907
46.7921 21.1178 24.5846 97.5754222874
44.2355 21.9041 24.1004 60.7624539879
44.0527 17.72 24.4572 88.4262605727
45.0881 26.1769 24.1721 68.1170787249
43.0165 24.3321 24.1465 61.3809994749
47.6985 25.6836 24.7334 114.8542331509
48.7805 23.213 23.8334 40.6686556463
44.3577 28.8343 23.4846 40.2968726146
41.8026 28.9386 24.3879 109.5628480564
39.7894 21.172 24.1813 66.8761856589
39.8355 26.8559 23.8787 43.9702367209
46.2703 30.9803 23.6855 56.3963607375
40.0424 22.8704 21.467 31.9644550095
41.0605 18.4105 22.0381 30.6780569278
49.1835 29.0489 21.1676 29.3830780697
46.9805 21.6742 21.5768 29.5624401288
48.4452 17.1037 37.9236 27.3710749932
49.0899 20.0091 35.898 76.6383037758
42.8839 21.24 37.875 30.5618986388
46.5383 16.7109 35.7108 87.9186373574
44.3523 30.4796 35.9763 65.7566323159
46.2835 20.3861 35.8779 67.811626734
47.877 24.252 35.1759 132.7462255066
43.9467 18.4682 35.896 76.0426167196
40.5255 22.6436 35.493 100.5169878469
48.1463 26.491 36.5447 31.6049643371
49.0663 31.3649 36.4659 46.5869164186
41.1003 20.0814 35.813 74.1498422632
45.6229 23.1136 36.0104 51.1156508136
43.0325 24.0579 36.0871 51.288139364
40.6835 28.8651 35.9539 78.0303096786
42.9736 26.8765 35.774 87.7739194088
45.6197 27.9262 35.8464 77.5731809371
41.7842 31.6131 35.7935 69.9532134456
48.7838 29.457 38.7474 28.7575311575
41.7716 23.9814 38.5198 28.6129091956
45.5668 19.9134 38.547 29.4248496689
46.4286 32.4488 36.1637 62.9819324163
46.2461 24.1577 38.8012 30.573252281
42.3151 26.838 38.5604 35.4824290731
46.2533 28.5412 38.6051 30.3184234481
41.4756 31.2612 39.4834 29.3330835483
48.9736 23.5036 42.4864 28.5245055079
45.6688 18.6413 43.1215 32.3909909785
45.0795 26.4418 40.1032 30.9659021096
41.682 24.0052 44.2469 35.8818443073
46.9165 21.7522 40.5541 29.3882554751
41.2853 32.3606 42.1378 28.1424898482
43.4111 24.138 40.6406 34.7834763201
48.4466 16.7332 45.0982 31.2733442007
48.8442 19.7143 38.4804 25.3898727999
43.0645 26.1472 42.8862 30.3061041493
44.8412 21.3275 42.8204 29.5078941119
46.87 28.8412 45.3148 28.950249883
45.8431 21.6496 47.375 29.9036583041
40.7356 30.4313 44.1244 26.0961765374
47.1243 30.5225 42.9624 36.9517917859
43.0962 18.0572 44.484 30.3199095493
48.2284 18.6843 41.3383 26.460101799
47.1656 30.8404 47.2662 30.7828864412
48.6519 25.705 39.2943 28.1372954498
42.1083 17.7228 40.2244 28.6625397584
40.811 20.5919 45.0483 27.9916286867
41.7961 20.4433 47.5316 30.0170359794
44.4402 27.8385 45.4757 26.3103891118
40.0991 17.9766 44.8321 26.3252546856
42.095 20.2401 42.6522 31.4438003063
44.4741 31.43 41.9241 30.037868019
47.3268 25.6603 41.9542 33.7538157608
44.3576 23.1256 44.937 31.8811009812
45.7142 25.4118 44.1985 26.9490029281
47.7441 22.8869 45.9826 27.9391564378
44.7612 18.0628 40.6226 28.3752977864
42.5861 30.3724 46.4732 28.8880649018
41.0263 20.2812 39.73 30.1434241296
40.6495 27.9767 46.6677 30.3798360763
40.4176 27.1466 43.8446 28.2272232682
43.246 29.2456 43.3535 34.4729756514
47.8075 25.7843 45.7418 27.0902815071
44.1357 19.1084 47.0815 30.653333269
48.9739 31.8829 40.5878 29.0732745748
40.3988 28.8803 38.6819 30.8735860188
44.5079 30.7916 38.8968 29.9963022432
47.5306 21.3647 43.6444 28.2372215275
46.3974 32.3004 52.3679 32.0505443632
43.1342 18.0027 54.0385 29.5030833013
40.4559 32.0494 48.3549 26.5342520375
46.1299 18.0426 48.6684 27.7640678096
46.6188 20.6255 49.9061 28.7894970708
44.644 30.0245 48.2878 28.1327530849
46.0929 26.1843 47.9048 28.4194449495
42.1399 19.9664 56.0759 33.6258536075
45.0396 23.7928 48.8173 27.9947369463
45.5718 23.4519 51.7105 28.5717291187
43.8546 28.1137 50.8497 28.4317130732
46.4125 16.4694 51.017 31.2881681578
40.0613 26.2272 51.0408 28.899828725
40.4285 21.9846 55.0976 31.3211584915
41.2335 24.5446 56.1001 31.4908431668
43.0367 31.3744 55.5346 26.5601616212
40.4893 30.3793 53.9656 28.2882644196
43.6946 29.1549 53.7389 27.2212056538
39.4217 27.6251 53.4767 31.149015778
47.9838 25.2567 50.5131 29.361728635
46.9289 27.9636 50.0881 30.6174173575
46.4574 28.1394 52.879 30.6786803441
42.1995 22.991 48.5126 32.4313211225
45.828 31.2839 54.8168 33.8294094562
42.0826 27.2637 55.04 28.7158499857
46.6366 20.1732 54.7005 33.3853136399
45.8595 17.8034 53.1513 30.3727646519
43.9262 21.5286 54.1934 31.7803664904
44.5077 31.9916 50.4798 30.8372005537
42.4875 17.3408 50.559 28.5004513372
47.7885 21.6172 52.4502 34.8648258838
43.018 22.2651 51.1151 27.1963354162
44.232 25.5366 53.2143 29.7944221908
40.5145 22.168 52.3558 32.0574900407
48.7626 24.8028 55.5839 28.5584287759
41.9937 30.5305 51.5605 26.5724393316
40.3014 18.8831 49.4491 32.2362173305
47.17 17.6083 56.4376 29.4807522719
44.1916 19.4741 51.0769 29.938179555
44.2293 24.0663 55.6275 28.0649456394
49.3084 27.1185 52.5455 31.322357394
42.6582 25.4949 50.8437 28.9047251862
43.3699 27.2174 48.0737 31.3603510752
44.3341 16.7179 56.2704 27.1668658189
48.9044 30.2621 49.3429 32.2192349942
46.4132 26.7799 55.5271 28.0056388538
49.3632 31.7556 52.3782 28.7601480593
39.9932 29.9074 49.8969 29.3927918641
47.9056 29.6757 56.2701 28.6773545697
48.0152 16.4548 47.829 26.7938057675
42.5165 36.0236 8.95695 30.6231320052
44.7997 33.9651 4.63802 31.1833802422
49.2556 47.5331 8.55065 28.867637546
40.8427 39.2787 6.48059 30.6615117835
45.5093 41.3068 4.03603 28.7665941729
41.5391 46.6917 10.3035 30.7530070658
43.923 35.9508 6.31307 27.6387014103
44.8112 38.4299 5.06152 30.6415542268
47.5068 33.8545 4.76142 33.727616852
40.9916 42.3382 3.95924 29.6491807001
42.141 33.6291 6.98753 32.3693240691
43.1762 48.4761 5.6075 31.0260477601
43.4633 45.9855 4.85604 30.03331063
46.9861 45.8351 8.09672 29.2004710403
43.7032 40.1931 9.8016 28.9131483983
41.4677 42.8536 7.08567 28.3343141478
42.1394 38.3796 10.9622 33.062362317
42.8041 44.6416 8.98702 33.5613887147
43.6274 42.7097 10.8412 31.0269359394
49.1 34.7361 11.7931 28.6653852866
47.6936 39.8656 7.86839 26.7749240034
41.2689 36.6063 5.87997 28.5547448778
48.8559 36.7804 10.1476 27.3293745155
44.4709 44.3641 6.9188 28.8364270471
48.267 47.7904 11.2438 36.4561083671
48.8753 42.034 6.3952 31.627235552
40.7436 48.9244 7.29481 28.6223267357
39.4944 39.0091 11.0946 32.0201028563
46.7248 43.7088 9.79477 33.4205497031
39.4466 41.8642 11.423 31.0534086345
44.7582 33.4917 10.1357 36.2827833533
46.1778 39.0624 10.0078 30.1286458372
43.3384 40.518 7.13179 30.329144091
48.1946 44.5962 6.02135 30.5423389625
47.5132 37.8109 5.67818 30.884315933
41.22 45.0005 5.27324 29.1026529435
45.6034 36.1891 9.27928 33.1298391783
45.1645 48.1291 7.95702 32.1375945004
45.854 41.8704 6.56638 26.7036441738
47.4997 35.4803 7.24927 35.1433294573
43.1259 49.0808 10.0541 29.693875781
41.8648 34.8733 11.3505 32.8711276608
49.0214 36.7235 17.5642 28.1629366217
46.0995 37.5645 14.2977 31.6970487157
43.2756 36.7622 13.6233 31.2928364187
47.3633 34.8274 13.8055 33.6344000508
48.3881 40.9863 13.0399 30.0684987119
45.3754 39.8284 18.3388 26.4399170438
46.2363 43.2117 12.287 31.1681787367
47.5948 42.7254 15.5236 27.4221667286
42.7794 48.966 12.9262 28.2729412249
41.5204 38.8345 15.1451 30.4029271318
40.0189 46.2047 17.3356 32.1852308201
43.8739 40.8625 14.5468 30.2669697826
45.4902 48.0339 18.2275 33.226455557
48.9202 48.0642 15.8841 29.9615724372
41.7477 48.377 18.0084 32.4643883688
40.8498 43.4603 16.8961 31.6567494277
41.8445 42.2633 12.9715 28.3953596293
45.4822 45.565 14.145 35.9316938432
46.5129 39.0499 20.9273 28.3151946279
42.8109 44.3327 14.6693 30.428449439
47.703 45.5366 15.7306 26.6832150156
41.7272 33.6365 18.9105 28.8955360198
46.3415 34.8905 19.5163 27.3208600697
40.8557 36.8779 17.093 27.2849886408
44.479 34.5454 17.522 28.2847167896
45.6667 48.4624 13.2582 32.1777187564
44.7245 34.3809 12.9112 28.6103181602
40.7974 40.4901 21.186 27.1077631049
45.7898 37.2891 17.3859 31.2368371017
45.7712 42.6276 20.0048 26.5192573461
45.1774 42.3359 16.5003 27.184487723
48.5663 43.4366 18.1558 28.5187433269
48.8813 38.1022 15.22 29.0213036503
48.6301 34.0828 18.1925 27.2295020834
42.8483 39.8935 17.4315 27.49461173
42.1768 34.7289 15.3677 28.6193837144
42.9166 37.2719 18.9211 27.3240916459
46.4382 45.5963 18.5246 27.48126092
43.9008 44.374 17.9192 29.7295792716
42.4173 42.0114 19.2394 27.169393849
41.4221 46.2067 13.043 33.8749235748
42.815 38.6653 21.4485 25.769880098
42.7801 47.9489 20.6127 30.5586353525
44.7766 32.8498 15.3517 25.977395594
39.8936 48.8472 20.9551 27.3997966787
45.8249 39.8343 12.6922 28.6740391399
48.6804 40.3719 18.0341 30.2543284664
43.651 45.0767 20.8125 28.8959441378
48.485 41.1681 20.9903 27.0358249454
41.6409 35.61 20.7596 25.5797541274
42.8664 34.0716 24.3974 97.8952683019
48.0798 47.5091 21.3128 30.191747835
45.6728 33.4827 24.1583 82.6064736361
47.9637 47.4098 24.3873 92.5144427922
41.54 36.5219 24.0158 49.6520362427
45.3188 37.2218 22.8566 30.4938195357
44.3734 34.6588 21.6224 28.3003620456
39.5491 48.0667 23.7228 42.9504664694
43.3968 38.5668 24.2653 83.4476964397
40.8109 40.3375 23.9376 50.1250185581
48.5571 34.1321 23.9105 53.3338399239
46.9031 42.8717 24.6081 92.8131638201
44.3392 41.2332 24.2622 65.9513540565
48.6567 36.681 21.2852 29.8969139046
41.4604 43.3846 21.5585 27.4582504554
47.8557 37.4939 24.2401 92.6623782
42.1884 42.8477 24.1631 64.2290389813
48.2087 40.3581 24.0071 62.64949209
43.3729 45.3256 23.7117 43.3897074561
45.8905 45.369 24.3778 81.2550281903
44.4828 40.9496 21.5401 25.9783944938
42.3606 47.8249 23.8254 66.4630829253
48.7041 33.6494 21.146 25.9645353551
46.6975 45.1807 21.5114 27.0322929767
42.4025 38.4292 38.2875 29.6785817237
40.0231 35.4993 38.078 27.5129767502
41.9631 37.1405 35.9602 69.0080432244
40.7201 40.7723 38.6191 27.7177105961
39.612 32.7825 38.5616 27.4832316063
43.0244 48.3167 36.3981 48.807375201
44.4097 41.8609 36.1124 42.3852730419
45.7253 36.8726 36.244 40.7694481179
48.7347 47.4563 35.5147 100.1015332615
44.4269 34.2199 35.9069 70.0079016666
48.3469 35.9692 35.6048 99.4409096991
48.2265 40.5769 35.8878 59.3183114093
41.688 34.3688 35.7882 73.3902734721
41.7489 41.5291 35.5937 109.0220908101
43.0632 45.7351 36.5784 37.1017660704
40.6804 44.2924 35.8898 78.0721784568
45.4393 44.4485 35.8861 90.2999181222
45.7431 39.6079 35.4418 110.0888989303
48.3555 44.6853 36.1083 42.1226518455
45.9524 48.229 35.9808 65.081887466
49.1441 47.2811 38.6481 24.830697574
48.642 44.1901 38.6564 26.2392822487
48.2294 41.3241 38.483 29.0431474514
39.2581 38.2017 35.7648 93.1522160685
46.444 47.6763 38.7978 28.2407381812
48.678 35.1572 38.2328 31.1434524975
40.0803 47.8969 35.7684 78.6620171927
43.1688 42.2911 38.9166 33.1151763155
41.8437 35.0433 40.2821 29.5993107286
49.035 40.9504 42.762 29.9649081272
45.0167 37.4651 38.8117 31.7806479207
47.5591 36.2638 44.824 31.4353992508
45.2923 35.2668 40.8634 27.6894666168
47.9269 36.6148 40.681 28.0617725776
47.2752 33.4068 46.3723 31.2395777804
46.0763 33.2999 43.5604 29.6267956806
43.1919 33.5579 43.7033 28.5962496552
40.5116 41.0758 42.8605 32.3422260887
46.1769 44.7588 40.2374 30.8622251679
44.8965 39.5189 46.3316 35.9651148053
42.7526 44.3303 43.3544 29.7481479887
43.8369 46.6389 44.3277 31.0812825054
