33.5792 1.5964 17.2837 31.7322241194
25.3088 4.18799 17.9174 30.1441334496
28.1484 4.25203 17.1114 31.4304287956
26.0387 6.74431 20.7615 28.7691626647
29.2462 6.66824 17.699 27.9697851133
28.7405 6.5411 20.3773 29.3037165998
31.856 6.19415 17.2481 30.5546951848
33.5544 5.50445 19.667 34.5197091113
35.7212 7.88564 19.3839 29.7909377771
25.2249 8.41222 18.442 29.3464506416
27.5407 9.15911 17.326 29.7610805038
30.3704 9.77076 18.4239 30.9607118331
29.7896 12.17 17.0417 33.7889278382
33.0843 9.02267 18.2845 32.3086632275
35.8902 10.6179 20.3178 28.5477062735
36.1629 10.1133 17.1324 30.5736904127
26.4442 2.06173 23.7915 54.8294900537
31.2003 1.71288 21.3939 29.3608404196
28.8256 3.66248 23.6998 50.0571739353
30.2655 1.01928 24.1873 71.5669760039
33.7863 2.75637 21.3853 31.0608049984
32.8577 0.744452 24.6079 91.5570165937
36.6404 0.392498 23.8334 40.2755842502
36.8264 3.04496 24.4249 92.9707797488
34.076 3.09169 24.3253 57.3183110067
35.6211 0.602888 21.2433 27.4373346241
26.3187 7.41909 23.5304 31.9963827255
28.8 6.38539 24.3093 93.0207301389
31.7414 5.5255 21.5164 27.8876504311
32.5221 5.18015 24.2285 73.326963924
35.4219 6.19488 21.5512 31.1699386795
34.6681 7.05251 24.163 62.9143773234
26.6667 9.90933 21.2708 31.5943608936
26.702 10.0115 24.3566 99.2706955951
30.8379 8.48041 21.2969 27.2831036527
29.0358 10.7004 21.1981 29.2523954172
29.3341 10.5782 23.7778 42.0466821846
30.7104 8.31648 24.2 68.7415221721
33.4073 9.94215 21.5107 29.4672418097
33.4577 9.60372 24.2574 78.3074358396
36.0395 11.3343 24.0655 64.0866967745
24.7421 2.25291 38.6963 32.6819145338
27.9874 1.05623 35.6507 97.3595392506
25.5308 2.95065 36.1105 52.2126885887
30.522 1.79083 35.9935 56.7247441426
33.3211 1.17749 36.1528 59.962736766
35.6156 2.92551 35.6303 95.9768888794
36.8816 1.90391 38.6029 29.0929992248
27.2567 6.51224 38.7725 30.021537439
28.1733 4.29025 36.222 49.9172188464
26.1153 6.47567 35.7314 92.029219006
29.8958 5.37339 38.0832 28.1984266071
31.4179 4.67426 35.5418 102.8361321472
30.7043 7.49286 35.8846 69.7714939586
33.8119 4.97461 36.3486 40.9903102183
34.7921 7.61221 36.5022 48.040291589
26.8703 11.5392 35.7593 74.1672404874
27.9219 8.83499 35.974 63.3212080994
28.257 8.96485 38.8218 27.1452488762
29.6001 11.4552 37.6801 27.5842324477
30.9557 12.0931 35.385 98.8538978642
32.5915 9.75085 35.8328 70.5202315457
32.7884 10.0569 38.6769 28.9558509643
34.9427 11.7747 35.9747 63.7600731481
26.0912 1.07317 41.0369 31.8596072804
26.451 2.97915 42.9232 25.4980960963
30.7483 1.49617 38.9054 30.9662562755
28.966 2.85607 42.0006 30.9709903802
31.0751 3.70468 40.0371 31.7248939253
33.9439 1.10013 38.9795 27.1500321874
34.2079 0.234391 41.9544 32.8802162198
36.3515 3.9232 42.745 32.5939864095
33.5956 3.77581 39.1778 31.4191635022
27.5826 6.66014 41.6259 28.104529967
25.1527 5.08603 41.8306 31.3274707041
30.7624 7.99479 39.209 29.735623161
30.4519 7.40355 41.7522 29.4530925619
35.1095 7.91837 42.1058 30.4712492502
35.3892 5.36416 40.5592 33.0385979298
24.7721 12.2084 40.0302 27.481801227
27.2627 9.09362 42.705 32.343162887
27.8352 11.1206 40.792 27.475101959
24.8442 9.38826 40.7633 31.3173826105
32.7076 9.09093 41.8035 28.6980198887
29.9979 12.2365 42.6606 27.6220932705
35.6701 11.82 41.6742 29.9383112429
35.103 8.40909 39.0625 31.2239251441
33.0573 11.729 42.6482 28.1745457089
26.8793 3.10154 45.6717 30.5361031107
31.2604 1.44175 46.191 35.4919253716
30.1775 0.634057 43.4609 34.4122252107
35.3303 0.893692 46.1231 31.9868588896
34.1512 2.5021 43.8086 34.3843680588
28.0865 5.67772 44.768 30.4595217773
28.9679 4.8309 47.4816 32.2591938286
31.5928 4.1113 46.986 32.2767008261
32.6909 4.77569 44.6194 31.4166414741
30.2505 4.94993 43.5153 30.6079045201
33.8483 7.23837 44.7842 31.9956055718
36.228 6.74512 46.0106 29.9725488409
26.9162 8.38417 45.6386 34.6401903003
32.632 9.34577 46.1432 30.6815037148
29.7954 9.44904 46.2044 29.4060283521
29.3063 12.1869 46.7031 33.1466128347
29.9431 9.64504 43.4803 28.3682023449
33.3098 12.1449 45.4684 31.5813867551
35.8836 8.98402 47.5272 31.8307903234
36.0686 11.124 45.8169 31.0034221213
27.1502 0.606872 47.7569 29.3773645964
28.2644 2.02175 51.6001 29.5895372968
27.3789 3.42864 49.4715 29.1960113634
24.7042 1.63896 51.6519 30.6166492418
25.2178 0.124575 49.5224 30.4914519829
33.5265 2.02613 50.4669 31.4504099175
35.9461 1.65089 51.4377 30.8830895334
33.1626 0.552402 47.9975 32.5495590002
25.0983 4.6575 49.4536 34.1191867468
25.6559 7.42684 50.2393 30.9633195263
27.8775 5.71342 51.5633 29.3343555371
29.3803 7.4424 48.43 31.0315842997
31.9695 7.41875 49.9229 32.0350859156
35.5719 4.89145 48.0768 35.7578910613
32.9678 4.62931 49.404 33.6050635954
27.2261 11.9445 48.7651 28.6815799359
26.8307 9.13494 48.4406 29.3684690317
30.6675 10.8122 51.013 29.3222260718
28.9053 8.55674 51.1889 30.4859757199
34.4679 11.0214 50.9249 31.9817991409
32.9988 9.86186 48.8794 28.3253088719
26.4508 2.6829 53.6581 30.2433263867
28.5194 1.18205 55.1875 28.3146242594
31.9534 0.0664346 52.5335 28.5885532044
31.0248 2.71303 52.3715 31.4586980662
30.8421 2.68254 55.1759 28.5908155828
32.4051 0.0881923 55.4153 28.1680576209
36.0176 3.9074 52.7396 28.9521784586
33.8118 2.52763 56.0335 34.9773048523
26.8472 5.46924 54.1694 31.0877667284
28.2443 8.06645 56.5306 28.3697852646
31.8635 7.23701 55.8579 29.6371922494
29.697 5.56794 55.2277 27.6830842766
30.5533 5.96354 52.4004 30.330790939
33.5602 5.00728 53.2788 28.4396435062
33.4015 7.53919 52.6514 30.2860744339
34.2265 5.58922 55.9724 29.4883978477
36.3119 7.04214 55.0424 31.4288985977
26.4703 9.4861 52.539 27.6179874522
27.7977 11.9226 52.7517 29.0718105028
26.1883 8.85236 54.996 29.2519865642
25.9561 11.8283 55.9071 29.8476961657
32.2504 12.1817 52.6378 31.140229957
32.2737 9.81278 54.3265 28.7832661275
30.1775 10.0448 55.9717 27.6562508341
35.9791 8.95706 52.5082 30.8395731875
33.9744 10.8024 56.2242 33.6012892186
25.2401 16.1848 6.4856 33.8281824404
27.9287 12.3781 6.59819 32.9865792715
25.6889 14.4124 4.28393 28.1192666558
28.0597 14.4362 3.64809 28.8221179886
29.2168 15.2066 6.22202 36.5905557928
34.5591 13.4897 6.40123 33.9265772015
34.0149 15.6474 7.8014 32.9563415763
35.028 13.4981 3.79167 33.4370351897
27.4177 17.5912 7.55594 34.3272255166
26.9567 20.2509 7.16694 32.6440282863
30.394 17.887 6.36677 33.6188134336
32.6863 16.7464 5.60901 33.5163115055
30.0007 19.0358 3.97301 29.8775121739
33.9058 19.4535 5.83614 27.1431427454
36.4901 19.244 5.9707 28.3783248449
27.5832 20.9153 4.55942 28.7004107593
28.4258 23.4456 4.90363 31.9052626172
24.6648 21.2065 4.38764 31.7420530745
31.9371 21.8188 5.85298 31.915756394
29.4556 21.7353 7.50656 31.4605012216
33.7536 23.7874 5.91208 29.1209946132
36.6491 23.6281 6.48988 29.4051018504
26.8183 13.2608 11.1865 27.8418565746
25.2416 15.7218 11.2676 29.8476141146
29.9069 14.556 9.15231 33.8984200927
32.4275 15.5127 10.0443 28.3301437119
28.8004 15.0455 12.0021 27.6264721559
33.7123 14.6805 12.2327 28.2550116922
36.6079 15.4922 11.3403 30.1517720609
25.8837 18.0336 9.86738 30.4058247536
27.4364 19.2368 11.8606 32.379629527
32.2082 18.2087 11.0153 30.6296066416
29.7515 17.6474 12.1656 31.4335350043
34.5222 18.3846 9.03024 29.1940251065
36.2524 18.2869 11.4702 29.7630234924
26.6047 24.1721 9.80579 29.6348718334
24.8073 22.0122 8.25152 33.671972486
25.0628 22.9615 11.9013 31.1778833762
29.1386 24.4635 8.73918 32.0173204976
30.8707 20.5654 9.76916 33.6595144141
30.4769 22.4898 11.5273 29.8587882698
33.3568 20.8081 8.36556 31.3525081572
34.9016 23.4362 9.02703 30.1557513282
36.3452 21.9406 10.9267 29.3234883679
26.2588 14.9888 14.0106 37.698584761
30.6989 13.6921 12.6507 26.8058293357
31.274 15.3659 14.8445 32.1470407356
36.6523 14.3208 15.4054 31.3599572385
34.0373 15.7145 14.6601 30.6443001624
25.524 17.766 13.82 33.8743102924
28.0279 19.5188 14.8921 30.8347193374
30.3038 18.0287 14.9223 27.4135939887
32.3173 19.8294 15.0024 28.7837694043
36.8233 18.5599 14.945 27.8465375938
34.0305 18.3922 13.3175 26.5568471104
28.1653 24.0466 14.8708 33.0141020295
27.9188 21.9939 12.4099 33.168618062
31.9644 22.626 13.6784 31.0635242057
29.8506 21.8019 15.8376 31.3361089873
34.8681 21.2162 13.1931 31.4791552323
36.6795 22.2751 14.8249 26.9558774423
34.4777 22.9693 16.7079 28.9834739335
25.5765 15.7318 18.4853 36.026115727
24.9821 13.0807 17.4598 32.4202714002
31.2384 14.4222 17.9808 31.9772873122
31.5054 16.3219 21.0762 26.534437805
30.153 13.4204 20.8352 31.1465808389
33.9348 14.7584 17.55 33.7175610643
36.1269 12.8722 18.0404 31.9497581369
27.8556 17.3236 18.7732 32.5996053665
26.9407 19.4686 17.2897 30.6600480081
30.3652 16.9931 17.5809 30.9608941465
31.2146 19.9014 20.9554 29.6181187392
32.6408 18.003 19.0186 28.4145881103
35.3486 16.6915 19.1233 29.8455145578
35.5664 19.0705 17.3679 32.2407364776
27.1877 21.2837 19.2972 31.0169089008
26.9402 23.9048 20.833 32.3427675535
30.8257 23.9179 18.8301 31.4652948565
30.2834 21.2645 18.5492 29.6247681031
34.1806 23.2893 20.4823 29.1756130798
33.0337 20.6395 17.487 26.2455382386
36.2719 24.3624 19.183 25.9706572864
34.2001 20.7453 20.548 28.0958938201
36.8133 21.5498 18.177 26.0951377018
25.1267 14.5294 21.1716 31.8860258107
28.1835 15.1895 21.6089 32.1660563526
25.8585 14.5726 23.7243 45.9420631009
28.5724 15.299 24.3792 98.2892537003
32.7529 12.6562 21.9508 29.2978737417
30.6698 13.0292 24.1126 69.3046061394
34.0499 15.2366 21.4223 28.3247082152
35.9389 13.176 21.8704 26.6817656932
33.5612 13.557 24.4163 87.1322930093
27.0007 19.8891 21.6444 28.946097763
28.4987 17.937 24.2158 77.0624454661
24.6197 19.3137 24.709 86.4185928475
28.9797 18.1776 21.3924 25.3181827874
31.543 17.3858 23.5077 46.9048676987
34.17 16.4022 24.2182 77.6256085873
35.937 19.6543 24.574 116.5027411579
33.6614 19.4838 23.452 38.6139555303
26.9256 20.5738 24.2191 52.4788305308
27.0824 23.3773 23.7395 36.367830494
31.9924 21.5988 23.2135 36.6045426031
29.6776 22.0541 24.5531 121.4297266435
34.6039 23.311 23.3606 42.2210290901
27.2532 13.4068 38.6985 28.113692433
25.0954 15.7417 36.1771 44.6766804087
27.5413 14.287 35.9205 63.0492747123
29.9875 15.2712 35.6285 72.8282214921
30.2831 15.2232 38.3841 27.0457244699
32.9585 14.1107 35.6838 69.6435876268
33.2277 16.2624 38.7193 28.0733372758
33.4091 13.3738 38.5296 27.8035274696
36.1323 12.6424 38.7804 27.4533363268
28.0142 19.1461 35.6114 81.7822756741
25.2102 18.6214 35.6176 84.074069651
28.3809 19.2158 38.4046 31.1311573636
30.7637 18.0605 35.7786 61.2745979349
33.6791 16.7606 36.0203 54.2143854602
36.4446 16.9436 35.4941 112.6188046032
26.1316 23.5011 35.3848 106.8942807346
28.1125 21.969 35.9527 44.4569187981
28.1254 21.8517 38.667 28.2092830236
31.8578 20.6331 35.6486 75.368929021
31.0488 23.4226 38.3084 25.8066901347
30.8215 23.3652 35.6564 72.8451255045
32.2951 20.9445 38.6965 31.8533249761
35.225 23.9654 35.7347 72.8944859752
34.9831 21.8315 38.6632 26.7673209938
34.7383 21.1955 35.6145 88.3716197984
28.6792 15.893 40.4861 25.9970904387
27.429 13.8803 42.0568 31.2574139476
24.7763 15.3194 38.9505 28.017601367
30.8867 12.709 39.8841 27.8544612525
32.9187 14.714 41.7587 33.3546929002
35.9016 15.1491 42.2854 30.7747973659
27.708 19.4413 43.0508 27.9774412877
25.517 18.2419 41.8225 30.7943885614
26.6675 17.3012 39.6379 27.3268072521
29.7411 17.5946 42.3097 29.638975719
30.9001 18.0418 38.9887 26.9851883933
31.3944 19.6098 41.4672 28.7860480996
35.6101 16.7615 40.0077 28.9476488629
34.1838 18.7367 41.9596 33.2596167488
36.719 19.4651 39.2008 32.9983757467
25.5378 22.4083 39.8593 29.541361408
28.2594 23.9826 42.6686 27.58280205
26.4088 22.0532 42.6048 29.4888347558
29.6955 22.2388 40.9886 28.5884093048
31.8018 24.3379 41.5052 29.0960785772
36.1291 20.9375 42.5331 35.3430042596
34.3918 22.9637 41.3977 28.9046700334
25.9276 13.523 47.2341 27.0281935482
27.5493 14.8944 45.176 31.3169845068
24.7983 13.9717 43.3301 30.8288494861
30.0947 14.3208 44.6192 28.3727844629
32.0819 14.7174 46.811 26.245367378
35.1615 14.0554 47.2666 31.4345756207
36.8578 15.4758 45.8192 29.7542608447
27.0924 18.9875 45.7275 29.2794080928
28.7157 16.9672 46.6895 25.5333932803
30.771 18.3293 45.5077 26.1904368465
32.3345 16.6524 44.0242 27.8175769701
35.0455 16.8712 44.2805 27.6027463807
33.2901 20.3842 46.1083 29.7709881173
35.6898 19.3431 45.0006 29.3346710425
25.4745 22.378 47.4587 29.8683012901
24.9018 23.3098 44.6682 33.8924943731
27.9049 21.4518 46.9036 27.6498447424
30.1547 20.5935 44.1361 27.8405803817
30.5469 22.6052 46.2202 29.2843893541
30.7317 24.4992 44.1195 26.0617465902
33.0658 22.7261 44.0268 29.1674485183
34.5741 24.4468 45.5601 28.8263354563
28.1171 15.9063 51.2565 30.987317322
25.4303 16.0546 48.1826 33.5874721943
25.5645 15.5446 52.1722 31.6401044989
31.5205 12.4379 48.5672 29.6478957867
30.5494 16.0977 48.6498 29.6932528109
31.5527 14.72 51.1142 27.2360351293
28.7468 13.1759 50.4911 28.0588651246
33.919 16.0382 51.2432 33.693845584
36.2888 12.8283 49.6425 30.9290816473
36.4629 14.9154 51.2268 29.1429081793
27.4421 17.9242 49.2855 28.6058741015
26.7399 19.3112 51.6875 31.1712406663
31.7659 18.9493 48.3625 27.2000090848
29.2483 19.8491 48.7976 28.7115710932
36.6811 17.9262 47.8026 27.8017802331
33.7652 16.9311 48.0075 31.303950244
33.3036 19.8065 50.8647 31.6631268829
36.3077 19.7799 51.31 31.414650735
26.0508 24.0163 51.2121 28.1913741455
26.1401 21.5342 50.146 27.4053501176
31.9595 22.3726 50.7784 29.2521476978
29.2512 21.8483 50.838 30.995241666
31.2939 24.4494 48.7935 28.5147968072
34.011 21.7061 48.4187 28.3558460957
36.6881 20.7384 48.8737 26.845012081
34.0447 24.2567 48.2138 27.655209563
25.2039 12.9578 53.3656 31.1458480393
31.3249 14.0726 54.5493 32.494926942
30.4081 16.3143 53.0968 31.8174446958
29.1106 12.5006 55.0984 29.5601773019
33.3545 15.631 56.0365 36.0636254464
27.4571 19.1271 55.586 31.9300701335
24.96 17.771 55.0036 29.4867928826
29.0509 16.6921 55.6406 34.6080484302
31.9479 19.9337 55.2364 32.3464751409
32.5997 18.4012 53.0605 31.1289007955
36.2395 19.1528 55.0775 28.0944683741
34.7951 17.1099 54.2495 31.1962776755
26.8416 23.3158 53.9266 30.5167338071
28.4679 20.8471 53.4278 34.6054131862
31.4021 22.8429 55.1862 33.2218681407
29.085 24.2718 55.3876 30.6035873081
32.8363 23.9136 52.8382 28.6004015833
35.4501 23.9399 52.7567 28.2051735383
33.9662 23.2555 56.4493 25.2508137448
36.6264 21.6003 53.4809 27.7383110102
34.2331 20.587 56.5688 27.0797504692
36.5532 23.0439 55.7968 27.6904233769
26.0068 25.3135 5.37378 32.6515807006
25.5321 27.26 3.54711 29.5864571605
27.4351 28.1653 6.88533 32.683866116
29.4401 25.95 6.4197 30.7458861141
32.1654 26.0665 6.30982 31.8598209114
31.9873 27.7632 4.00957 30.8001238325
28.9477 28.1201 4.05547 28.3981877396
34.9204 28.3682 4.14248 28.994233056
36.1737 27.8041 6.8911 27.4110243758
26.3627 30.0307 4.444 27.9466012445
31.267 30.4013 5.30682 28.2913320502
33.8996 31.0133 4.99906 28.754565729
36.1661 30.7242 6.69296 27.0392745639
26.4342 35.4834 4.98898 28.1336178337
26.8653 32.8598 5.90459 27.4396059328
29.6128 32.6982 5.25497 27.7416906343
32.1585 33.7698 6.38745 29.840647364
29.9444 35.6485 6.5508 31.3409407944
36.2067 36.1318 7.72775 36.0980873118
32.8577 33.7872 3.47926 33.7458532371
35.207 35.3573 3.89676 33.0969265135
26.2901 26.4256 11.4842 30.290263983
25.2869 26.2384 8.06863 31.0553907619
29.0487 26.8088 12.0301 31.4032418959
30.735 25.1806 10.8808 29.4367449141
33.7635 27.9547 8.11809 27.6188406989
33.2226 25.537 9.48672 30.2453509685
33.7752 26.591 12.0799 30.1135722054
36.3125 25.3757 10.7933 29.3694632464
27.7243 32.2815 8.61972 29.6597075367
24.6986 28.6746 9.64924 29.6169395045
27.3703 30.9175 12.1215 27.6981690376
25.4247 31.6502 9.87296 30.0102293908
32.7609 32.0764 8.66261 27.4239105636
31.638 29.8736 7.9154 29.4749216781
29.2875 29.3818 11.1319 29.4378778529
31.7362 30.5637 11.9292 30.060989043
28.8584 29.7826 8.59783 31.0844087768
33.7852 29.0553 10.7778 29.0807867989
35.288 31.4035 9.17133 27.7612504572
36.6878 29.4234 11.6981 30.4659986252
28.5971 35.7941 9.00186 28.6229855296
25.6425 35.5358 8.54842 30.9108081784
31.7177 33.0619 10.8486 30.9463587735
28.8234 33.8133 10.9158 33.4421406274
33.5057 35.8299 8.04913 31.8100897836
36.3694 32.8847 11.1071 27.4792881701
32.8372 35.9922 10.6409 32.4275612907
25.1575 24.9893 13.9213 30.1120291883
26.8744 25.8763 16.7049 28.9291302969
32.3594 25.3012 14.1459 30.4182925122
29.848 26.0314 14.5713 27.9881793278
36.8215 24.9868 13.5762 29.5079399703
35.7168 28.1434 13.8653 28.6516694659
36.5045 25.61 16.5572 26.7484680952
25.2771 28.7885 12.953 33.2428779119
27.5181 28.7141 16.671 29.3797348664
27.1606 31.0092 15.0335 28.1389361885
30.4314 31.0657 14.2522 30.445766285
30.2863 28.6058 15.5861 34.0777729177
34.587 29.9661 15.5943 32.7166691172
32.8376 32.3158 15.2848 34.3147637293
24.9653 36.5609 14.9614 29.0252671387
27.3373 34.04 13.2711 33.6343284524
28.2164 33.3546 16.0748 35.4137500812
24.6461 33.4726 12.73 28.908188896
33.993 33.287 12.6814 32.9634103282
34.9382 35.6012 13.715 37.0824959248
33.6541 36.5461 16.1798 37.2005698596
24.8155 26.2102 18.555 29.318147914
28.4416 25.4164 18.9701 32.6423197322
28.9969 27.9356 20.5062 30.084865955
32.5295 25.1568 16.9885 31.8465445974
34.2755 27.2486 17.3212 31.9090964727
36.1774 27.1253 19.762 29.9765273519
24.613 32.1569 18.6494 31.2089598049
28.0287 30.2583 19.1203 29.610316776
25.387 29.0103 20.0661 29.957950459
24.7783 29.6013 17.0428 30.497250631
32.3181 29.6018 17.3526 30.8296407967
30.0353 31.6586 17.4613 27.7606507981
31.7551 28.9397 20.1136 30.35894099
36.4724 31.2851 17.2363 31.9020643748
27.7145 35.9317 17.7048 31.4752712653
25.1948 34.5095 17.121 29.5856916146
24.7038 35.9687 21.0507 28.2808718154
31.323 33.3463 19.1458 28.9699953425
29.2694 35.0192 19.6872 31.2182469216
33.3555 34.1077 17.5195 35.1225314924
35.5481 32.9358 19.1006 27.3493394641
35.5579 36.0563 20.9712 28.5283195455
26.367 26.7258 21.83 26.5943887432
25.4482 28.2586 24.4642 95.2616760356
27.7106 26.0966 24.3394 85.84603235
31.9163 25.2882 21.1974 35.7714253582
30.4415 24.6573 23.9155 53.1970650313
29.2936 27.9413 23.4942 34.865464378
32.2577 27.9148 22.9764 26.7891164334
33.4297 25.8665 24.3141 103.47305304
36.1149 26.7386 24.2987 88.8281350595
28.5983 31.326 21.6851 32.267339972
31.7611 31.1511 21.4245 27.9266086358
29.3372 30.5173 24.3843 86.9975666813
32.0698 30.4302 24.3505 101.3488014491
35.7664 32.2793 23.9958 81.932636882
34.5935 28.8307 21.6107 33.9848529642
34.9186 31.5072 21.2726 26.7606240466
27.7682 34.1098 21.5424 28.9570997011
28.4167 33.5172 24.3954 93.1015099723
25.2471 33.2058 21.4832 29.1964991192
25.7163 33.1738 24.1042 81.1784827001
30.5671 35.3814 23.972 55.7113136645
33.3428 34.0365 21.2036 30.644527391
32.8185 33.3411 23.934 62.1110329335
34.9144 35.4079 23.7753 51.3226752002
26.2221 25.8894 36.3016 34.3079359427
29.0526 25.8 35.7931 65.5315747912
30.8595 28.3121 35.8658 71.4332647002
29.5903 28.4789 38.3768 26.1804621199
32.5438 25.6528 35.9096 66.6935262895
29.297 25.6901 38.6555 27.0032152816
34.0586 24.7474 38.2269 27.0254861034
35.8195 26.9464 36.2095 62.147234163
27.267 28.7225 35.7225 73.3498664454
26.9052 29.5639 38.3573 32.3035951281
28.5802 31.2874 35.7012 70.697240874
27.7469 32.2944 38.4214 32.1870083808
31.6369 31.2212 35.7689 79.2932718304
31.5515 30.7631 38.7015 28.3385686847
33.5632 28.6573 37.1125 29.2272985418
34.3654 31.6579 36.0379 73.3330025401
36.5625 29.7562 36.2135 64.9256746537
26.9973 33.4624 35.6346 105.1180792878
26.5989 36.2281 38.3272 28.883548755
28.6362 35.5258 35.9418 74.8536104122
31.0971 34.1089 36.3779 41.6180477909
36.6098 33.5289 38.8318 29.4391140775
33.0587 35.8053 35.8163 95.3884940375
35.7979 34.3743 36.0862 61.8854670453
33.7629 36.0097 38.4945 29.7223393513
24.7527 27.6962 39.1631 27.3209893825
28.0174 26.5962 41.4053 25.1791615824
26.3713 25.2657 39.197 31.8379086616
25.4125 27.5836 41.8398 30.0261537338
31.2888 26.9445 40.6222 26.8963702243
36.2741 25.021 42.3978 29.6485968076
33.6678 27.5536 39.7206 27.6894434772
36.4658 25.9145 39.9519 28.2628833557
24.8745 31.742 41.899 31.1105881541
29.0013 29.4832 41.4311 29.7982028197
32.2965 30.2069 41.6799 30.1393956661
28.9393 31.6564 43.2032 29.7036014847
35.0862 29.0014 41.9488 26.4094651389
34.1846 31.9863 39.0155 27.2990271087
35.8199 29.9381 39.1797 27.168096761
26.0306 34.0711 40.4201 26.632774145
25.2208 36.3721 41.5509 28.5188133574
27.4862 34.0305 42.999 30.3833298811
32.1791 36.676 42.3664 32.5144385032
30.3457 34.2331 42.2187 31.5155484052
30.2502 33.6077 39.119 36.7654685278
34.3945 33.8078 42.8508 25.9872097027
33.1755 34.259 40.5379 27.4881449917
36.4049 36.158 39.3442 33.8158757313
27.1437 25.024 45.3316 26.9207498451
28.1485 27.3178 43.9744 28.2967528598
28.6652 27.4459 47.2779 29.9707276358
25.0058 26.8926 46.5488 30.1160486554
28.5618 24.5265 47.7492 28.3712731971
32.3895 26.2916 45.2041 29.1467017744
31.1617 28.3027 43.4608 29.8084170095
31.4604 28.0209 47.302 28.9557042014
35.8761 27.8745 46.5354 29.7589617341
35.2348 27.2299 43.8672 31.4457738918
25.2938 29.7916 46.0956 32.1706067354
26.4052 29.7413 43.4243 29.4963087446
32.0123 32.5118 43.9993 26.3233494745
31.434 30.3111 45.9901 25.8696759273
28.7639 31.0111 46.2955 30.2242255292
35.0712 31.1813 43.8181 29.4104836236
34.3502 30.5636 46.6217 31.1133489485
27.2003 33.6524 46.2425 31.1256269018
24.6563 36.4945 44.6862 28.4298586989
30.9034 32.9977 47.3795 34.2023809708
32.5195 34.5855 45.6533 29.6577856003
34.9688 35.991 46.6868 30.1721535859
34.6932 36.2863 43.8416 32.3179176236
36.6701 33.8886 47.5439 33.3094439774
24.6663 27.3421 50.0959 27.426478757
24.7246 24.9015 48.7838 28.0721975228
27.7942 27.6381 49.7268 28.382477018
28.522 25.1905 50.8672 28.381117168
32.2984 27.5592 49.8615 29.4603808228
31.2524 25.7952 51.7469 28.6038654632
36.02 24.6448 50.1352 31.4250347571
34.9686 27.6094 49.1643 30.1802136101
26.7966 30.7125 48.5393 30.2072478946
28.463 30.3247 50.722 31.4410530397
24.6456 30.23 50.8541 31.7583079267
31.1758 29.8944 51.189 32.5184669957
32.7698 31.4688 49.1131 31.1180680646
35.2682 30.7891 49.9975 30.0593675231
25.6092 35.1829 50.3927 34.590311469
24.805 33.0081 48.7419 29.5923844495
27.4106 35.6103 48.1353 31.5387561983
29.7304 34.9138 50.4241 32.8570888288
32.3872 34.2557 50.4973 33.6278645026
33.011 36.2631 48.7687 30.5599027191
36.4343 33.3097 50.5912 32.8573004151
27.685 27.8179 53.015 29.3902998479
26.1383 26.0168 54.217 27.3194615874
29.5838 26.7566 54.7372 27.7500514932
32.2374 26.922 54.1966 28.149185098
34.5264 25.9765 55.5562 31.0215105496
26.2777 32.663 55.4215 32.2453679225
26.1082 29.9878 53.4232 29.59421054
28.0664 32.1176 52.9462 28.0515334021
30.4624 31.4556 53.9483 32.4144780299
28.8118 30.6998 56.1407 28.2237402846
33.0374 29.5345 53.4798 32.9042131025
34.667 31.1944 55.2203 31.6605912851
35.8131 29.4446 52.3625 31.3975602512
27.7767 34.7161 52.4518 32.1359088668
27.5724 36.3974 54.8474 27.8163961002
32.4394 36.3159 52.8444 32.4926122887
28.781 34.212 56.0936 25.1867448688
31.0394 34.0498 54.6004 33.4984099003
35.152 35.2813 52.3823 31.1373959561
35.9155 33.7106 54.7132 32.0384164601
27.0556 39.1344 5.08217 30.1383877219
25.2074 38.9931 7.16599 28.764033393
31.9859 38.0292 7.12957 29.1084380543
31.8572 38.7603 4.52368 33.1266529232
28.9988 37.0284 4.20395 31.2903974241
35.0694 39.72 4.56596 30.0648351854
33.7616 40.2488 7.1324 27.6072560281
25.5321 43.6486 5.00885 37.5509095654
32.3471 42.7486 4.26569 27.2314700248
28.971 40.8982 6.84084 31.7370506349
29.2029 43.7339 7.57372 27.5661202137
30.5374 41.0197 4.44208 28.6346468745
36.0959 43.8049 7.29565 27.6060491923
33.6637 42.8755 6.71077 28.0740261506
24.8538 46.3244 5.22077 29.0718064585
27.3077 47.4983 5.51134 30.3575041738
29.501 45.7466 5.45344 31.6365428919
31.7187 46.8565 6.48222 31.028419139
30.0811 48.7058 4.16783 30.0258584343
35.5487 45.5143 4.59886 31.2402354111
36.6568 46.3851 7.0605 26.4372439353
33.0439 46.8256 3.72161 29.3841604916
27.8908 38.4239 9.04677 28.6162247901
28.6298 38.9405 12.1556 31.3519355964
25.0175 37.8915 10.0169 27.9251931137
30.7632 39.9085 8.89372 26.4844565422
30.7099 37.671 10.6493 31.7943725023
36.2517 39.261 8.20385 31.8682397924
33.7152 38.3669 11.9704 31.1696631866
34.8069 40.5306 10.3339 32.6399803019
36.5486 37.495 11.7113 28.5459649127
26.555 43.5085 7.90116 30.6655679034
25.9156 41.2701 9.53999 29.9106758939
28.5093 41.5436 10.5875 28.7900268475
28.6447 44.2666 11.6669 32.3528553666
31.8267 43.4501 8.48634 30.3709366988
32.3097 41.8211 10.5903 37.491009492
25.2559 48.5436 9.38785 33.0190268766
24.9756 45.9531 8.33021 28.6087737577
27.7939 48.0814 8.15951 29.1191959151
28.951 45.9494 9.61218 32.6871668918
31.8414 46.511 9.07099 26.7852228748
31.3441 47.6088 11.562 32.461244538
35.3569 49.0048 8.61632 27.5960414482
34.854 46.3418 9.3644 31.9044979109
26.5092 36.9427 12.5463 35.3465443783
28.4521 39.7521 14.8888 29.4418322984
25.8355 39.3142 15.249 32.9229316691
31.21 37.5666 15.4219 45.464532491
32.4237 39.6024 14.1644 31.7191897491
34.1208 40.8348 16.0379 34.5021404289
26.4242 43.2877 13.2487 30.2323828932
28.0704 42.5392 15.3152 29.8246597251
30.7442 41.5606 12.9892 30.4911808656
30.6719 43.5413 14.9731 31.6994525161
36.1041 42.7781 15.7006 35.514874181
36.6997 43.8491 13.3394 35.1648088149
25.8874 45.912 13.9761 34.1854544021
28.2462 47.4322 14.5752 36.3796504823
30.3174 45.7714 13.616 29.3946221177
32.2345 46.4079 16.4946 31.5128401734
35.4481 46.2566 12.383 31.5728912467
33.3367 46.8344 13.7703 34.9351644302
36.4239 48.8102 12.9257 29.6048197507
27.0033 37.5255 20.1579 28.5104576305
25.3236 39.239 18.1845 30.7145554938
30.4038 40.1411 19.3853 31.4613417971
29.2419 38.4651 17.3149 32.6448556392
35.364 38.8818 17.5795 32.2590158469
35.9444 40.5155 21.0199 28.3119321995
34.3333 38.2707 20.283 33.7362317769
27.4841 43.1902 17.9384 28.6432935283
27.5594 40.8704 19.0642 27.6051909138
25.2834 44.1591 19.5209 27.4494029029
25.3524 41.7343 20.8818 30.0072256858
31.7046 43.8365 17.3803 30.4345120875
32.5406 41.5627 18.3292 31.5938952766
29.6677 44.7138 18.8305 26.4407512038
34.7768 42.418 19.7574 29.2422866527
36.4118 44.141 18.1524 32.4451116198
36.8472 44.9029 21.0053 28.3229734613
26.8757 46.714 18.0889 36.1892468047
26.4097 48.6341 20.3333 36.2748091695
30.6442 48.4825 19.6296 29.92240477
29.6678 46.9677 17.148 28.6833350981
32.9042 48.2177 18.3328 27.6401444441
34.8645 47.2608 19.9931 30.8354776922
36.7277 47.1405 17.7351 35.8128903337
26.5034 38.4304 23.0982 33.5986488053
31.7193 38.989 21.4066 30.5953496026
28.9895 38.0065 24.2941 105.0391658696
30.5017 40.564 23.6856 43.3419366814
32.7042 37.4375 24.1056 70.6670555054
29.6641 37.19 21.6325 29.8529067447
35.3846 38.471 24.6601 120.1043153829
27.8184 41.9953 24.0791 81.2399908339
27.9542 44.7912 24.4645 83.5030516999
25.5249 40.9413 23.3204 32.3696433208
29.0686 42.6049 21.3374 32.4052551365
32.3292 42.4382 24.3303 98.5529142493
30.8446 44.7095 24.105 75.4595342515
33.4447 43.8951 21.8477 31.7199156153
34.6904 40.9573 23.3203 31.6216747838
35.4682 44.8744 23.4939 31.5177068505
36.8258 42.7399 24.5653 114.983877658
27.3634 44.9954 21.7934 29.5125233818
25.2164 45.6897 24.3449 80.6544966432
27.8484 48.1736 24.2893 78.9255625459
24.8089 48.6789 24.263 87.097890805
31.0571 45.5708 21.1849 28.2518710742
28.7133 47.514 21.8159 28.4068645299
32.6268 47.9074 22.1811 30.5363448641
34.721 47.5197 24.5087 100.4978904424
28.1447 38.4486 36.1687 52.0482999116
25.4193 37.8512 35.6706 109.604748224
30.541 39.8496 35.6665 100.4015269319
30.1716 39.4578 38.5725 28.6431894588
33.0472 38.7379 35.8904 68.1335202983
34.5743 40.7486 38.7014 35.2037290831
32.9152 38.6164 38.6925 29.2715141614
25.0793 41.2743 36.4259 55.4154038577
27.5637 43.3439 36.2206 62.3742984744
31.4277 43.6141 38.5444 27.0535994008
30.646 42.8356 35.9793 62.5998793754
33.6308 43.5111 35.6954 93.8191042059
34.6771 40.9307 35.8454 68.0837115222
25.4484 45.4315 35.4686 103.5794207362
24.9667 45.1451 38.0504 27.1156395542
27.6188 47.18 35.9986 51.6473832486
26.9703 48.5196 38.3371 29.013341426
29.9635 45.8591 35.9445 74.3301948625
32.2809 47.4754 36.1332 67.5891294931
34.6759 46.0377 36.2707 48.0315351505
25.8923 40.4957 39.1318 27.2605549655
27.8723 38.5004 39.3582 30.6403521401
27.4487 38.8654 42.2406 27.8360947647
24.678 39.2482 42.7262 30.0282231151
31.6929 39.0705 41.2371 31.9763677156
27.3445 43.019 39.0117 25.593214933
25.9364 42.0771 41.3538 26.9648576601
32.4958 43.433 41.5669 28.2361882329
29.0927 40.8995 42.438 29.1751978144
29.6018 41.7206 39.6382 28.3078863216
35.6109 41.3563 42.7323 30.2251902074
34.1147 43.6537 39.0787 29.1975107369
36.679 42.9178 40.9749 27.565576966
32.8387 41.0769 42.8102 32.0777549136
27.3846 45.7681 39.8164 28.9629938864
27.266 45.7908 42.5957 27.6195726366
24.6575 45.9927 43.024 33.0413486487
32.145 47.6867 39.3588 26.5091702271
30.0425 45.8284 38.9037 28.6253903708
31.8011 47.6163 42.2728 32.7812485932
30.7255 45.0916 42.7011 31.5585058723
28.9416 48.8806 40.4553 29.9345590723
34.4466 45.2615 42.0977 30.584303794
34.6968 46.6126 39.0335 29.2684714985
27.6623 39.673 46.5352 31.5349052653
27.2077 37.0495 45.8565 27.1588677293
24.8174 40.0569 46.9224 33.6376311997
28.6977 36.8242 43.6588 29.9698883532
30.822 37.0949 45.332 32.1738852052
31.7404 40.0418 45.2401 31.6456814626
33.7831 40.3613 46.7837 30.9336855572
36.3784 38.4944 46.2114 28.7595483928
36.7637 38.9842 43.4561 32.2688624388
25.4476 42.3476 44.7482 31.6672554498
27.8406 43.1325 43.3554 28.0356930081
24.9444 43.9577 47.3015 31.7660476657
29.5657 41.5363 45.7238 30.8462397918
30.2913 44.3316 45.3091 31.9619271617
36.2937 43.0798 45.0015 36.6106523398
35.8468 42.405 47.7063 26.5716858928
25.8029 48.8569 45.6147 30.8422305122
27.8566 47.7607 44.1967 30.447080682
32.7443 45.2537 46.7599 33.9644350273
28.9189 46.3804 46.4025 32.6407470344
36.2453 47.6795 44.7231 28.0904307176
36.8553 47.1969 47.6256 34.3304134389
34.962 45.4521 45.0116 30.8911362936
27.2998 39.6334 51.7175 33.8636968154
28.517 39.283 49.1426 32.5740017963
25.0306 37.5849 51.9526 29.4487936457
30.0251 37.0014 48.3418 29.1798999191
32.1255 40.3696 50.6959 26.899050406
30.7256 37.8149 51.3963 29.2322101208
33.7741 38.8 49.3393 29.1655718339
35.8364 39.4375 50.9138 32.2253559674
27.2652 42.4492 51.7566 31.9112939165
28.9539 43.368 49.9781 32.6390038256
30.5169 41.4737 48.9553 29.2838678847
30.7735 44.8923 51.3038 29.3178191701
36.7232 42.4437 50.9755 29.8565117829
33.2048 42.8085 48.143 27.7687807343
33.3579 43.1195 50.8058 27.5680212065
27.9344 48.1988 51.6255 31.4788062227
25.9227 46.577 50.346 28.5198804371
27.0816 45.1917 48.4307 33.5229204166
29.6705 48.5374 47.9231 32.0359505981
30.6051 47.7388 50.8285 27.9861858049
32.4257 47.0348 48.5945 29.0919131852
34.6747 45.7466 50.0667 31.6254101551
25.1175 39.1323 56.2441 37.891285873
24.8176 36.9612 54.5975 28.7885552715
28.357 40.689 55.8552 31.676471415
29.0708 38.7665 53.7785 31.3314811602
32.738 39.7477 55.0966 30.743774888
35.9448 37.5454 56.0508 31.6829074231
34.5519 38.0663 53.7125 33.1239419382
25.9734 43.336 55.3901 30.6440514142
25.2931 44.7147 52.2738 31.764460371
28.5199 42.7598 54.0064 27.5351781229
30.995 41.1809 53.2392 29.8662893964
32.8918 43.4516 53.8296 28.2189417011
34.4052 41.9379 55.8434 32.1321793568
35.6483 43.9112 53.3337 31.6949795322
25.1339 46.1788 55.1567 31.8637204825
27.7138 47.2805 54.4594 34.8716666444
29.698 45.3391 53.9063 31.4781944794
31.1321 44.9502 56.4462 29.6677108513
33.2324 46.2698 52.8213 29.5096834006
35.0662 48.552 53.3802 30.6766150056
36.6616 46.5253 52.2125 32.2557109373
36.0218 48.1256 56.0926 29.3621852063
40.6902 3.02777 7.60171 28.0420394524
40.4946 0.382198 6.15054 29.0431272811
37.8107 1.91377 6.08381 31.3011801198
43.2308 2.6382 6.979 28.7756517676
43.6176 3.6754 4.16796 30.0063921936
45.074 1.14965 4.0117 27.7702369693
41.9225 0.564246 3.65501 30.9147295174
46.9143 1.18159 6.11375 29.1908116727
48.1301 3.81965 6.69424 31.2085849078
40.0857 5.65523 7.3999 31.6991171327
37.7205 4.84382 6.00888 32.9799908689
44.3505 7.71447 7.84412 29.7574655075
41.9442 5.82283 5.07557 32.6646450589
48.4164 7.64926 4.07997 30.2371141058
48.0465 4.95551 4.15328 31.5678722811
38.7172 11.532 5.79505 30.077964504
40.8568 8.93457 4.12448 32.8857604128
41.0615 10.5954 6.88999 29.3831794665
43.3356 8.19522 5.28974 29.2822281915
45.7093 9.95008 6.08463 31.3111594902
48.1742 9.05433 6.47717 31.0651879782
38.4155 3.563 11.6372 32.1240708378
40.7172 2.91992 10.3176 29.3694849823
38.0258 1.23618 9.09491 31.4830679525
41.116 0.195697 11.0599 28.9490051103
44.8642 0.467541 9.88345 31.5823140472
44.7615 2.84031 10.9351 27.9484119401
48.6659 1.72809 11.126 32.9281291726
47.343 3.86797 11.9186 32.7475462305
47.313 0.669376 8.73697 31.4293412409
38.1732 7.36568 8.62665 29.041469326
37.7679 6.08495 11.1001 30.9767115553
44.496 4.77113 8.32837 32.6675703534
42.0638 7.81739 9.43322 29.2583185051
42.8283 4.85923 10.4523 31.0399536717
47.4483 7.73774 9.06592 30.0418045646
47.4742 5.02493 9.1092 31.5231390022
39.9374 9.29589 8.73508 26.6552058425
37.2826 11.4757 8.41503 32.3151807967
39.7009 10.715 11.3565 28.1976173277
44.6752 11.5967 8.14543 29.2954794514
45.1076 9.58042 10.0068 28.3524868621
42.499 10.0601 11.2442 29.7179114959
36.9711 0.0633752 15.7718 29.495838058
39.5632 0.813935 15.1816 31.968761892
39.3016 3.46848 14.3349 29.4327157902
42.2585 0.644256 13.4603 28.4680640369
44.0458 2.65935 13.4994 31.8490664267
48.1167 1.00168 15.1207 29.8982203076
48.9103 3.74492 14.9452 33.1771861078
45.5874 1.6891 15.8808 31.8625643241
39.7948 6.53258 14.9536 27.5441966132
37.0315 4.53183 15.6493 37.5303376308
37.7704 7.2868 16.7346 31.2583445721
43.6024 6.40289 15.5854 32.4018979092
42.0983 4.36711 14.4975 27.0883627894
41.5257 6.52532 12.4876 29.4150198692
46.4342 6.6796 15.53 30.9808445416
47.8836 6.23098 13.2199 27.0244101668
39.0276 8.43352 13.0748 28.9667474824
38.6325 10.0592 15.4432 29.1217380065
37.5696 11.9903 13.8668 26.5911500868
43.3397 8.38078 13.6024 29.2129872654
43.4296 10.2918 15.6508 31.4862469509
47.7175 10.653 12.5226 27.5587430509
47.7227 11.5133 15.3706 29.5437677962
46.0685 8.30135 12.5118 33.3323130728
37.5493 1.42232 19.8048 28.8403237417
40.0968 2.32313 20.6569 27.3831755805
41.0558 0.700714 17.4577 29.5601801704
44.0962 3.69021 18.6159 31.0226664206
41.5871 3.62871 17.4199 31.960440988
43.5272 0.717285 19.5634 26.4868689939
48.7628 3.63783 18.5187 32.2369606062
40.4641 5.19255 19.4073 32.0954037519
38.8981 7.63841 19.2967 32.8758477088
41.277 7.77178 17.3509 29.1098243345
42.1938 6.69328 20.9936 30.1568166011
44.9814 5.286 20.8663 26.5957535198
46.4841 4.18263 16.9236 30.5431745772
45.8762 7.84996 19.8998 26.3610391044
40.867 10.4262 17.1045 30.7694936213
40.5403 11.4814 21.0873 28.1041913506
43.704 9.0786 19.08 29.8209131409
47.2411 8.33804 17.559 32.4020573683
45.6589 10.9017 17.276 33.0334894848
39.9035 2.37377 23.756 48.8026517702
37.4719 4.01027 21.6884 32.8620771111
42.7902 3.36927 21.4908 26.2719536588
44.6697 0.0150781 24.0121 58.9272215282
42.5997 2.36906 24.1075 75.1535891183
41.5403 0.121453 21.6196 27.2343078757
46.7294 3.10104 21.4084 29.1796030349
45.5369 0.480134 21.3808 29.3445713613
47.4412 0.349781 24.4984 84.9378189624
47.1725 3.04508 24.1959 57.649003079
38.8555 5.31469 23.7296 46.7186799566
37.5806 7.4558 24.5131 111.8621633518
41.8227 5.51372 23.5633 46.3375368193
44.7862 4.57536 24.4803 107.7384687085
45.6183 7.00132 23.3884 31.7190693481
48.7965 7.15873 23.9727 60.9075415682
48.7993 4.60296 21.3491 26.8299975999
48.3219 7.17723 21.3847 25.4719274451
38.3848 9.70609 21.3379 32.7563754816
38.3149 9.92866 23.9643 52.9671937445
40.8921 11.4509 24.091 72.1574653796
43.0021 8.20196 24.0906 88.9037431263
42.5843 9.63559 21.5655 28.0622360171
44.0129 11.601 24.0373 64.1562064174
44.5759 11.9832 21.1881 28.8055789812
46.7218 10.0369 21.3568 31.4509388759
48.6862 11.3878 24.5555 95.9447125554
46.1547 9.73933 24.1677 72.0271080204
40.2426 2.90102 35.786 58.112656839
40.1378 2.27704 38.5178 28.8661722613
38.092 1.19688 35.7082 88.8181124183
44.8606 2.30125 35.7452 78.5526253984
42.281 1.29964 35.4637 97.4983730719
43.3017 1.7001 38.4105 30.3514124666
47.3201 0.72454 36.0657 47.8875258212
47.1322 3.94658 37.5492 33.8273464837
37.6682 7.72203 35.9057 72.5448635902
37.9566 4.83886 36.1911 51.6317991897
40.6621 7.95387 35.6053 94.5413809722
41.6669 5.46912 35.9167 65.5100944547
44.4722 5.1707 36.1231 59.2943149284
42.2208 4.54291 38.7156 30.968924493
46.088 7.46995 35.9978 68.6222155428
48.7434 7.88528 36.2972 55.9991502229
46.1703 6.58322 38.7704 29.2842280265
40.0666 8.54517 38.558 32.2696347685
37.5351 10.5136 35.8816 77.5793164523
37.4504 9.93686 38.5348 33.8093245719
40.167 12.1154 36.2093 49.7840483326
42.1281 10.1589 36.0451 56.3308946897
44.7063 9.7672 35.6529 94.323283434
44.4414 9.31996 38.4479 29.8840659354
40.5048 3.27181 42.9305 31.2641597924
38.1531 2.3787 41.0632 29.5203192781
42.586 1.77092 41.704 33.2686190628
46.1616 1.35067 39.1141 30.988113907
46.3883 1.6341 42.2025 29.6657766476
49.2028 1.71991 40.0466 32.4964609895
38.9885 7.75308 43.255 32.8323003208
37.8084 4.88775 39.0052 31.1704505566
40.1578 6.19697 39.8948 32.8199426325
44.7478 8.06297 41.3198 28.7464065798
43.9358 5.34643 41.0647 33.8725856288
41.3729 6.32424 42.6285 27.5726838334
48.8882 4.23095 41.2975 30.6398611122
46.4374 4.45989 42.504 32.0293596816
48.1506 8.12865 39.4703 28.7348333038
37.0449 9.84297 43.0288 33.6577638965
41.9933 10.1825 39.5315 32.1244885174
42.4344 9.14848 42.2421 31.382408281
43.3056 12.0816 42.7815 34.5871794198
46.0912 11.7753 42.9016 29.7094163948
46.6731 10.5616 40.2272 30.0838010108
39.1445 3.53844 45.9907 29.5578539957
36.9831 2.51634 47.3305 29.4746219881
40.3692 1.23298 45.0639 28.711728589
44.5535 1.13297 43.8863 28.8886863839
44.0873 3.30442 46.0406 27.3951693635
42.3087 0.412165 46.608 24.0109637325
45.3165 0.418953 46.8485 31.265068355
48.7681 3.81432 46.0338 27.957087035
37.9023 5.61588 44.3344 29.0759963636
42.1072 5.15396 45.1589 30.3876915907
43.8769 7.43284 45.6617 28.0867966912
46.2297 4.66044 45.4593 28.3935212905
46.2935 6.79588 47.4523 28.2700403092
45.8469 7.44426 43.974 30.6632228024
40.1231 9.34479 45.4957 34.3101206404
38.6839 11.6993 45.4685 30.9929126775
42.9593 9.83255 45.0104 28.6038311625
44.2339 11.3233 46.9128 27.8168041122
48.1192 8.82246 46.6873 34.4113053416
47.729 9.50334 44.1191 29.8722910427
38.1168 1.33191 49.5675 29.4908856648
39.5254 3.51133 50.6668 27.4975364943
41.3918 0.447879 51.0009 29.469514601
41.8767 2.32166 48.6083 27.3998886488
44.127 3.40472 48.8829 26.898555659
45.9618 1.93366 50.1945 27.9370303149
48.5094 2.34492 48.5659 30.4085403381
48.1018 0.647426 51.813 29.3832093425
40.9447 5.05694 47.83 30.255414139
39.6736 8.02351 48.0646 33.5127583157
38.0212 7.81728 51.3598 29.3683346549
37.3438 5.31126 50.5141 34.7252274457
41.5542 5.37217 51.814 31.189712775
43.0849 5.7149 49.6391 28.0199886475
47.084 4.9468 49.586 29.3028564269
45.3888 6.41504 51.5595 30.1153359873
48.3125 7.34399 52.1219 26.7247954209
37.8343 9.49149 49.2785 28.2835716959
39.1676 12.0397 49.713 27.9475113787
42.0776 9.01101 49.3392 30.1661556606
44.5385 8.95231 48.2772 28.2312497164
42.2706 9.28811 52.0841 28.1941919794
42.0262 11.9788 49.9362 29.3193297041
45.1829 11.3505 50.3954 30.0361516977
47.5644 11.0173 48.5598 31.2776779419
37.9221 1.11543 56.4241 33.4165583085
38.0174 3.27451 54.4171 31.4459450846
40.1011 2.38338 53.1777 27.7654874043
42.6006 2.63703 54.9043 29.4865791573
44.5362 1.6343 53.2342 31.672979954
48.8245 1.86919 55.6104 27.7034563374
46.5459 0.71502 54.9987 28.4385678781
49.0194 3.0829 52.9118 28.145261725
38.2312 5.36028 56.2451 34.4733574396
40.4163 7.64425 52.7061 33.0829599888
40.6362 6.66618 55.6605 30.8918859968
42.8428 5.49272 54.3593 28.2468769463
46.4311 4.23529 53.2454 31.1179529538
45.5975 5.12303 55.7154 30.3716410043
45.4739 8.07274 56.3698 30.9965819331
38.4302 10.6355 56.2618 33.4482398364
37.1693 11.5541 53.5493 36.0961361063
41.8165 12.0795 52.7867 32.4362569421
42.7164 10.7674 55.4408 33.8673075084
44.346 8.19228 53.6317 28.055753431
47.2429 11.5089 53.9735 29.3023200104
46.2803 9.70227 52.2609 28.7202908965
48.8075 8.45761 54.5616 30.5034715912
45.5332 11.3229 56.3411 36.5944674783
37.3228 14.3155 6.53697 30.0959988493
39.3541 13.6828 4.38192 30.6200289791
44.7208 15.4289 5.24069 32.9977738686
42.08 14.9579 6.27446 28.1091659604
42.2413 12.6331 7.7761 29.7737591505
46.5821 15.4271 7.4996 31.5577048709
39.8245 16.5279 5.9888 28.9551727013
37.5943 17.5145 4.52163 34.1956052462
41.6563 18.8212 5.53007 35.0771906206
44.3177 18.087 4.83326 34.484063862
45.443 19.2563 6.95489 30.6727252178
48.0982 19.5194 6.28738 31.1164492673
48.8783 16.5107 6.46422 29.2154452834
48.9369 16.4499 3.70679 33.8322867649
40.3906 20.5952 3.72973 36.7332647801
37.6652 21.6368 4.93746 30.71781765
41.1209 20.9313 7.70229 29.3762322357
42.6483 23.3537 7.17565 29.53369507
43.3498 24.0082 4.69986 28.4433329345
47.851 22.3923 4.65821 28.0097596436
45.7874 23.6052 5.84137 27.0958310575
48.9841 23.5678 7.1052 27.0076728327
37.1204 12.6213 11.1334 27.404826347
40.3804 13.4618 10.0715 29.5416753562
38.0686 15.1976 8.98295 29.6650252796
42.5585 14.8835 10.9508 29.2120977605
44.1148 12.6714 11.5691 30.2685991873
46.8491 13.0699 11.2636 28.1223373976
46.9659 12.9477 8.33868 31.8993507075
47.1697 15.5976 12.1826 28.1860936381
37.2461 19.6235 8.67033 30.1795028923
39.1703 17.6819 8.51095 30.6196107112
42.96 16.3931 8.49948 29.8750148649
41.5862 18.686 9.51877 29.7797429165
41.2382 17.9545 12.2846 33.4834349036
45.0786 19.6192 11.2526 31.6162159913
45.5314 17.4421 8.98016 26.7946844024
48.0762 18.1699 10.3109 28.7624803987
38.9842 22.2997 8.12043 31.6754196151
38.9423 23.6185 10.513 27.1999724401
41.4027 23.0292 11.6999 30.5648691757
42.9271 21.4185 10.0361 31.0828890774
45.0146 21.8267 7.95042 28.063740411
47.2273 22.9447 9.06245 29.3020723382
48.243 20.8942 11.4669 29.2782856426
40.1512 13.0921 13.1387 31.8057347159
38.4194 16.3093 15.0042 30.0211154891
39.4992 15.6712 12.5425 30.0851313507
42.4708 14.815 16.6803 29.3176412223
42.9788 12.8545 14.5892 30.9468982288
46.2577 15.9786 15.4999 28.0729206424
45.5998 13.7176 14.2686 29.5204730166
38.9749 20.1574 16.3185 28.2034517743
38.1291 20.4198 12.9284 31.5608694533
43.6292 16.7407 15.3028 28.7496404327
44.3868 16.8483 12.309 30.5749038063
42.4218 19.5148 15.7307 28.7122039013
47.672 18.2457 14.2995 29.5443435347
46.2827 20.1302 15.9429 26.0296172386
40.1817 22.6595 15.6285 26.6988535311
41.0192 20.6394 13.325 27.5312479566
44.2647 20.7231 13.8568 29.7405663781
42.9773 23.0764 15.7513 34.1890149928
47.6316 22.7391 16.3076 30.2956371293
46.6253 22.6608 13.4184 34.822412023
37.6053 14.8987 20.2034 26.8267997521
38.8618 13.8998 17.9054 31.6643826769
42.6234 15.6281 20.0467 30.581575991
44.2954 13.1149 18.7596 30.4830117092
41.1559 12.507 18.6985 26.7831179011
46.1764 15.6897 18.8853 29.5355950346
40.6169 19.4192 18.4002 28.4791691603
40.0836 16.4891 17.1507 30.5456615568
39.9835 17.2373 19.9026 30.2055094598
44.4414 17.5318 18.0248 26.2595599857
43.1949 19.5023 19.6712 28.6069241245
47.2828 18.4996 17.9258 26.9049417463
39.5849 22.1812 19.394 31.5216638392
37.2013 20.5908 21.0174 31.9718871778
39.0217 24.3496 17.5369 30.0649489601
44.1722 21.2721 17.5126 29.2081441036
47.3514 20.4866 19.7688 29.5292334799
46.4104 22.9443 18.773 27.251988571
37.0714 14.5347 24.2144 70.4361097347
40.1546 14.2333 21.3188 28.3634553397
39.7831 14.0178 24.3991 99.2836515207
46.5501 14.0679 21.6965 28.7712843592
45.4321 14.0744 24.2696 78.3920536133
48.2708 14.372 24.3118 66.4397352111
48.8542 12.3396 21.914 30.0533046609
39.6848 18.5254 24.5644 92.8773630512
37.3742 17.779 21.25 30.4912151273
37.3682 17.4941 23.8405 34.2946168151
41.108 16.412 23.1266 31.4268953127
43.62 16.3727 24.0001 64.1400321605
45.0365 16.5813 21.4951 28.6581052225
42.5482 19.5005 24.5525 79.4379383422
45.26 19.5936 21.4534 27.7825298983
45.5797 18.9693 24.1997 56.1112129081
47.6951 17.0926 24.3895 70.1656497827
49.1926 17.9085 22.0713 32.8206598855
39.5895 21.2943 24.0538 53.4725660397
36.9486 21.8703 23.63 30.72422663
40.14 23.8444 21.6613 28.3104371863
37.9466 24.4802 24.2909 82.199373947
42.2005 21.3431 22.0834 30.6708979324
44.535 22.6012 21.36 31.4098056888
42.8765 22.4633 24.6244 92.0044709254
41.1717 24.3712 24.3552 76.3285080948
45.6657 23.4538 23.9277 48.4635796271
47.1592 21.4347 24.4036 90.1078026939
40.124 14.7303 35.6916 97.6670112453
41.003 12.8269 38.5807 30.0443752776
37.2504 14.0464 36.2013 49.9273736161
42.5444 16.2228 36.0062 55.9718495549
43.0229 14.7497 38.5916 29.754216531
45.0319 14.8808 35.8252 85.5020004503
45.0287 12.4026 38.4661 30.5222532081
47.6667 16.2362 35.9499 44.6436722423
47.8314 16.1046 38.7688 32.5955467547
48.772 12.613 35.8171 72.285534473
47.7147 13.3271 38.8085 28.6208541017
45.931 12.2583 35.9438 60.5060978385
36.9733 19.5011 36.3756 37.9974704274
39.1922 16.8996 37.0058 33.2454118273
41.0591 18.2431 38.6622 29.8487462072
42.1006 19.1485 35.8315 76.5539290028
44.9634 19.1547 35.7331 74.484731772
43.8201 17.9474 38.5367 27.5291216019
47.9802 18.9065 35.4528 88.8130917008
46.5146 19.1579 38.2946 26.8351696345
37.2336 23.5789 38.215 27.9630999501
39.6585 21.0389 35.8366 78.3440821308
40.1844 20.8413 38.7412 27.7828349102
38.3385 23.6707 35.7269 83.1141997553
41.7816 22.6961 36.2885 49.8632401937
44.5028 21.9876 36.1022 62.7278707485
45.077 21.8017 38.7281 29.7524052946
46.8186 23.4875 35.9159 71.2957668068
48.9401 21.734 36.0733 44.5328390046
37.3431 15.1451 38.9966 28.6199364571
39.1729 13.7845 40.58 32.4402734185
40.0201 15.7807 42.2781 34.1928454412
37.8869 13.1584 42.9291 29.4223205141
42.5498 14.4974 41.6306 30.0226358554
47.4135 14.0117 41.3942 26.9123945344
43.7402 17.0654 42.6226 27.9865571454
41.2394 18.4321 41.7673 31.78050052
44.1123 19.8455 41.1487 29.4317754733
45.4234 16.345 40.3868 27.1830080888
47.4079 16.8886 42.7733 31.4250035909
46.9928 19.4184 41.0785 30.7620324604
38.7161 20.525 40.9744 30.6953509274
39.1482 23.5992 40.3734 28.2070028665
42.1956 22.8268 39.2351 30.9360286604
44.4986 22.0466 42.5615 29.2796465851
41.6238 22.8353 42.4701 30.8906602132
47.3121 23.4622 39.131 26.911951165
46.8335 23.6267 41.9347 29.8754570361
49.1813 20.6964 41.6772 32.1838719422
39.9481 14.769 44.6309 27.1277094337
39.7573 13.4841 47.5299 27.3460645152
42.447 13.3168 47.3134 25.7695699428
42.8478 14.5115 45.0307 26.6531416204
46.6355 15.1443 46.7636 32.6633433461
46.7339 12.2961 46.0317 28.7251240664
45.5591 14.7983 43.9257 27.9056342736
39.3651 17.0863 46.1569 30.7508342088
38.3745 19.9545 45.7053 27.6122288498
42.2163 20.0405 45.6607 33.1393748507
43.2793 17.2326 45.6787 29.1164211141
46.2534 18.0086 45.4449 36.5386960871
47.1802 19.4938 47.6085 29.6736006768
40.1451 20.5037 43.6227 31.5959228412
38.2495 22.5402 46.7036 33.8452706536
44.6655 21.4156 45.2185 29.5545087311
43.6328 23.0881 47.0786 28.4588237134
47.242 21.6299 45.781 32.478231021
48.8943 22.5612 43.5254 33.17191164
48.0282 23.9292 47.4339 33.6645720555
39.9535 16.0178 48.9158 34.0223097371
44.1557 15.2323 48.3233 29.6640884957
44.7374 14.1694 51.1819 31.0883447485
39.838 19.2809 48.5165 26.0419324395
37.7308 17.1601 50.2837 27.870882151
39.9892 18.9707 51.3146 29.5807634087
42.4579 17.2707 48.4847 29.5159434056
42.9021 18.3253 50.9832 29.3939468001
47.4388 17.0147 49.1667 33.8207173848
45.6366 17.2281 51.3444 29.7508034573
38.1413 22.9702 49.7894 31.2875923855
40.391 23.8044 48.3925 27.5351159585
43.3178 20.8871 50.4592 30.4775458891
41.6558 21.2108 48.39 27.8031656097
45.6772 23.1364 49.036 29.0691703373
46.2161 20.82 49.9546 31.276529682
37.544 13.6137 55.5759 30.2155124364
39.1523 12.9016 52.2427 33.8093361491
37.7127 15.4803 53.5367 30.8723072997
42.3519 13.3075 56.5999 38.2295038875
43.5159 14.4457 53.7207 32.1473132949
47.225 13.731 52.3475 29.8586855591
45.2751 14.1023 56.0338 30.8610667355
47.3079 15.3504 54.4718 33.3949008429
39.8848 17.3204 53.6604 35.2194468591
38.7975 18.7062 55.5656 29.8712378843
42.6378 17.0379 53.6358 35.4785216884
44.3692 18.6937 55.1973 37.8540033444
48.6659 19.5864 53.6233 32.6332943467
48.8826 19.8471 56.3657 34.336276982
46.551 17.9943 53.4922 29.2861264763
39.1692 21.6252 52.4837 35.77356171
41.131 23.1693 56.2256 32.6525011755
45.0353 21.5925 54.6196 37.6344534967
43.7172 22.7057 52.4399 29.0062918032
41.2506 23.3409 53.5365 33.1557874878
