28.4151 7.1016 54.0664 31.2186195923
24.7706 5.06023 52.3382 29.7222590996
31.656 4.17105 54.2115 29.9382886803
31.4391 6.44237 52.1509 28.2289736533
32.5188 6.73842 55.5704 31.5334607966
28.7941 4.99426 52.2798 27.4532227878
34.5052 6.95025 52.248 29.544575954
35.8214 4.64794 53.352 31.4329446103
35.2461 8.16907 55.1099 29.2063832962
26.6375 8.36829 52.4245 29.0696891462
26.7429 10.8923 55.3461 28.8025548467
26.3826 11.1345 52.9052 31.124134132
30.8394 11.9078 52.9055 28.495025362
31.7037 9.42715 52.1729 27.498707011
30.8332 8.5705 54.7623 27.1677012647
35.6105 12.0028 54.269 30.5829875035
33.3178 10.3769 55.4864 29.3348801031
34.4634 9.86744 52.4078 25.8107115815
27.7792 15.2251 6.38028 28.8347174104
26.5597 13.5729 3.70129 35.3166367017
29.3131 16.172 4.53569 29.6563626296
28.7843 12.9042 7.50119 32.8521687386
33.1488 12.736 6.24527 31.7498338763
33.8737 15.4476 4.80476 32.4962942549
27.3358 19.0445 5.06222 27.5026195278
25.2716 16.984 5.43011 31.1565789519
29.9334 20.1945 4.92691 26.916523734
31.7844 16.639 6.29112 32.6294139042
32.1793 19.4401 5.99164 33.2118809317
28.7848 19.449 7.76556 27.8484574751
35.8558 16.9934 6.29405 30.2232944152
26.2722 21.2113 4.09772 30.2059399179
26.6726 22.0745 6.7831 28.4899197909
24.7793 24.1813 7.09969 29.0197224208
29.5222 22.3773 6.33732 24.3034207933
29.3737 24.3584 4.6 27.5224628044
35.7882 21.5238 7.98313 28.7180025125
34.1893 23.5998 6.45783 27.7721077794
34.4695 20.9334 5.14889 34.7092899284
24.7878 15.1168 11.8474 28.7166314684
27.3682 16.1399 11.3078 29.0318089013
29.988 13.6752 9.92765 31.9373037818
32.415 14.0923 8.59719 30.3312238938
35.9799 14.5377 10.8278 31.6244938715
34.1996 12.6172 10.0495 28.4571588943
24.9967 17.6179 8.05477 29.5483448055
27.7726 16.9375 8.66422 29.4221002987
26.1115 18.6462 12.203 27.5597644389
31.695 19.9972 8.72795 26.738448001
29.4618 19.635 11.188 26.7971742338
30.4247 16.8222 10.4719 29.5480034606
35.6621 18.0549 8.80571 31.3454525259
32.9219 16.9999 8.9006 27.2708550933
33.9821 16.5562 11.7181 33.876316192
34.4471 20.324 10.27 26.2511975996
28.1708 21.4784 9.57257 25.8031224988
25.5102 20.9085 10.7344 25.5704900434
31.5285 22.6016 8.1636 27.4492665561
31.7449 21.0939 11.9007 28.7410153043
29.127 24.0051 9.6498 30.1026843047
32.0246 24.0042 10.7521 30.474481377
36.6698 24.3732 9.15687 32.1521285399
34.6883 22.975 10.869 30.0690032966
25.7882 16.1304 14.7635 30.9759095392
26.2417 12.6662 12.8754 34.0784818529
28.7265 14.5472 13.3108 30.5163564435
31.5446 15.8817 12.997 29.5745734114
31.7693 12.9812 13.6578 30.2959939137
35.617 14.1178 15.5225 34.5841588065
33.0057 13.0707 16.1868 30.2817369512
25.7388 19.7627 14.9848 28.8754792934
28.5691 16.7281 15.0951 28.9015405598
28.6754 19.4011 13.711 27.3011729901
31.2598 17.8371 14.7422 26.9512574839
33.0793 19.6284 14.0643 29.7411903654
35.1743 19.1217 12.4469 31.9724083287
27.1807 22.8499 12.6185 28.3908694197
25.0021 22.4771 14.5272 29.3945494447
24.6577 24.1689 16.8143 30.447713228
31.1483 23.053 13.8751 28.5216240874
28.7783 22.059 14.4316 26.4760186343
34.6935 21.2779 15.6347 28.505236527
35.4912 23.1024 13.7398 31.4111991599
33.1122 23.6278 15.917 26.9282493308
28.1625 16.149 19.9082 29.4054706297
25.3842 14.3533 16.8633 31.9645955007
27.2476 13.4946 18.9212 34.6699082159
29.6936 12.3902 18.3811 32.6741008899
32.7587 15.2333 20.9132 30.2756005834
31.5446 14.2341 18.2554 30.2070833245
35.4774 16.1447 17.9012 30.4718630899
36.1874 13.5332 18.7059 28.5232176942
25.2063 18.1352 19.3295 30.1759866378
27.209 19.5379 17.4182 31.1605828657
31.4095 19.5845 21.1059 29.7126347473
29.6397 19.0966 18.6939 29.2685842887
29.8754 16.6285 17.4781 29.1289379277
33.1239 19.1656 18.4949 29.0767871506
35.6 19.9691 18.757 27.8061373628
35.1187 16.7268 20.6313 30.0842188036
32.8977 16.8088 16.9304 32.3661037201
27.0197 21.9391 20.4067 30.2054621783
26.4455 22.2214 17.7195 29.1314464391
31.4915 22.2978 20.0302 29.1717008764
31.5772 21.2049 17.172 30.6858721414
28.9083 23.112 16.9014 29.4985238329
34.3896 21.935 21.1915 28.8818166823
36.5288 23.2945 18.2014 29.2482943286
25.4816 13.2222 21.5737 27.7320450709
26.8543 16.0435 24.3567 86.6134232515
24.6467 13.0981 24.2509 52.752415692
27.9313 14.3268 22.4663 26.5466295498
32.4587 15.0713 23.7811 37.7552018584
30.3911 12.9873 24.0109 51.8642232438
34.1256 12.8601 24.1208 64.946594816
34.4269 12.8515 21.272 29.9851918651
28.4565 19.8204 21.9935 28.6263096868
26.5914 17.8114 21.7192 27.2186476193
30.3272 16.9829 21.5398 28.8132788524
29.8687 16.3626 24.2571 64.6612043609
29.7451 19.0635 24.6302 95.3272222171
32.3122 19.9516 24.2034 68.8900947255
36.1841 19.5742 21.482 28.1183243031
35.1159 19.2324 24.2154 61.8271154813
34.6759 16.4479 24.4893 91.2908156203
24.9384 21.195 24.1583 71.568199217
24.9583 23.113 21.6983 27.2844388278
27.7092 21.4493 24.4969 94.4890873908
29.1067 23.6705 21.2491 26.475681265
28.9345 23.817 23.8681 44.2957476235
35.2737 23.2969 24.8482 121.0355725974
33.0091 22.6026 23.666 32.2243692623
25.549 14.5373 35.7115 69.2539546912
28.0638 13.0682 36.0511 53.0442157319
32.7744 13.3272 38.4953 28.0558535614
29.9113 15.0878 35.4406 91.2219923147
28.8836 15.6859 38.4939 27.8106566865
31.9282 13.1133 35.6315 77.249295141
34.8686 15.8026 35.683 79.4651635634
34.888 15.4139 38.6539 29.2077810453
34.7693 12.7317 36.1746 41.43808837
26.7205 19.21 35.9491 58.8039159273
27.4541 16.5932 35.6983 70.2217273009
25.3512 19.3149 38.6177 28.0118493569
29.2956 20.0417 35.852 83.9736085717
30.8648 17.576 36.2596 42.1514845115
33.6043 18.2756 35.901 71.6363409009
34.2364 18.3579 38.5545 26.4660494463
36.5787 20.1662 38.5779 27.1411919969
26.54 24.1351 35.8819 73.4312305641
25.1471 22.0252 38.4088 30.0890832905
29.804 20.5327 38.6022 30.4670636833
32.2685 23.0251 35.7036 100.8050754577
29.3805 23.1376 36.1787 50.7494808219
29.5161 23.4779 38.801 27.1052894278
36.2007 22.7435 36.7853 33.0575840181
34.2706 20.9423 36.0264 66.4466862459
25.675 13.4324 39.8338 29.2032634407
26.9284 16.1007 40.3859 28.9758675158
25.7115 14.004 42.8894 30.2845130393
28.2229 12.8619 38.8552 29.3632644346
31.108 14.5898 40.4499 26.7676591776
29.2722 15.6379 42.491 28.1906512506
35.5259 13.1029 40.4749 28.2710031421
33.4654 13.8959 42.0562 28.7582778946
36.3123 15.9273 41.8932 27.613265506
25.2048 18.0469 42.3079 29.7746483881
28.09 18.8256 39.861 28.5876265367
27.9763 20.0573 42.3845 28.2847438188
31.2609 17.3877 39.3311 29.2291291929
30.7541 19.242 41.7844 26.3817480377
33.9584 17.2324 41.3397 25.9722300844
33.8221 20.2182 41.4707 25.2576596951
28.0196 23.8532 41.6712 28.7183291229
26.1398 22.4101 43.0016 27.8793070768
26.7435 24.3268 38.9543 29.8789087932
30.9508 22.2726 41.4081 26.3959263421
32.6199 24.0851 40.3978 31.8418907004
36.201 21.5375 41.5999 29.4405528564
33.1217 21.3372 38.937 28.7590590364
35.2881 23.1911 39.6479 28.4807250204
27.0121 14.088 46.8346 28.3719920257
26.959 15.6889 44.4567 26.8186319183
29.794 14.5526 45.8196 26.3547013529
29.397 12.9239 43.5403 25.5634608389
32.7142 14.2915 46.0582 26.6974577008
36.5298 16.0492 47.3453 29.1233240479
36.8116 14.9028 44.6642 27.5681721936
33.9453 15.7962 44.4647 26.9899073966
27.37 18.8561 44.9738 27.7556027661
29.8935 17.4648 45.6119 28.4543115263
29.0539 20.2277 47.4589 27.1862086014
31.3937 16.9965 43.3987 27.4606959741
34.8017 18.636 44.0183 29.9818136385
35.1525 20.2068 46.2316 28.3732340106
26.4706 21.3262 45.9788 29.9226238491
25.5457 24.2622 45.4581 26.7759406757
32.497 20.4933 47.5596 29.1392420247
29.4683 23.5123 43.9206 26.1457820733
30.8819 22.9923 46.9355 26.9098375299
30.2114 20.8556 44.5119 27.2444690222
35.9631 22.7609 45.7024 31.521874638
32.9558 21.5912 43.9386 31.7619358604
27.9974 15.0427 49.1972 28.1436648129
28.4891 12.4382 51.7736 29.1368331639
25.6265 15.4269 50.9018 30.2522582445
32.3374 13.381 51.3067 29.4712962384
30.717 14.5178 48.9414 27.9485675589
34.5005 14.5997 48.3689 32.808288143
36.4817 12.5575 49.4546 30.9656702177
25.6118 19.1841 51.8566 27.3629264552
27.9795 17.9382 48.9193 32.0484871828
25.3998 19.3403 49.2716 24.7079421331
30.249 17.135 50.7375 29.8409414995
31.82 18.0935 47.882 32.6183813786
33.0154 16.9026 49.9881 31.1686873307
36.5053 18.6411 47.8739 29.6680255138
36.4159 20.3588 50.1266 29.4554215674
34.6567 18.3592 51.5938 33.0104652634
28.0799 20.629 51.696 29.9045400385
28.2871 23.1831 48.6985 28.0440240146
25.5527 22.0408 49.4919 26.3161894372
30.8584 24.2994 51.1978 32.7609805978
30.2487 21.5705 49.9944 29.6791444426
33.9254 24.3878 50.0344 26.2652906097
33.5169 21.5858 50.1415 31.6535963091
36.5451 23.4124 49.9397 30.4113392034
28.5214 15.2163 52.6718 29.7405558206
31.5448 12.7847 55.616 28.6839102311
29.0251 14.3129 55.5356 28.5760384529
32.9339 15.2197 55.0846 31.6681535116
34.5913 14.407 53.2114 31.6053549676
36.535 15.3918 55.9099 30.5042709696
28.3599 17.7885 55.0448 31.1647792191
26.1418 17.1774 53.3019 31.105224075
30.1945 19.2854 53.2791 29.0373924221
30.9586 16.5542 53.7048 33.0439287063
36.1428 16.886 53.1248 30.5362541975
26.3206 23.1671 52.1929 28.2576016655
27.7888 21.9827 54.6248 28.8361094188
24.7212 23.8917 54.6109 27.5503802371
31.2419 23.9324 54.4541 29.8076055882
30.347 21.4348 55.2281 29.4134239006
32.8983 20.62 52.8933 34.9167894006
34.4239 21.4487 54.9002 34.3776089318
34.1175 24.0852 54.9425 28.5429965142
26.4132 27.8222 4.60634 34.2548287749
26.7921 26.5358 7.26486 35.1845621502
29.6921 25.5156 7.33348 26.1621205095
29.355 27.5667 4.83158 27.3937916359
31.6577 28.098 6.26549 26.9406937521
32.5998 25.9687 7.51217 27.8290539584
32.116 24.5172 4.45324 27.456240525
33.7779 27.156 4.43888 29.701920483
36.4216 25.0503 5.63869 28.2842513551
36.805 27.7446 6.75386 30.3839739566
27.018 30.7885 4.76408 34.4821970097
28.294 32.3881 7.57254 31.8349235503
24.7599 31.4504 6.05473 28.2434703267
29.8626 30.6267 5.85658 29.5450609267
34.8854 29.7841 5.51956 27.5549008777
33.0521 31.5906 4.05147 32.4531430997
25.4693 36.2871 5.0981 29.0529314511
28.1456 35.2279 6.36821 32.1176442412
31.3286 33.0976 5.50478 28.8636813596
29.536 34.6807 4.10014 28.7220807742
35.9032 35.7109 5.89502 29.7557448552
33.5917 35.2558 7.3806 32.1260884124
25.7367 27.9436 9.25402 29.8691981739
27.9281 25.4312 12.0126 26.9468911852
27.7601 28.1766 11.0035 32.4141039475
25.0045 25.8498 11.269 31.0938298393
30.2662 27.9148 9.61576 33.4222898769
31.2402 28.0893 12.2038 29.3361151593
34.1515 26.2472 9.88278 29.6001573009
33.8997 27.2629 12.3302 30.2753750554
26.1549 30.7197 8.75983 31.34012232
27.7619 31.502 11.1006 28.8476495937
31.487 30.2847 8.42635 30.872106692
30.2995 32.0963 10.1146 27.4393077267
34.3768 30.656 8.05898 32.4627614597
35.684 28.6282 9.26492 30.264886158
25.3832 35.7635 8.26112 32.0687916813
26.852 34.3608 11.8535 32.0343960248
28.796 36.2862 12.1522 31.2140989722
30.8067 34.121 8.28402 28.4941078672
32.3726 32.9487 11.4209 27.6193247828
29.5256 36.2543 9.35746 31.0681857026
34.4408 33.3841 9.15611 28.5638769112
34.8851 35.3834 11.0912 28.177014604
27.4604 26.7455 14.6855 28.286232136
24.9292 25.618 14.088 28.3918169775
30.4696 25.9222 13.7839 28.1395562323
30.0873 26.7316 16.2557 29.0954091453
36.3879 25.1891 15.0472 29.0313459622
33.8289 26.5629 14.9565 30.0706002822
27.6289 29.4944 14.9219 28.4156099994
25.8129 31.3216 13.4772 27.2438695483
29.2833 32.3526 13.7373 27.3225685877
30.4669 29.9394 14.1101 28.1946580246
31.0849 29.2524 16.8303 32.8935705388
35.4306 29.5683 12.7257 29.471726518
33.1633 31.0441 13.1409 29.0293158982
36.3813 29.7374 15.6765 28.3073746918
33.5516 31.8716 15.7331 29.6326948066
28.6879 33.3755 16.5626 31.159966927
26.1191 36.6409 15.1633 29.0096014699
26.4672 33.8753 14.5807 29.0801796208
31.5505 34.0267 16.0765 28.0716072503
31.0464 34.5095 13.1628 29.3833134031
35.8351 33.0358 12.6962 29.8462476985
36.5453 32.7861 15.508 30.2102983001
35.1064 35.0666 16.8021 29.8340329829
36.829 35.8472 13.9127 32.4305223882
33.0919 36.2281 15.2936 30.7456582636
25.1459 27.0506 19.3672 27.5869067159
27.1194 25.7512 17.46 29.4914328531
29.7124 27.8456 21.0245 29.9372195324
28.9788 25.7778 19.6115 26.2252520542
31.2167 24.6105 18.1033 27.5868047038
34.54 28.0461 19.626 29.461423352
34.3221 25.4348 18.1841 29.9792029753
35.2185 24.7937 21.0194 25.8606042277
25.3569 29.3386 17.6611 32.7778182541
27.7675 30.7726 17.4993 32.1894382907
29.7977 30.1839 19.2888 29.9930143757
32.0365 31.4919 20.0647 30.173454257
34.1679 28.6826 16.8922 28.5548256232
35.1435 31.3246 18.5844 26.9151934419
27.7814 34.4647 18.9151 31.2408055575
25.159 33.8268 19.5901 27.3918059568
30.5938 36.3432 17.6432 32.363836623
33.4687 33.6147 18.6448 30.1752413661
26.3959 25.4538 21.2996 29.5968764418
27.0944 26.0362 23.9463 62.2139857221
25.1456 28.4429 24.075 57.4751629603
32.1696 25.0562 21.396 27.1325965734
29.003 27.9587 23.675 50.7910500003
31.4136 24.8526 24.3594 92.5154708418
32.4704 27.6273 21.6163 26.9960251231
35.4461 25.7447 23.7302 34.0585030839
33.205 27.2022 24.2864 80.9087091655
24.8905 31.9878 21.6212 28.3231309729
25.949 30.8881 24.5317 86.6100344212
27.6863 30.6494 21.5338 30.0851893838
28.3484 30.5001 24.2491 66.7780724905
24.9749 29.0617 21.288 28.8541874257
30.8011 32.1774 24.3272 78.547034234
32.6582 30.0291 24.238 72.9051457731
33.6593 30.3334 21.6006 26.7259274751
36.2252 31.8693 21.2757 26.9001958451
35.5357 30.9773 24.1642 70.0719674891
28.2699 33.4952 21.6077 32.0597241531
27.6423 34.3038 24.2626 70.9541487191
26.0421 36.6801 24.0411 69.9552097621
31.257 33.6295 21.9006 33.1504009096
30.3595 35.4254 24.4174 81.624161047
34.2523 34.0695 21.5365 27.5904143131
35.4405 33.7968 24.0909 56.7652971161
33.4188 35.9341 24.4603 84.1803980441
24.9978 26.1257 35.7811 79.3651951788
29.0362 26.3793 36.0201 81.2911854917
31.713 25.8877 36.0101 61.5693180172
35.6292 25.6407 36.2183 57.3567660185
33.3187 27.7353 38.6842 32.5651836642
33.8439 27.9938 35.785 71.0322002083
27.5847 28.7192 36.5576 43.2233011959
27.7863 32.5263 35.5843 113.9193059586
25.0598 31.9792 36.2217 58.5651546338
24.791 29.1953 35.8361 94.2087521156
32.0172 30.3373 35.5354 98.9722708018
29.4765 30.9759 36.8336 33.2527816485
32.1934 32.1534 38.2447 32.9700059303
35.8505 32.2033 35.4514 84.0232488187
36.6225 29.4212 35.6872 73.3858363176
27.6652 35.1756 36.024 68.0298788802
27.8749 34.4061 38.6858 29.0353176765
32.7805 35.274 36.6847 35.2523545802
29.4614 36.7293 38.5374 31.8384113866
33.2662 32.8723 35.3674 104.1974421274
26.1773 27.8053 42.4884 30.2397856084
28.5253 26.7431 42.0697 31.3976426049
25.1627 26.8104 38.965 30.0220386598
31.7514 28.5909 41.8982 32.0638146045
30.9528 26.077 38.8626 28.2616706818
29.8573 28.1821 40.0392 31.4477002186
36.3769 26.3957 42.0132 30.3394020366
35.7553 26.126 39.2327 28.8171630459
33.5293 26.2517 42.7674 31.9206761233
27.1708 28.9971 39.286 29.2903484678
26.9387 31.4712 40.44 30.3325318008
28.462 31.8244 42.925 32.9407164999
29.3525 32.573 39.482 29.0519358559
33.3886 30.2972 40.0261 31.3757376394
36.0669 30.8336 40.3125 29.8040138942
32.978 32.3122 42.4766 31.9079746334
27.8742 34.7678 42.5363 30.6516427022
25.8293 35.2724 40.7182 28.444564701
32.2713 36.1288 39.4357 31.0779121907
31.3955 34.0759 41.0606 29.4041204416
30.4757 35.8014 43.028 29.7639276333
35.9023 36.2202 38.8435 26.3259454447
35.5228 33.7386 39.5563 35.5176884012
27.4977 28.441 45.5819 24.7750568377
25.2096 27.237 45.0932 30.1699920138
28.1487 24.8982 46.186 27.9461479102
29.4785 26.9317 44.7903 28.2223257038
32.145 24.6043 44.5465 28.6186765292
31.9802 27.3308 46.0276 28.9547748905
34.6423 27.5428 45.0522 29.9537526371
34.5792 25.26 46.6558 31.6070844145
25.9596 30.5701 43.9423 31.617605757
24.8462 31.6001 46.4198 29.9610196885
31.6659 30.302 46.7176 26.0423149656
28.9238 30.9637 45.9959 29.4090659827
31.2415 30.6578 43.7664 31.2868217374
34.5191 29.9399 46.6603 30.7986023636
26.3136 35.4843 44.7414 29.1220241175
28.0484 34.8868 47.0924 31.980768486
30.3322 34.2236 45.4675 32.3895604977
32.6853 33.106 46.5742 27.93659685
32.0717 36.197 47.3548 32.3429123564
35.381 32.9334 46.4031 29.1981337489
35.2821 36.1535 43.4512 33.8928557248
34.9566 33.4041 43.7766 29.9441139541
27.0722 25.8682 51.6396 30.2290691351
24.8134 26.9114 48.7449 32.6599432446
27.2565 27.88 48.1797 29.835475865
24.6661 26.8091 51.4165 29.5866351222
30.4375 27.6378 51.1854 29.9163695042
31.6483 25.2454 48.1414 29.1410739141
28.9742 25.9057 49.4244 25.8896590923
35.5353 26.7351 49.0033 34.2754955211
34.8299 27.9789 51.8441 29.8638169505
27.0512 32.1388 47.6697 30.3137994288
28.0669 30.2095 49.589 29.6492084833
30.8804 29.7606 49.4203 30.1134434156
30.1646 32.5828 50.5594 30.5141202454
34.5012 31.9048 50.563 32.3916417912
33.7624 29.277 49.432 31.4171559338
28.2666 34.4661 50.2082 30.5470692757
26.0384 33.5967 51.2723 25.9660129384
25.7868 36.2276 51.9117 28.0799858569
32.7538 35.9989 50.183 28.4290094423
32.4409 33.3006 49.2956 29.2400326502
35.7987 35.758 50.2915 30.1045452778
25.1 26.9285 54.9206 33.8180885521
27.5713 24.748 55.0476 33.8590213599
31.186 27.0193 55.5444 29.8197901223
32.3428 28.409 53.2979 30.4997037748
33.5978 25.449 52.4427 31.5821029143
36.2023 25.8065 55.6615 28.1363824396
26.1523 30.5078 52.0489 34.8770377848
28.2476 28.6204 52.7182 33.1230014375
28.5882 32.2223 55.4639 30.6741870165
29.5718 29.6025 54.8891 30.8697739507
32.4875 31.0998 54.224 29.7238965327
36.4608 28.6104 55.6391 30.8853719476
35.091 31.5117 53.1528 29.6279293512
36.8233 29.6133 53.1156 28.5101000879
25.8647 33.075 53.8684 32.2380526786
26.4516 35.7712 55.194 32.6775704323
31.8031 35.1762 53.1492 27.8391987231
32.0833 35.7825 55.8448 28.4915680121
30.4362 32.7221 53.3268 32.3999463624
35.8324 34.0802 53.9838 29.9863170047
34.5783 36.2212 52.8973 28.1010542008
34.2393 34.19 56.361 30.7988723122
25.1733 39.3681 4.15148 29.6276898152
27.7216 38.9008 5.94976 29.8700978614
30.2189 38.665 4.81227 33.7175975245
32.94 40.0438 5.93381 28.562469004
36.636 38.4068 6.35277 26.7482936124
35.5392 39.9437 4.04073 29.4839362762
27.2818 44.8273 5.1684 28.0832659866
27.8345 42.2011 3.69259 27.5129839916
27.1518 41.4774 6.31927 27.1120356649
24.9237 44.1815 6.85812 27.4310008422
29.8835 44.7887 6.23943 28.8680572013
31.5105 42.5793 5.95962 26.3871182892
30.6308 41.5016 3.69081 26.6716711011
33.6983 44.1816 6.18698 31.0652663888
35.4763 41.7711 6.66941 26.521829179
36.3206 43.0362 3.8288 29.6936800253
25.7668 47.132 5.74549 26.9421451634
27.8952 48.7194 5.38209 31.9022620485
32.3363 47.7548 7.94442 28.8464824831
31.708 46.5547 5.01883 27.0058287111
29.6226 48.3405 7.65006 29.3296241711
36.1143 46.9861 4.21514 30.0687356477
34.3872 48.8264 6.05423 31.805342665
26.8517 39.9338 10.1219 33.0619546928
27.2525 37.846 8.41912 30.1042563428
31.362 37.9721 10.4052 29.7744867866
30.2407 40.3491 11.3856 29.4976374796
32.8708 37.8508 8.15016 32.2410816355
35.2295 39.0033 8.52784 26.0515965474
32.8972 36.9304 12.3976 29.0464207735
36.6431 39.9297 11.0532 27.2212701091
36.8626 37.0197 10.0444 30.9764674278
27.51 42.5668 8.90798 28.6339491846
25.6867 44.745 9.68906 28.6101092226
28.7007 43.3386 12.0592 28.6610136916
30.8856 41.761 8.7288 33.5973246799
30.901 44.417 10.3849 29.0251877156
33.632 41.5125 8.83778 26.0109420895
34.7253 41.874 11.0829 27.1880796608
36.0153 44.3032 10.5307 31.0692116038
27.4533 45.8329 11.6913 31.8979856124
28.7014 45.3489 8.50195 27.992606903
27.8338 48.1188 9.96784 27.8379042317
24.6657 47.2367 8.3798 28.6229898773
29.8512 48.8895 11.5614 31.5470825589
32.0209 46.9927 10.9167 32.0337577923
33.5071 45.0137 9.03025 33.8878722009
27.653 40.5584 12.7468 30.9214268554
28.1724 38.2285 13.9073 29.7436310204
30.2821 38.4094 15.7837 32.0877614404
32.7265 39.6627 14.7491 28.3839479758
35.7988 40.075 14.9796 33.3336667076
35.4323 38.1685 13.0162 27.3286098577
28.4152 43.7084 15.4094 30.7486579066
26.0685 42.0281 15.0109 32.5991295377
32.336 41.3332 12.6292 29.4505953571
31.129 43.6285 13.512 31.98934916
32.5989 41.6772 16.5851 29.0671999126
34.507 43.7388 15.4692 32.2643950096
36.4139 42.6373 13.5032 28.7651287603
27.1619 46.3736 14.2417 32.7339500955
24.8229 47.2625 16.0234 27.8425889269
28.3558 48.6768 14.1365 31.2197352836
32.4619 45.6019 15.0183 33.5018089775
36.4912 45.6616 12.9106 29.5077627462
33.8427 47.1475 13.284 36.8670144402
26.5324 39.9846 17.2041 29.9230364942
26.3693 39.9094 20.1299 27.7747115917
26.1101 37.5137 17.7097 26.0711697297
28.3008 37.3118 19.3966 28.7914505993
30.3823 39.5274 20.3199 29.954449911
29.0891 40.1595 17.6348 28.1222484829
32.7525 37.8276 19.0832 31.3016082082
33.1424 40.6918 18.9886 29.6156568464
35.2511 39.3375 17.6567 27.5797016379
36.5528 37.0094 18.1437 30.0916282554
28.8962 41.9272 21.035 27.886705395
30.2185 42.5709 17.0776 28.9275973622
29.9414 44.0199 19.5333 27.9762093849
34.2719 41.9709 21.0407 28.2357436272
35.4751 44.3144 19.9922 34.2004946475
36.4591 44.3628 17.2001 29.970916935
28.5499 47.4825 16.9938 29.7190007774
27.6504 45.1014 18.0607 32.8020303045
24.7331 45.2277 17.843 29.304951227
31.3847 46.8313 17.2414 33.6903122686
32.3129 46.4354 19.9778 30.7806339195
34.964 47.3834 20.0249 34.4557731474
36.7392 47.3092 17.2942 39.5557322113
25.2006 40.5479 24.1668 70.3356405211
28.0258 40.2293 24.0722 63.7713807905
27.5749 38.3371 22.2212 26.8949767207
30.2863 37.8143 22.6245 30.1228248725
31.0285 39.3825 24.6623 105.3201757692
33.5784 36.9416 21.4983 29.5699504751
36.0843 37.0801 24.0329 42.4080449007
36.1759 37.6788 21.2447 27.8369591285
33.7547 39.0787 24.2646 67.592017933
36.5204 40.4676 21.5815 25.4402160993
26.3038 43.0029 21.3136 29.1899469008
26.0968 43.3558 24.097 64.50986582
28.6799 44.1205 24.3738 95.8250481881
30.4459 42.1175 23.6694 36.1221835866
32.1683 44.053 21.4167 30.0901231955
33.4761 42.1928 24.006 59.397225384
36.6071 41.9806 24.0614 57.2246846996
25.0435 46.5486 24.2535 97.5862910331
28.4296 45.4751 21.7412 27.1623460548
27.1416 48.9239 24.4967 101.9909382293
26.3357 47.0699 21.4804 28.9772457841
30.5177 47.9629 21.4977 34.4897798201
29.179 47.1702 23.9564 58.5325154244
33.0491 44.9971 24.1831 109.4704280256
35.0039 46.485 23.0312 36.1397293677
36.7008 48.2395 24.1125 74.1547074534
26.0333 39.4378 35.5602 115.8606043534
28.6198 40.4033 36.2992 35.3755440774
25.4799 36.8483 36.3067 40.1794869764
31.0276 39.5066 35.5215 107.104610934
30.4538 36.815 36.0498 71.903996224
34.5534 39.8723 35.9719 60.4639843089
34.6172 40.0366 38.7614 27.3892254554
35.0224 36.9499 36.4241 50.8347446515
25.9036 43.8796 36.1174 63.1578478823
28.5424 43.1417 35.7103 85.0271894586
26.9395 44.4296 38.7521 30.8471133901
32.727 41.7553 36.0287 44.5707579642
35.6448 42.784 38.4478 27.1076593368
33.232 44.568 35.457 101.0087707328
35.9837 42.1768 35.4516 94.4480441991
24.6322 48.832 35.9706 69.2876137602
30.2752 45.2628 35.6761 81.2575699952
30.0685 47.614 38.5676 28.3207815151
30.0205 48.1999 35.9577 51.9220131025
30.6913 44.945 38.5822 25.7843389994
33.6834 45.0303 38.2103 26.6807077656
35.8278 47.0347 35.8483 81.9504650114
34.8912 47.4468 38.3732 30.2914459954
26.4061 39.7971 40.8736 29.8080614412
25.4964 37.7669 39.2012 29.3283929318
28.501 39.2752 38.9977 30.7250688986
30.4273 40.0973 41.2082 27.4179981787
32.7029 38.5746 40.6952 27.9622273175
35.259 40.4571 42.0043 26.6647171278
35.8603 37.6684 41.3872 27.3042055911
26.4192 42.4859 40.9823 27.7118728988
32.2213 41.8995 38.8988 27.9493549298
29.4022 43.026 41.8756 27.8699217467
29.3804 42.5258 38.9794 26.9655231092
35.8094 44.5057 42.0992 28.9713627464
32.8193 41.8656 41.6903 27.3537517025
33.2548 44.6743 40.9248 26.7694022829
27.3803 47.0525 39.5032 33.5569814115
26.1677 48.5641 41.6648 29.5190193215
30.5021 45.1878 41.5504 27.2483551514
30.4244 47.846 42.8633 27.8018274218
33.1215 47.7041 41.6142 30.7833739512
25.297 40.4095 44.7383 31.3948580958
26.5829 38.3099 43.3295 29.7300243986
26.2712 40.8469 47.3062 30.1827680758
30.2405 39.751 45.854 28.2362785056
32.7932 37.5074 43.2902 29.196208281
29.4306 38.6322 43.5066 32.952752599
35.7053 40.6193 44.7329 30.8652204265
33.8608 38.1624 47.3628 25.8908220241
33.1517 39.3888 45.1355 26.1423819205
35.9819 37.013 46.1791 32.4864564791
26.3523 42.8111 43.5928 31.7809778687
28.2327 44.8815 45.0083 33.0553552186
28.8519 42.0858 46.8143 30.278589591
31.1022 41.8263 44.0676 27.1041363678
30.4869 44.5655 47.5043 27.1551406832
35.4039 43.594 44.7813 30.375521088
33.0022 42.8142 46.0343 27.1763654607
27.6012 47.6907 44.1051 30.5111042316
25.18 47.9847 46.5055 29.7752130977
31.1249 45.0525 44.4903 28.6206931159
31.5173 48.8249 45.9355 27.3322904888
33.2064 47.1223 44.6525 27.942623792
34.7314 46.2379 46.7446 28.0926932651
35.2438 49.0018 43.2843 31.1969946379
26.5639 38.2534 47.7196 29.7192729938
27.167 39.1545 51.773 27.7574730407
28.6517 37.3251 50.5808 25.7776578997
24.7672 36.9148 49.5243 28.9441188653
30.4995 40.1366 49.0441 28.927209016
29.4027 37.5929 47.9977 28.2426559161
32.0116 38.6667 51.1901 29.8770694747
34.7043 39.1905 49.6611 28.2230680591
25.7611 41.5163 50.7739 26.8762540515
28.5887 42.0206 49.7772 29.467370658
29.346 44.7435 50.2865 27.8435202392
32.0546 44.1203 51.9631 30.0340380535
33.0454 41.4913 48.3156 30.1165927801
34.323 43.0314 50.5352 27.8836128938
33.2351 44.8406 48.5026 27.6074554003
36.7949 41.1457 48.7683 30.7042149263
28.2567 48.704 48.3702 29.4618917318
25.1827 48.9309 51.3007 29.7691844026
27.5809 46.1743 47.9017 29.8497357631
26.1365 46.0817 50.7376 28.2719068401
30.2876 48.2551 50.6945 29.3339753868
31.2786 47.4199 48.2217 27.6889576631
33.7936 48.2104 49.4795 26.9838529565
35.404 46.3893 50.9407 27.9558139607
36.1432 48.426 48.1635 34.6881085715
28.3834 39.8954 54.7055 26.1012447172
25.3332 39.7897 54.1364 27.596947271
30.2372 37.0108 52.8332 27.489388012
29.1347 37.3024 55.157 27.5658901445
32.0648 40.3093 53.9838 28.7042477364
35.4134 38.56 53.7949 27.6677639952
33.0439 38.3907 56.1299 30.8311184795
25.5564 42.3765 54.8515 26.9068121651
25.9302 43.6537 52.299 26.5775436071
29.0366 43.8408 53.1473 27.4429939592
29.6064 41.0058 52.6392 28.4043234907
31.8633 43.5228 54.7776 29.5877134218
35.0117 43.919 53.9028 31.2708726067
34.5789 41.0658 52.9893 33.1212451532
28.6923 48.2328 55.6218 28.2047054661
28.4557 46.9217 52.1554 27.3631702394
27.3113 45.7486 54.8596 28.5686240356
32.6549 46.8705 52.1427 28.8980413792
30.6109 46.1568 55.1381 27.8581360601
32.8353 47.9042 54.6329 31.9199554034
34.0258 45.5297 56.3503 26.1283182649
36.6845 48.3194 52.8496 30.6955232
38.4127 1.56396 6.65305 29.3576351474
37.1002 2.03277 4.40188 31.9071197543
45.0817 2.09369 4.25423 31.0735574461
43.1126 4.03965 3.69216 26.3609137173
44.446 1.1909 6.91135 31.2074427756
41.7771 1.49742 7.40618 26.6668562861
41.3393 3.72397 5.58426 30.2007129309
48.3769 2.29769 7.83643 33.1912913022
49.1977 2.83473 5.2228 32.5682261685
38.4096 6.26938 4.33063 29.2485432641
40.9553 7.58774 5.29162 31.3213404182
37.1035 4.95822 6.31361 31.5415687373
41.5179 5.98529 7.28582 26.6789881252
44.9301 6.2173 5.37491 30.539166288
46.6832 4.38334 4.57255 28.5524326991
48.2386 5.49408 7.67432 32.7855504766
48.6095 7.44189 5.43491 32.9150039592
40.1614 10.3328 6.8931 32.6658222028
38.8815 10.1096 4.25793 28.2525942803
37.8327 12.0413 7.88358 34.053484969
42.221 11.8496 5.93216 32.9140349682
44.0841 10.3111 7.26253 32.9500125322
46.3306 9.11873 5.61537 32.987541866
47.6196 10.797 7.83554 32.8289566107
39.4853 2.99561 9.31781 30.5984066511
37.3169 3.18015 10.9673 28.8242523992
44.469 4.01239 11.9681 32.7649120018
42.6332 3.49134 9.51152 28.8012672656
43.3226 0.887116 10.78 27.7933052706
45.5618 2.37928 9.1956 31.6027303612
39.1144 5.73637 8.67393 30.5357237206
39.4449 4.95811 12.2772 32.2094513735
43.3894 6.81362 12.1958 32.8582734404
41.2239 6.94637 10.5813 27.7052090528
44.1717 5.55877 8.1669 28.3317301461
46.3668 5.2095 9.89399 32.3199071991
48.7721 6.5185 10.9972 31.741208188
37.0365 9.2224 11.3292 29.8384296487
37.6885 11.8759 10.411 32.9140589365
40.555 11.6911 10.5786 34.5891278034
41.6468 9.47995 9.20979 32.7529793662
44.4385 8.23618 9.34726 31.1014235451
49.028 9.1551 9.86745 31.3086577914
46.2667 9.93272 10.6851 30.8570564932
38.5695 2.1999 13.3694 27.4435297986
36.9622 0.644522 15.3617 30.7454562931
41.0374 1.8598 14.9505 28.6252251953
44.6571 2.91717 15.9758 30.2263670618
43.358 1.65889 13.409 31.2666366318
48.1033 4.04174 16.1361 36.3975175541
45.4659 0.173738 14.6168 30.5439066972
47.8182 0.187798 12.6432 42.8837119362
37.3232 7.07564 13.8298 28.9105619574
39.965 4.7569 14.9755 28.9135665637
40.4913 7.64185 15.3392 30.528267873
43.3595 7.04543 15.3427 29.2562550145
42.6662 4.56747 16.7142 29.7391722246
45.6922 4.97183 14.5564 33.7328761482
46.7857 7.93453 14.7608 30.6816587942
39.3022 11.3466 16.0315 32.2494382029
40.6816 11.023 13.5977 31.0074327261
39.7811 8.55485 12.6785 30.1045062974
43.4961 10.8404 14.6493 37.6779066171
45.1735 9.23122 12.996 33.7633730192
48.577 10.9392 16.2642 31.7766762091
38.1907 1.54694 17.7326 31.772036275
44.7867 0.610145 17.9235 35.8336988856
41.0926 1.75315 17.7999 30.6134309708
47.4787 1.39232 17.1951 31.3054079781
38.9413 5.64876 19.9559 28.6125950708
39.1335 7.74504 17.6785 29.416215908
38.1703 4.37237 17.2836 26.5718475788
43.677 6.64128 19.1257 37.1189178274
41.4152 4.20253 19.2902 31.9296447994
46.4473 6.4785 20.0962 31.4974394095
48.5998 6.46654 17.9708 32.0911938233
39.9681 10.4762 18.5922 30.6829883843
37.912 10.0168 20.7203 30.7802024352
44.1268 9.32956 16.9862 32.9267053325
42.743 10.197 19.4055 31.3704223078
46.8834 9.09862 17.3793 29.8612055575
47.4548 10.5111 20.0117 30.6925720735
37.9824 1.06029 22.0948 30.2967902534
40.7638 0.703446 21.9478 30.4560821216
37.5658 3.83675 21.4831 28.820343456
44.7962 2.0987 21.4992 35.311592715
42.0126 3.15283 21.8507 31.4546341047
44.3558 1.90366 24.3548 79.1358876853
41.7668 0.114559 24.5583 101.645709389
47.4595 2.38142 24.1888 80.1817768018
39.8164 7.56027 24.1991 63.9826549491
39.6631 7.84524 21.3241 31.35768002
40.5532 4.86187 24.3653 88.6985014227
37.7961 4.08954 24.3607 69.1618046954
43.4365 4.87084 23.879 54.0133470818
44.6655 6.80511 22.4697 26.5011785884
42.526 8.14117 21.3252 29.916831617
46.8978 4.19969 21.6269 30.7471950518
47.1961 5.36086 24.3582 77.6102483363
47.9487 8.09535 24.2608 48.6191891347
37.2136 9.4565 23.7343 43.8326466469
37.1722 12.2208 24.3208 80.2490917314
44.9877 11.1455 21.4825 34.4768654449
41.9678 11.6221 24.3196 79.9341509938
42.2578 8.79846 24.3772 72.4740835656
45.0048 8.5601 24.48 77.0585624804
48.0865 8.4427 21.5195 29.5306926418
45.3575 11.3369 24.3782 68.8337642331
48.0608 12.2312 24.2582 54.8004949996
40.7743 1.95696 35.8372 70.1617215244
38.9716 3.07975 38.4974 28.4229129195
37.8734 2.13725 35.7892 78.2145605574
40.2672 0.600218 38.4061 28.6655621924
45.0844 3.79019 35.498 96.8864599141
44.6482 3.58304 38.2706 29.8661720109
44.2915 0.536624 38.6583 27.3182969898
45.4038 1.20529 35.9416 61.8971345119
47.1425 0.0495294 38.8157 36.2319687746
38.9391 7.91912 35.7584 77.4210020266
38.225 5.98548 38.1652 30.6141531603
42.3153 4.55498 35.7722 77.521428632
41.7181 7.31219 35.7303 75.0243778815
42.118 7.6896 38.5618 28.3727178493
47.139 7.86913 35.4982 97.9132770274
47.5517 5.00208 35.9654 49.2887352078
47.4984 7.43235 38.0527 29.5593479224
37.5269 10.3642 35.616 69.7496337208
37.6939 10.1201 38.4134 29.6897366305
41.6025 11.1151 38.7591 26.8813087892
44.3852 8.77753 35.9116 62.0849796752
44.5119 11.773 35.897 68.570461281
41.6707 11.0049 35.871 61.398232895
49.1095 9.79667 35.9101 58.7085712037
45.1936 8.65029 38.7477 29.3045309647
47.361 12.2239 36.0547 61.0406911333
38.693 0.301738 42.5817 34.5950990012
44.1573 2.84691 41.8309 28.6585013464
42.0955 1.58968 40.1909 26.7352533941
48.2578 2.39626 40.1894 33.9937773518
45.4029 0.660784 42.7325 28.4294893794
39.3217 8.08605 39.4603 27.6382504994
37.1677 4.35464 41.5246 33.4097110936
39.7451 5.65055 42.525 32.4956002363
44.8615 7.64397 41.7013 29.842036702
41.0253 4.23705 40.4191 32.5362211149
43.21 5.68998 39.8657 29.633366183
47.0929 4.54582 38.9099 29.4541279601
46.0393 5.16706 41.6081 30.0496923411
37.5706 9.61655 42.9658 31.5524553795
39.9643 8.36927 42.0661 28.7629327687
43.2175 11.4144 43.1435 32.9138261133
42.198 9.50565 41.149 29.3284875402
45.6262 10.3507 42.3974 26.8775325686
45.8121 11.1084 39.7738 30.1471635807
48.7044 10.886 42.7721 30.2606329551
39.3832 3.38969 46.5452 29.1000733774
38.857 1.18382 45.2239 31.838266463
43.3998 4.00003 44.5667 27.834044268
43.1835 3.21554 47.2271 30.0422993966
42.8919 0.991134 44.3856 29.7342871908
42.944 0.624806 47.3317 28.4102236367
47.3193 2.07886 44.4362 28.7059417757
49.2172 2.34212 46.4495 28.3213341995
40.7763 4.74096 44.6981 29.6705337793
39.609 6.94074 46.3645 30.9324217677
41.6782 7.93581 44.696 33.1382751272
44.3422 6.7369 44.7417 31.7047405463
46.3604 4.28305 46.0613 29.0540384477
46.1372 7.01238 47.0687 27.8428097088
47.7278 5.73309 43.8034 29.336856556
37.2434 12.1863 44.6867 30.0494605045
37.597 8.56399 45.4899 34.562609679
37.7653 10.8754 47.313 31.716730195
42.7841 12.2162 45.8503 27.5650232673
42.0854 9.68067 47.0633 31.412013895
47.0007 10.8157 46.6207 30.592852228
46.9984 8.65064 44.6859 29.0103303649
40.6702 2.95075 48.9329 28.8495468484
40.0311 0.472461 50.2467 28.869955643
44.2231 0.795437 51.2243 32.2266009083
43.1784 3.23796 51.1976 29.763636602
45.3728 0.175424 48.8197 28.3570851017
48.1077 1.4646 48.7465 29.5783365704
48.0672 3.84969 50.3999 30.1683096327
37.0349 4.99216 49.2422 30.926581005
40.835 7.06279 48.8928 29.7747405414
39.7073 5.0263 50.2216 28.3819762837
45.076 4.43648 49.0581 28.4443031678
43.8441 6.79458 49.3767 32.2690218775
44.7909 7.06512 52.0052 28.2895380012
48.4932 5.8614 48.495 29.8997952047
40.4393 8.70776 51.0526 28.3430614527
37.4824 9.1972 51.4011 30.4562502034
39.9256 10.3796 48.896 29.1915481508
44.7178 9.61157 48.1714 30.437831688
48.6696 8.49631 49.5216 31.2055570849
45.2068 10.9427 50.7137 30.4043510409
46.9088 8.83519 51.5483 29.3964364418
39.3387 3.51184 56.3182 31.132598285
40.3203 1.01395 54.3046 28.1428339341
38.5208 1.45807 52.331 33.0737024864
42.1511 3.14849 54.1407 32.6872560249
49.0795 0.780126 56.0729 32.9631203489
46.6379 0.507904 55.2141 32.7067301598
47.0264 0.764052 52.2709 34.6830434733
40.6069 4.97022 52.677 27.940349673
38.2992 5.75663 54.2087 31.1462978681
42.0174 7.26529 53.1924 28.9127366768
44.9669 7.64799 55.0007 30.7173589423
42.7399 6.64087 56.0657 27.7124474701
46.722 5.27193 54.687 32.6045074319
45.5965 4.57614 52.2892 31.52772307
49.0361 6.39321 53.5537 32.1268443266
38.033 8.57872 54.1006 29.6033275961
40.8219 9.16444 55.0219 29.4659967297
37.2953 11.8829 52.0895 33.2386656772
43.7691 11.9278 52.7903 29.0019944921
41.6665 11.9638 55.7077 33.0277194058
41.4445 10.8374 52.4892 30.0288880502
44.5062 12.1219 55.4162 33.1682186773
46.2335 9.90164 55.7911 33.1654264926
48.2214 9.78273 53.8289 30.8532136207
47.4397 12.0466 52.8225 27.7384450744
40.6134 15.7979 6.12435 29.2589141605
37.4268 12.566 3.95007 31.5502934371
37.8307 14.6477 6.11572 31.059477153
44.944 15.7685 5.65268 33.4693961778
42.5144 14.3751 6.96376 33.2363167853
47.9545 16.3266 5.27949 24.1882292068
47.0506 13.9039 7.63756 30.0779351956
48.4546 13.948 4.18784 33.1811577755
39.4065 19.9262 7.47441 30.2350836212
36.9316 19.5727 5.79626 26.4703459319
37.978 17.6929 3.91051 27.5636865504
40.527 17.295 3.81187 30.5773192559
41.3856 20.1545 3.91234 35.0597003717
43.371 19.7232 8.04086 30.4987052494
44.9638 18.7282 6.17696 29.9629119711
44.3142 19.7491 3.71928 34.7164435826
38.7307 23.9258 5.19743 29.132783049
38.7467 21.3718 4.38684 30.0223765426
41.6051 21.4616 6.75145 34.3869557455
46.1197 23.1743 3.99284 33.5551056087
46.7648 20.7953 5.77371 32.4356748287
37.5046 15.9823 9.01335 39.4157500572
42.4832 13.6116 9.74211 34.2199007057
43.0121 15.8178 11.0566 30.8262924734
48.7508 14.5384 9.81347 28.835244159
45.8213 16.1904 10.8823 34.0345574179
45.4586 13.4348 11.6986 30.2779185281
45.119 12.4249 9.20627 28.6691084397
48.5046 13.2408 12.1847 34.5041903607
39.997 17.3921 8.23444 35.4193428358
42.257 18.2185 9.8285 32.9640278969
41.3516 19.6554 12.0744 34.932057207
47.0859 17.045 8.17406 31.8476970962
40.7503 23.5976 8.90081 29.0495841163
38.4331 21.8557 9.15302 30.2754999005
39.1851 21.3669 11.9028 33.3400225739
42.7665 23.5804 10.8584 27.7724185339
44.6373 21.6233 9.53232 32.7900472047
45.7249 20.9461 12.1104 31.6408456027
48.3522 20.7243 10.6773 29.4295107455
46.9709 22.6484 8.10883 31.1941889535
37.306 15.3173 13.5219 38.2487939623
39.8446 13.7125 14.0347 35.3588046654
45.032 13.4275 14.4143 32.0446136856
42.0178 15.6402 13.5219 31.80184544
44.007 15.6867 15.3265 28.4314052114
47.1628 13.4472 16.1197 35.9792878213
49.1975 14.8744 14.6092 32.0537762382
37.3961 20.3593 13.7772 29.1277695989
38.0778 17.8193 14.6084 32.6126471664
40.7172 17.9995 14.1615 30.8123591805
42.2731 19.5076 16.014 29.6480522896
45.575 18.1027 15.2049 32.9118448937
48.2808 17.5534 16.0161 31.1769582935
46.5661 18.2364 12.6209 33.211094855
49.1519 18.9817 13.4194 30.8375846928
40.1173 23.2682 13.6596 27.0928419149
37.6753 21.063 16.8268 27.1984459189
40.4404 21.881 16.0114 28.0292567831
42.9195 21.7759 13.2859 31.0611547817
43.4226 24.2246 15.7246 30.590082856
46.0721 22.7126 15.7955 37.6148303909
47.1297 23.3902 13.239 29.9667027442
38.9773 13.4051 18.7581 28.3985839411
40.3487 13.6839 20.9815 28.2178558513
40.5027 14.9972 16.8944 33.7314199346
43.3017 14.8697 17.6313 33.934423225
42.8553 12.9712 19.8625 32.5204918463
47.2441 16.018 17.9941 29.8957313058
47.74 13.2035 21.2061 29.0345277321
46.3145 15.6224 21.2024 32.7132127145
40.2468 17.5846 18.062 25.5609503535
40.9923 20.2628 18.8317 26.2443284115
39.8438 16.3429 20.7378 26.699190498
37.7952 18.139 17.3613 30.987438664
44.8366 19.8956 17.34 31.6551971735
43.1187 17.4799 18.8744 28.36666206
48.3709 19.3053 20.1445 34.9062822513
46.147 18.2855 19.3276 25.0996407397
40.6508 24.3328 17.5319 33.7568636192
38.9069 21.6801 19.704 26.2163938317
43.1486 22.335 18.0354 29.4253909385
44.1094 22.4218 20.5565 28.701917181
48.5548 22.6302 17.2065 32.6426970057
48.9289 22.332 20.03 31.2058325102
37.4283 15.8535 21.7181 28.371505887
39.7128 13.2428 23.9456 48.6505029399
37.404 12.7146 21.5336 25.698143054
37.2723 15.3231 24.3806 66.3765789262
43.7741 13.819 24.2418 60.7540466164
43.6878 14.8431 21.6652 26.409827856
41.6669 15.9977 24.3093 68.1902448409
46.3523 15.6992 24.2927 73.8608300301
49.0985 15.1271 24.4156 72.201593072
39.2117 19.3559 21.3112 28.2975073955
39.765 19.9554 23.9901 45.0201521408
39.2404 17.3344 24.4155 80.1791814537
43.0289 18.3169 24.2126 66.7809039341
42.5091 17.1695 21.4751 24.9051124048
44.8708 19.1807 21.6188 25.9911343388
46.0156 18.4562 24.131 75.4810123814
48.432 19.2055 23.1847 32.7286024968
40.0794 23.4169 21.55 28.6126294173
37.2228 22.8039 22.1068 27.8499073209
40.0079 23.4416 24.4394 81.8328039129
37.0899 21.1514 24.2892 59.8048865677
42.2759 20.8795 21.7529 26.8733982133
44.5369 23.3145 24.6201 103.0717250019
42.3267 21.447 24.3957 71.1661425638
47.3654 23.0381 24.1428 61.0963764144
46.3949 21.4625 21.5286 29.982515658
39.9838 13.0473 35.3485 100.7669935594
40.3959 15.8023 35.8966 46.7258590686
37.6238 16.1165 35.6168 71.0128404479
37.5111 13.2283 36.8083 30.5344290651
42.6877 14.8241 38.3078 27.3550633787
43.487 15.2893 35.5473 96.3125987535
43.931 12.4925 38.503 27.0752042693
48.0456 15.0231 35.6407 109.9873877069
47.6852 13.0062 38.724 28.523540204
40.693 18.8843 35.7933 68.9827463685
37.925 17.1801 38.3347 28.7996593683
37.7226 18.9245 35.7402 76.0302261997
39.6206 20.292 38.4728 28.8254031894
43.4876 18.4408 35.8054 61.0548159441
44.0164 18.7675 38.6829 31.5840315346
46.2474 16.718 36.1857 41.7290792053
46.5146 20.1211 38.5491 28.2346567807
46.7399 19.5059 35.8298 72.2772171366
38.568 21.7762 36.0032 63.2773764842
39.095 23.5429 38.4464 27.831529026
40.2691 24.5038 35.5197 97.5131322306
41.7214 21.7393 35.9756 50.3700842307
44.4112 21.3274 35.5379 82.2551883354
42.6022 22.8676 38.4351 28.2531994502
45.419 22.4975 38.7889 25.3616815514
45.504 23.6929 35.8648 54.19798283
48.5838 23.5046 35.5101 107.7401469535
47.6575 24.0285 38.2178 24.946838976
49.0256 20.8286 35.9914 48.9235634098
40.0984 15.2217 38.8304 28.5082870774
39.372 12.4434 39.2709 28.4096804852
39.7359 14.4547 42.6439 30.2322717538
37.7842 12.4741 41.8871 30.1330074028
43.9973 14.7153 42.5911 28.4185271352
42.0068 13.3672 41.3416 28.4257473556
44.0896 16.2492 40.2297 26.0600331879
48.0509 15.0261 41.5942 29.435770616
46.8596 15.6786 39.065 29.2585779319
46.5123 13.2311 42.7151 28.6268718495
40.6876 16.7853 41.3084 31.0585263716
38.1064 17.9291 41.023 28.0671731472
43.2299 18.7489 42.0614 28.718352574
48.5099 19.1806 40.3303 27.1911620456
46.2849 17.6406 41.9661 29.3938553561
39.69 23.5627 41.3205 30.4241063564
38.6907 20.6861 41.2314 27.6901992132
43.5126 22.3175 42.3474 28.0736979918
42.3211 20.505 40.1596 29.5746681965
48.102 24.3173 41.0144 30.7784030452
47.6273 21.7479 42.1322 29.3467758713
45.4762 20.4274 43.195 27.5197832717
45.1424 24.1293 41.1829 27.4416642524
40.0486 12.6247 46.2731 31.2021527131
40.3331 15.4581 45.3875 28.9857136355
43.1848 15.1763 45.4081 26.5185921619
44.9892 12.7215 47.4068 25.3266518944
46.1345 14.3352 45.2743 27.4173559902
48.7792 13.9883 46.3802 29.2159095812
37.5345 17.7997 44.3873 30.8769713916
39.6442 19.9409 44.3793 31.9136786399
38.9469 20.0311 47.0109 29.0302626678
41.6172 17.9333 44.3069 30.1900406087
43.9808 17.9172 46.1186 30.9895806017
46.2456 16.9471 44.9645 29.7991017008
47.3584 19.782 45.3954 29.8773118688
40.5321 22.6688 43.8847 28.5798754238
38.8184 24.354 45.6411 31.966945636
37.2385 23.89 43.3161 31.8048525286
42.8803 23.0251 45.2434 30.7587797061
44.4491 20.9447 46.3022 31.5950852405
46.5868 23.1458 45.6712 29.8686446749
49.0371 22.4482 44.317 29.0098500088
40.489 13.2344 48.8991 27.3066598857
40.2786 13.2384 51.8394 29.227487396
38.3421 15.0622 49.2129 29.6261105843
43.0916 14.2425 48.8201 28.2622583862
42.847 14.515 51.8388 30.7226801302
46.3256 13.3588 49.9109 27.64257077
48.6529 14.6609 49.1938 29.8058805347
45.7181 15.6297 51.4915 27.9983958097
40.374 17.184 48.1074 32.512175551
39.0736 19.3378 51.0596 28.9530371415
38.3121 16.6652 51.5843 31.2101315744
43.11 16.8231 48.6875 31.1786078925
42.5317 18.3713 51.0936 26.7055511969
41.2135 20.03 49.0278 28.9575482662
46.1898 19.6929 50.0307 31.7539888949
47.9213 17.3951 50.0254 34.0292690062
40.7327 22.9372 48.6609 30.9234767707
38.0697 22.5726 47.6284 26.515121987
38.3629 22.1548 52.0152 29.1143812364
43.9031 21.6635 49.2117 30.6450507627
41.027 23.1031 51.4785 31.647104556
47.8176 21.6493 49.2306 28.6495605204
48.974 22.1983 51.6953 31.2967504489
46.0844 24.0428 48.5521 26.8289824275
45.5307 24.1925 51.4103 28.9022968405
39.8696 14.2357 56.2478 31.7971137333
39.9582 15.492 53.5801 29.333366321
45.6815 14.5431 56.1827 30.3877803176
47.1742 14.9228 53.5893 27.6183382227
40.7885 19.5433 54.0269 30.3419752588
37.796 19.0763 54.2759 29.257396072
44.5609 17.1641 54.9129 32.2730489641
42.0353 16.9182 53.4424 26.725437984
47.7066 17.7984 55.5836 28.370221205
47.5812 20.381 55.7505 24.7686408504
45.1678 18.3874 52.2472 26.8095229668
48.983 17.1688 52.7325 28.5228643853
38.1418 24.3718 53.9184 30.2411578956
37.1136 21.5583 54.6598 29.5569323709
42.6117 21.0006 52.291 28.9730693766
44.8305 22.2285 53.1731 29.2333913917
46.8323 20.6821 53.2114 26.4322997254
48.5749 23.4332 55.4487 27.726341869
38.8676 27.6514 4.41005 37.0754779855
43.3515 27.9116 4.66462 32.5152220495
42.9463 26.5998 6.94561 33.9651341493
41.1186 24.5166 6.50576 36.4462585187
46.3451 27.9941 5.20602 29.4457518678
46.751 25.1348 5.71331 32.2276698163
37.4374 31.4838 5.2194 33.4236132295
38.6407 30.7952 7.72399 28.8075459414
41.2347 31.387 7.07604 30.2207286191
41.3839 30.3728 4.4298 28.2187693971
44.4548 30.6245 4.79459 29.8773166915
48.5189 28.614 6.64772 30.0683663223
45.7893 30.7501 7.4441 28.78807803
40.8352 34.1923 7.21183 30.9067523355
37.5107 33.9229 3.74968 32.1608077214
38.1946 35.6334 7.43258 30.9540405156
44.7033 33.5145 6.75534 33.6929231066
42.3554 34.6213 4.88221 30.0852288473
47.4127 35.8601 4.80375 34.1900113272
47.1241 34.9112 7.73984 28.7405560906
39.0882 25.5191 10.3153 30.609757431
39.0822 28.3286 8.76341 29.5373607389
41.8541 27.0881 10.9775 27.0754094224
44.5641 27.3689 11.6366 32.7189246451
41.962 28.4007 8.79678 28.4008886139
48.4756 25.1214 10.8228 31.9051359462
45.3202 24.5711 11.0938 28.0642642286
47.7008 27.097 8.89586 28.8190388664
45.4831 25.3195 8.39246 31.6257943461
37.9544 32.5307 11.15 31.7112415331
40.4093 28.8649 12.3267 34.8004979226
37.8527 29.5678 10.9049 27.7717687214
43.4165 30.5967 8.86947 29.8403736803
47.6 32.3081 8.86198 29.6887972201
45.9391 29.0705 9.85355 29.2649752709
46.9549 31.2559 11.2865 28.8236379032
49.0289 29.7537 12.2752 29.8621965347
40.9552 36.4807 11.4402 30.3631389214
40.2324 33.7846 11.807 33.9757765971
37.3284 33.1068 8.69333 30.2099368743
43.0376 34.5167 8.90267 27.6066745305
42.6873 32.7565 10.8505 33.9503231313
45.0676 36.4828 8.58301 29.0775785436
48.5159 33.9585 11.9987 28.551348522
38.3718 25.2634 12.8708 31.7219978345
38.1874 27.9743 13.5808 31.2069874224
38.5892 28.1799 16.7142 33.3096624894
42.1791 24.839 13.2653 32.807099536
44.1561 26.8549 16.5651 34.6188262106
47.9051 28.2483 14.4126 30.8507086087
48.9153 25.6572 14.6696 30.990072891
45.202 28.3647 14.1434 34.9447256351
41.3356 30.4748 14.4944 35.5828898525
44.0416 30.9694 14.9019 31.7468141684
44.9096 32.6607 12.6419 33.5732069587
39.5593 33.7819 16.3338 30.3063894328
38.6058 36.4569 16.1028 31.6005323162
43.9264 34.8612 15.0524 29.8183924685
41.5696 33.4313 14.3625 31.0086944802
46.3385 35.0081 13.6238 30.3875602098
48.2583 35.4762 15.622 29.3536638376
37.6957 26.3863 19.9958 29.4726643803
38.0445 25.4274 17.3584 27.5949266092
42.1975 25.8916 19.6726 28.7575668349
43.0132 28.1342 18.4751 31.4454294035
46.1318 26.1737 20.1906 30.4170142678
46.7437 27.1658 17.6722 30.5936115123
48.3848 25.0765 20.6679 28.1990751435
48.9367 25.5296 17.37 30.6450287211
40.9579 29.8573 17.0889 32.6157201598
37.3325 29.0083 19.554 29.2982777254
38.0545 31.3159 17.887 27.8231819529
44.3126 32.2815 20.4573 33.698326549
41.4446 32.6359 18.1052 28.9396393333
43.8757 29.5478 21.0501 29.8443293675
47.4456 29.9959 18.3411 35.4857575507
49.0815 32.6785 16.943 32.5296672452
45.5655 31.6627 17.1654 37.6314993351
39.3867 32.7634 20.0758 30.3610498757
39.1263 36.5899 19.7561 31.1068627637
44.0455 34.0676 18.0239 29.8029615777
44.405 36.2312 20.1314 26.5254437216
41.2233 35.8572 18.0071 28.1216422819
42.1172 34.4696 20.8548 30.6861973544
48.8687 33.69 20.1154 31.6127577733
48.2781 36.0664 18.2392 29.0476387775
37.9458 26.7449 24.318 77.3691058873
39.8916 26.0318 21.301 25.8059436374
40.6296 26.1111 24.2588 61.4435080387
43.8989 24.9582 21.3845 28.8664612713
43.8834 25.8128 24.0394 55.6767304106
46.2169 27.2304 24.0194 76.5271964133
48.2148 25.4277 23.6881 40.6920659604
46.275 28.5665 21.6222 29.3815978682
38.9136 30.5388 21.7135 27.3155497165
38.165 29.6697 24.4178 82.4072863362
41.0086 28.7508 21.5036 32.4930960626
39.5437 32.6195 23.9742 64.2626846739
41.0434 29.0542 24.2737 77.3485512854
43.8296 29.7523 23.9507 61.0424004923
44.3516 32.3512 24.3747 104.1093594966
48.8797 29.1849 21.7521 29.6662723891
38.0961 35.0447 24.403 83.0374357229
37.6049 34.7914 21.6104 30.8009896284
42.1554 33.8904 23.6625 38.2492131651
42.5541 36.3683 24.5551 98.9379973291
48.8844 32.6951 24.4446 89.9760623582
46.2373 34.2177 21.3059 31.6270479414
47.6412 36.5717 24.4724 78.3415622921
46.7988 34.1043 24.0847 48.0662161191
38.1434 26.4504 35.722 68.3649451379
38.3017 26.408 38.4148 27.195120553
41.5748 26.7176 36.4967 30.0426168506
44.3997 26.2379 35.7599 79.8037920087
44.252 25.661 38.675 30.0495790675
46.7763 26.8925 38.0811 27.6943353818
47.0186 28.1046 35.54 98.9328303373
39.5378 29.4666 38.3187 25.7680595284
40.0432 28.9172 35.5556 90.5787767948
37.5949 31.2461 38.0148 27.8315877778
43.1123 29.9697 38.4835 28.4752354186
42.0117 32.4903 35.531 99.8622740205
42.9599 29.6769 35.9024 57.1260817433
45.6316 30.4046 35.9826 62.7719642898
47.8243 32.4799 36.086 60.6845998307
47.2022 31.8205 38.6386 32.2332374442
39.6449 34.8982 38.6725 27.734316697
39.173 33.2206 36.3812 40.8154798641
37.222 35.0469 35.6126 95.9062550919
44.9206 35.6607 38.4241 31.8637519622
43.8562 34.8385 35.9071 64.6327007436
42.1533 32.834 38.2923 27.7837504573
41.6462 36.6124 35.3624 128.0761781009
