13.1238 1.90963 45.6222 29.6635637174
15.9505 3.10437 43.1379 28.6800179488
11.2166 10.0122 45.1812 28.9590003198
11.8677 6.02754 47.0039 33.5871662638
12.7448 3.06547 43.3038 27.9382695213
16.4114 14.4365 45.4095 29.1983258759
19.5162 11.44 46.0585 29.0319888528
19.331 6.66449 45.3351 33.260782348
10.4678 2.08457 46.6718 31.1835117941
18.674 6.59781 42.4288 35.8753407665
15.7433 4.76462 45.5267 30.1973881579
18.6296 2.56415 42.6419 29.9011110637
11.9772 5.96582 43.5884 30.0068147696
18.355 14.7816 43.1803 31.8977699372
12.6013 13.4033 46.727 27.4220274917
15.0403 0.158144 46.2437 35.4226321229
14.0284 11.5418 45.4117 29.6764667731
10.1544 3.7302 40.0864 27.4022048219
13.277 11.3188 39.4359 28.9975210599
10.1686 6.41208 38.8785 31.0944477269
10.0833 13.5462 45.7879 29.7003326572
18.2213 0.0749707 45.9527 33.2664191773
10.1523 7.8915 42.8 29.2692766086
19.3917 2.52085 45.4475 28.8436856309
19.2423 4.45849 40.4557 32.1870887917
11.2424 5.14588 51.8915 30.8970887465
11.1497 1.12264 49.31 34.29321606
14.3074 3.16661 49.4693 29.3342287587
14.4375 2.41059 53.6533 27.8190353812
18.9172 12.8725 49.1272 26.2989203653
16.0069 13.8761 48.1674 27.7894728367
11.2973 8.5435 50.9007 28.6164990626
12.5621 7.02013 53.6937 29.5351759257
15.9304 5.10396 50.6013 30.0176469348
15.4711 7.56237 49.4421 31.0751726623
16.2158 16.2833 49.2711 31.985272572
17.3211 6.42874 54.1011 33.8943300904
18.293 7.03943 49.0259 29.4413681167
15.8057 10.9863 51.3482 28.714740267
19.4951 8.19983 55.4299 28.0393360399
12.5003 13.5041 54.0784 31.4196542817
18.4756 10.3551 53.8394 28.216720932
16.6859 11.0794 48.8486 28.996254873
19.0347 14.3916 51.3524 32.9662277999
11.0428 15.026 50.0901 32.5937277482
15.1534 14.1359 54.444 29.3058049748
12.401 10.7063 49.5878 30.6594142331
18.8332 5.49401 51.5116 31.0739262991
12.8191 6.35139 49.6363 30.8574732573
10.4984 14.8855 52.7607 29.8123560823
16.9363 1.78153 54.9734 32.1738886613
10.8103 3.78584 54.5166 31.1549159609
11.2114 7.87549 55.7474 31.4044687678
14.7497 5.29862 52.911 31.0696730933
11.7659 0.135271 52.6552 28.0587210355
12.4776 2.66337 51.6434 26.8503225495
18.2072 0.990098 48.8221 34.3269286468
16.588 8.46214 52.2842 28.2315928788
14.5462 9.03107 53.8666 29.2767618189
13.3077 13.5257 49.4605 34.9378781208
12.971 11.0032 52.6421 30.3445761565
14.1709 9.84841 47.6312 29.866949406
15.6959 0.969617 50.1243 32.8589713394
17.1172 12.7885 52.7864 32.5099074445
18.9289 3.9328 54.8331 32.1638544156
17.4047 12.0594 55.9934 26.4249682779
10.4723 9.93485 53.5792 30.5823004849
9.8484 11.242 47.5625 28.3622697259
15.1615 10.2193 56.2845 30.7853638828
13.1061 2.96167 56.0456 30.0874086618
11.7715 22.3456 7.8778 29.5916837491
11.4086 19.8783 4.7 29.1374392985
19.1498 32.0449 4.58834 30.7199848496
19.6352 16.7816 9.52655 26.415561326
10.3997 19.426 11.2194 31.1432996996
11.3666 26.0868 6.35332 30.7896478143
12.482 19.656 7.22781 29.2189648915
15.8278 21.7008 9.82163 29.9986831981
15.5586 27.5999 8.34198 31.1355727048
10.5655 18.2913 8.62836 29.9016040602
15.4599 24.0358 11.2917 27.5360591397
13.6485 28.8031 4.77749 30.6985138491
12.2155 30.9885 10.6753 31.4657022152
14.26 25.1973 9.01078 28.9720864422
14.1704 19.1486 9.68555 30.9646878014
15.151 18.3631 6.64023 28.7551996602
13.2084 24.0096 6.64659 27.7075724503
16.2126 29.7782 5.6638 28.3420458698
15.8804 22.99 7.29815 30.7745947799
17.745 25.206 7.7807 32.0738899233
11.7973 31.0262 8.06644 29.5329237943
17.6524 18.9439 11.7751 26.8741949863
12.971 28.4827 7.57185 29.9364763593
15.9812 31.9436 7.57003 31.1721107427
17.6928 16.3907 5.28289 29.1766383485
15.8741 28.8746 10.7415 33.620470229
10.4954 30.3462 4.56391 31.9669243946
13.0683 18.165 12.3271 31.8196648651
18.9097 25.5232 4.4336 31.1850191526
16.5278 17.3268 9.09676 27.1019879741
18.0758 27.8796 6.18958 34.1986624576
19.3715 21.2886 4.17533 33.3277316385
15.3907 19.457 3.84345 31.649638325
11.1023 22.0123 10.658 32.2284545072
19.0041 31.3797 7.23557 29.7994349745
18.4921 19.2488 6.431 32.5631624428
18.1369 19.9856 9.03924 28.6741071124
18.791 29.1867 11.1888 34.185821399
18.5222 24.239 10.3649 30.8683173957
11.6232 26.6425 9.47135 31.2405207292
14.8958 31.5188 10.1098 31.2839236053
18.7019 31.8789 11.4549 28.7405046594
12.9841 23.1507 12.3832 29.7127169202
16.6552 21.5446 5.11596 28.969374475
19.486 28.717 8.42079 28.8031969736
13.1885 31.5195 3.70775 27.6682158798
12.1169 25.785 12.1856 30.8040355041
11.0907 26.9757 3.7704 31.9539892019
16.2239 32.4685 12.3756 30.1321050396
14.1667 23.9993 4.05614 34.5861788345
9.95369 29.545 12.7535 30.6539052426
15.2323 27.8808 13.3645 33.999942982
14.2583 19.6031 14.5482 28.4191316257
19.3019 30.0327 15.5139 27.6325948114
10.1574 25.2754 14.1652 29.6511308706
13.0756 22.0753 14.8627 30.1075665628
11.3437 27.6799 16.0068 32.0333823403
15.0643 23.2823 16.3446 27.4611590254
18.3493 25.4082 19.5744 27.9899777191
15.8362 21.3955 18.808 29.0534490058
16.1816 20.9837 13.0918 29.2257480977
10.0914 25.6441 19.9771 36.395977647
16.3292 30.183 14.3126 32.2068703359
13.8472 24.8716 17.9275 30.3089907499
15.2336 27.4304 19.0702 29.1650881241
13.9379 24.1035 20.6287 29.4959372549
17.6663 32.2412 15.8041 27.449619886
10.5683 21.1981 18.9724 35.3200742828
17.5744 18.2337 14.6927 27.0916917632
12.4292 28.357 13.3576 34.4412467285
11.1738 18.5885 14.6803 30.2026317014
18.3302 21.9831 14.2251 24.527589256
19.4323 21.7454 21.1748 25.2491838464
16.7146 26.0036 16.8026 32.2878095336
11.2232 25.2179 17.2113 29.6825735516
18.686 21.0702 18.5514 29.163821294
12.9344 19.5968 19.5393 28.9727381962
18.0692 22.9553 16.6734 27.6099392493
18.9665 28.1279 17.2897 26.8766801027
13.0844 28.8097 17.908 34.6907865226
17.6648 18.6606 17.3909 30.9604249541
14.8083 19.1287 17.3268 30.810253596
18.378 24.3544 13.2554 29.6584316091
11.0737 31.462 18.9921 32.520624938
17.993 29.7348 19.404 26.4306925636
10.7786 22.6123 16.3278 31.2650217701
14.6203 30.8146 16.6584 34.833354109
15.5623 25.1268 13.9551 30.9515932658
16.7724 31.9792 18.4568 32.636254394
11.4487 17.8887 17.4781 30.7171427266
18.2042 27.5622 21.1464 26.19641782
12.8864 19.7861 24.1766 55.0385540423
11.8653 27.1026 21.8997 30.575208669
14.812 25.2066 24.203 67.1134160792
12.7266 16.8139 23.9091 47.5705388287
19.4513 22.3123 23.9319 59.5145182938
16.44 21.5502 24.0232 62.3074783981
10.711 23.391 24.1924 55.7124997405
13.6281 22.6895 24.4112 79.0076011087
11.9548 32.4436 23.9388 66.3563260175
11.7747 17.7757 21.426 30.3363667142
17.6605 24.6324 24.127 57.3546499289
13.9407 21.0288 21.6742 28.0186698347
11.7061 26.0129 24.4279 83.5333055833
17.4791 27.3305 23.7924 49.0941765668
15.4172 18.6998 24.3881 85.8369800045
12.4716 29.6346 24.2708 66.2181169028
15.2334 29.1724 24.1466 70.614274029
14.4698 26.6825 21.6848 25.4212957565
19.4456 31.1825 23.866 59.2032577153
16.6858 23.7762 21.3592 29.4083172664
10.0544 20.2283 24.3054 73.9604434467
17.7797 16.4632 24.4722 88.8243105963
16.4303 31.9504 24.3536 95.8355583639
17.1905 17.5118 21.7724 30.3369548645
12.4183 29.7748 21.2957 29.0026688695
15.5398 29.7626 21.4099 29.8093846838
16.6862 20.3497 21.4117 28.2347052737
10.8838 23.1502 21.3659 31.3730334678
12.1637 20.5913 35.957 54.5805303654
12.5933 17.9059 35.4366 114.6030551743
18.544 22.6443 35.7667 90.070140803
12.989 30.7135 35.4658 91.6402730871
11.2689 23.1625 35.7655 86.4719622935
14.9589 21.2007 35.8742 81.4441018342
15.7548 24.0907 35.7653 82.7494990053
18.9461 30.7064 35.7868 74.4151405538
11.7255 27.935 35.8924 65.0800411883
12.9618 25.5796 35.9501 62.0842400741
18.7015 27.7301 35.9214 57.5786260333
14.36 28.4255 38.3156 25.224454132
15.9488 30.1628 35.6709 80.4159741488
15.8793 27.2293 36.1662 51.3540128075
15.8504 30.8356 38.5324 30.1491690774
18.0176 21.8082 38.681 24.8186396184
16.6258 19.6582 37.527 29.1843692009
15.4137 17.553 36.0425 66.2048819937
11.6555 32.2381 38.2835 26.2729024158
18.5914 17.4832 37.4626 25.0868174005
10.7215 23.8393 38.5001 27.7060839144
10.2013 16.5923 36.1538 38.3364445386
9.76854 30.8375 35.6929 69.1392557267
17.5645 26.2571 38.6828 27.9624094877
11.0056 19.0678 38.0948 28.3590667942
11.7599 29.3792 38.2783 26.4823195824
19.6139 28.9047 38.3958 28.2214996289
13.5202 25.523 38.6202 28.0227743351
10.4645 26.0525 39.936 26.1737250902
14.7237 19.1658 39.8652 31.7015036487
11.2919 18.1841 47.0578 28.3233403943
18.6794 23.62 45.0401 31.4121408154
13.8809 32.4121 39.6714 29.0825500857
14.2497 22.0614 41.015 26.9820164055
10.8671 22.016 41.7478 27.275836466
10.8627 29.7719 45.9649 31.7840089862
17.0187 28.7963 42.847 27.7963387298
17.1597 21.6063 41.3559 30.2931679088
19.3002 29.324 41.2917 27.7669495906
11.8845 32.4359 45.3447 34.1062798262
15.5834 31.9918 47.159 30.860283408
15.1315 32.0559 42.807 30.6623075433
17.5019 28.7105 46.5762 28.7287989857
15.4136 27.5916 40.9671 30.6816615797
15.5649 26.2951 45.8651 31.1257167252
12.7892 23.1455 44.177 29.584909505
16.2747 21.9173 46.5088 29.3154178402
12.5233 32.4235 42.6754 29.1478897731
19.2213 30.7609 44.9486 30.489877385
10.7855 19.0336 42.6371 28.6230085517
11.0341 30.4147 41.7608 29.9739804929
10.2152 17.6723 44.7147 26.4912430696
14.0211 20.4609 46.1127 33.0669881641
18.2358 26.3544 44.1718 27.3204222607
18.1244 18.0627 44.5288 31.3601125049
19.4186 23.145 42.187 26.7523728463
13.2347 20.338 43.4127 31.3141331894
15.3164 25.0207 41.8753 28.6945068617
15.6435 23.8422 44.6797 28.2686810674
11.747 27.4127 43.9494 34.1140755312
18.5233 25.5936 41.4168 26.2943986355
13.6961 28.5129 45.7641 30.6798981307
12.3197 24.5001 41.8149 27.7852497134
16.2073 16.457 42.2726 29.7704590838
12.3855 27.9241 40.8926 29.0522465129
15.7277 30.2921 44.8832 27.0408195869
17.2221 31.7123 40.8266 30.4698897795
18.5569 20.1452 46.0088 31.2711265334
17.15 18.9776 41.4742 28.4934980983
12.9539 17.1354 39.4336 27.5839113791
10.9738 20.9385 46.7617 31.2526836453
19.485 18.6226 40.1926 27.5096691501
13.8523 17.0351 43.3648 30.2994988104
10.3381 23.9003 45.5597 32.9231296175
11.5037 16.5419 41.6023 24.8468556159
19.3733 32.6172 42.8978 32.8614871643
15.9286 24.0572 39.0223 27.9910550903
12.0767 21.5088 39.3739 29.9730637834
11.5519 22.762 52.5035 29.6255365222
13.47 19.4349 50.0559 30.2058447577
15.2315 17.8962 51.5335 28.6955409848
17.3496 19.9429 51.6785 28.2024452805
19.5294 21.8234 52.7445 28.1551149721
18.2219 30.2393 48.7065 27.5030322793
17.7762 24.3317 49.9883 30.6057064071
14.5042 24.9025 48.044 28.5865138773
13.7331 22.0982 50.6144 30.1236458502
13.1912 25.3226 52.7933 29.8858458472
10.8677 27.0139 49.2653 28.7684141059
10.586 32.1226 51.5603 30.6794189153
16.9188 22.8626 53.537 32.5282890964
15.775 22.9918 49.0801 27.2198308064
18.596 18.1443 53.8445 29.2443851087
16.2138 25.2205 52.3158 28.7435001527
11.773 27.9677 52.1199 31.7023369904
14.3902 16.4706 53.5225 31.9918855994
15.7482 30.1676 51.1705 29.3864128373
13.1679 28.5457 48.5163 30.8527315899
13.7426 31.1737 49.3345 32.6494127122
10.1968 17.7039 56.3202 29.8246589789
16.7968 32.2237 52.9691 32.5806700495
16.5024 17.32 55.3476 31.8246658679
13.3714 30.3983 52.8771 32.0156806682
11.746 17.5955 53.9333 30.2922054359
13.2199 19.7267 55.2589 27.1466329064
18.5392 17.1249 50.9709 30.9611248025
17.3338 27.5076 53.5371 30.3509472166
18.724 26.6008 48.4958 29.8956771989
19.5879 26.338 54.689 33.0652489989
14.3312 26.5467 50.1476 28.691509186
18.6038 30.086 53.5419 28.8737386069
14.8927 20.76 52.7361 29.5091049793
16.7166 31.2044 56.1105 30.1240442221
15.0314 28.8558 54.6955 31.552051538
16.9564 23.8058 56.172 31.9874390265
13.5382 26.3918 55.3357 30.8589524718
18.4488 20.3682 48.8554 33.6032932467
12.489 22.1376 55.0498 30.4373913819
17.0842 27.9057 50.5369 27.7043584758
11.6015 24.485 48.1747 32.9666515969
11.031 18.9721 51.361 30.117031962
9.98702 22.3427 49.0144 29.8668654464
10.0002 17.5921 49.2671 30.5649175676
10.0673 26.3778 53.7848 31.6667173035
11.8208 32.6632 54.109 28.0579513481
10.0176 22.0169 56.4114 39.1335159412
14.2253 17.9453 47.6584 33.0822165967
9.99467 34.7247 5.61663 29.772718585
13.6731 48.6319 10.1265 34.089576402
11.6876 33.692 11.2082 28.537035302
16.0223 36.798 5.52983 28.0361126283
12.0024 41.9679 11.9549 29.6484710493
11.9314 38.354 5.06968 33.0216994025
15.2465 39.7402 8.64158 27.6458020284
13.3602 32.7849 6.29421 31.8872883176
18.2803 37.8968 6.29098 27.7524010323
10.2796 47.0696 12.3636 27.3745106172
17.9185 47.2004 10.6894 29.7150402799
13.7051 41.8993 7.09787 30.3383041776
14.0009 46.0337 6.8683 37.1579505732
14.6448 39.3019 5.66698 29.8686076742
17.7152 42.9848 5.90675 35.7296222535
15.6311 43.8746 7.75374 29.876187777
12.6986 44.6454 4.78415 35.1572847006
19.0676 41.8414 8.05981 27.3992591138
11.9802 35.6188 9.39441 32.3767314113
15.0844 48.5085 5.92985 29.4902588659
15.3851 38.2942 11.8694 28.4093174967
13.9326 44.3386 11.5863 28.2850960591
18.8805 44.9954 4.4603 33.2050797223
14.7111 37.104 9.43895 30.3469365938
12.8074 35.5861 5.6843 29.9695027187
13.4797 45.9928 9.60452 30.0095682098
17.3756 35.3842 9.64186 31.8215581164
17.5347 47.4523 5.27194 34.365792271
15.5069 34.8722 7.41327 32.4869239053
17.8332 40.163 5.07438 29.0446010685
12.3223 40.2782 10.0286 29.3119791165
17.216 44.5955 10.004 29.8279939457
11.707 37.6386 11.233 29.8840850045
18.0485 39.3641 8.36155 29.547536219
10.5481 45.9367 9.72229 32.9913352044
19.2716 33.2603 9.28414 31.0984774602
19.2636 37.6448 10.1311 32.7674254532
11.0624 41.3372 8.07047 32.3430998537
14.9757 42.1009 10.4195 28.0610191328
13.4737 42.1054 4.05705 31.4040229908
19.4305 34.7666 3.82378 30.0583185113
15.9946 48.8363 11.4939 35.3019064283
16.0858 35.6321 12.3035 27.7270486937
17.2085 47.4618 18.8073 29.6133821259
18.5971 42.9679 18.0522 31.3624675183
17.0691 37.6658 18.487 28.0202793601
14.8966 37.4708 16.1169 29.3572034302
15.4879 34.4215 16.4515 30.282594139
12.4415 41.0203 18.9224 30.6311885291
12.8695 38.2222 13.8543 31.121253139
10.6208 37.6378 16.9317 36.7196505716
13.5205 40.7326 14.1139 28.2736161554
15.8259 40.2353 16.2067 26.910929162
13.6967 34.2237 12.8513 32.7036335051
15.6462 40.122 18.9388 27.8719801773
16.6894 42.7576 14.7597 29.4166598011
12.6839 42.1655 16.4169 35.9772446488
15.0612 43.6287 16.9267 29.7269575012
19.3116 41.1199 15.8444 27.4291608721
18.1175 36.2836 20.9467 31.5234759349
15.582 47.1082 13.8931 29.4477138053
12.0037 45.4655 13.7455 30.2507258322
10.6053 43.8026 15.1767 33.459777218
13.4766 47.3027 15.1968 30.1738587028
16.1355 43.1521 19.5184 26.3994842754
12.3196 33.0935 21.0141 30.6577024202
17.3315 46.8943 15.8103 28.9858055377
12.6789 46.8732 19.4233 31.8382084244
11.0331 34.8088 18.2142 32.089428836
12.9434 33.0282 16.7051 31.8607547216
15.7088 35.2365 19.2921 30.995686858
18.2909 38.4764 15.914 27.042771847
14.6643 46.1398 17.4831 30.1576813416
16.5533 44.8605 12.6784 28.7338738383
12.9069 35.82 19.8608 28.0763947965
19.0739 44.7145 15.6196 30.6438810369
11.5503 33.7892 14.5148 28.3097575802
10.9639 36.2679 14.5294 28.7818854004
13.0101 38.1135 18.1393 28.1416806432
19.6556 46.3331 12.7643 31.3366320699
15.2569 32.8812 21.1594 27.9995605466
17.3512 35.9526 14.7679 27.0413246617
18.4845 38.1681 12.9016 29.2696421409
19.6044 39.3649 19.9356 28.3210286507
10.2729 48.3406 15.2998 28.2102151464
15.7727 40.8777 12.7538 31.1620424049
17.1525 45.5894 21.0872 28.5359587438
19.626 34.1959 15.2248 28.2454205158
13.4838 42.5541 21.0995 30.2505108065
10.6216 43.46 20.846 32.2880022419
13.308 48.7397 21.7127 26.7704339899
18.4616 34.5736 24.2586 82.9508456733
14.4281 33.919 23.7078 45.8969857605
19.1565 39.5167 22.599 27.7109161611
19.2964 37.2049 24.1383 77.816233495
17.1884 41.765 21.8119 29.4482946705
11.316 37.2446 21.6975 31.7726635075
10.8283 46.5962 22.1397 26.9110016122
11.7675 48.6595 24.5572 91.6474213999
13.1729 36.4515 24.4265 88.4624511707
13.1324 40.5732 24.0835 60.2431665324
18.5346 42.9412 24.1282 75.3405320039
15.0155 38.5602 24.3654 103.8281278291
12.2212 45.1743 24.2589 72.2396599672
18.4011 47.7451 24.4068 85.2903896283
14.4503 43.2106 24.3064 83.0822622376
13.3985 39.186 21.3391 28.6494253088
10.4525 39.9707 24.1577 84.082765461
16.5809 45.2705 24.3058 61.3126216098
18.0733 33.1319 21.6682 29.7814245442
10.5189 37.248 24.5642 99.3478615048
14.508 47.3066 24.5087 71.2537776388
16.3602 48.4388 22.0935 28.6745894899
16.1613 38.8795 21.867 30.3427017689
14.1308 45.3755 21.7836 28.4066503119
14.6088 37.3489 35.737 96.1871045346
14.9054 45.6484 35.7086 81.3795254143
15.1762 34.7903 36.1758 54.0168750836
10.5202 35.3909 35.6973 87.1372519272
19.3562 35.0844 35.5598 104.8807882414
13.6487 44.2664 38.453 29.670576912
11.7382 37.5734 36.431 48.2572014432
17.2016 41.5718 36.0412 55.0878598799
18.8306 37.3194 37.2215 28.8222528406
17.3618 38.77 35.6548 91.7454159778
17.3389 33.0942 36.2058 43.1326352931
14.7248 38.7408 38.2396 28.6454826113
14.2719 42.5188 35.7177 94.218388276
11.8309 48.5763 38.3302 28.0467840694
17.478 46.0461 35.6718 64.4263821782
18.8239 43.9233 35.6289 91.6645175672
16.1692 48.948 38.2369 27.7658735783
14.307 48.3205 36.2574 46.6971639648
17.8792 46.1955 38.6099 28.761987564
13.5309 41.3755 38.3609 27.4156156342
11.3823 42.2007 35.9494 77.5608514359
10.4112 44.7407 35.9527 67.1389118049
11.1165 47.8721 35.6355 87.1225184421
12.6142 33.4877 35.9205 60.4917720396
17.8239 33.7764 38.7518 27.8625292764
17.1274 41.4011 38.7964 29.4865042409
19.6625 45.0594 41.4414 29.2081870012
14.9174 36.2132 46.212 29.2436711163
19.1258 36.3675 41.8097 28.7652561129
11.285 41.374 45.192 33.0951237876
18.4199 39.0085 42.0169 30.1889527222
10.1944 38.0142 39.9899 29.5378026125
14.6461 44.6976 46.287 30.2536167088
17.3776 36.4589 39.5114 27.9970694255
14.1114 47.1581 39.4928 30.0426717331
15.9394 39.0382 40.7549 28.7171294285
18.406 40.3031 44.4891 30.2795188486
11.923 44.2632 45.1251 31.4755933087
11.4664 43.6701 40.5092 28.6893616748
14.5866 41.5028 41.5262 32.9081868848
19.5433 41.3577 40.3078 29.4161365265
18.0944 44.776 45.4382 34.5180585225
16.4566 43.3264 42.159 27.783690873
15.5437 47.7758 41.9724 29.7108862364
15.1552 45.3124 43.2811 33.4595553593
18.8152 42.4463 42.8157 27.015221016
12.2367 45.1122 42.6501 30.7508364812
16.2415 43.7143 39.3363 29.5667437399
18.1922 47.2948 40.9319 31.1994052879
9.99369 47.7761 40.336 27.6856569174
10.5554 37.3835 42.8093 31.5625833069
11.6912 37.9318 47.1012 31.9350549185
9.92173 45.551 46.5722 30.8400968586
15.8831 34.7187 43.9666 31.6908304654
11.2419 47.5471 42.7224 35.3221380888
13.614 33.8714 47.1458 32.1108725515
17.4013 35.7179 47.3282 29.71157568
18.4212 34.8778 44.2647 31.6331388902
13.6961 40.3559 43.9318 34.2488913644
14.9049 36.4309 41.9368 31.7444786951
13.1862 37.6059 44.1307 32.7401680386
12.0174 34.9848 41.3626 31.497223817
15.8927 40.7484 45.6016 32.43783322
9.99172 33.7154 39.7529 28.3641447846
14.7644 35.1232 39.1034 26.8507072159
15.2722 38.6881 47.3769 31.0789907748
10.9184 41.0063 39.2231 32.3262228056
12.7502 36.9159 39.1255 28.9860484659
10.0291 42.1094 50.9574 31.0358096035
17.6669 33.9259 51.1156 32.2644375246
14.9357 33.2636 55.032 30.9649809721
17.4531 37.7149 49.4621 28.7409928671
18.4145 45.4873 50.0793 30.4687426536
13.3556 36.2179 51.3162 30.9258691376
13.6013 36.1298 55.7307 29.7882430974
16.0476 36.3169 51.3718 31.9570084147
11.6344 41.2961 55.1776 28.9212690773
12.0845 44.6349 50.9842 30.9264343966
15.0504 42.4331 47.8294 30.6399189276
15.0159 45.1535 54.0537 32.2150010687
14.6817 38.5111 53.8717 31.4374795121
19.2514 43.3884 51.7488 31.5286006075
17.1905 40.4428 49.4445 30.7891468295
11.4098 47.133 48.2979 33.0179749986
12.6853 46.0105 55.2096 30.6190904511
10.529 47.2397 50.9136 27.9488535918
12.5341 41.8968 52.6724 29.5473825269
15.9374 47.0942 49.6033 31.7373381624
18.5515 47.2984 52.4848 29.3525293695
15.6554 40.6271 55.4904 33.8932600111
14.3078 46.6366 51.7717 31.742588166
12.8752 39.1811 51.5481 29.8232135812
16.8097 35.4991 55.8825 32.2724250051
17.2916 37.1761 53.6893 32.8587337945
11.0332 36.3078 49.2772 28.9839042949
17.5995 43.6609 47.8804 30.9111488083
11.9401 35.1624 53.6739 28.5875787972
13.3115 48.4424 54.6845 28.5695311415
13.4776 40.3189 48.9751 30.8807286383
15.2463 42.458 53.5118 34.5944971025
11.3459 38.445 55.0065 29.7799434339
19.2922 39.3417 53.5417 32.7315270788
15.9982 48.7606 52.6895 29.010703732
17.8429 33.2319 48.4739 28.7833710878
17.5409 45.9229 55.0002 33.9707772895
17.429 41.269 52.0998 34.9860553376
12.5929 33.6917 49.8579 32.8038660288
10.6772 44.6451 53.737 28.6909039072
10.2497 38.1641 51.3835 29.730309815
12.242 43.6126 48.2951 28.7618354527
18.4886 48.6616 55.5444 28.6142997252
10.8945 40.6667 47.9264 26.9390182573
14.0621 46.9705 47.7337 30.9630935701
28.9913 4.2405 11.2863 32.958110766
24.1929 13.8229 6.42347 27.2074591662
19.9817 3.94692 7.74048 29.9882795733
20.9957 0.198719 4.31383 28.6828335797
28.6968 0.812328 7.74776 35.2402619892
20.2457 8.0848 8.2425 26.1221106011
25.1006 8.36341 7.14546 29.5565247625
26.4308 9.59181 12.0023 33.78257928
26.6286 2.812 4.70509 30.9604814646
26.7552 10.8173 6.11244 27.2055049032
20.2762 15.6834 4.61997 28.7009747255
28.2082 15.2234 7.23411 28.7443709401
26.3357 15.6037 4.8123 27.8481385098
22.1298 11.6122 6.01591 28.0076676302
25.6746 9.21477 4.3076 30.5389336511
27.588 7.27723 10.9578 28.4658585216
23.1799 11.5739 9.69256 31.5013190021
24.6694 1.76279 6.45698 25.3416946629
25.5196 12.4011 8.39856 27.6578221468
22.5249 15.6824 7.9747 25.817522234
27.3887 10.9056 9.67766 29.1971167843
26.6803 14.9187 9.42625 31.1080833268
25.742 1.04552 9.13795 36.2537903458
29.2717 8.82021 6.06127 29.6417793154
22.0905 1.97278 7.31392 28.5325218407
21.4146 2.6861 4.38351 25.7481419659
21.7068 14.0773 10.0059 31.0471219598
23.7247 4.13568 4.40605 28.0379636004
20.7299 10.7552 11.3064 28.0379175517
24.4044 5.82533 6.61247 27.873604618
26.6294 3.55025 9.99569 30.9673501065
21.6093 6.96444 10.2475 37.7710784
25.0795 5.25993 11.2524 34.440889146
22.7198 4.88046 8.55731 33.3277587485
22.8723 9.55923 7.45791 28.9993813508
27.5061 7.12553 7.76839 31.098729135
26.7072 4.30539 7.36896 27.673535563
28.8674 14.2529 4.11609 28.2195784734
21.504 6.98017 5.66589 26.287434544
23.1938 7.74383 3.75774 28.6823077401
19.7044 1.53739 11.2867 28.2340552438
21.6238 0.617966 9.7048 29.4213147227
28.9546 12.9033 10.5909 30.6408273759
20.22 13.5117 6.61789 26.6740527181
23.0834 15.2438 3.9018 28.3936311619
26.9086 14.1794 12.4619 32.0285659779
19.8428 4.83172 5.13325 28.5198785767
24.5512 12.2679 3.86931 28.4836714165
20.7607 8.41333 12.4495 31.4766499439
20.3972 3.97273 12.4604 36.6963114253
27.5846 0.442304 16.7768 30.8652580316
22.9535 11.4207 19.0555 24.9888796419
23.0306 3.76899 15.2857 32.821223454
20.2631 4.94052 15.2805 29.1254108989
22.6002 14.3458 14.2441 29.6100605218
23.3531 3.71714 12.61 34.4468401883
27.5954 6.68319 17.7976 28.9799675002
25.0295 13.0022 13.86 29.5043998333
29.4454 14.1244 13.6635 26.6396749249
20.6328 7.72399 15.9048 28.8094213161
25.1579 5.50339 16.2729 28.9059479965
28.897 12.8218 16.3146 31.8078583957
20.2443 9.49488 17.5599 25.3495410965
20.0523 1.45222 17.5682 28.695200139
26.0626 9.30012 16.3147 26.4388951729
28.4469 9.23165 14.2438 30.1488252445
19.9906 15.2755 16.8289 27.2931173569
23.6677 9.38302 17.1835 25.5635890516
26.2349 12.0606 15.9623 27.9894665723
27.3339 9.50619 19.113 28.9657277533
22.6939 1.27114 17.071 28.9544358601
25.4439 6.96863 14.0902 30.4458879695
20.9566 8.18202 19.7778 28.5559996344
24.8952 1.51233 19.0256 28.7352692088
26.8661 3.18248 17.7286 30.7058901459
22.8739 14.1186 17.2195 26.5552767765
21.5423 3.9532 18.7627 29.4728427909
22.548 6.39975 17.582 26.1047183579
24.7344 0.950549 12.9072 34.5890929489
22.1646 11.5773 15.3363 28.5649920502
28.1994 3.80204 15.0611 35.1894048428
28.747 4.16202 19.3658 27.5059636246
28.2174 6.21085 13.5227 33.1289717081
20.2621 12.5975 17.9773 26.8438662959
25.3866 12.5349 18.3509 26.0882736457
24.5638 6.93771 19.3703 29.1488791186
27.3845 14.4966 18.4795 30.196654704
22.9542 2.5648 20.7225 24.0503465101
23.0823 8.99132 14.3059 28.4141999557
24.8266 16.1132 17.5004 27.904150783
28.9402 15.9382 16.045 28.080087492
23.6513 9.10782 21.0006 29.7457499531
23.7908 10.8294 12.5021 29.7467086402
20.5228 14.7639 12.5256 27.724468661
21.3586 0.250384 21.2157 28.7845168472
21.5488 12.1189 24.2053 69.9188191437
24.4631 13.0993 24.3208 63.3257255058
23.2383 2.31346 23.5437 41.4019255221
27.6091 2.96776 24.4327 91.7493938462
28.9691 7.94232 24.0892 77.2129271371
21.291 4.85893 24.1798 70.4960474419
27.5988 13.6909 21.3702 29.8125550088
23.8098 5.94999 24.0925 78.68827102
26.9533 5.62168 23.9758 64.9563367413
27.2964 5.79508 21.2356 31.4778627149
21.3769 12.5004 21.3891 27.836410905
23.3888 8.53735 23.8075 43.1150505987
20.7622 9.30642 24.1862 80.2686664303
26.025 2.69848 22.2499 28.6562722653
25.1089 10.4676 24.2881 84.7777510391
27.9493 10.4936 24.0045 57.6036499095
27.1806 14.0693 24.5661 84.5625831702
29.0889 8.2328 21.3431 31.5636387279
22.7008 15.9147 24.2443 64.7415408427
25.317 0.30856 24.4723 104.942185775
24.1466 4.95529 21.5295 27.0335908529
19.9355 10.1515 21.781 27.1580820921
24.206 13.189 21.3841 27.5803913858
23.7636 16.0198 21.4724 31.397533569
20.9891 5.55635 21.1719 27.0045349825
19.978 2.48472 24.2945 78.6999850991
28.5411 16.2769 21.2965 28.988080455
29.2381 11.3996 21.3678 28.0435247331
25.7396 -0.0996181 21.6874 27.3158768138
26.0022 10.8289 21.3484 27.4996863788
23.8444 10.8357 38.803 30.1007407893
27.7485 1.19115 36.4437 40.4276341874
22.0586 8.4443 38.5799 27.6594929182
23.1804 14.8953 35.405 104.5823160693
25.9779 13.9584 35.7655 77.9147401271
20.4198 0.259164 35.5705 91.6556612814
27.9304 16.0905 36.3573 48.6139351705
24.4102 10.9851 35.913 73.0482983333
29.1228 3.76939 35.9785 66.7113596205
20.1174 14.5047 35.7926 68.7702326802
24.5031 15.0458 38.1902 30.7401012633
22.0312 7.48392 35.4422 108.687376286
27.754 11.4198 36.4083 38.6488303073
22.0947 4.9436 36.2235 57.4106444469
24.7354 3.99806 36.7106 37.4324846076
25.1416 1.41489 35.9764 87.6321311658
19.7081 3.14428 36.021 55.3431976444
21.6983 10.3524 36.0294 56.001185881
27.8547 8.56287 35.8441 86.6949674897
24.8678 8.26419 36.1619 46.9579220588
26.9692 5.68735 35.9573 80.7131598092
19.8795 14.9392 38.5463 32.8709046436
28.0101 5.52426 38.6672 32.0254499374
25.8481 7.50245 38.6198 28.9108760926
25.9771 4.05082 40.6674 28.6022408981
21.2016 14.6658 44.3323 29.1424961585
23.5711 2.27213 43.1812 35.1197882789
28.957 2.73659 43.5832 28.4185964129
26.7561 9.08039 44.1337 26.7946810485
23.6021 6.53976 39.7053 28.1217814586
22.6971 7.56307 42.3523 33.1454312093
24.8918 5.61691 42.8851 31.7110706751
19.7662 0.701437 41.6974 32.0232277133
20.4254 8.55611 40.905 29.7867947776
24.3701 10.1257 42.6743 29.1499937947
20.2801 11.2518 41.6166 31.327137756
28.6113 8.63605 41.0623 28.8418294394
23.766 13.1168 42.7342 27.3511595309
27.5788 6.86915 43.0044 30.9467149311
29.4772 5.54015 47.5536 33.8378919346
23.4831 13.3398 39.9142 31.3297186908
21.4471 11.9139 43.8622 27.5104008358
26.821 12.3088 43.6552 26.9148706343
29.0369 11.3543 41.9644 28.9933144813
25.1838 0.287133 39.1111 25.9084263042
26.2541 14.5829 47.2453 25.223797698
26.2591 10.087 40.3122 30.840294287
22.7037 5.24138 47.1099 28.0242180753
28.4629 16.1913 38.9848 29.5961071854
22.1971 3.01531 45.2256 31.9749847194
28.6397 15.6849 42.3544 28.7830767251
26.1094 2.23912 44.6339 31.9042703284
21.7079 4.49665 38.8965 33.5013901005
22.1135 7.58562 45.2857 30.4825535057
29.2348 5.35795 44.5555 31.4513348669
26.432 14.1172 41.4491 31.7876303973
24.9721 5.59575 45.7326 27.3836671748
24.2664 2.9101 39.3369 30.2125748651
20.946 12.3345 38.8634 28.8780875252
23.33 10.1735 45.3532 28.6242859171
23.9888 15.0839 44.963 27.6326810388
25.2508 12.516 46.001 26.5867341562
25.5208 8.13118 46.2912 28.6488986617
28.3064 2.90254 40.9439 28.7775631626
28.3229 14.5567 44.7976 27.8323619319
27.7981 0.593783 39.3245 28.1863417066
19.9652 14.1047 47.0101 27.3830582362
22.2922 0.689595 46.8006 29.2890859232
26.4003 2.82375 47.3459 31.0551961959
28.895 12.9408 47.6116 27.7071562766
21.1059 9.67547 47.5331 30.4236795932
20.8226 0.506158 39.0283 34.8155344454
28.8352 11.3717 39.0149 31.0138993905
21.0845 6.12113 54.4103 29.6174850387
20.0682 12.9062 56.0969 28.8192291287
28.4036 1.13543 48.5566 32.4399312166
25.3783 14.6404 54.2511 32.9961057024
21.0657 7.35283 51.8027 29.1055597188
24.5624 8.23928 49.2187 34.6223723909
28.7039 14.1403 53.9897 28.2731787405
20.8945 10.0513 52.5842 29.7907019246
26.9661 3.94867 52.1551 31.2629207061
27.3246 12.8622 51.5312 29.3514751314
25.6144 10.7101 50.2954 28.315324265
28.0335 16.1236 50.0862 27.0240753404
20.7496 11.0784 50.1357 32.0047801204
21.3179 2.50546 54.0995 26.822822459
21.1541 7.02579 48.9074 29.4645623483
23.3696 11.095 54.1053 29.9208760522
25.4853 14.7079 49.8946 27.2025651916
23.2075 13.6038 52.5407 27.612996792
26.7139 7.58786 54.7578 31.6970401931
24.0544 3.02794 53.822 31.2794541792
26.9576 5.62338 48.1391 32.2211049573
20.7402 14.033 53.5282 28.9564436947
20.5163 3.00357 48.214 29.7823780904
26.4539 6.07023 50.9779 28.1809614547
22.9971 14.3881 47.6891 29.6728781998
20.8706 3.35553 51.4831 29.433850545
25.0733 9.17011 52.8136 27.9510299535
26.6949 10.8371 47.8413 29.8102352966
24.9356 2.14079 51.2126 30.8822508423
27.7144 10.4874 53.4415 29.2931450793
23.1615 12.4737 50.072 31.8640972394
24.1039 6.90341 51.897 26.9696548053
19.9841 0.666657 50.8168 32.5232960787
29.1604 2.2618 51.2748 35.2162260173
24.1608 5.77901 54.7033 28.5702665507
29.251 9.17113 50.0739 30.3768813958
24.3305 1.41039 48.4473 27.0139544321
24.5627 1.02809 56.113 30.7918040694
22.9514 4.05103 49.98 30.8190765839
28.371 7.88979 52.2256 28.0442762302
28.3154 3.54022 54.9738 31.3629868131
27.5122 11.9876 56.3306 25.7357877081
28.9515 5.74531 56.1394 35.3293279184
21.5334 10.3925 56.063 27.1602039236
26.1625 27.924 4.36387 34.3108384901
25.4232 17.984 6.22513 27.4176550072
21.1138 18.6384 7.96171 28.5949306403
24.3042 20.0982 4.40139 27.5698336806
27.7844 31.696 3.70181 27.0291556618
20.6901 25.2695 6.7902 31.8056827873
22.0772 31.8861 7.97807 32.2964592757
23.073 18.0842 10.5646 29.4900138769
24.5078 25.4746 5.50017 32.0096601316
27.2016 21.9062 7.96772 31.6876851496
28.627 21.6221 5.71306 28.6522544928
20.1476 21.9205 10.1794 33.3420336662
22.8709 26.8148 10.9577 30.8789193386
24.0291 32.4898 3.85942 32.6134329194
28.7962 18.4803 10.5512 30.3779397009
22.2955 27.2189 5.68163 32.8419900608
29.4225 29.0555 8.72641 29.6271633079
24.9709 32.1767 7.33799 31.0188331408
29.4736 30.9495 5.85651 31.4303432116
25.7063 30.3416 5.14557 34.3084853285
22.4491 28.9024 8.08978 35.5726143172
28.5639 17.9877 7.10305 26.6440465387
27.7236 25.4219 7.22035 27.1697950309
20.5331 26.2872 9.57744 31.993711604
23.359 22.5115 11.251 30.7810175181
26.6142 19.283 8.81888 32.5650459017
29.0902 28.136 6.02048 32.7833748556
24.724 16.8242 8.67791 27.0187096332
22.6322 20.7824 8.99533 32.5674149198
25.1267 23.8473 7.60377 28.5874840871
22.4186 17.8012 5.51843 31.939611404
24.3739 24.624 10.0785 30.662616985
28.444 24.5873 4.6287 29.0847742988
28.4984 19.0367 4.55997 28.9625125907
24.8199 28.9083 9.80831 30.8000731872
26.907 27.3035 9.12738 32.1481195545
26.9623 25.2937 10.9933 27.9069497961
21.2297 23.0752 5.02039 31.8280542957
28.9376 31.772 9.04112 27.3496796645
26.1369 31.362 9.77237 32.2647826638
23.4335 21.8126 6.28349 32.4750502422
20.7718 17.6374 11.8311 25.7849282036
29.3537 32.1264 11.5663 30.8168523899
28.5767 23.3497 9.93601 32.3158048368
23.303 29.3325 20.8849 29.6013278064
22.2818 18.7221 17.3485 30.6257241779
21.26 30.9033 17.7061 34.6922346392
26.692 17.2008 15.435 27.6043225959
22.6164 25.6928 13.6029 31.3401263581
23.4025 17.169 14.8591 31.8774017314
21.8954 22.2909 15.924 33.1145713855
27.6044 22.2718 12.6083 31.470062694
26.3151 23.7488 16.0551 27.5942168966
24.9503 18.1178 12.5148 32.1481561684
28.078 30.1135 13.1181 32.1722681782
25.0918 21.0403 12.9228 32.0459435483
23.8798 29.2237 16.6 30.7039832202
28.6076 23.2497 14.805 26.1193545837
24.6578 26.1078 16.1689 27.701186368
23.6525 23.2352 19.6654 30.201096597
26.7374 17.82 18.8666 25.4101592522
20.6596 29.2592 13.3323 31.7254452684
22.581 24.846 17.527 27.7611818791
25.9711 27.7066 17.8417 29.8725288538
28.3927 31.1821 15.7827 33.0880994514
26.1604 26.3661 13.4547 31.6877242707
21.414 23.3405 13.0796 28.8559286919
23.722 20.3192 19.8797 29.7427327016
28.5579 26.3396 17.2713 28.4187360374
29.2103 21.3453 17.1337 26.6947822917
26.2462 31.5417 20.1303 29.7945086109
24.575 21.632 15.3813 29.1154919343
28.0269 20.5052 19.5758 26.3549890188
20.1308 19.8888 15.7692 26.8795892554
25.0916 19.8652 17.4337 26.6822790883
20.0608 25.3286 16.9594 24.2403853625
25.966 31.2427 17.2393 32.1138133485
26.2415 22.718 18.6956 26.7588268578
27.1377 25.0318 19.628 27.4115589176
27.6469 19.9213 15.3238 28.343425564
20.5832 23.7505 20.0759 28.8684231555
21.6648 27.7472 18.2469 30.5212846243
25.5315 29.0242 12.6018 30.0186572626
28.8292 25.9557 14.4512 26.722739584
20.3549 17.1396 14.7638 25.8994056853
23.5376 29.9755 13.9022 31.0975686155
22.2386 16.5384 19.1653 29.8371940358
25.4105 27.4534 20.4252 28.2221315372
20.2275 26.3904 14.5634 31.9417244625
21.3924 19.5779 20.9583 30.3870902637
20.7719 32.4798 13.1322 29.5461715805
20.2679 30.6667 20.8096 28.8877065802
27.4713 16.9864 12.6369 28.0314109712
29.3823 17.2156 18.5335 29.1896802741
23.5717 32.6299 14.2834 33.0802607562
27.4547 29.138 20.8647 32.4330390312
20.0142 20.2709 12.5449 29.3517546779
24.3821 17.9733 24.6255 95.516769036
20.4732 17.5622 24.1978 75.4363548346
28.6759 25.2142 21.952 30.6935424456
29.4093 17.7674 23.8494 37.7504410456
21.3251 20.2184 23.6087 40.2906445845
24.2318 20.8526 24.4009 71.0284811579
24.0948 32.1404 24.0764 58.1870952533
26.8784 21.8132 24.2329 67.1532213348
23.2812 29.3894 23.8886 52.4087191136
22.4853 23.2891 24.4768 79.072801732
24.8103 25.4209 24.3668 65.8996451081
29.3024 20.482 24.0682 61.2004942277
26.8312 31.8482 24.5012 104.8711390341
20.5204 28.3576 24.0905 71.3587679365
21.9004 25.2615 22.0538 28.3523730191
20.2992 25.4216 24.5298 89.5465737678
25.5563 28.0986 24.5352 98.4234366134
27.8243 29.3289 23.9302 44.1117054272
27.3769 24.4539 24.4206 92.0771863143
25.9882 20.3624 21.7028 31.1002548749
23.7275 32.2343 21.3079 28.560346587
26.1193 17.5648 21.6579 26.4948495891
20.1387 17.0481 21.4099 28.7399006375
27.0993 16.6741 24.2836 65.0029794262
20.9684 27.6718 21.354 24.9458513059
24.6887 24.9565 21.778 29.7961625592
20.6241 20.9566 36.7605 30.7411461457
19.8824 25.2109 35.7983 57.4836624525
25.541 21.2939 35.9202 72.7152913398
26.0668 18.4755 35.9583 75.8177110961
24.0332 30.1746 38.8547 28.6775132696
27.094 32.0335 38.4626 27.7541198444
25.6484 24.6195 37.9077 29.965661523
24.7756 26.7662 36.1774 61.706514366
27.8663 23.0579 36.2161 61.1732300124
27.9647 26.1613 36.5168 53.8737093877
23.028 22.158 35.668 81.9901230081
26.0995 29.1809 36.7939 45.6347685915
21.7028 28.1055 35.6155 77.5445417219
24.6936 31.4192 35.8806 89.4182513658
23.4133 17.5583 36.0029 54.9481703646
22.1811 30.9428 35.8308 60.7914854968
22.6332 25.0568 35.2568 104.5440119718
28.3863 21.6883 38.7068 29.2968592914
20.4717 18.35 35.7893 102.4768059101
25.7135 20.3019 38.5758 32.045636147
22.8196 27.3706 38.2275 26.0220462199
21.9144 17.1232 38.4517 30.7369193812
21.4039 31.0603 38.5099 27.3320314857
19.832 24.1239 38.514 27.3083524872
22.7753 24.2914 38.2192 27.3015209199
20.3486 17.1288 42.7247 29.9481203665
24.4711 22.7853 40.7835 27.8010088081
27.0682 23.1994 46.2042 29.2215808257
25.8804 20.6167 44.3601 28.8329594371
27.3146 17.9905 43.4119 28.636100876
27.2849 22.8063 41.3274 26.6247644138
20.4964 21.3811 44.3164 30.8356151389
22.8014 18.1043 41.1514 31.0553074011
27.9603 20.4726 46.2842 28.6076905931
26.6851 25.3997 42.4252 29.7413291479
24.7518 27.4425 40.4956 28.3991715172
20.3908 28.2244 43.9953 27.1984864903
25.8146 17.3944 39.3562 31.1266920591
27.3368 26.2723 39.7413 26.9362658759
23.3163 31.2472 46.087 31.7572177014
26.9177 28.2139 44.5586 33.3945252457
25.6049 29.3349 42.4193 29.2170885497
21.3746 18.4974 44.6409 28.0503406693
21.6377 31.2464 41.5793 32.3405812352
28.4335 20.402 42.1319 30.7845476751
20.6075 30.5718 47.1696 26.1521249432
20.8 25.2588 46.7227 29.1673745688
20.7706 26.7051 40.1805 26.7378383638
20.4652 20.9612 40.119 27.4883371561
28.902 29.9776 41.6729 29.3969620604
27.1179 17.2609 46.0981 26.2312903094
28.1149 29.1329 38.9147 28.8827731176
29.3925 27.0541 43.9948 26.2836231246
24.2254 18.0927 45.2718 28.4316812296
23.1496 29.6004 43.6485 30.1002060345
25.0265 23.5352 44.4578 26.326451862
29.2026 24.1887 43.9521 27.9716006952
25.5059 31.3853 47.6306 31.6210694526
22.5489 22.9488 45.6799 31.0481531142
22.4706 24.1064 42.5972 33.2273695324
23.691 20.5181 42.2322 32.7697784523
27.2887 29.1085 47.2452 34.1376064421
22.2752 27.4577 46.1394 27.3690901507
24.7843 26.2221 45.8296 33.7470709781
22.6801 26.8925 42.2793 29.3537791272
22.7885 21.4139 38.8999 27.7061628089
20.8086 17.3421 47.015 29.8161892872
25.8368 31.5018 40.8604 25.8308259454
25.18 16.7303 42.2813 29.4696717074
29.3617 16.4667 47.5455 29.3662003985
22.9864 16.7211 49.1378 29.3130575856
19.9049 22.6653 50.1897 27.2978752362
27.1898 18.6506 49.0822 27.9894401496
26.1449 17.8488 55.8715 28.4435709366
21.0552 27.2087 50.059 31.9445162036
25.2515 18.8778 51.5916 29.6035583861
26.8815 22.044 56.3542 29.379606838
24.6307 26.0035 48.7123 31.2833909196
22.4296 20.8694 50.1397 32.9474552934
25.826 23.2914 52.1327 30.962090912
20.025 29.6309 51.1202 32.7579377429
21.8558 23.9852 48.8847 27.0848916852
22.4927 24.9793 51.4111 31.0274660139
27.838 25.078 54.6593 29.1054728065
24.74 26.0701 53.019 31.6826862602
27.0518 27.5949 49.5306 29.1558362233
28.9103 25.2644 49.0965 30.6578320289
20.4695 18.692 49.5968 32.526029018
22.0764 32.0758 54.4712 27.8803875228
24.0082 27.7038 55.2823 29.878701728
25.8986 28.4679 52.2896 28.7750119112
22.6493 30.5961 51.8371 31.0828758199
24.6147 29.9783 49.8107 30.9497210656
27.9904 30.5877 52.0415 28.7785624109
23.5548 17.2522 54.4122 26.0710039288
28.7049 20.7577 49.0886 29.1439720626
27.1983 18.7991 53.4255 29.8220325463
29.1642 30.3286 54.6489 30.4399116787
27.6327 21.7479 53.9023 27.4085559409
23.9974 21.0245 52.6223 30.1391783683
23.9447 21.6434 47.8466 32.0007047291
20.8449 16.4135 54.5426 30.960191355
24.5879 18.5671 47.971 28.960272575
25.7064 23.4901 48.7659 28.9046800028
20.0692 19.9334 54.7715 30.3394877794
28.9649 16.8842 52.5002 29.5228819161
22.9974 19.9434 54.839 27.399552619
24.536 30.2229 53.9913 29.3488892121
28.9876 27.6182 53.8412 32.3394545782
21.0685 24.0147 53.5797 32.0971714933
28.0538 23.0627 50.4376 28.6497930457
20.3392 30.4246 55.5284 31.3501658496
22.7286 22.9167 55.4072 30.0721788848
22.4641 28.7385 48.5233 26.7698033958
21.4322 27.8762 55.9074 32.0868817814
25.2152 24.3164 55.6234 27.6730428777
29.4193 28.2256 51.1468 28.0422797502
29.2291 31.9733 50.1318 34.1212652044
26.5518 32.6058 53.8156 31.0995759678
23.9837 16.4697 51.7723 29.5389386607
25.3799 48.193 6.29061 30.3390290753
21.8472 33.7949 5.66126 32.0953225134
24.8662 43.6916 6.04729 24.8751420552
29.4436 40.0318 5.03391 30.9323252994
25.871 35.6214 11.2099 33.8398483733
24.0938 45.8349 10.4362 31.6732318572
28.6212 34.2742 4.93171 30.7111403689
25.952 34.6254 4.21067 30.8207479061
19.7677 43.678 9.87627 33.8283189814
26.8909 38.5799 8.14718 31.7448308853
24.0008 38.5457 6.76871 31.7658790395
22.9608 40.5768 8.42387 30.0703497621
25.5495 41.8775 7.57244 28.2668283394
27.315 44.5925 5.43775 31.6066688829
27.5204 42.5909 9.34253 31.4763851416
26.6717 40.1416 5.77685 30.3434392012
22.051 43.5383 6.3711 27.3691282423
28.1871 47.6377 6.00262 29.7793328248
25.3223 39.5845 10.2895 32.5827433544
24.3549 33.3025 11.417 36.5324625472
23.9836 37.6095 11.4617 33.7072933769
20.9376 41.1638 6.37195 30.5495319338
21.9927 33.6711 10.1028 28.9010687274
23.8721 48.5397 10.5018 31.1322311245
29.3137 34.2772 7.60008 29.9445804249
28.987 45.1009 10.88 29.9746563273
22.8597 35.936 7.35378 27.5865196061
25.0575 34.7767 6.75415 26.6384720234
22.0142 36.5967 9.9148 30.4228752425
21.5723 45.4488 8.12271 32.7898279496
26.9049 35.543 8.47684 34.1539021868
24.3621 39.3146 3.90791 29.1812075049
19.993 47.6896 8.8788 30.8781638284
29.192 40.2498 9.29447 33.1245112208
26.0197 42.0337 11.8382 31.9337696703
24.1918 46.1386 7.51027 33.1870593837
21.4292 44.9748 3.98364 27.8063797885
21.5822 41.4058 10.5274 31.8386682185
29.269 44.9594 7.87931 33.6279759255
20.5054 36.6038 5.68096 31.208172937
26.4192 45.0687 11.7265 34.0974905372
23.0744 47.3281 4.09065 31.0258500282
23.3001 42.7061 12.1612 31.3340040648
21.7078 38.2887 3.86421 28.4273382635
24.3092 42.3646 3.69176 29.3501469111
24.1422 43.5296 18.1025 29.3027651053
21.9567 38.0751 13.4735 31.8352691866
27.1133 48.9991 13.9667 32.2068095639
20.4727 49.0127 13.4208 31.9293115848
24.1684 44.0648 20.8039 30.7400135601
23.9195 47.6792 18.115 27.5085520186
25.4479 38.9988 21.1443 30.1047434133
20.5198 35.6859 12.7471 33.7892842292
20.4937 40.538 13.1444 35.8675554033
22.8423 38.6192 15.9264 29.7738211297
26.7861 47.8921 18.8203 27.3293442344
27.2813 35.918 15.7861 30.4742852712
28.5142 45.687 18.7221 30.2748664694
27.9434 33.5252 20.2456 30.9053235419
21.9717 33.449 16.6622 34.3759250145
23.0653 48.7465 14.693 29.2234139101
21.4319 45.7858 16.5931 31.8673185259
20.5429 36.5739 17.0661 33.6549254267
23.4408 46.2278 14.8067 27.6721736305
20.5945 36.4721 19.764 30.2420984134
21.3099 40.3398 17.6236 30.6749708172
27.5875 36.7358 13.1985 35.161768043
26.5675 46.3517 14.3289 30.3204079051
23.4839 47.145 20.7073 30.1066712183
26.9824 43.5693 20.4978 31.6035335128
29.1599 36.4268 19.9737 29.2507258458
25.4118 45.5795 16.887 31.2010953898
27.2077 41.3717 14.4561 33.9443364703
25.0539 37.3206 16.7054 31.9173860036
24.0978 35.4211 18.0412 33.0807024954
26.1861 39.2114 18.3416 33.539300019
28.6914 37.5396 17.7127 33.4682383548
29.0112 39.1829 13.8742 30.8026519489
23.1144 41.3415 14.8116 31.7783389749
21.9142 42.9597 16.7793 28.0117640064
25.5367 41.3943 16.5856 31.7246207423
25.3841 33.6413 16.2881 32.8795459343
29.4182 43.0076 15.0659 32.4054463082
19.7927 42.2748 20.5417 25.5766700914
21.2052 33.4858 21.3 30.66370016
29.237 45.9509 14.3009 28.8681510851
28.7287 42.2314 17.8877 34.2102649354
24.9625 34.7562 20.7545 27.0915217005
29.1451 33.8804 14.7469 33.330247678
20.4275 46.9841 19.5087 33.7675711088
22.4833 41.9326 20.9226 29.9791062565
22.2125 45.2656 12.5412 31.9766622402
24.536 34.7324 24.1234 63.858736628
22.1139 36.4721 24.059 56.0060827544
21.0227 33.5223 24.068 66.1914225375
26.964 36.184 24.3289 82.0531563796
23.1186 39.1558 24.4055 85.9614438908
19.9154 45.5568 24.1071 65.7051541608
25.9046 38.8757 24.2189 67.9209013364
23.5006 47.4434 23.9585 54.1580183221
20.8699 40.775 24.3944 93.476518483
20.9053 49.0242 23.9094 49.7345126336
26.4428 44.0288 23.4441 36.7743908099
22.579 36.2301 21.501 26.3774699012
27.2215 41.3214 24.136 82.8207542701
21.8137 42.9645 23.2576 29.6339804808
23.8642 44.622 24.3253 115.8483408569
26.732 36.5279 21.6805 28.8678703773
28.3768 48.4117 24.1142 67.0659778507
28.3787 33.6815 23.0944 28.2750347049
27.5049 41.0083 21.2799 32.0784521081
28.5225 45.6068 24.0253 75.869621734
22.6869 39.1849 21.4795 29.9351172231
28.3264 48.1313 21.5463 27.5965373914
19.92 44.9738 21.5093 29.2100846016
25.7238 37.9173 35.4297 121.9056298363
23.1558 36.9093 35.9013 56.8705556518
24.5603 34.3161 36.4504 39.855198174
26.2393 43.9314 36.3682 70.0013419172
28.1244 36.6303 36.3432 36.3240201731
23.6181 48.2964 35.8137 87.5083503729
21.5478 43.1952 36.5351 36.8528179709
22.9176 41.0412 35.7856 88.8658696888
21.284 39.0307 35.5716 92.22976235
25.3961 40.1441 36.7721 34.5620406074
20.5495 33.8416 38.5967 29.6391941954
21.7883 33.7739 36.0052 57.7798565542
27.7296 34.0206 35.6804 107.7388088354
20.7467 39.0287 38.528 31.4097807087
23.6943 44.8686 36.1594 68.5339477415
24.2463 47.0476 38.118 26.8294577363
20.9511 46.5792 35.7664 67.6825922103
28.8095 45.3244 36.0431 63.8587710783
27.9405 41.5452 36.911 38.6621278056
29.444 48.2027 35.682 106.5223396647
20.696 46.8583 38.288 27.2016971488
29.2368 47.0351 38.3622 29.8064276843
26.5448 45.6118 38.505 30.1765744113
22.851 37.1203 38.574 28.2330176602
24.8298 37.6764 42.2974 29.8441257668
23.8306 43.1377 46.8646 29.5681455929
19.8715 46.7076 46.1428 29.97075631
28.8901 42.3017 39.3142 31.19966865
23.1121 39.5883 44.2205 29.1639836755
25.4185 33.6052 45.4068 32.6682126221
20.5847 38.601 45.1551 30.8074556201
22.3187 42.0994 44.8524 28.4937278061
28.6419 41.4561 46.1228 26.9375676264
28.5409 47.9739 41.5805 29.4947787552
27.0738 38.3263 40.447 29.40968918
21.7231 35.4501 40.4595 28.1172950346
24.6667 45.7457 41.1729 29.3152175905
28.9026 45.2342 42.494 29.9595139565
25.8446 41.8955 42.1271 33.4767617253
27.7981 44.0926 47.1229 29.2003014248
21.9631 45.3465 40.3769 27.8895846005
21.8949 42.6583 39.4583 33.9951952456
24.7201 39.2021 39.2146 30.3967163362
22.1507 47.1348 44.7898 28.9438510424
26.7368 48.5869 43.8727 29.4324899017
28.3638 46.7501 44.9882 28.7171580053
21.7706 38.6211 41.3479 27.0774297345
27.8576 36.1781 39.0748 26.1626685783
22.2652 34.2272 45.852 32.249319077
21.4732 36.4289 43.5745 27.1710854596
28.0422 33.8561 44.2636 37.0236358039
25.8478 37.6353 44.8235 27.1930303495
20.0817 36.1351 46.8622 29.5334592028
28.0391 36.5845 43.5842 31.5256621037
27.1416 43.8571 40.831 29.9235924867
24.2959 44.0393 43.3593 28.11441703
26.0322 40.6129 44.8852 29.6004106538
21.3156 44.6048 43.5424 29.2873316478
23.868 33.3885 41.0534 29.6254788441
28.6848 39.2953 43.5674 29.3913147586
19.8273 42.1759 46.243 28.9749122721
25.5056 45.0013 45.5501 30.1458462573
25.0115 48.3553 41.5581 27.9275884229
24.7908 35.8147 47.006 31.0577629042
23.3214 40.9829 41.0519 30.0620344274
24.6073 47.6298 45.8088 29.0939869547
23.9037 35.0023 43.1703 29.9898654652
28.2522 32.9276 41.8759 33.3393091331
22.3914 48.6967 42.621 31.9835708178
29.3669 39.8142 40.6127 28.2500688027
27.727 36.8214 47.3976 31.3434717508
25.69 34.4727 38.9727 31.091547218
29.1848 42.9391 55.6937 27.8558832836
20.5372 46.0233 48.5979 28.797563709
25.2775 33.824 49.4281 32.3154900003
25.7569 35.8891 51.4678 33.0896081768
26.0857 44.2887 51.9842 27.900387254
28.4666 45.3551 52.74 29.1843768939
22.4053 33.3213 50.63 32.087133073
28.4485 47.6513 51.2964 30.1306439024
20.8491 34.8383 54.4106 30.7837509157
22.3086 38.7337 52.5285 29.160097399
19.8468 37.497 51.0415 31.6604936902
24.4538 38.2455 50.904 30.7037523512
22.4342 44.0793 48.8943 31.130740244
20.3697 34.6966 51.6746 32.348767667
20.9687 38.2853 48.3205 29.278511349
24.3585 45.6767 50.3229 30.8208811736
26.7209 40.9658 55.2818 27.3821671905
26.1978 44.688 55.2141 29.3252432707
23.3906 45.745 54.4705 28.7279544623
26.284 40.2084 50.704 26.3251727415
26.9796 43.027 49.5928 30.2830596195
27.7627 39.4817 47.9708 29.9721406471
23.2437 47.5496 52.3929 28.9778347986
20.9823 48.7257 53.8732 29.2970982483
27.9608 47.0268 48.6079 28.2700659853
20.6915 33.1764 48.2141 31.5896089689
28.0598 34.3983 49.2153 36.1782430309
24.0588 33.9814 52.9519 31.1261197092
29.4448 43.1656 51.0293 27.68573974
22.5344 36.9236 54.5586 28.7461265997
25.2343 47.8175 48.4501 27.7494484358
23.5813 38.3413 48.4012 32.4398415376
25.5816 41.7263 52.9193 29.4867954138
28.8596 36.138 51.6644 29.9903157769
22.82 41.2528 52.7656 29.6907026774
21.7475 42.3878 55.0035 30.9986443271
20.6109 45.0323 53.6039 32.8121528737
28.3457 39.0694 52.0765 26.9436116651
21.3577 42.2832 50.722 31.8043766393
22.0809 48.0302 49.5455 30.352327918
29.2981 45.4655 55.2826 28.3984412582
25.7158 48.3479 51.8346 30.1265485556
28.9363 34.4823 54.1861 29.4952480844
27.5834 38.3383 54.6035 28.0767810308
20.1288 40.2536 56.065 31.0679846344
19.9284 40.9255 48.6004 31.3973937257
25.2705 36.9815 55.3405 33.4107143617
26.0145 47.7912 54.8164 31.5233781544
29.3028 36.4798 56.0128 29.0009933576
28.3073 47.9642 56.1789 29.1548041783
24.9018 40.6966 47.9142 31.7666898172
35.6668 7.58302 3.60772 31.4358796809
31.7847 15.2114 4.25981 27.5588939911
34.9687 11.4683 10.7698 29.0100300597
32.1223 12.0822 4.47966 29.6323531249
32.3168 2.22897 7.05937 30.5227075039
36.0645 1.9163 8.69022 27.9221358619
36.6233 2.04245 5.21781 31.2321519702
32.5409 7.28038 7.82745 29.4071858877
29.7028 12.3098 6.1769 27.7399026882
33.6076 4.64902 6.51556 30.8890218537
