7.22952 18.1745 23.9856 41.1723883179
5.496 20.0049 24.8822 139.4567458346
7.4396 18.6286 21.4295 34.5634034239
0.040129 23.7393 23.9937 102.9057281125
4.73958 24.0269 21.4421 29.9786308216
9.25355 22.8003 24.2005 87.5248106979
6.3763 22.3337 24.0343 48.5608018409
6.79905 21.4135 21.4105 27.4917702563
2.22984 25.0428 22.6595 34.2118578722
2.57275 27.9399 23.7706 59.9977217957
5.16674 24.885 24.0039 86.9115578244
7.14686 26.5917 24.0351 83.7451057482
9.65909 25.5303 21.4989 28.6383463854
7.1372 26.1177 21.2979 28.0759359296
0.28282 29.3542 24.4502 93.3021676412
1.65514 31.9163 23.5218 38.59077671
9.72603 29.7896 22.3331 29.8102081487
8.8845 31.6679 24.3314 92.9467142066
5.32548 28.9563 23.7586 55.7847684867
6.98392 28.8868 21.258 25.6369621898
6.13312 31.3971 24.2984 89.3634210138
4.16988 20.2556 35.6575 76.5317740059
2.93661 17.2388 38.8195 29.982922636
1.89905 18.6401 35.8588 79.7985920184
6.7949 19.1402 35.4797 86.1449591266
8.90668 17.4482 37.9205 27.276143992
6.52284 19.986 38.3301 26.8325129846
6.12688 16.3997 35.9704 57.7693907935
9.83751 18.6678 35.4508 102.7397969813
6.28549 17.1707 38.6326 24.3471312473
4.49024 23.0555 35.9169 59.718883835
2.01103 24.0791 35.8488 89.3880452358
1.45799 21.7422 37.4172 32.2205992211
4.67462 22.9326 38.8302 24.8300822965
7.54879 23.1687 36.1187 66.1517743016
2.20941 26.9453 37.2375 29.9832068143
4.29002 28.0277 35.8663 82.4237028757
8.57396 27.1537 36.0539 66.8129356672
6.08929 25.8136 35.8769 74.1505603826
5.90516 25.6415 38.8061 30.6956512786
8.7396 27.1383 38.8681 30.2904817621
0.424415 31.7473 36.4005 37.046432825
2.88484 30.5159 35.5031 116.3036965781
4.59081 32.5161 36.2365 46.1994838372
9.42042 32.6018 35.6488 80.4853472332
7.7605 30.1264 38.079 30.2237664413
5.03633 29.4897 38.2666 29.9677003049
9.194 29.8625 35.7693 91.1722318846
0.166672 16.9586 39.3024 30.1122549854
3.68125 19.9314 39.0009 28.3774773732
0.721179 20.0532 42.2897 34.7744882718
0.046644 16.9744 41.9248 30.1248055172
8.14013 20.2153 40.9628 31.3648039073
6.41938 17.9338 41.555 30.9181718865
3.33671 20.7729 41.5408 28.1207573961
2.15315 24.013 41.8915 27.6872957737
4.81368 23.0434 41.5292 28.9323455564
6.48544 24.0252 43.2614 28.7835905447
9.12845 21.3905 43.2638 31.1774238142
7.75239 22.8099 39.1417 27.5129314583
2.65375 26.8796 42.3509 28.0047297599
4.81529 27.6699 40.7793 31.0270640308
1.68251 28.0161 39.9062 27.4947632629
2.15759 24.5482 39.0652 27.5143911536
8.39327 24.9709 41.3289 26.8207463375
8.39161 27.39 42.7422 29.4864807596
1.8659 31.2303 42.233 28.2214742276
3.17131 31.0239 39.4037 28.5086757135
0.669847 28.6157 43.2832 30.6937346566
0.432377 30.7838 38.8899 30.1107791989
8.65817 31.038 42.8005 27.6939287328
6.23074 29.2114 42.7657 29.2428575387
9.70231 31.4058 40.2344 29.1347548962
4.43766 18.9109 43.4075 35.1211915192
2.68384 16.4953 43.7638 33.5270922029
3.01675 20.0697 45.5484 28.5182349098
0.900864 17.8139 45.9657 29.3491510139
6.6942 17.8646 47.6716 29.3300831158
9.06002 18.3984 46.9868 28.7631330449
5.6743 16.4245 45.4948 31.8557815922
0.0493646 20.4503 46.9121 31.1653323187
2.3956 22.6757 44.2769 29.6007946578
3.69037 24.2048 47.4476 29.6435184604
7.70044 22.5035 45.341 32.1947012349
5.20177 22.0279 46.9849 30.269879159
9.37481 21.2356 47.3359 28.0833567676
0.633362 27.2054 45.9421 31.8863554306
2.89859 25.5986 45.0642 29.2169429723
8.06912 27.9416 45.5394 26.537266217
7.13375 25.3366 46.5406 30.6890195773
5.45545 26.3405 43.9936 25.818241991
3.74119 31.713 46.1672 30.0275247774
4.37936 31.2469 43.4051 29.1295384257
1.03295 31.338 45.1108 30.8122642989
5.33832 28.8822 45.7104 29.4213025448
7.10777 31.0079 46.6037 28.4690259005
2.46589 17.1308 47.9489 28.2506460719
3.71908 18.0731 52.1167 31.9691470842
4.29439 19.443 47.9629 28.2014680338
0.370214 20.2035 50.1694 31.8698924296
8.55623 19.2245 51.438 27.4286621529
5.48347 19.5979 50.5531 26.7968509519
7.0696 16.7392 50.3651 28.9871852278
1.34949 22.6255 48.6847 32.6968292472
3.78619 22.245 50.2341 28.4073278683
8.09205 24.4731 52.0492 33.5537055076
7.60109 21.2109 49.279 29.3633826972
6.21563 23.793 49.524 32.2750944439
2.20529 27.8597 48.5648 31.7585726313
4.75168 27.5563 50.8395 30.306014965
0.121581 26.8498 50.1485 31.5897548103
8.61106 27.6908 49.6457 32.9880139036
4.9528 26.767 47.9449 27.5131586221
0.943851 31.7252 50.369 29.5755996534
4.31535 30.443 50.9008 31.2340204633
2.59878 30.6337 48.7339 30.1195129592
8.97673 30.8355 50.2616 28.8819840546
6.68008 29.5645 48.8199 27.3680040584
2.5969 17.6924 54.587 27.0331410844
0.561918 19.2321 54.5311 28.4011372834
7.68224 20.28 54.5462 29.7347810067
7.48258 17.7138 56.2385 32.4999504694
8.13518 16.943 53.459 30.8482807772
0.374369 23.7443 53.8213 34.5482384021
1.90904 20.4878 52.6115 31.0614193043
2.91544 23.4765 52.6171 30.6043881134
4.44126 22.3632 54.8335 30.8129022659
0.393093 21.8842 56.1103 29.0138743291
5.735 20.7628 56.577 27.670315248
6.64724 21.9587 52.3429 30.2957986998
7.57671 23.6127 55.291 28.994634889
1.07944 26.8854 56.0558 29.1667901084
0.625932 27.5098 52.7888 30.3098348838
2.96881 26.2436 52.6804 31.068663399
3.77683 27.1564 55.115 26.9629066079
7.07802 27.3237 52.2874 28.8468841162
6.82786 26.7354 55.0026 30.4776664092
3.21971 31.4966 53.2485 28.8939256524
4.80773 29.8657 55.3394 31.7776496093
0.796735 30.4495 52.8569 32.4665300979
2.55323 31.7967 56.1889 30.176645112
8.5521 29.6562 52.8588 31.5892057009
7.51923 31.5185 54.951 30.2069067974
4.16493 33.8292 4.08735 27.8309112667
2.06762 36.3349 3.50007 32.6768676438
2.2714 33.236 6.55979 31.525615115
5.55725 36.0977 7.32823 29.4002916983
9.26577 35.4796 4.5621 32.0015987372
8.82424 34.6629 7.25125 29.9447201832
2.55844 39.1902 4.1027 29.0158265449
1.26105 40.4727 6.02599 27.7340326445
5.01738 36.8945 4.82851 29.3989089022
5.02648 39.7716 5.01982 29.4326727864
8.84005 39.5614 5.42224 31.457883322
2.262 42.8643 6.32849 31.4590460889
4.85925 43.0262 7.88314 27.7161943145
6.78391 43.0581 5.98752 32.586734304
7.99858 41.2069 7.60524 27.8186754725
3.90043 47.2859 6.07143 35.9415884187
0.0732985 45.0626 6.12655 34.0566769164
6.29453 48.7726 5.4813 31.9658478671
8.53704 45.1606 6.32414 29.7803647871
8.73755 47.5076 4.48683 31.4105204987
1.24283 34.2368 9.33877 28.4051839905
2.86609 33.9576 11.3504 28.8661726322
2.76507 36.2428 8.00206 31.325642894
4.88032 36.0416 11.0926 29.4660913375
7.31936 35.4012 10.4185 30.4518495655
6.43014 33.2939 8.20237 26.0610404574
0.597435 38.3577 7.93136 27.4009048921
3.90912 40.1756 8.09723 30.7064568099
1.90776 39.668 11.5019 33.4327492833
3.49076 38.14 10.0376 26.5011938897
8.78226 37.167 8.92169 31.6013624776
6.58929 38.8047 7.95342 27.9622614522
5.63647 40.0357 10.912 32.4246273185
0.57308 44.7407 11.8929 30.8429716795
0.564752 43.4769 8.74762 30.9577532092
3.06452 44.0391 10.1213 31.1353324865
4.0804 42.1148 11.9312 29.428999098
8.94948 42.1227 10.2783 30.4497870382
6.76823 43.7651 10.0409 26.8658197728
4.21917 46.2135 8.56129 30.8678055165
0.130275 47.154 10.5254 30.8480637049
2.06204 48.2271 8.86176 30.1180958448
6.51448 47.0893 9.71374 30.3879091246
8.87568 45.3897 8.85644 28.4298398615
3.03099 36.3558 14.9545 30.8077668511
1.40733 34.1902 13.9453 27.0547074997
3.28684 33.815 16.5179 31.9212439274
5.66321 36.3695 13.7918 35.1500507144
8.15698 35.0234 14.6897 30.4804745806
8.77015 34.1148 12.4167 30.3924256366
1.62877 38.3395 13.8111 33.4981207242
1.67849 40.7901 15.3784 34.4682666737
9.08146 40.8095 12.7898 29.2913512685
6.1953 39.6187 16.0258 33.2207831087
6.9367 39.1868 13.3732 35.7728021888
3.39214 42.5755 14.5929 29.6958035162
5.68693 42.537 16.0374 32.0406391968
8.1236 43.7851 15.436 26.3855398213
6.30949 43.9636 12.7518 28.8163789982
9.71806 41.778 15.163 30.3620249391
1.08801 46.7825 15.7937 29.9679846743
2.42332 45.2215 13.9728 33.4500305598
6.16394 46.1373 16.5162 29.7683737769
5.05979 46.0481 13.9897 30.883628258
9.0639 45.1082 13.0226 31.5616387788
5.6361 48.9827 16.4395 30.5187449167
9.41803 47.8744 13.4268 32.2616264023
5.68565 48.3498 12.3325 30.7406960376
1.41163 33.2838 18.225 28.7670702844
4.87714 33.7759 21.1492 26.6583836123
0.828071 35.0594 20.1174 30.1227266021
8.46564 34.9101 18.1338 33.0359582997
8.78024 34.938 21.0022 32.4530618824
5.40966 34.7467 18.3648 32.5954101739
0.794673 39.0587 20.1401 30.9429216473
2.7331 40.038 17.9633 33.4540701859
4.45903 37.6119 17.3048 34.1458583716
6.98058 40.7067 21.029 33.6709560426
9.60393 37.0374 16.8679 31.2338953069
5.50305 38.5321 19.8122 32.6494723892
8.83373 39.6911 17.0046 33.916693792
1.43342 44.0932 18.4724 29.712747038
3.74767 42.6656 18.4286 29.8318391752
9.19168 41.2415 19.3397 37.7826611406
8.52655 44.0929 19.746 35.6539453539
2.90492 48.5513 21.0436 28.1110366935
4.70083 45.5686 18.7769 32.0215911657
2.12729 46.7495 18.5857 29.2527302508
0.0605049 47.3686 20.7452 30.3756332272
9.02975 48.3216 17.5622 31.5732486922
9.06811 45.5582 17.3721 30.2688698358
3.8357 35.9424 24.3679 85.6468357139
2.81163 36.132 21.7919 27.9862488216
4.0685 33.2618 23.9507 58.4699122039
0.624746 36.2753 23.8087 42.3345038275
8.41087 34.5273 24.2539 83.6917685499
7.14248 32.7603 21.824 26.9039655449
6.21686 36.462 21.5895 30.657334126
1.46324 39.1431 24.2708 86.7556138251
4.40475 39.8742 24.0178 65.922546466
3.1623 38.8899 21.3516 27.0738507017
6.32066 36.9837 24.2938 83.3713002634
7.30937 39.5688 23.6409 45.8497867228
4.23827 42.6574 24.0459 86.5639504614
1.60914 43.4593 23.3173 42.069170102
4.39163 41.9309 21.1999 29.3572959865
5.96137 44.117 21.2684 29.7535394144
9.05962 43.6381 24.3868 91.6874282606
6.38472 44.3364 23.9788 60.4147604637
9.56767 41.0801 24.4832 109.8086870276
0.757155 46.1569 23.6401 53.8119227961
2.6036 48.1971 24.024 64.6268739883
5.18835 47.0453 24.1329 81.6702056058
8.21413 48.5998 21.3745 30.9703477395
5.61415 47.2014 21.2491 31.5441602352
3.29269 34.9801 35.9443 51.5320295423
2.57431 35.1033 38.3694 30.5940984234
0.637472 35.6388 35.4945 97.9728255034
7.10226 33.5833 36.0095 61.1702277972
7.64765 36.5068 36.0796 59.8006340259
7.33946 32.8921 38.6304 28.9986740759
7.97717 36.0734 38.8746 31.5673499804
3.849 39.4281 36.2546 47.5358631955
1.06468 40.0036 35.4599 103.0746522275
0.343924 39.5955 38.5891 33.3620911986
4.9725 37.0363 35.4403 113.9804764285
6.89107 39.8771 36.5084 45.1156638955
3.36072 43.8117 36.0416 67.2961313184
0.747367 42.814 35.6734 71.9362277375
0.255954 42.5585 38.857 30.7467421114
2.88424 43.5604 38.7925 26.435896417
8.94926 41.6051 38.8316 27.2163215778
5.94455 42.8255 35.9473 85.6872124291
9.16733 41.486 36.0593 55.2378267649
2.25018 47.4591 36.0842 57.3052718097
1.4407 47.4043 38.6317 29.9477297381
7.47729 45.0958 36.0694 56.33051062
5.09661 46.7121 36.4586 45.7808301745
7.78383 45.9181 38.6379 27.7244900545
7.67453 48.5295 35.7356 94.3242018398
0.891584 33.7561 42.4619 31.5270059484
2.86974 36.1009 42.9492 29.2857629638
3.44418 36.5829 40.4026 30.7813455579
0.562437 33.5874 39.8041 30.8550625416
4.70952 33.4099 39.4188 28.8449140141
5.17677 33.5769 42.1379 27.6879863351
9.28423 34.7267 40.9156 28.3753969209
7.67117 33.374 42.8468 27.6905718218
6.02501 36.4924 42.8785 31.5679840849
3.04381 39.1452 39.171 34.9359361759
6.60887 39.2503 42.9773 28.5324822471
6.09861 37.5463 40.1427 30.5812922037
6.41086 40.1388 39.1672 27.3854925125
4.34548 41.6558 39.9391 27.8300666671
1.32548 44.6862 40.9323 29.1208783757
4.41788 41.6477 42.6618 30.3499161783
2.0352 43.1088 43.2163 30.9724291364
8.67557 42.9463 43.1952 30.5793470742
6.05285 43.7766 43.1409 29.6362517255
6.37429 44.0541 40.3284 34.4637102028
8.44041 40.8663 41.7092 27.5479173964
1.19525 47.605 43.1038 32.8710609031
3.64014 46.815 41.909 32.6333102326
4.10447 45.9858 39.02 28.1631284935
8.77694 48.7511 42.0565 30.9543265653
7.03523 48.605 39.75 30.129112216
4.72065 34.2403 45.2934 31.9781826934
2.33757 35.6255 46.1889 38.0453318098
0.17111 33.9227 46.419 32.1728188268
6.67563 33.7415 47.0997 28.9433662513
8.41576 34.9666 45.2196 27.8672464403
1.23434 37.655 44.0967 34.7158983805
2.56084 40.2444 44.9757 34.9643463808
5.49501 39.9538 45.2896 41.8170072174
9.34592 38.1355 47.4077 33.7315395683
8.69335 37.8491 44.7408 33.6894437807
3.37621 41.4974 47.5961 29.4964454219
3.30243 44.5966 45.3979 32.020198183
0.0397704 41.2188 44.2047 28.2830655254
9.65714 43.4395 46.0317 36.2462220887
6.9148 42.2328 46.7636 33.0802378702
1.03184 46.609 45.9324 31.1828316909
2.55716 49.0091 47.422 30.7046224605
6.86968 45.5275 47.0288 33.2897258842
5.46628 46.0298 44.5504 30.2567013574
9.51171 46.2644 45.9094 31.093094724
6.88573 48.6036 43.9714 29.9807006688
2.42782 35.4749 49.0479 37.2705696593
0.17373 34.3575 50.0002 32.0482327053
4.9842 35.0703 50.6979 33.138645554
7.24869 36.6146 50.8937 31.3707027604
8.54219 33.4989 50.8501 28.6246513371
8.48836 35.4198 48.4522 31.8402696633
6.04444 32.6894 49.9475 31.0166216376
2.06298 38.0159 50.4086 37.6283451381
3.84771 40.3081 50.0607 32.5657760682
6.59538 39.2343 50.333 35.3297351948
8.28394 40.4355 48.4605 33.7136395728
4.74244 43.7471 47.9213 27.88588553
3.51338 41.9126 52.0436 28.8568523327
2.13966 44.1095 50.0156 28.4158523858
0.91982 42.3571 48.1394 31.2494013596
4.99463 44.6527 50.6451 32.2565377337
0.296991 48.1985 51.2487 28.0672840278
3.92068 47.3917 50.182 29.5409760363
1.47332 46.5843 49.0713 28.3763950114
5.89779 47.9713 48.0776 30.950212168
7.8505 48.5145 50.4143 36.2596043055
6.76456 46.3366 51.9504 29.4026243856
3.92835 34.213 53.1363 32.1908909711
1.8621 35.9261 53.9748 30.8565174364
5.91476 34.1007 55.1946 27.9693276275
8.42304 33.9808 53.6909 28.681439403
7.05556 36.3871 56.2396 28.1673945831
3.4427 38.1614 53.0961 32.271914419
2.54894 40.4103 54.7503 31.2220216413
7.10106 40.7207 52.6088 29.1192293371
8.68951 36.788 53.6308 31.122058388
6.24476 38.3788 53.8725 29.9143059549
7.21403 39.9827 56.0611 28.7353027521
3.08116 44.421 54.5387 35.2951702521
0.963273 43.637 52.6257 31.441468113
3.48083 42.4913 56.5315 33.8537466525
8.62135 44.6194 52.9074 27.8379499982
5.86277 43.2122 53.2476 27.4554519693
7.96771 44.8895 55.8726 30.0065855956
9.45976 41.5681 53.0645 31.4982051286
6.41625 42.6034 55.9076 28.3130700178
4.91061 47.8612 54.1541 32.8763786424
3.09952 46.8053 56.0893 33.9336440717
0.366395 47.2225 55.4073 28.8609324236
8.07172 47.5211 54.6996 29.2775582996
14.5712 3.54506 5.25062 36.2232697237
10.3724 0.850368 4.03827 30.0257301184
13.36 2.44698 7.73459 27.8269754493
10.8351 0.896261 7.05986 29.4408667804
16.9634 2.24872 6.92191 28.1662063061
14.9259 0.821095 5.19975 29.8752221972
19.5042 1.24644 5.75295 29.1219886108
12.0708 4.3862 4.02851 30.5900645454
12.0132 5.24304 6.75002 27.554321989
13.1077 7.51664 6.51558 29.9726327014
15.817 7.48253 6.06243 32.3755913182
16.5201 4.93495 7.18533 29.3511683956
10.5178 10.5851 6.9569 32.4628443999
11.7978 9.34583 4.70194 34.1053330158
18.1196 8.7563 7.16164 29.2598768618
17.0475 11.5382 5.1255 30.6603730155
19.0498 11.5443 7.08511 30.1979697637
13.286 15.1077 6.52846 26.1943208797
14.2789 12.8989 5.25359 32.8153354028
10.8119 15.8343 4.94038 27.9129209551
18.6324 15.75 6.12 33.0926718354
18.0972 13.7877 4.22714 29.2357490983
12.7497 2.01755 12.3088 28.1949100743
12.6228 4.00663 9.85872 31.1712269372
10.8292 0.0943952 11.1649 31.4682614929
17.2452 1.98463 9.90384 29.9895252118
14.9546 0.5517 8.93177 29.3016965181
19.1078 1.32884 12.1304 31.0825443585
11.5706 8.03317 10.9022 33.2129897151
10.5155 5.80514 9.77758 27.9105511303
19.6252 5.90936 11.1831 29.2278427275
19.2035 5.45697 8.36388 31.2984592696
17.0635 4.61396 11.3665 29.9039884956
14.9962 8.02165 10.0326 29.4590206639
15.0136 5.43848 9.49811 29.1039772779
12.7412 9.11899 8.67923 29.3898968732
14.2323 11.6606 8.55057 34.1294670281
17.7646 8.57519 9.95849 28.7371151838
17.5841 11.1262 11.303 30.5148502461
11.6606 12.6149 8.7048 30.6866995056
14.4797 15.1528 10.3837 30.3102731947
12.1907 16.1674 11.9171 27.2814876665
10.7057 13.7868 11.2063 28.4950558235
10.6151 14.8553 7.95542 26.2948485247
19.0201 13.5833 10.9487 31.031852869
18.4192 13.8802 8.30601 32.2348127227
15.2015 12.5096 11.5274 31.0360277282
15.601 13.9632 8.31991 28.0221911999
11.8345 1.36161 14.8909 30.1451251172
16.3899 2.35148 16.2435 28.2428195434
19.3449 2.32528 15.9927 29.7975214127
17.3908 0.137804 14.4769 29.5595685813
15.615 1.81085 12.5088 30.0403189051
19.5444 3.88271 13.6196 30.5923575937
11.1141 4.38225 13.0505 31.0302469626
13.0677 5.32247 14.6109 32.1713781844
14.0123 7.57137 12.4939 33.3764748354
15.7492 4.32423 14.2307 30.5730111281
17.6909 6.44261 14.6197 29.2444955209
13.5715 12.1094 13.7884 31.3302969954
13.8935 9.66119 14.2845 31.8763892666
10.776 12.0019 13.1747 37.1906264618
16.376 8.79539 15.1723 30.7361692357
18.3121 10.6842 14.1558 30.3639764794
18.9255 8.29226 12.7336 30.881359087
14.0924 14.0183 16.0794 32.5661895281
14.0527 16.2428 14.1523 31.3065002642
18.5735 16.1938 12.6181 28.8154916629
16.1942 14.1664 13.7981 29.4444495521
18.3678 13.4081 15.3454 28.0816103456
10.0108 3.72519 18.2039 27.3835630057
12.6464 2.35463 17.558 27.6401860769
10.8081 2.16998 20.6021 31.7513461623
14.9422 0.837148 17.8438 26.1262904354
14.8027 1.57409 20.5632 30.3056004852
17.304 3.7401 18.4405 26.3726819195
18.5416 0.128127 20.8808 32.056679839
17.4465 2.77672 21.1223 29.349064071
11.5352 5.57853 19.9808 27.3254842839
10.6711 7.01882 17.1903 27.410488821
13.2156 5.1649 17.2277 29.2074826303
13.0817 7.95768 21.1653 30.7940658958
15.5717 5.76722 18.7185 28.2884663902
16.8879 7.99433 17.6912 26.7512773027
18.8891 5.50605 16.8701 31.8213519626
17.8359 7.04748 21.1673 30.4839752902
11.1442 11.0684 17.8538 31.794523856
14.7629 9.28729 18.6109 31.0148080504
12.5214 9.05657 16.8815 31.3934330721
11.1541 10.0348 20.3093 26.4488595232
18.693 9.14507 19.5229 29.5573532678
18.1587 11.5907 17.5253 29.9480001225
15.2389 11.6222 19.7012 29.1335642233
17.599 11.2956 20.8725 28.8171627709
12.5653 14.7799 20.1661 32.9541366707
12.0113 13.7733 17.7352 31.4941580165
14.7482 16.2564 21.1112 31.1036498318
16.1369 13.5238 17.9148 29.954098868
16.8315 15.3817 19.8401 30.325748015
11.8003 3.46938 23.8467 58.1017133957
12.4006 0.587065 24.1586 90.3800164547
16.6788 2.30937 24.4794 73.4876649502
19.1763 3.13681 24.4699 78.6388798738
13.4009 4.08977 21.5594 28.5108133601
14.5381 4.14801 24.5032 91.6747265689
10.2423 7.72788 24.1237 86.6339366581
15.0559 7.02324 24.4142 99.8750554178
19.3455 4.92473 21.9961 30.3268535246
15.2111 6.23525 21.4255 26.9405539486
17.527 8.0508 23.7277 47.0832658215
12.9196 8.78245 23.85 49.1889508618
13.0553 11.5227 24.201 96.5868233924
13.0079 12.0714 21.2609 33.2713872514
17.8028 10.723 23.5555 55.2356993451
10.2826 12.2921 24.1532 61.0126410362
10.4441 15.5757 21.5529 30.7457315464
15.0558 15.9564 23.9788 70.5549098534
17.9066 15.4557 24.0713 70.8471449523
18.672 14.044 21.5943 26.2139619064
16.1162 12.8974 23.9983 84.9464947342
14.3392 2.69817 36.3511 35.9239768181
11.8996 1.15546 35.7594 76.6552766054
13.8483 0.472722 38.8178 27.4622728844
11.1232 1.37617 38.458 25.3831490923
17.1336 2.68923 35.8322 83.1680227511
17.9201 0.154559 38.2927 26.2492573528
16.8952 2.88024 38.7982 26.5354288227
11.1815 4.301 35.712 63.8921133536
13.7798 5.22262 35.703 82.4186880975
10.413 4.51924 38.3204 25.5516579001
12.8456 6.47397 38.1373 25.4196302227
15.7783 7.39734 35.7485 83.8003549931
15.405 7.2409 38.773 26.86823661
17.6671 5.57068 36.2426 43.370061986
11.104 8.66441 36.6283 32.1676748447
12.866 10.9108 35.7467 100.3696592546
15.4379 11.5983 36.276 42.6959405188
17.3963 9.61242 35.9364 78.2167247865
15.2276 9.96087 38.8383 29.0070065931
13.2919 16.2219 35.7476 85.8729411739
9.9933 13.1192 38.5249 27.648746049
10.3825 12.6982 35.7722 67.766325105
10.6301 15.4397 35.9131 55.5176125759
13.4581 16.2651 38.7793 29.9378286251
17.9446 15.8718 38.8037 26.902613419
18.9381 12.4659 36.0986 78.7609916453
14.8349 13.7332 38.6592 26.6818683527
17.9469 15.1897 35.9386 76.4476572219
15.2462 14.477 35.8644 76.6705915939
17.6897 12.8575 38.5399 28.9443006615
14.2001 3.83565 39.0507 27.7863176873
11.4477 1.27038 43.0473 28.0471207644
11.7188 3.06789 40.7754 28.2792292584
15.9861 1.44528 41.0683 31.7825094907
18.5457 1.42492 42.5421 28.8350640963
12.3854 7.74927 40.901 26.0149342077
14.3659 5.93905 41.3624 26.4165921842
9.95692 5.87135 41.4055 27.817423624
17.2891 6.47554 41.4435 30.7560325196
19.6694 4.26933 41.4213 30.9926886038
18.0784 5.89285 39.036 25.6143221346
12.13 11.3256 42.3612 27.6494656396
10.6354 8.92001 43.153 27.4959069462
12.3858 9.77695 38.9432 27.091409818
19.1998 12.0998 40.8567 27.4858787108
16.0691 11.3073 40.9318 28.5775611463
18.4035 9.33209 41.474 32.0088757381
10.6414 15.8101 39.2184 29.1269487541
12.4366 12.3385 39.885 27.5870984591
10.4676 16.0081 42.2802 30.0005298956
14.7369 13.8682 41.6864 29.3812796489
12.4738 13.9995 43.2784 27.0801841587
19.5388 14.922 41.398 30.533309
14.5536 1.51126 43.9917 31.2783133963
11.0073 2.93236 44.9803 27.6745940258
14.0486 3.62869 46.6454 28.068378483
12.212 1.39093 47.1047 29.4087955779
19.3283 2.54662 45.0156 31.4970974266
18.2386 1.80188 47.5587 33.4604713512
15.3735 1.08216 47.6647 26.7661601055
14.1612 8.1165 43.5573 30.6392351669
13.2916 6.13364 47.0312 26.5383085385
12.1038 7.87549 45.5254 25.1906952856
12.1252 5.07167 43.4749 28.1898451635
18.8412 4.97755 44.2209 29.8925257511
15.0361 4.29135 43.9451 31.9728499935
16.7343 6.7062 44.8541 27.5953527535
19.6855 7.15575 46.2827 28.1007401198
16.0248 7.00337 47.6201 33.6979178881
12.021 10.3124 46.7889 32.102649069
9.98276 10.9412 45.499 29.5791296286
18.8632 10.2288 46.6123 31.1410115069
16.4745 11.7494 47.4165 31.5858028688
17.2939 9.52885 44.2061 33.1342331528
14.8233 10.9715 43.682 28.8814156645
13.8786 15.2054 45.4101 30.2595080811
11.5034 14.3415 46.9099 30.5023833592
14.0674 12.323 45.9935 31.1994784061
10.0634 16.2946 45.4965 28.3977121638
18.1193 13.8093 46.7277 28.6689426681
18.2709 13.9533 44.0726 35.0371701878
16.4331 15.9622 43.4112 28.3491380995
17.8459 16.2652 47.649 31.812815415
13.8678 2.5406 50.4258 27.7805192634
11.5026 3.99804 50.5351 29.1973342756
9.91872 1.49477 48.6384 27.7686216472
18.2019 3.37753 49.99 26.5919386148
18.5722 1.04767 51.7935 31.0151336336
12.4166 6.46807 49.4211 29.0413342587
15.6277 4.22523 49.2594 27.5985019474
18.7281 7.92356 48.9627 27.0924492671
17.7084 7.60294 51.7238 27.9764038993
14.9058 6.60492 50.5672 27.554906755
11.8446 12.1206 49.33 32.632818816
13.5962 10.3976 50.583 28.0034229088
10.8538 8.29383 51.0876 28.3628737776
15.9973 9.8286 49.6685 31.5987439593
10.9392 15.4613 49.459 30.8665313647
12.0799 14.4079 51.7707 33.5263915784
16.2854 13.2351 50.2973 33.2762923328
18.8187 12.8199 51.4961 32.2841178263
16.3621 15.535 51.5328 29.7576281418
13.9782 1.87932 53.1089 30.6020583709
11.7568 2.31693 54.7477 32.4526215327
16.788 1.8443 54.1021 30.7101830936
16.9122 0.205037 56.5388 27.1405105805
18.7787 2.63583 56.1118 32.3692790736
11.8537 6.0986 55.1932 29.2467539434
14.6614 4.67492 52.8 31.871005265
14.4848 7.14555 54.6577 34.8791815687
10.1684 7.97546 56.2822 31.3286853969
10.459 4.72892 53.1405 30.197236563
18.5879 5.78352 56.3545 36.4965953917
17.4083 4.16401 52.7195 28.5601695382
16.5187 7.67475 56.5309 31.822667265
19.1587 5.94063 53.3133 27.3845574232
12.8678 11.537 56.1787 31.4031502207
10.8631 10.0443 54.1596 31.6936982064
12.8524 8.88183 52.8741 27.965368145
15.194 12.0074 54.7674 30.4830437326
17.2678 10.2938 55.9476 28.7626403587
19.4578 10.0008 52.707 32.9850940483
16.0603 9.48655 52.9091 29.6500629056
10.4861 15.3607 53.8416 29.7637031848
14.4216 12.5324 52.1766 30.4664079626
11.0119 13.6788 56.199 31.0550466634
17.3281 16.1259 54.0579 32.255874773
15.7722 14.5931 55.9017 32.29909483
11.0213 19.4811 6.14535 28.1269220343
13.023 18.0197 7.71854 29.1592458293
14.1569 16.5478 4.12651 29.3210691126
10.427 18.5355 3.47169 32.2159843137
15.6383 19.1811 4.65505 32.0656006875
16.189 17.0224 6.65754 28.2859882524
18.5262 19.9497 5.10127 32.2578613046
10.9836 22.1083 4.9611 31.0026735029
13.8031 21.2666 5.03557 28.6468358624
12.8735 21.3415 7.85516 26.8261969552
12.0288 24.0159 7.82298 28.6133255232
15.0872 23.5721 5.54015 30.8971356615
17.8927 22.7529 6.00806 31.0756934397
11.4221 28.296 6.74245 29.8894772794
11.2608 26.3058 4.70773 30.7084369517
14.0263 25.9013 4.11077 28.9347459098
14.073 26.0914 7.55553 27.1438321644
15.4927 27.8856 5.5045 28.482176349
18.2098 27.1946 5.37839 33.1412572042
18.9995 24.8076 7.54841 29.7256418929
10.6332 30.5171 5.38464 29.6435771572
14.3282 30.2412 6.66517 31.8693750691
10.7417 32.6534 7.49104 29.6346507898
18.6308 31.1141 4.27474 28.8863641786
17.2469 30.5912 7.24084 28.7255167774
10.8338 17.207 9.21774 28.1382977959
12.0306 19.2055 11.7551 29.8266118589
16.1272 17.2166 12.0127 28.8804109044
15.499 18.1474 9.1579 29.2227154161
18.403 18.2416 8.38339 29.1910804644
18.6973 20.2025 12.1227 32.1255103051
14.0924 21.2683 11.9306 31.9057689712
13.1878 24.1953 11.8852 29.4478059298
10.658 20.5022 9.42381 26.8594498993
19.1813 20.981 8.12019 29.7156883087
18.0953 22.3221 10.5148 28.6307506025
15.3689 21.0751 9.20359 34.2283158159
15.7956 24.1727 10.5571 29.8520281477
13.4624 27.5389 11.6013 27.2122387308
13.3618 28.3369 8.74192 26.655787141
11.2824 24.5887 10.0604 25.9999900479
17.6917 28.3255 9.18718 28.0772549102
16.3573 27.7909 11.5892 27.3629148738
16.6758 25.939 8.43622 28.1201941674
10.135 30.0042 8.88516 33.1938711803
13.6934 30.8251 10.0021 29.8509005164
11.6033 29.8607 11.5663 27.767703626
15.6509 31.1024 11.8874 30.4309315158
17.9624 31.7023 10.0201 30.538769914
11.4506 19.4073 14.7093 27.3039608366
14.2098 18.5028 15.6527 30.5882211576
15.8726 19.4976 13.4363 30.8710686013
18.1209 19.2517 15.2564 30.0209194098
19.0363 16.4882 15.3536 27.6969130188
12.4429 22.0196 14.3998 32.0815568422
10.1343 23.7169 15.2699 31.5443922113
18.5773 22.7763 16.622 35.862617331
11.8309 25.808 13.6821 29.2438701456
13.8645 28.3243 14.1608 27.5258269168
13.8181 25.754 15.6474 30.8164329906
9.89196 28.0205 13.1165 29.4412545213
16.252 24.7153 15.393 33.2549720571
17.2855 27.0514 16.0658 28.7498870597
17.0582 25.3236 12.7038 32.8738632573
11.9513 30.2315 14.5226 27.1817134692
14.1952 32.2894 14.3472 30.2366701165
16.5713 29.0505 14.2762 27.0348943243
16.0002 31.0884 16.4664 27.5172034633
19.2524 29.0389 13.1066 30.859210463
10.1553 18.3324 20.9106 30.1719641932
12.5951 19.8734 17.8992 29.995020012
10.1592 19.0065 18.2505 32.2243285776
19.1564 17.0949 18.5533 27.5016569936
14.7854 18.5311 19.5461 29.9318549898
17.1335 20.1664 19.4662 29.3689957196
16.5646 17.4937 17.281 30.140357204
14.3187 23.4541 20.9237 28.8362840648
12.2592 22.7513 18.9912 26.912799493
14.2313 22.6013 16.8058 32.7008858058
9.87406 24.2868 17.9899 29.2468582509
11.6257 20.8501 21.0929 26.3485675485
16.5116 20.8686 16.993 28.2278818275
11.4052 27.3687 20.1823 28.9402652157
12.7612 25.6475 18.3665 31.8807749334
17.7732 25.0356 20.9646 30.2317400289
15.0717 25.8997 20.1828 27.9282464924
16.6481 27.8603 18.5357 30.3596588524
14.1902 29.1218 19.7764 26.4067172159
11.1226 31.8089 18.1668 32.0896373239
13.4001 30.1854 17.3615 30.795002174
11.6371 30.7206 20.718 27.728874471
19.1992 32.1132 16.758 31.8473143783
17.9068 30.927 18.9855 33.9675052309
11.496 16.7799 24.0353 62.3028368916
13.8238 18.7228 23.973 69.5260968007
10.0702 19.1066 23.9818 64.906195711
14.2726 20.1431 21.6415 29.1461027484
19.6558 17.9237 23.5477 37.1518111335
16.7899 18.5387 24.2453 98.7579645919
11.8833 21.3309 23.8885 64.365105009
13.4437 23.657 23.5164 38.2686374174
17.949 21.4048 23.8219 47.9733433176
16.1986 23.7368 24.3948 110.6479377614
16.8195 22.1881 21.4475 27.5586636662
12.4735 26.1588 24.2396 84.8854118856
14.06 27.494 22.3307 27.5780207973
10.0566 25.4694 24.0172 60.6837839246
17.4863 28.3789 21.4231 27.3717105857
16.3318 27.9698 24.4005 91.7778061847
18.0479 25.7669 23.7104 34.8936833711
11.8857 29.1526 24.159 88.933981732
14.4644 30.3788 23.8706 47.6878392174
18.3645 31.6301 21.9074 28.6834862049
15.6038 30.7846 21.6617 25.625849844
17.9965 30.3894 24.4395 94.8514018951
13.7308 19.0985 36.1747 52.8860086369
17.76 18.1745 36.3129 58.8938020341
13.7295 24.3918 38.4783 29.1464686334
12.6423 21.5402 35.5295 114.7553097122
13.2038 24.4913 35.8704 70.2990831566
9.97256 21.4258 36.6161 33.8842394925
19.1401 22.9946 35.8511 93.603141498
16.3743 20.6133 36.3276 63.3492509827
16.4653 23.8135 36.5672 36.236330012
10.2347 24.7069 36.1813 64.6571532291
13.8602 27.5496 35.8965 75.7540338764
16.3184 26.2566 35.6027 104.8609225158
18.5912 27.5198 36.4162 45.4400204887
13.3816 31.4479 35.7003 93.1045162525
11.8147 29.47 36.4428 38.3297591656
19.091 31.0465 38.5181 29.5925928267
15.5313 29.7132 36.6558 34.2448840339
18.62 30.4843 35.7329 85.4590906659
15.4428 32.3676 38.0748 27.9514933213
11.982 17.9675 42.98 28.1033759442
9.9105 20.0707 39.0496 27.9192641185
14.0749 19.1311 38.9141 29.0997936473
11.9841 19.692 40.723 31.6939839053
15.5404 19.2246 41.611 27.3766358232
18.6614 17.5971 42.5876 28.3409034447
15.6565 16.5583 40.4056 27.5959080816
18.4391 18.7607 39.5939 28.1983423844
10.4189 23.8396 42.8486 33.5084337276
11.9129 22.8259 40.6018 32.1417394646
10.3476 24.3891 39.052 29.5998970869
14.7805 22.353 40.7063 31.2392661625
15.1352 24.3305 42.7635 33.6861048028
17.8655 20.482 42.5444 29.5607542027
18.8519 22.7425 38.9259 30.0942010217
16.6467 24.4337 39.6051 27.6938977221
16.6817 20.5896 38.9902 25.3222154308
13.5862 27.0191 39.1855 33.201407849
15.026 27.1858 41.8133 30.0228722819
17.6613 27.8597 42.1517 28.6900598935
19.0721 25.3398 41.8556 28.9114153066
17.9102 26.9527 39.1308 26.3746911031
10.7743 28.7301 42.0551 32.8707119583
10.9982 28.8601 39.2495 32.6269157144
18.2637 30.4745 42.5577 27.9435107646
15.6537 31.584 40.62 29.3486129596
15.7828 28.8188 39.3842 29.1886039492
14.4797 18.1504 44.0057 30.2872349516
10.599 19.5379 44.61 30.4641548611
15.1862 17.0976 47.194 35.0057644463
15.085 19.9575 46.1843 33.6027547077
19.3012 17.2538 45.4616 30.4706212028
19.4784 19.9854 45.8319 31.6178631657
12.366 20.7963 46.3831 30.5510078825
12.7086 23.4497 46.5965 31.1052884176
17.4002 24.2836 44.5247 30.027744161
17.124 21.4641 45.2114 31.1397446325
15.0522 24.3004 47.7223 30.9819190664
12.3932 27.4269 45.0164 30.1963873106
12.644 24.6478 44.1805 33.524207744
11.9981 28.5089 47.4692 27.9261225447
10.0196 26.6419 47.2668 27.1849588323
16.54 25.9498 46.5206 27.1807158445
15.0611 28.1873 45.852 31.528088057
13.9255 29.2981 43.4104 29.5325166214
11.5535 31.1681 43.5263 28.7317596687
10.0921 30.1822 45.824 29.3669890603
16.2119 30.814 44.3643 29.448913595
16.6812 31.4667 47.0124 31.5559614792
19.479 28.754 44.9541 31.9029272833
19.4031 32.2395 46.8555 28.9561668325
12.3979 19.7815 48.9546 30.5370243606
14.6289 18.3463 49.4889 29.4470883976
13.952 16.8637 51.6907 32.5298962091
10.3759 18.0467 49.6871 30.3276112325
18.8425 16.3821 50.2011 32.5669028173
12.288 21.4157 51.2115 32.330878233
10.5052 24.1169 48.1532 32.8387496676
10.9412 24.167 51.1603 30.9153541541
16.6391 20.4493 50.0147 37.4142165409
17.2092 22.675 48.2477 31.0406381966
19.4391 20.8816 50.489 30.7288107557
14.8411 21.3564 52.1043 26.2039479842
18.9587 24.2411 49.7278 27.8695107716
14.3506 25.5091 50.1821 29.1269367531
11.836 26.6263 50.0069 29.0658048863
16.1549 27.7248 50.0212 28.1267715924
17.7773 24.793 52.144 28.9999494035
18.1854 26.5612 48.5527 26.7860379317
11.6175 30.7684 49.5967 33.2175830373
12.4106 28.9234 51.7576 31.0886159838
14.6349 29.4786 48.5409 29.7612990462
19.1459 29.2327 50.4102 27.9889432628
15.097 31.8201 49.972 31.3600064511
18.1418 31.6277 51.0235 29.5850612239
10.8793 20.1239 53.2294 30.8348631988
12.2394 17.036 55.1851 28.5255653813
13.5053 18.7193 53.6051 27.0477661897
16.0802 18.5959 54.9745 32.5399369595
10.0415 21.9946 55.3735 28.5137368823
11.2232 24.2736 53.946 29.625901236
13.3794 21.7845 55.043 32.6997325765
15.1768 23.9931 52.1712 26.5461894753
15.9511 23.6058 55.7689 30.2523190675
16.8007 21.0479 54.1015 32.4423891476
18.4082 23.6841 54.7827 27.6582352673
10.5029 28.3783 53.7903 29.7849786632
14.1538 25.192 54.2919 29.0784631273
9.91916 26.1378 55.159 28.9747496413
18.1228 27.661 52.5529 31.3145904735
15.0287 27.7253 52.9097 28.5569606428
17.6418 28.1265 55.3662 29.3893866262
14.3108 28.6531 55.8523 29.7462192014
14.4704 30.7562 53.1505 28.9180479249
13.0877 31.8474 55.1271 28.7811387747
11.7589 29.7982 56.0074 30.3011285096
16.5937 30.6831 55.1453 28.6573379634
19.0485 31.2521 53.626 27.0353151273
13.5883 36.7136 5.86342 29.4384196035
14.548 35.0505 7.72001 30.7522641239
13.991 33.9187 3.73167 30.8403832471
13.0638 32.774 6.09797 30.7827333775
18.5213 33.9547 4.16623 28.1021907197
16.7992 33.3298 6.79946 34.2025098334
13.406 39.4579 6.12719 29.9581611681
10.6939 37.6348 6.52219 33.2040154833
17.7481 37.8206 6.38507 28.9374327237
19.1457 39.8328 7.08855 26.3223247326
15.7959 38.2349 4.59963 28.2689933898
11.0219 41.0478 7.02218 34.2461889323
10.7446 43.6488 5.63907 33.3772281096
16.9705 43.1898 7.56158 33.0732554259
18.1967 41.7987 5.6484 26.898241369
16.3858 40.8873 3.98277 30.4994660018
18.8991 44.5234 4.55048 30.2239499509
12.4432 45.8234 6.37323 34.3972542996
12.3323 48.1809 4.79514 29.7727627883
16.2612 47.8915 7.09066 32.3339773103
15.3397 45.2649 6.25076 38.7681545206
18.7402 48.0262 7.65958 31.6634879607
19.2845 47.7398 3.68817 28.5570589764
12.1052 33.1464 10.0228 31.9662528345
13.1803 35.5631 10.2678 31.6336790813
18.6331 34.3256 8.84891 30.5997722163
11.1785 37.5182 10.5302 32.5726013695
12.2384 40.0055 9.55677 31.7748790111
16.5944 36.9264 8.53287 27.6937563929
14.7778 39.1104 8.49411 29.9750420603
18.3532 37.3838 10.5942 29.700868867
19.1325 40.1269 9.81139 28.0136625056
11.0096 44.1308 10.9135 29.0935393103
12.5519 41.898 11.5608 28.6707065576
18.9823 42.4886 11.6352 31.0123342891
16.1675 41.1074 9.26129 32.0752184126
15.1164 42.4922 11.457 30.7164793852
10.1586 48.0676 8.70641 27.3457155256
12.3489 46.1673 9.25076 36.2253957485
13.5679 48.1941 10.6305 28.5192474471
15.7927 45.1372 12.0072 36.0744124744
18.8796 44.965 8.19407 27.343786279
18.3664 45.0263 10.868 36.1619039102
12.626 34.843 14.1804 29.1500778676
10.4823 36.5347 14.5491 30.2073975543
14.7062 35.9319 12.4585 32.9114802471
13.9895 35.5241 16.4305 32.5322008038
11.1217 32.8571 12.8358 31.4238311992
19.4326 35.142 15.0585 27.6040998687
17.1173 33.5236 15.3185 28.6493157229
16.913 33.7631 12.4543 33.2578452684
19.6618 35.0042 12.5474 30.5315897436
13.6855 39.572 13.0829 33.1857697726
10.9797 38.7563 12.8309 30.6510068621
16.3664 38.2509 12.5566 30.2955397688
18.0876 37.6202 14.7573 31.4534347407
14.1319 40.9931 15.5834 31.452969067
12.2171 42.9949 15.3677 32.0119274235
12.2509 44.9277 13.3177 32.9780667437
16.4274 42.2744 15.6452 36.3963987813
16.7684 41.1355 13.17 29.6952810169
12.4706 47.6677 14.59 28.5630273488
14.7415 47.7672 13.0552 31.2906837947
17.1866 45.0085 14.7875 36.1473923645
16.4642 47.2743 16.4613 30.3101022427
13.9352 33.2008 18.2065 31.3924466051
16.714 33.7542 18.686 27.7371425878
18.6213 36.1229 18.4548 30.3702040198
15.6014 34.7582 21.1356 29.5139552462
12.1375 37.301 20.5182 31.6189901657
12.2981 37.5543 17.741 35.2127060232
13.9574 39.939 18.0541 31.4894439499
11.346 39.7619 20.9552 34.5323874157
16.3235 37.1657 16.9094 33.0065423586
16.6093 39.5072 18.4657 31.5997559276
18.3375 40.8493 16.8294 29.7789630576
18.8949 37.3307 20.9579 27.1233514179
12.0734 44.8226 17.3491 32.9646774998
13.339 41.5801 20.1955 33.4995928878
13.1757 44.2456 19.7241 33.5838486727
19.0112 44.3576 19.5646 34.3047977926
11.7091 48.8009 18.4894 28.7715699648
13.5515 47.2405 17.0208 29.6105126956
11.1344 48.0079 21.1726 25.9635079649
10.8723 45.3038 20.9394 32.425665501
18.9162 46.6524 18.0219 30.0621642572
16.5061 47.7807 19.4669 29.0774792089
15.0711 45.9833 20.825 29.9607095561
13.3384 33.0522 24.1295 76.4563586861
11.1536 34.9443 23.8288 43.568667902
13.4042 32.7352 21.1938 24.5606490784
11.3026 34.6055 21.2377 30.085024204
15.8937 34.2177 24.2739 76.3292933865
19.0979 34.8174 23.9426 60.4378519429
18.3295 34.5868 21.3172 24.5236701147
14.5595 37.2536 21.7925 29.8907387604
12.4234 37.218 24.4554 96.4755156382
11.7735 39.8081 23.6288 34.9439049819
15.2055 36.9643 24.5683 85.4328110615
17.2045 38.9226 24.2207 55.3700643819
19.4879 37.5721 24.1749 64.5484001607
16.6574 38.8169 21.2056 28.7560361988
14.1043 41.3729 24.3656 81.2258645424
13.3605 43.9846 24.2898 88.8463879928
17.0019 43.9915 21.5811 32.2083387238
17.7868 44.4897 24.342 81.0585642582
17.434 41.7477 24.4857 77.13080405
15.696 41.7744 21.8223 31.4022375308
13.9296 48.3684 22.0614 28.2548444404
10.8172 45.3339 23.6753 39.5043471006
10.1441 47.9742 24.0135 69.6509586448
16.1025 48.6838 24.2951 87.1474329405
18.7844 48.6074 23.5593 41.7667079257
15.2555 45.7897 23.8379 46.9733289262
11.7558 34.0691 35.695 62.4536909446
10.8429 36.4738 35.8568 61.8916581951
13.1891 34.2391 37.9593 27.078166438
15.0385 35.0381 35.5354 83.8092980649
18.9984 35.2582 35.9678 63.0171248125
18.794 33.9366 38.7262 29.5983329723
17.4995 32.9355 35.7539 73.0536264334
11.3754 39.9723 35.7352 74.1387994122
13.4722 37.5022 35.4545 77.6042667779
10.9744 37.0609 38.4399 30.1449904333
10.9683 39.7362 38.7133 29.4554859181
19.5193 38.6817 35.8629 69.3975481488
16.9025 37.2939 36.4121 36.7838803128
15.4484 39.6134 35.6456 76.3510285164
10.1584 44.059 35.6321 81.4956506177
13.6774 41.7245 35.5333 73.6375570292
12.6412 43.8055 37.4361 28.400095964
15.7111 44.1163 35.3813 93.9486782548
17.0392 41.8456 36.4613 33.3767960544
19.6717 41.4901 35.6236 95.3627541842
17.748 42.7533 38.8798 29.7334024985
14.093 48.0658 36.2434 38.571530843
10.3466 47.7104 35.7347 66.8345087506
10.1922 47.6521 38.5661 30.6552022435
13.0033 45.7337 35.3991 91.8846581575
16.5343 45.3631 38.6429 25.6627164571
16.5227 48.9066 35.9202 78.053400776
17.1862 46.0732 36.1247 46.6233457917
13.1606 35.8465 41.9431 28.1754474866
13.7707 33.0354 41.9074 28.0094241553
11.5736 33.3317 40.203 31.9219506007
17.765 33.4327 41.3841 30.014281645
16.0447 35.2781 39.373 28.1818708516
13.7918 36.9494 39.394 29.5119699911
10.4526 36.7997 42.5737 30.7743050727
10.7877 39.6731 41.8171 31.7665618259
18.7673 37.589 42.1558 35.2986926586
15.3343 37.2611 42.8129 29.4024153297
15.2438 39.1443 40.6031 33.6422757293
17.5746 37.5667 39.7548 29.827922582
12.7199 42.9827 41.9767 29.5998768433
13.9759 44.6897 39.6336 28.486201664
10.3057 44.4781 41.7375 29.4398798712
10.2412 44.1217 39.0074 28.2292964448
13.202 41.0789 39.9557 35.1655540468
17.9493 42.4258 41.5931 32.285306737
15.9748 41.0938 43.2428 28.6335296178
15.2447 44.0402 42.4283 28.3665767867
10.3769 46.7071 43.1249 31.3043292149
12.8897 47.2386 40.1494 29.9144634448
12.8435 48.1844 42.7217 26.646231019
15.7111 46.7851 42.7439 27.8853537011
18.3805 45.2093 41.2336 29.7035793156
16.3926 47.4831 40.0423 26.9395660505
12.1165 33.7123 44.7595 30.4021787013
11.4376 36.3061 45.5071 27.5438916828
10.05 32.9362 46.4831 28.2502128191
14.9469 33.558 44.6737 32.0297785778
17.3057 35.1728 43.6466 32.3496911308
19.2938 34.7345 45.5717 32.0785003008
15.0799 33.548 47.7124 32.6845841218
13.6289 38.1935 44.7875 29.6744291787
12.5609 40.6282 43.9947 32.2117870385
18.3688 39.9742 44.189 33.381065837
18.0017 39.3231 46.8854 29.8058590921
19.6214 37.0291 47.1362 34.3164720414
15.3065 38.2076 47.0952 30.860505223
14.4801 43.9724 45.2068 27.2685809943
12.2646 42.3729 46.1982 32.1929749318
15.4173 41.0479 45.8313 28.6928450401
16.7808 44.5322 46.8557 32.1447334046
11.7664 47.167 47.5721 30.4891655089
13.4179 46.5398 45.2829 29.689631283
17.5529 48.204 44.0304 30.1395265024
15.393 48.3323 46.0029 25.8969205204
19.5369 45.032 45.6341 33.6957487025
12.0492 34.9922 51.6493 31.7430963293
12.737 36.0341 48.2169 30.6680733416
11.1903 33.7587 48.9331 29.2551834703
14.7717 35.3243 51.5321 31.6683716259
15.9028 35.8907 48.9036 31.951487378
18.6339 35.596 49.386 30.4024498361
19.6765 33.0993 49.4367 28.8012541745
12.1593 38.7263 48.3767 32.488254698
11.5458 39.487 51.0065 32.2615963768
15.4895 39.6137 51.8343 28.2822507478
18.1806 39.4394 51.3067 33.6322127469
14.9427 40.3873 49.218 28.7521404981
19.5216 36.8616 51.6277 33.491785308
12.8998 43.867 51.6201 25.5156199931
13.0075 42.3753 49.0242 28.4563215148
10.0054 42.1919 50.2296 35.9498954928
17.0972 43.7243 51.288 31.1883978196
19.2202 41.0616 48.994 35.3321977253
16.8034 42.6112 48.7183 29.3792252751
13.7034 45.1378 48.5125 28.6063346873
10.8879 48.1035 50.3076 29.5316750576
13.7839 48.818 49.6293 28.5945980457
10.6426 45.1437 51.0729 33.2647378007
16.1153 46.6705 48.2826 27.824641247
18.5535 47.079 49.7432 32.7234107172
19.591 44.9807 51.386 27.4455670085
14.8255 45.6189 51.264 28.8678687609
11.2831 33.7171 54.0553 36.2212494025
11.8956 35.632 56.4492 31.9384165373
19.403 35.8478 54.1222 34.870884751
16.0727 33.2534 52.6819 31.3295744238
16.4275 34.0678 55.4869 29.2180495179
12.5129 38.0362 54.8206 32.9631770545
12.8799 40.5468 56.5727 34.1725792295
14.6682 37.4496 53.3649 30.6420328162
11.0671 37.2943 52.6225 29.154227476
16.6055 37.0263 55.2914 31.2585760699
18.1865 39.591 55.5737 29.8562527448
12.585 44.2861 54.5885 31.8691107383
10.1144 41.1283 56.1129 31.3726102639
10.2382 43.8108 56.1215 27.7036588458
13.1964 41.1935 52.7122 30.9611352497
16.3928 41.9276 53.3135 30.5591738342
14.9007 42.7723 55.5878 30.3091004366
19.2831 41.0449 53.4012 29.0751351573
13.6242 47.9343 52.5526 27.9135524053
12.9184 46.9487 55.4608 31.169976803
10.7332 47.5031 53.2071 29.9084578197
17.2751 47.6581 52.307 29.7185778969
15.5522 47.5305 54.9929 29.0508472552
19.0472 46.7475 54.2837 29.6408968393
16.0999 45.0802 56.5487 34.2099083434
22.3599 2.18437 6.01483 26.852894014
21.5047 3.94342 3.518 31.2112664472
25.0924 2.6597 6.60027 28.1890668164
28.1277 0.433351 6.99269 27.9908204681
28.8509 3.1672 6.90738 29.6065364982
25.44 1.39328 4.20385 29.1037006016
27.9451 0.290052 4.32117 26.7678712058
24.1323 5.26861 7.08227 32.1732132742
22.4497 6.39301 5.10814 30.7154142309
20.5092 7.37912 6.91639 28.3432176558
27.0189 5.2687 3.88385 32.5904750117
28.4876 8.00377 7.03905 30.9075800296
27.0346 5.65945 7.00383 29.2118845423
26.7734 7.98943 3.52614 29.0991060529
23.8333 10.5127 6.05724 32.2332407532
24.1769 8.40901 4.13196 33.8549613497
19.9668 8.36083 4.05388 32.2757020227
28.1326 9.95855 5.09164 31.6177643604
26.19 11.3991 6.75015 31.2127671711
23.3202 13.4729 3.86586 32.2270491916
21.9196 12.2589 6.43745 34.195265319
22.2807 16.2631 3.70256 31.2272541257
27.8062 13.9768 4.20841 31.7004435429
25.4861 13.7595 5.48884 27.7980298492
25.1758 15.7577 7.32548 26.5217053852
29.467 14.051 6.33157 29.2200309844
23.149 4.03836 9.81815 27.9805707827
23.1802 1.69652 11.1152 25.9941824789
21.0486 3.22633 8.0794 28.6442838501
20.3075 1.24193 9.63057 28.1915736075
25.942 1.34235 8.83249 33.1939397341
26.0127 3.53135 10.5125 33.9624514669
22.46 6.13117 11.7383 30.836296106
24.3286 7.7565 10.1555 32.3329880514
28.7962 7.372 11.2282 30.2923635851
26.6428 6.08917 9.74556 31.7950166575
21.6704 9.18016 12.0394 30.8840107697
20.4561 10.3073 9.7081 28.1135686378
22.3405 8.89431 8.17844 33.5685207299
29.385 11.2592 9.78185 29.4372639904
26.5695 11.1331 9.70115 35.171954963
25.3629 9.57755 11.9255 27.5740023033
22.9679 13.749 8.60353 33.3865575504
21.9575 12.5768 10.8476 30.1193086719
28.6545 13.8705 8.83362 26.338079449
27.4394 14.8414 12.1975 32.5863766441
26.034 13.9529 9.57358 32.1558169671
22.3404 3.41827 13.125 28.350523022
23.0503 1.02135 14.6251 25.5148107287
26.1611 3.76342 13.3736 29.0458658128
25.8577 1.39604 14.251 32.3001729566
24.1461 5.26878 14.419 29.4471041537
27.3732 7.0576 15.0834 29.8018126487
28.4965 4.61108 14.0348 28.7441806824
24.8059 7.99091 14.3603 31.7999063657
21.2226 11.1699 14.1077 30.3796718031
23.7935 11.769 12.7923 31.1858995182
27.9874 9.04354 13.069 28.0994608172
27.6306 11.7457 14.4496 31.2225674956
22.6088 15.7059 13.3862 29.5731093258
20.6493 13.7997 13.4059 27.6037406914
25.2671 15.8847 13.769 29.0262215667
25.2621 12.8771 14.9305 31.9757456731
26.4842 15.9937 16.2553 32.0555522339
23.7054 3.26001 20.8908 24.5640323162
22.1412 1.07983 17.2279 29.4086376802
19.9764 2.3429 18.9451 31.4338794358
24.0031 2.84703 18.2657 29.8615123687
21.6836 1.07783 21.1406 30.5274780841
27.1509 3.03937 20.6818 32.5613735878
26.1944 1.54952 17.16 30.0862447762
27.9298 3.68948 17.9832 29.5722058704
25.4257 0.727558 20.9995 29.3982148699
24.0585 5.5518 16.9478 30.0366242539
21.4651 6.71071 17.5913 39.7320547921
21.5593 5.13139 20.3852 31.4631529557
26.3424 7.46492 20.008 32.275665083
26.7835 6.27006 17.7442 26.4679906239
24.0364 8.65728 16.8643 30.6217821583
22.0811 11.1524 16.919 30.2752479906
21.442 9.33783 19.1112 29.9112331136
25.5896 11.5025 19.9762 28.6199219639
26.362 9.72797 17.788 30.2765499646
28.7912 10.8557 16.7512 35.6013112027
24.0942 15.3155 18.0696 30.507273688
20.527 12.7248 18.3186 27.1635833305
21.0747 15.3737 17.9324 28.9807735925
24.4297 12.4783 17.5997 29.9797647368
22.717 14.8772 20.8922 25.6462668544
21.4379 12.4733 20.9381 28.1768637221
20.2241 16.1721 21.1042 29.9280743525
25.6476 14.463 20.8312 30.8153487467
29.2682 12.5045 18.8314 30.6623569508
28.1438 14.9818 18.9949 32.373186046
21.3675 1.25758 24.1041 64.8897201172
23.8874 2.46397 23.8911 53.2538659448
26.4103 1.18561 23.7827 65.5996193237
28.3099 3.40442 23.3581 34.8170265803
24.2666 5.09114 24.4919 98.5632486692
22.5295 7.25495 24.215 68.1887087646
22.8506 7.30874 21.5167 32.6380612261
19.7394 6.1454 24.6918 120.8828326363
26.9134 5.60427 24.1593 78.0030642316
28.4182 8.0778 24.1592 88.8213973894
25.2887 5.44827 21.5647 28.8165468857
22.8708 9.96724 23.9899 65.7116887286
20.4323 11.3637 23.5744 54.7600823967
23.4092 10.285 21.1828 30.5599033261
27.0106 10.7592 23.6985 43.5996328715
28.5947 8.35473 21.4105 32.3155799438
24.9593 11.9619 24.5428 127.708208131
28.2714 11.2725 21.197 28.4747034818
22.9207 15.6002 23.7325 39.0182223079
20.6549 14.0987 24.068 85.0999525035
29.3972 12.5343 23.9757 73.6354635377
25.5139 14.6707 23.8276 48.0457901834
22.4442 3.18988 35.6132 90.3293389325
22.7278 0.893806 38.1153 29.792331788
24.4395 3.27304 38.0719 29.2709774785
23.3448 0.502698 35.454 94.7020331094
19.9333 1.58997 36.2705 51.9444063142
27.6142 2.2945 36.2398 41.3355173446
25.9673 0.176737 35.7609 82.3835515121
20.1675 6.63879 35.837 99.2155217558
21.2824 5.07001 37.6127 29.2524835239
25.8325 4.35015 35.5314 119.7404295928
26.752 7.04942 36.3129 51.3304121976
20.1801 9.08724 36.464 38.3698975928
22.9733 10.0624 35.9984 104.0819456419
23.0291 9.50553 38.8839 27.3119551444
25.8931 9.87438 36.0587 74.9701985897
25.7578 10.4767 38.8211 31.4910055939
22.83 14.9978 35.6932 113.50891762
20.7437 15.9474 37.5453 30.8974783121
21.8351 12.5401 36.8436 35.1990024816
25.3911 14.7667 36.4626 44.3359791711
27.0651 12.4317 35.845 82.8349622859
27.0394 12.959 38.8297 32.9709380109
22.3135 2.40974 41.1113 29.5197108253
20.6817 0.21603 41.4589 26.8783188769
19.9617 2.86989 38.9201 26.5317592319
28.0542 2.31219 41.9381 30.6512074464
25.5197 3.59642 41.5039 26.8771605839
27.1123 1.79926 39.1356 27.002261529
24.6919 0.654338 40.7831 29.6364019881
22.7107 5.19099 41.9814 28.8082664453
22.6062 6.58817 39.441 31.2826416703
25.2225 5.63428 39.6555 30.1803415851
24.8799 7.019 42.5895 30.1134674346
28.1235 6.96603 42.6492 31.4587624145
27.7072 7.06865 38.9848 31.7578261323
21.6522 11.8456 39.5517 28.6993567017
19.8256 8.32827 38.9136 32.7906445207
23.8119 9.46632 41.5728 29.9541161935
21.3196 10.2715 42.763 33.7361630121
27.9375 9.44426 40.5591 31.6568944039
28.9047 10.7163 42.9288 35.1373300601
24.6905 11.7895 42.8176 38.9465288593
22.344 16.0307 41.7361 31.6410955263
21.5689 13.0727 43.3122 30.3865719726
23.3808 13.5325 40.8521 31.1479968413
29.3906 14.0643 39.9608 33.6584969061
25.2989 15.2372 39.4001 33.8126149814
23.2824 0.243017 44.8655 30.540160893
22.2387 2.73579 45.6646 29.2463049226
25.8204 0.421482 43.6067 31.3731734037
26.8185 2.1859 45.9216 30.2411414566
25.0117 3.98639 44.3621 30.2146476531
21.7728 5.30144 44.7672 28.9032908863
24.0949 7.10445 45.5463 30.4531333193
26.9101 6.26188 45.1775 30.8710590395
28.6342 4.32778 46.6431 29.7092576219
21.7821 8.96727 45.3244 30.6349901894
22.9468 10.587 47.2484 26.3276371755
27.8816 10.4669 45.5928 31.4513576815
25.2854 11.0218 45.3583 31.5593869191
28.5477 8.22688 46.9508 29.2940410021
28.9327 12.2052 47.7209 29.6355254708
22.3318 13.7384 45.9336 31.0954680561
