2.25274 2.12872 13.7823 30.7341342093
9.3775 2.55591 15.2849 28.4599205791
6.79011 2.42984 12.5824 31.0285870704
7.92821 0.381786 14.088 28.4004562587
1.01625 4.27415 15.2744 29.4384888314
2.28717 6.64238 14.6027 29.4747575249
7.26025 4.40438 15.0616 29.0482593224
7.75083 7.08888 14.8346 29.0142333743
4.19793 9.43978 13.1702 31.5995798901
1.32698 8.95181 12.8874 29.4276932801
2.77166 11.4472 16.6492 32.891046146
0.446067 10.7129 15.3823 27.3102556163
5.27931 10.956 15.2971 32.3653766278
8.32751 10.0339 14.183 27.4153481373
6.41899 8.92583 16.7944 29.8986163882
0.986383 15.7556 14.7923 32.4614986806
4.57154 16.1829 13.7762 32.1274464517
5.54451 14.6348 16.0025 31.958151669
8.45702 14.1984 12.9159 28.5639264771
7.73886 12.4937 15.2656 28.796172877
1.80838 0.164712 19.3462 27.7995843373
3.00229 2.40508 18.2507 26.5069290773
4.5697 2.17707 20.6552 27.7318608278
6.02732 0.574338 18.31 29.1886998759
8.13406 2.44484 17.8157 28.6663339269
3.84396 7.06405 17.0744 30.4819877953
1.25125 4.11747 18.0632 26.7481206624
2.00259 6.47149 19.1835 26.7007475075
6.43431 4.57477 19.682 28.4207760405
5.32812 4.71269 17.1742 30.8456613433
9.2114 5.15969 18.7298 33.9424701606
2.1895 9.55096 18.6881 26.3553149665
1.86022 11.1215 21.1497 26.0616312897
8.48767 10.1679 18.1261 29.1136347516
5.00503 8.86141 19.48 31.3517050093
7.53082 10.4987 20.7016 27.9131540005
1.02355 15.0673 18.6497 32.7521152051
4.53533 14.0102 20.5323 31.9996044889
3.33619 13.73 17.7203 34.2383041022
0.313289 13.214 20.5588 27.0148413271
7.21953 14.5456 18.6872 32.9454568043
9.20689 12.4552 17.5942 27.9830860263
2.12524 3.51658 21.9069 30.0375187506
3.45015 2.20461 24.0119 67.0300314319
0.0778972 0.99922 21.6749 30.2168048391
5.92996 3.44358 24.3575 86.4951542406
7.38779 2.78655 21.9171 28.0248524153
8.13602 1.43475 24.4931 79.5650187545
1.65169 6.28206 24.4152 87.997696537
2.72721 6.27639 21.7273 27.5962801339
8.98477 5.00109 23.8386 50.4783909036
8.10104 7.87587 21.5446 30.5055330992
5.67166 6.68293 24.0758 55.72340204
5.47635 6.59264 21.3354 28.0866279666
4.56638 11.1352 21.5386 30.1507719505
1.2822 10.9343 24.0804 47.5729187654
4.24404 11.6177 24.3159 70.538292413
3.53731 8.58848 24.6544 97.134348195
0.651614 8.58712 21.4462 27.8743086111
7.22255 11.3561 23.6191 35.3112910492
8.11177 8.49198 24.3789 91.1299112491
3.8287 14.7919 24.4231 73.0562308066
0.922653 13.8023 24.6749 94.8590157887
0.783032 15.3388 22.2023 26.5269957155
6.96447 14.298 24.5121 88.4327296052
9.66773 12.8367 24.4112 89.4408862864
7.06369 14.25 21.7844 27.6820062947
4.04697 2.09379 35.4778 115.9045417994
1.31322 2.22816 36.1047 41.6890472525
8.4334 0.205921 36.3788 47.3916907603
5.72654 0.0286931 36.0362 52.394789621
4.72154 7.12794 35.441 112.8710137486
5.03285 4.54554 36.2448 40.7703524731
7.7235 4.15545 36.2857 45.2283421172
8.74375 6.81116 35.7527 74.3598782174
7.68724 8.03183 38.525 30.0605603142
2.10002 11.8979 38.4665 26.3556661154
1.6824 8.91352 38.7832 30.1233197397
2.21871 8.54993 35.9733 50.2021365112
1.56147 11.1085 35.6665 80.8566954486
4.83903 10.6344 36.5077 37.3987433776
7.30396 9.18663 35.6862 82.8533713878
4.29036 15.8862 36.0047 49.8058496667
1.65806 14.763 35.6442 76.1438949703
4.23995 13.518 38.6078 29.1875858922
5.50058 13.309 36.0334 79.4017298315
8.35725 13.1716 36.4107 43.2754871529
9.83157 15.3596 35.5212 104.4749082449
2.91493 1.22363 39.9431 30.5721661724
4.31716 3.25964 41.0794 30.3324526829
0.462825 2.35768 38.9564 31.0529508608
8.43442 3.79715 38.9207 30.4883783886
8.35121 0.853243 39.1947 32.315350761
3.89812 7.58523 39.9082 29.7063889401
3.22188 7.12131 42.6491 30.3302792634
1.20612 5.12014 39.7654 32.8726975474
4.50161 5.06889 39.1241 30.0931878413
7.00641 5.07901 42.5249 28.701192356
6.93498 5.6968 39.981 28.9753678288
2.01663 11.5731 41.2529 33.992014252
6.77878 10.9644 41.4662 33.8743080405
9.10412 9.65595 40.5637 31.2179377404
5.37292 9.73407 39.0299 32.0321251141
3.44881 16.1141 41.9983 27.2728601082
1.19507 14.3216 41.0191 29.9258929378
6.25251 13.7622 40.6479 29.4994097607
8.58588 14.1042 39.2841 32.2876839916
2.72858 1.60532 44.4207 29.0712427119
4.90653 3.12031 45.6162 28.1678377331
1.47544 2.04585 46.8422 29.2773290539
8.57678 2.43301 45.2754 29.0783969866
6.33106 2.60774 43.2933 29.4924122096
0.296175 4.1674 43.9227 30.1133336914
2.9778 4.437 43.2348 29.2208507037
0.639735 7.01073 46.0914 29.4795165234
2.98171 6.78669 47.4118 30.7739092505
9.73377 5.54641 46.3292 31.5607180335
9.44554 4.71074 43.5655 30.9218453956
5.27379 5.87963 46.2292 31.8135356949
5.80356 7.36913 43.7833 35.0342136272
0.911233 8.28805 43.6411 26.7603632861
3.37238 9.49157 47.1294 31.5231994528
2.53252 10.1002 44.5854 30.4785090113
5.48046 11.456 43.9887 30.372059581
7.28074 9.61523 45.245 30.7625059886
9.65648 8.40244 45.4034 33.4513676703
5.89474 10.0418 47.4718 29.7587665901
4.43585 13.9048 44.3007 30.8087499362
0.494492 15.8924 45.5435 26.5357735291
1.68822 12.7381 44.2129 29.418363667
4.54849 14.8231 47.037 32.292774511
9.04818 13.0558 46.3104 31.97377249
7.62502 13.6468 43.5556 29.7581106378
3.12351 2.88077 48.8833 30.1021626384
5.71502 2.50864 50.7824 28.3896476472
5.85571 1.70349 47.8461 28.5599749325
8.44349 3.47708 47.969 29.8822062782
3.15362 5.90064 50.0989 29.5663239952
0.397814 4.29807 49.6858 28.8958705789
7.3848 6.44701 48.0712 31.2923800452
7.44574 4.54543 50.652 30.5573708654
5.62139 6.73939 51.3186 29.328451062
2.54207 11.0547 49.6588 30.8217348319
4.90762 10.3869 51.0653 31.5383151279
7.35559 8.56562 49.6485 30.4404435686
9.47717 11.2542 50.9994 29.6718643583
0.877978 14.1128 49.9425 27.9163172215
2.01323 16.2363 47.9355 28.029031147
3.63019 13.4936 49.7862 29.5727695117
6.68413 12.9114 47.8743 30.6750511195
6.94378 12.5923 50.5765 28.439193691
9.16208 14.6539 49.2427 33.4058468229
2.64341 0.06813 53.2653 26.981806842
1.26719 2.52527 52.0636 27.1160311693
3.28926 1.11856 56.1648 28.1989911236
3.64941 3.891 52.1255 27.4618637057
0.458696 1.90663 55.9966 28.3123622089
9.30392 3.26671 52.4662 30.1642664786
6.17193 0.557213 52.6746 31.7344090103
5.42117 2.29039 54.5964 32.7227516502
8.82166 0.541987 53.1955 34.3074897703
2.40687 7.64348 52.2785 34.6074597999
2.70598 4.24898 54.9059 28.3400024554
3.42593 6.83974 54.9131 28.0685880201
9.81061 4.37563 56.0417 26.718479319
6.0395 6.62058 54.0141 28.0363314211
8.88902 5.89589 53.7744 29.5494029996
0.37764 9.34653 53.4835 31.013874134
1.23153 11.8823 52.2126 26.2881240311
3.6067 10.1736 53.1617 28.4833942914
9.25391 10.9082 53.8652 33.698416028
7.59861 9.05044 54.8483 32.515611868
5.05625 10.6095 55.8527 34.2912031773
3.696 13.2555 56.2311 30.6308771
3.94984 13.4725 53.2468 29.5099485314
1.49252 15.3762 52.5162 30.3685135265
4.036 16.1121 54.9509 27.3923791939
9.48143 13.1615 55.5793 31.1691178796
6.16394 14.5035 52.191 30.0402260418
7.89849 15.3771 54.4419 34.2629894155
4.77908 18.9722 7.37322 28.897050542
0.366905 16.3559 5.24634 31.6952546795
3.45971 19.931 5.07185 30.1121280209
2.3743 17.7667 3.75039 33.4810841929
7.03562 18.5341 5.34338 28.0354572136
9.35477 17.9253 7.38065 30.5963933424
9.36147 18.6752 3.79204 29.6646828684
4.39887 24.0292 5.97684 28.6475183378
0.66301 20.6132 5.73504 38.8911926671
1.44167 24.0049 4.95305 28.9732209988
2.50726 21.1206 8.03631 29.7789429513
6.82788 21.1549 7.95819 27.8912757445
7.17352 23.6608 6.78742 27.1471724144
6.12282 21.295 4.50254 28.0078453151
8.06615 23.8911 3.84544 32.8509922749
1.90311 26.7324 5.53339 31.2706631082
4.80708 26.9438 5.3679 32.3755063135
1.35987 27.9299 8.0657 30.6769795255
7.64126 28.0616 5.6405 32.3714034942
6.51628 26.3724 7.84975 28.646116403
2.02636 31.7435 3.99305 30.3831841902
0.857989 30.9866 7.33119 30.1880164373
0.634343 29.2911 4.94412 27.7453320404
4.2802 29.82 4.24363 29.905744495
8.62443 30.5878 4.26601 31.2453905972
9.20971 32.0801 8.04462 34.9989772747
5.0627 31.1251 6.92718 33.5181676063
3.69357 18.581 9.89064 30.0460472438
1.48074 19.7933 10.7606 31.4475247089
9.45837 20.4228 8.10752 29.5378560874
8.41252 18.2673 11.7101 33.0944287859
5.90261 19.3555 11.3736 33.4924000746
4.03315 23.1652 8.77244 27.5378146564
0.110179 22.342 10.0342 29.2423023922
0.98192 22.6409 12.4705 30.2568928925
7.61002 24.0714 11.8525 32.1093526313
6.00588 22.1802 10.2155 31.4609258482
0.249428 25.3757 9.3678 30.7782224252
3.22692 25.1985 10.0738 31.3385358729
9.37441 28.0883 9.97373 31.8751899455
8.97582 25.6442 9.08569 28.299091761
5.2278 27.2628 10.21 29.2283611884
7.06411 27.0661 12.2798 31.7715959272
2.66339 31.3757 9.65335 28.0474166839
1.40555 29.1994 10.6294 32.1929805759
5.28356 30.0631 9.83631 31.0488292126
7.72179 29.6292 8.20592 29.9860189626
2.95635 17.7669 15.2641 33.1518278988
2.41108 20.3459 13.4968 32.8999027113
9.65901 20.0984 15.8038 28.9950958138
5.85038 17.6072 16.7209 30.2408101434
7.33537 16.8052 13.9422 29.6378143296
9.51811 17.3108 15.6711 34.1184699559
6.96614 20.791 16.33 29.5481781014
5.22132 23.247 13.3863 29.2546684226
9.23608 22.751 14.0262 32.3326389956
6.63602 23.5886 15.8761 31.5616051847
5.06933 20.698 13.7853 33.187108272
1.54691 26.0504 15.4324 32.3514942641
4.84388 26.7026 14.3566 28.7510017729
2.98371 24.6591 12.8628 32.0217085094
6.79193 27.5353 16.5156 28.4493797335
8.90296 25.5385 16.4818 31.0561400771
0.227166 28.8715 15.5106 30.4768076613
2.07327 30.7417 14.2702 31.2700831364
3.57214 28.6114 15.8792 25.9821820375
3.60704 28.8316 12.5865 29.2110488268
8.26881 31.2661 13.1046 30.8116607568
5.29877 30.6115 15.4667 26.0526060278
8.3808 29.552 15.7868 30.3752938945
5.65612 30.857 12.5248 27.0814797717
9.43083 28.6053 12.9016 29.3823346446
1.50757 17.7762 19.9708 30.2685098417
2.26649 19.5899 18.0154 34.0802065855
7.99383 17.3314 18.3091 30.6068922708
5.03025 19.6459 18.4748 31.4644294014
0.901713 21.8788 20.6518 24.7886789883
0.822065 22.0997 17.9904 31.7895750678
7.63255 21.2598 19.1903 28.1822290253
5.59082 23.2883 19.9324 30.1070340751
1.40337 24.9513 20.8166 26.2166432691
4.58992 24.6212 17.8988 32.7314551218
4.9138 27.3115 18.8279 29.7876448279
0.436495 27.5785 21.1466 28.7151299001
1.94293 24.6745 17.8042 30.5111206562
9.39481 27.1924 18.8868 28.4315009679
7.21016 28.5173 20.1409 29.3579559889
0.880281 31.8448 18.2565 26.4616855256
3.54101 30.274 18.3787 29.6502337163
5.73364 31.9412 18.2132 28.8478395825
7.18776 31.3699 20.3575 28.4320096765
9.81433 32.2665 17.2385 30.8283682212
1.03173 19.8834 23.9589 46.6655312848
3.123 17.7342 24.1516 60.0836970969
3.6684 16.622 21.5075 28.0616897105
0.0728422 19.5966 21.4928 25.7813040532
4.65024 19.3897 21.4045 27.4819837635
5.63508 18.6271 24.2919 66.6403702631
7.89438 16.8865 23.8018 33.1150163036
6.83362 17.0025 21.3434 27.0224757594
7.73384 19.9394 21.706 27.6006031018
2.96029 21.977 23.9172 51.8741237731
2.07511 24.4837 23.4578 34.0720428183
3.48774 21.9931 21.3352 27.9518181447
8.32697 21.493 24.022 51.5689813649
5.52655 21.3101 24.6151 89.023276085
5.94322 24.3395 24.5506 82.6346353611
9.3591 22.853 21.6493 29.3453653098
3.98612 26.5382 24.3908 86.4887484993
3.82323 26.7261 21.4205 26.6499670932
9.23091 27.3382 24.1348 67.5314836654
6.54025 27.7988 22.9384 27.7921655826
8.92233 24.6011 24.3509 72.772541858
6.14473 24.8869 21.7554 26.7541643913
8.7796 25.8476 21.3769 29.4028762999
2.93857 29.6456 21.4187 26.4611157913
2.26474 28.8449 23.9882 53.5583766427
4.66772 32.5998 24.5426 73.6120753574
2.12129 32.0611 24.5362 87.3183631601
1.81997 32.3751 21.6285 30.6489931833
5.0841 31.3418 22.208 30.0677965421
8.9204 31.5203 24.4356 69.7460929833
6.41603 30.0261 24.5483 91.4376522863
9.57761 30.3713 21.8867 28.0293761984
3.35085 19.9835 35.9317 46.3516286275
1.28607 18.1923 35.382 93.3975483093
0.970097 16.4209 37.7113 28.9309257597
3.87537 16.3912 38.6433 27.389419346
5.7864 18.1347 35.5511 88.569782275
8.65697 17.8778 35.8417 68.4695632882
9.05166 16.5165 38.5559 26.4334411871
9.69239 20.4178 36.4361 35.7125331918
0.0485684 20.7489 36.0406 42.8582930202
1.66298 22.7734 35.6895 70.3823229369
4.5334 23.468 35.4048 86.6511876735
1.25515 24.1639 38.1891 26.2296799068
2.75709 20.5232 38.459 27.0474641044
6.17917 21.1245 35.8667 56.1962676493
9.36057 23.0579 35.429 103.0356132
1.30939 27.227 35.7853 65.841438357
3.9247 26.5246 35.5183 79.9827549112
4.15613 24.9065 38.1797 26.3046185141
9.62869 28.1045 38.4424 26.3586224186
7.241 24.5755 36.1979 37.4180975387
8.39461 27.1955 35.9168 64.0151388704
0.56605 31.7399 38.6822 31.019945448
3.51129 30.6566 35.5108 91.8956512498
0.987317 28.6352 37.9096 27.8587645625
0.725651 31.4336 35.8191 50.7151279322
5.4762 28.7493 35.7777 58.2761029715
8.27091 30.2452 35.9879 52.6064596355
6.87523 31.3206 38.3184 26.3234232184
5.4744 29.013 38.4338 28.5402044505
3.78861 18.8852 40.481 26.1930337872
1.05114 17.6956 40.9837 32.6861248503
6.72666 19.4058 41.3739 26.2161404767
9.63395 18.5529 42.8458 29.262511825
6.48566 16.4307 41.8394 28.7757202063
6.46661 17.7153 38.8383 29.2697298099
4.77728 22.7881 42.1562 27.736792789
3.63485 20.5111 43.0257 28.1020546812
4.1757 22.6444 39.3344 27.2781276123
0.883145 23.6506 41.1049 29.9935998743
0.104549 21.062 41.0664 28.5416624979
7.64059 22.0949 42.2725 26.4987834358
8.40461 22.2568 39.6361 25.6114250606
6.34992 20.8065 38.8221 27.2482922439
1.4456 26.9195 39.9093 29.5777724158
4.76939 26.7862 42.8691 29.8735859772
4.4647 26.8211 40.1877 28.2993220935
8.33133 25.0805 42.3867 29.9625734862
7.53248 27.4253 40.1841 28.2475075988
7.37974 24.7829 38.879 28.2084787373
3.25068 29.7075 42.623 27.4354344645
3.13615 30.0264 39.7185 29.1877353752
7.64752 32.1672 40.8913 29.1205441919
8.32703 29.5233 41.8949 27.8837913745
5.09236 31.8964 42.3388 31.6734152247
0.694474 19.0309 43.3673 29.4291117726
2.77044 17.0228 44.4211 30.3219553994
1.26748 19.0334 47.4445 28.1861237749
8.44374 20.1695 46.7897 29.7564662886
7.83271 16.6999 44.2919 29.2333863392
5.50411 20.0467 46.8456 26.6032007009
5.60428 18.8864 44.1808 29.4411128704
6.45058 17.0163 46.8743 31.6675671395
2.81809 24.3606 43.3521 29.1220485736
1.99432 23.5178 45.6839 29.4866289391
2.17927 20.7576 45.597 25.6846908868
4.61687 22.5476 46.1664 28.9644358903
6.06195 24.446 44.3099 31.0738094931
9.22728 21.1113 44.0765 30.9743461268
8.43125 22.7694 47.4409 28.8259597451
1.24213 26.1901 46.6802 32.481653
1.84242 27.3102 44.0882 31.1426657095
8.58616 27.2472 44.2449 31.0990933347
7.79214 25.3235 46.5903 31.9530980775
1.33208 30.7128 44.4102 30.3998863195
2.79602 29.1156 46.6 30.0874559691
5.76702 29.9058 46.2837 29.6722633908
6.07763 29.2473 43.6017 29.0753780692
8.36251 29.4414 47.1836 30.9125730403
5.40729 32.4271 46.925 32.3172559015
3.03228 16.9114 50.6675 27.8553818118
3.541 19.5083 49.0486 29.8281484952
5.88112 17.0038 50.7631 29.1457941767
6.62959 20.1112 49.751 30.5459587823
8.80546 19.4437 51.8843 29.7550688067
8.05878 17.1429 49.0802 26.8059585019
3.19805 21.5446 51.0731 27.2326648823
0.373538 21.8593 51.0681 30.5687958771
4.09872 23.3681 48.8563 31.5637155102
6.56842 22.9867 49.5068 30.6724003711
4.58553 28.1917 48.4867 31.7209595135
2.95115 25.8018 48.8729 34.8224687871
1.12333 25.8541 51.0289 35.0694064528
7.36617 27.2861 48.6888 34.0915596285
7.64289 26.876 51.5334 36.7488980019
0.855301 28.6746 51.801 32.6437476527
1.06427 29.9814 48.6331 34.5824911658
3.6281 30.0541 50.3623 30.7521155844
4.05879 32.6757 49.4493 31.4826838595
6.76181 31.0389 50.7406 36.3288897896
8.81911 31.7943 48.8507 26.429907881
3.09305 19.1687 52.4813 29.9723032412
0.780829 18.86 54.2071 30.7136057238
6.88043 19.9481 54.5084 29.8131088879
9.55052 17.5447 53.9407 32.8831360366
5.33456 17.9255 53.3725 27.900387693
0.716952 23.8236 54.871 33.6411327673
3.83939 22.646 56.255 29.5436407621
2.73736 24.3866 52.7804 35.3749365777
5.28885 21.9522 53.3768 31.5799862845
9.65325 21.9226 53.0543 29.4794440894
7.37282 23.3883 52.1056 30.3123205232
9.71143 21.5762 56.2692 29.9250601949
0.134197 28.1149 54.5766 30.2120230995
2.97222 27.7693 55.277 29.1472091964
4.43085 25.2016 54.8979 30.8638425222
7.04481 25.2647 54.1195 32.1467784872
9.76331 26.8301 54.5267 29.3768269204
3.66391 29.4657 53.2663 32.523493707
2.24898 31.8369 53.8684 33.9549976329
9.4492 29.6563 54.5102 30.6376513337
6.14153 30.5607 55.0002 30.4871318763
7.26104 29.4408 52.6679 31.6266798954
4.8734 34.9477 4.19291 29.9163066594
3.43936 36.3208 6.97572 25.9561214954
3.11756 33.1033 6.93994 29.2044575863
1.92218 34.7645 4.61766 29.5162088029
5.9393 36.4493 7.77872 29.2497560998
6.58092 33.6574 6.65609 31.2810797091
7.83848 33.8332 4.26715 29.039908774
9.66173 35.9057 4.71788 32.478819995
2.28727 38.614 5.70611 31.594235162
4.71411 40.1313 6.40749 28.0910016688
6.4249 38.4315 5.26738 25.5798128343
8.74049 37.5585 6.73505 30.0859075011
4.54607 42.5726 5.15899 27.3120139096
3.17614 44.0406 7.06159 32.7114657001
0.894761 42.5582 7.12042 33.3265133941
0.175999 42.3911 4.50646 34.2111563154
7.66963 41.0227 7.78906 27.5645297638
7.19064 43.7781 5.18602 30.4654549642
8.89962 41.936 5.38512 27.1845236316
2.57834 46.5565 6.07326 30.610326886
3.45148 47.2414 3.77254 27.9708686292
3.547 48.147 7.97611 29.0497153604
0.0273924 47.4857 6.25278 34.5615636988
8.32746 46.148 7.02506 30.6541234301
6.98642 48.1732 5.56909 35.7276216175
1.97452 35.1755 9.1694 27.9474130454
2.38534 33.4501 11.2582 28.0604158057
3.27336 36.6966 11.2691 28.0342893832
8.98962 34.9763 8.31351 29.0261670099
5.09682 33.5483 11.9744 33.1792482503
5.92179 36.052 10.63 29.8321339157
8.91928 35.8614 10.9713 29.7847188361
2.99983 38.4493 9.21125 28.324876051
2.04761 40.6483 11.8736 25.039217993
0.783248 40.2324 9.00639 31.7540866714
6.72181 38.893 11.2436 29.5944012994
5.27482 40.323 9.28306 28.5911243735
8.75229 40.7488 12.405 30.0244036747
4.84844 43.2503 9.20871 32.0044171078
2.0073 42.9993 10.8559 32.7606511032
7.65735 43.8667 8.78185 29.1533535884
9.37911 42.9434 10.7685 31.5808143526
1.32782 48.5929 9.74325 32.2376540466
1.57573 48.9612 12.4479 26.5930866885
5.5191 47.8357 9.89669 30.8169648488
5.49868 45.4006 11.0084 32.8757823469
9.05278 48.3313 11.6825 31.586473226
8.1208 48.3385 9.05198 29.8584248854
7.9567 45.5048 11.8955 30.1025992694
0.484207 34.6881 15.57 26.4346361049
4.62551 34.204 14.6972 28.5303453212
0.245035 33.3691 13.0801 31.5426885469
2.72965 32.781 16.1694 25.5020306208
2.98871 36.5501 14.2036 30.9034881389
5.77717 36.538 16.1497 25.5622317238
9.52978 35.4069 16.2745 27.7472213144
7.51633 32.7359 15.6119 28.0640305182
7.88764 35.3187 13.7581 28.3544507007
4.31087 38.9025 15.193 26.4758832611
0.434681 39.7955 15.9748 32.4288767385
4.47606 40.1665 12.6449 28.9793692674
7.10913 38.0246 14.2439 27.7481577668
6.84082 40.3011 16.4261 29.1649952684
1.3213 44.3177 15.4835 27.1518313759
1.17624 41.6287 14.2536 29.0894216304
3.41435 44.1142 13.2598 30.5112782997
5.09151 42.3493 14.4047 30.2885549499
8.40557 42.0013 14.7881 30.2095888674
3.54633 46.9826 14.1712 31.4647413169
0.998506 47.1409 14.9747 30.0655388292
7.302 44.9566 14.6261 32.3937407762
5.8239 48.4335 15.4819 28.3083487367
9.60249 46.74 14.9206 29.2927915592
5.95556 46.0072 16.8565 32.3325607658
3.36688 33.4723 19.3585 29.7620895253
2.14195 35.4893 17.8198 27.7711487966
5.93951 34.9357 19.7398 32.9271567353
7.72967 36.4491 18.0778 29.3116469251
8.66153 34.0717 21.0897 30.4915671047
4.07954 37.4221 18.194 26.8003808899
1.59164 40.2604 20.3832 29.6787637605
2.43997 39.6505 17.9202 30.0999670447
4.82856 37.4646 20.7915 31.4783465328
1.55198 37.6324 21.1415 31.5017211571
8.24522 39.2019 18.988 28.5558691179
4.4519 43.863 19.9426 28.8869914059
4.408 41.6475 17.1134 29.4743410729
3.52618 44.4203 17.3064 28.7907357842
8.46465 43.3182 21.1262 31.8342988504
6.54889 41.7394 19.5258 33.1725653084
3.19134 46.7789 19.0064 29.976600952
0.815237 45.7856 19.9646 29.6050424088
4.39311 48.3633 21.2404 29.7660356988
0.225972 48.6633 17.2037 32.0735888655
7.3903 47.1938 19.0867 28.0992844005
6.34727 45.5774 21.0047 27.8408457976
6.09778 34.9065 24.4594 102.002618589
8.78162 33.9821 23.7555 39.0735442277
4.28292 36.9575 23.6519 43.2025887434
1.48349 36.8644 23.9954 73.7374788598
1.03806 39.5723 24.5087 102.9946715898
5.56765 39.5496 24.4584 108.9816589047
6.32851 39.795 21.5902 29.1602180503
8.63197 39.0985 24.0211 65.635823442
9.47195 40.2065 21.3275 26.5882140855
3.32187 41.1247 24.1057 44.4453489836
3.51416 43.8132 24.5561 107.2608458427
1.89525 43.7828 21.6357 29.0104948496
1.1478 44.8943 24.0265 41.6763189112
3.75782 41.193 21.4986 28.4326137872
8.7393 43.4866 24.0811 73.424435176
3.81882 48.4513 24.0278 54.6386618487
1.3559 47.4274 24.4456 81.4853389067
7.26158 48.7631 21.7721 28.945948511
6.04573 45.0498 23.9018 50.3735307779
6.67677 47.6698 24.4095 86.4539615121
9.58415 46.9183 21.523 26.8326688459
3.96252 33.6809 36.1023 42.6678840604
1.05777 33.8886 35.6248 101.5483899627
4.69802 36.3456 35.7575 71.9494442124
8.896 35.2047 36.3095 40.4179369745
6.93485 33.2171 35.7319 88.8833738256
5.82321 35.7512 38.2927 27.7119940741
0.518796 37.6435 36.8213 34.713518154
3.30391 39.8275 38.3476 26.9157504771
2.79432 38.4487 35.5194 103.0877046197
7.33741 40.393 38.5547 29.3964736838
8.9488 38.0391 38.3854 28.6980900246
7.18456 37.7117 35.9397 55.0325652022
6.51047 40.3991 36.0018 62.490590113
4.01531 41.3707 35.9144 65.5963298904
0.294671 44.5079 35.8528 67.352505176
1.00105 41.8288 35.6079 93.632643323
2.84501 43.3417 37.8774 31.3393921823
5.6012 43.7712 38.1821 26.2502534457
6.69786 44.7959 35.5889 102.7504309968
8.75756 42.4117 36.0703 53.3920004916
3.94365 46.1485 38.623 27.2261146702
4.67416 46.6943 35.655 81.3212884852
0.498714 48.866 35.9104 67.9196100438
2.02792 46.6393 35.9533 56.4087281992
1.11408 47.4796 38.7879 30.2434448896
8.81213 46.5034 36.8857 35.1207360035
2.67004 32.7352 40.9824 27.6715794468
1.97261 35.7573 40.5777 32.8682039162
0.523679 33.2792 42.8998 28.6979173198
4.56747 33.1755 38.8204 31.5355393599
9.58481 34.1163 42.1231 29.822342626
8.38985 36.7142 41.183 29.0791398367
8.24684 34.661 39.2086 27.4539771634
4.13446 37.5075 39.6825 30.9155855315
0.914163 37.3689 42.6768 33.6864459225
0.856442 38.552 39.482 29.5688131931
5.58573 39.7736 42.7799 27.9878651555
5.61316 37.2455 41.9164 32.2996552452
9.65685 39.729 40.931 26.9231619963
1.01083 41.4896 39.4289 31.1413574761
1.66502 42.0728 42.0651 30.9911411401
2.41422 44.4919 42.3643 27.3857585752
5.18868 43.0983 42.626 30.1813583751
5.02503 41.3811 40.1127 30.6839313817
8.26841 41.192 42.613 27.8399066399
8.85768 43.7566 42.0298 30.0238169416
9.27426 42.6591 39.0008 28.4578687047
0.412781 45.8741 41.2118 32.9017668648
4.78691 45.9287 41.4327 26.7762229187
1.57497 48.6776 41.8499 28.1796968268
7.49316 44.9501 39.3957 28.4179119542
7.29432 47.6987 40.9452 26.1972977652
5.07152 48.8231 38.8786 34.1294909674
4.11648 33.187 44.4009 29.8813450595
1.61306 33.7802 45.5596 28.5493815562
4.57835 35.9468 44.1944 34.0355310783
0.197996 35.6546 47.2862 31.5599253596
8.59566 35.2557 44.9175 33.8729236883
7.70337 33.925 47.4725 29.8602394825
2.01165 36.8701 45.1546 29.7246484972
0.108641 40.6642 47.131 28.7683263145
2.42692 39.4185 46.2177 28.4124742801
9.41979 37.965 47.0416 29.1951789741
4.96686 40.4982 47.1159 31.3893639539
9.19375 37.9141 44.0546 27.4827252924
6.49099 36.9824 46.1725 28.326058332
6.78221 39.4755 45.3498 27.3924685678
4.39638 42.7994 45.76 29.2714614793
3.28356 40.876 43.8956 28.688647838
1.89898 43.1593 47.0462 28.512065313
9.14409 41.5137 45.3142 31.2049328259
8.63749 44.1574 46.052 30.4885568555
2.36359 47.8882 46.5223 30.713916802
3.70934 47.6601 43.4151 29.0783908316
1.89245 45.4111 45.1739 30.7710620688
6.26071 45.6512 46.1764 31.5177710713
7.17927 45.6937 43.3169 26.5068674598
7.77537 48.8889 46.4157 30.0309523643
9.29126 47.8149 43.3308 28.069439082
6.30059 48.7438 43.425 29.32932733
4.92204 48.0732 47.2977 28.2376578088
0.528133 34.6166 50.0866 28.787634722
4.4224 35.1432 51.4909 29.7378913116
1.76902 36.2801 51.8773 27.5354208464
1.81941 32.7388 48.2015 29.2267293466
7.15355 35.546 49.8706 29.378531696
2.33976 37.5291 48.5934 30.7161685508
0.27943 39.146 49.6605 29.1017081335
3.66021 38.4955 51.9802 29.1282590323
5.07547 36.9155 48.757 30.4389959994
8.10702 39.3541 51.5256 28.8194729365
5.85859 39.4412 49.964 30.4619280753
1.11246 41.1845 51.363 31.6325134722
2.54639 42.9817 49.6839 29.3066536578
5.43684 43.7028 48.7225 29.3733232995
5.15575 41.885 50.9862 30.5323469148
8.27744 43.7276 48.7164 32.8767766278
0.135439 48.699 48.0471 27.5421478913
2.48043 45.3565 51.5704 29.9251057651
1.40245 48.1557 50.744 25.7133083969
0.494098 45.5522 49.1938 31.4729599759
4.06436 48.7898 49.9544 28.6080279573
5.63504 46.3353 50.0344 31.702265596
8.45604 46.3717 49.6693 31.0172947735
9.73731 47.4383 47.6421 30.194487927
4.2182 33.8473 53.9604 29.0535454614
2.1758 36.047 54.7206 27.605241927
8.19155 34.9709 52.3879 28.9638857069
6.74734 33.2046 54.4425 30.8728007368
2.72679 38.6627 55.3821 32.1732676581
6.30478 37.4422 52.8532 31.0438160892
9.78533 37.3983 52.6245 29.9358772556
5.35426 37.4967 55.6809 30.0739175764
8.098 39.8161 56.3414 30.5139334407
1.29793 44.8431 53.9115 28.6918632817
3.37885 40.8571 53.3168 29.686169963
2.34703 42.9137 55.6817 31.9309929653
6.47337 42.043 53.3335 30.917505048
7.06963 44.7811 55.263 32.7775921652
9.23773 42.0091 52.3831 28.1470723042
5.49985 41.0573 55.7146 28.4204622492
8.53371 44.803 52.5239 31.4407843427
1.25542 47.5208 54.9838 26.55418106
4.27348 45.2306 55.1773 29.2840591297
4.54383 46.8124 52.7719 30.8389243387
9.82631 47.2956 52.0663 31.3073100865
9.36211 46.3886 56.0408 27.4641122391
8.78564 49.0165 56.0448 29.7106535972
14.1282 1.553 3.97488 27.8604037091
10.3956 3.19455 6.08142 29.1132460142
14.148 0.431753 7.00237 26.5125980399
13.1239 3.25165 7.07999 32.4614091571
11.1647 0.585353 4.35197 30.2605505196
16.844 1.9822 3.97713 29.2419191806
18.3076 0.947234 6.83123 28.3195814035
18.0568 3.65934 5.84474 29.2048316555
13.2832 7.44365 5.55576 28.919555466
11.1254 7.62038 7.2794 28.9894810113
15.0348 5.17335 6.36251 30.2524217934
16.6894 7.38397 7.88836 30.7405324947
19.0288 7.58652 6.35279 29.6204625268
16.8204 6.16969 4.17384 27.87868471
11.4486 10.7168 6.87066 34.3998798926
14.2571 10.1651 5.84657 27.7331320664
11.3547 11.1824 3.98527 29.9893433855
16.0802 8.93814 3.92179 31.3991966327
12.0536 15.1687 7.33833 28.2363171584
14.0238 14.5896 5.62784 26.9093128605
18.2693 16.1143 4.72468 34.427580797
15.7628 12.7617 6.74642 30.9025057704
17.8123 13.4342 5.07935 30.4133339742
11.5843 0.752829 11.1257 30.5653687357
11.1047 3.37245 11.1615 29.4761566431
16.1491 1.70657 8.46716 29.7835778727
17.1418 2.61458 12.0328 29.4819117818
12.8396 4.68368 9.62135 30.7986882258
12.7209 7.35668 9.74587 29.1812422785
17.204 4.43306 8.9927 25.4224934472
15.3135 4.23454 10.8719 29.0285394319
17.7874 7.00572 10.5674 28.6106025378
15.3483 6.53014 12.2009 26.3154216668
14.7453 9.29374 8.43702 30.3896601087
10.8176 8.75629 11.2683 28.3956884947
10.2497 11.8914 9.51973 30.7203369394
19.3904 10.1257 9.75667 31.0935721
15.6732 9.2913 11.1942 26.9546602434
16.6074 11.5052 9.50656 29.9142537627
12.2317 16.3296 9.9028 30.2806518111
12.0443 12.5039 11.4639 31.6511730426
14.0767 14.3218 11.3062 27.7255693405
15.2762 14.4949 8.82288 27.4802530379
15.9845 12.3798 12.1077 27.7828396423
17.839 14.5419 9.959 29.8229143239
13.3198 0.778258 13.2472 31.6558819272
11.4276 0.362641 15.9618 30.0210672271
15.7046 2.62745 14.2209 27.9957300846
19.6405 3.96193 12.5355 29.2216712469
19.5194 0.571489 15.068 33.4096705939
17.1868 3.59788 16.6687 29.4581027687
16.956 0.217276 15.3273 27.9101258639
13.4661 4.32599 15.1573 36.1365886681
10.3245 7.00568 15.3935 29.8023017235
12.7913 6.99086 13.0671 30.5474805893
10.9122 4.32054 13.7314 28.0106459597
16.2941 6.84935 14.7986 29.5107944932
18.6591 5.3631 15.0976 29.1799661187
10.9844 9.49611 14.7278 30.0597823741
13.1767 10.0637 12.4864 28.666148641
14.8143 11.5251 14.7716 36.6082362899
17.0448 9.52531 14.6413 27.9573226767
17.9435 12.132 14.8467 29.4156404367
19.1636 9.09997 12.6343 29.8940171613
11.0301 13.8797 13.6168 30.1561782474
11.4443 12.2755 16.0591 30.6883865885
11.9732 16.1714 14.8922 29.7177223724
16.509 16.0735 16.7224 32.3116918761
17.9558 14.3583 12.6592 31.8974084031
12.9268 2.6766 17.5478 30.5174233221
10.5924 2.17484 18.9242 28.3962560558
10.0498 3.96476 21.1819 26.4356167057
19.5803 2.11148 17.2689 31.621493425
15.5333 1.12707 17.769 28.7942290341
19.5869 0.894627 19.7621 29.2082813506
16.9121 1.07442 20.0464 28.9302415884
10.3935 7.88091 18.2027 31.7867698859
13.9438 4.23303 19.813 32.6379876228
10.9069 6.95459 21.1852 29.6167195119
16.4389 5.41919 19.0056 29.8740883877
15.2461 7.38311 17.3817 33.285810769
18.2404 4.73205 21.2281 29.8134250482
13.8599 11.5122 17.5724 30.5097857819
12.983 9.03203 17.9387 30.457318009
13.1401 8.73724 20.55 30.5386003587
12.7573 11.4213 21.226 30.55397496
18.7927 9.36719 17.0971 29.4713370328
16.8935 9.27723 18.8837 32.3183688875
14.5754 13.6686 20.8605 30.6178036718
13.6646 16.2081 17.1342 36.3727765456
12.6176 14.0125 18.6784 31.3559790954
10.0354 13.7697 20.2043 30.4187760886
16.6121 12.3185 19.239 31.652343682
18.0605 13.8678 17.4995 32.7258326118
10.6121 2.55887 24.3729 84.7355244264
12.2624 2.47898 21.6113 30.2889446808
14.1589 3.43075 24.2372 77.2088166988
12.1032 0.0783272 23.6949 36.3850813411
17.0426 2.79525 24.2252 67.1357167794
17.9081 0.118625 24.4298 80.21022808
16.1303 3.1275 21.5895 27.5697940868
13.4011 6.33908 24.3963 77.3148469489
14.4657 6.64676 21.5565 29.580134831
10.9293 7.22069 24.1341 58.9585400574
18.883 4.62309 24.1599 61.3045612798
17.1468 7.50413 21.7557 30.1226276628
17.9049 7.43154 24.5035 87.7515682324
13.7484 11.0002 24.1238 63.2359719393
10.8954 10.1461 24.1046 59.0081423028
10.2258 11.1948 21.5899 28.2547209082
18.3151 10.3335 21.8001 28.9454541369
15.285 8.7602 24.7743 94.3060681386
17.3083 10.9194 24.3435 75.7640200184
10.9923 15.3949 23.894 36.8640439538
13.6715 15.2759 24.3858 108.1941702819
11.5645 15.8927 21.3086 31.503324766
18.0724 13.5392 21.4646 30.1593881612
15.2713 13.2531 23.7325 35.6439751742
18.0627 14.125 24.3404 75.0120443787
12.286 0.749894 36.0422 47.1602228307
12.1036 2.01283 38.4597 27.8897630014
14.5057 3.83773 36.0188 59.0772512231
9.94786 2.34543 35.4629 102.7284161939
18.8725 3.83917 36.0832 71.7034946117
14.9742 1.02856 35.7322 77.062954476
17.7783 1.05968 36.4506 42.7631981755
16.9769 1.63396 38.7563 27.4512509768
11.0222 4.67477 38.3669 29.6468586429
11.6693 4.26445 35.6659 68.7453748355
14.6627 7.26943 35.5178 86.7327052273
11.6726 7.34628 35.7859 68.7104757981
13.7148 6.38076 38.1339 28.2648140379
17.2953 6.16176 36.2676 44.7196816273
10.5976 8.85507 37.9813 30.3893094895
12.8427 11.6411 36.1543 47.5955000893
9.92935 10.878 35.9446 78.1340742958
18.9943 11.5068 37.9917 28.1539343999
14.8948 9.9463 35.6764 83.822449241
19.2016 8.27967 35.7242 109.1170861787
15.404 9.01562 38.3046 28.4991625828
13.1014 14.3906 35.666 86.2224708248
11.8823 16.2972 37.1057 29.1011183855
19.341 16.1566 38.6992 30.8415694252
15.7155 15.2782 35.8434 69.960521235
15.0795 15.2922 38.6783 27.7300031259
19.1371 14.0561 36.0982 56.1114823122
16.5589 12.5932 36.098 63.2715752158
15.5444 12.4193 38.6756 25.017318627
13.815 0.45988 40.7535 27.2577502861
10.6152 1.01177 40.8984 29.1747129018
13.5172 2.75607 42.2906 27.5702097399
14.6654 3.60735 38.9749 27.2073038135
19.0746 3.80279 39.1252 29.882817376
17.6157 0.141733 41.4034 29.4493910752
17.5953 3.01906 42.0775 28.363868008
11.0802 4.32959 41.4652 32.3215492563
12.6697 6.71554 42.6828 30.9761549339
15.2147 7.75057 41.4107 29.572916792
15.2773 4.93464 41.554 26.7692927122
19.4319 7.63727 42.3396 28.8537702867
16.8421 5.93546 39.1093 28.1524688206
10.697 8.60447 42.4477 32.5546443387
12.9231 9.01615 40.0545 31.3667669195
12.9394 11.6681 39.0757 27.8737935628
17.3574 10.6141 39.8247 25.9778060657
17.4337 11.8071 42.3704 31.2234866155
17.0199 9.17436 43.0289 29.1405602728
18.9333 8.21338 39.7114 28.8974405091
10.4491 12.3237 40.3228 30.5642020332
12.6691 16.2526 39.9755 27.6963269906
10.358 12.8978 42.9115 28.7478037079
13.5119 13.5849 41.0736 28.7045003379
12.1185 15.2066 42.891 31.99053979
17.3717 14.4411 40.2449 28.5590708404
10.9355 1.24022 43.9196 29.7236395243
13.31 2.55022 45.1057 29.0393268001
13.6134 0.482402 46.8139 29.0264968395
18.3169 0.70546 45.9888 30.1701410121
16.1298 1.58324 44.3798 27.8127673216
14.1731 6.63232 45.0333 31.0604731371
12.5194 5.16637 46.643 30.4929956645
16.1017 4.66535 44.9458 27.085794372
18.3333 5.78894 43.7761 28.7623431754
18.5114 7.31565 46.3573 30.3491362393
16.8236 4.59115 47.5234 30.7675774824
11.6666 10.9212 44.0028 29.9172085179
10.6816 10.7013 46.4035 31.9854194678
14.1089 11.4886 44.7192 34.633146822
14.033 11.3513 47.5285 31.1685358749
19.3154 10.3002 46.117 31.1913763733
15.6761 9.0387 45.5822 30.8043396858
10.4466 15.5795 45.6465 36.7144863025
19.1516 16.2367 43.5883 31.5383899976
15.3797 13.6291 43.2182 27.6657854765
16.051 14.6421 45.9411 34.337989784
19.0681 14.1723 45.6579 31.9044007287
13.6846 0.728855 51.8884 29.3640510381
13.0445 3.84578 49.0843 28.796741884
11.3028 0.327994 48.6961 34.4401614309
10.688 2.85731 49.7201 32.2476610063
16.0951 1.15348 50.6326 26.8688299809
15.1435 2.29515 48.4235 29.3060276687
18.8556 1.25974 49.0235 28.0509724565
13.5272 7.14119 48.8481 35.0381990895
13.1917 5.86122 51.356 30.9757082012
17.5686 5.44593 51.2662 31.1891454219
16.6696 7.07194 48.9011 33.8512071263
12.1045 9.60982 48.6776 31.0621668144
12.2259 11.6153 50.9751 33.3753090678
9.88713 8.79458 50.3333 32.615254441
18.8915 10.4678 51.9455 30.2573556964
16.5253 9.95257 48.2753 30.1161050215
16.7417 11.6569 50.3267 27.5943942518
13.1616 15.217 49.0845 34.3399432663
11.2163 14.1549 50.9345 36.1487132405
15.5189 13.4902 48.3655 28.5455789186
17.9242 14.4207 50.5719 29.6042426545
18.5203 12.2984 47.7767 27.4233731801
12.3909 3.50317 55.2118 30.9171877803
12.2301 3.16399 52.447 30.90733652
14.5491 0.0818514 54.2185 30.740214592
17.2271 0.312187 54.3276 30.5411767122
17.4622 2.76215 52.516 29.4690264973
16.2432 3.7055 54.7044 30.4145953028
14.1909 5.65524 55.5302 27.345042982
11.1953 6.96238 56.3615 30.2674769715
10.9453 7.07828 52.3944 33.5188929302
15.0016 6.71678 53.2923 30.0918594969
17.9644 6.98564 53.6033 27.6068702776
14.5044 9.28467 54.2398 30.3023469023
14.5569 11.2542 52.3272 34.3947334917
11.5701 9.23976 54.4716 30.5891972096
18.1662 9.78538 54.8283 29.5758023194
11.8244 14.9905 56.3558 32.5878599644
13.1666 16.1293 51.9962 32.6294139656
13.622 12.4752 56.2462 30.9669511254
15.8322 15.5698 52.6444 33.1080261638
17.6467 12.7241 55.1211 31.6010003747
15.2672 13.1665 54.0798 32.0340221227
19.6661 15.0092 52.9385 29.3768651594
11.1956 17.1673 5.5381 26.361479657
12.7822 19.1112 5.96866 29.3467512478
15.3271 19.6988 4.61494 27.7247938527
19.1724 18.0102 6.75845 30.6359702678
15.0279 16.9951 7.86839 29.2367208126
15.6567 16.9614 5.0492 32.6501759896
13.4068 24.137 6.52864 31.116817412
11.1809 21.9085 6.21201 32.8848593162
9.89444 24.4482 6.67922 28.6269711398
17.6665 20.4473 6.44997 27.8769097609
15.7264 22.7566 5.14756 32.7481632041
14.8679 21.0603 8.00876 30.419683151
11.4385 28.5159 6.42786 29.6700199794
13.2126 26.5714 5.5753 26.9518132929
9.97512 26.5112 4.83076 27.7605484097
18.2344 27.9092 4.08379 38.5689849162
15.18 27.7696 3.80373 31.6535282393
17.6414 24.7309 6.05044 33.1274243139
15.9704 27.0145 6.79065 30.5622644944
10.5655 32.3149 5.32965 28.9687236136
12.7922 30.5388 5.58524 30.2708906718
14.5346 31.5425 7.59559 29.1582580716
17.2136 31.7411 6.46655 26.8570203011
17.1538 29.3344 7.92812 29.8952615465
15.3858 32.2913 4.1591 29.8499839671
19.5156 30.6482 4.97077 29.1336640544
12.9906 19.1602 8.8234 27.1586523222
13.8515 18.5304 11.7561 31.7147963817
16.2651 20.2535 11.7114 28.7599324997
16.7346 19.0951 9.04186 28.9944543148
19.15 19.416 11.4681 29.4948168006
19.0477 17.0621 9.40129 33.6907371919
13.2279 24.3018 9.4493 31.8910592751
10.5014 23.6869 10.3174 30.3630944191
10.9816 20.8527 10.3361 32.0646412808
18.787 22.2995 10.8149 31.464237172
15.4069 22.5849 10.4927 29.5047973714
14.3801 26.7493 9.14301 28.8198371963
12.1046 28.2583 8.96162 31.6859355326
17.6248 24.9605 10.3133 33.5617977074
15.3442 27.835 11.5598 32.8965648639
11.3322 32.434 10.2476 29.9263279582
13.1507 30.4306 10.1039 27.2273890393
18.7247 30.7555 11.5375 31.6010283205
16.0847 30.0307 10.2873 25.8820174028
15.7804 32.5585 11.3023 27.9623852167
12.5201 19.6312 14.1229 28.2430493605
13.3452 18.9017 16.7033 28.7665624784
10.1443 20.2091 12.6968 30.0423547502
14.0456 16.3618 13.2711 29.05281234
16.602 19.4827 14.6701 30.704410053
19.3454 19.4753 14.2407 31.4725963603
16.6602 16.4941 14.1463 34.7346711808
14.2919 23.6417 12.7193 35.1034136929
14.3278 21.5695 14.4736 32.6674949345
11.4674 24.3932 13.0495 36.0212663399
10.6684 26.4975 14.5735 29.7037667501
12.3963 27.8913 16.1015 28.9819760243
19.5881 25.8367 13.6908 33.0670301884
17.2249 25.9961 16.3796 35.670825998
16.659 25.7079 12.9042 37.7891973855
12.0115 30.408 12.9173 32.6834106145
13.9083 28.754 13.8968 33.5226981707
13.6306 31.2846 16.6845 28.2908399819
11.7213 32.3437 15.2534 29.2752603465
19.4284 31.8554 14.3943 31.0042086246
15.7816 30.4994 15.1022 34.5402809619
19.3064 30.6117 16.5604 29.8548887879
11.1719 19.649 18.5396 29.1436886318
9.87725 18.2688 20.5413 31.7916159157
17.7037 17.8641 18.5354 31.5164065056
15.9115 19.6306 17.2382 27.7860960579
14.0422 22.7567 17.0821 33.4183404372
10.2979 22.143 18.4961 30.122403493
11.6266 24.1406 17.0887 30.6917502972
13.1148 20.9817 20.1981 29.7303058021
19.1359 20.923 17.663 34.3320595337
19.0966 22.4661 20.0847 29.6692647134
17.0515 24.171 20.6745 27.8562135207
15.7142 21.4464 19.4734 28.0832165163
13.9449 26.4231 18.2542 28.7377109319
11.6638 25.5547 19.6192 27.4965566628
19.041 26.7078 18.8636 31.02629487
15.8485 24.5121 18.2699 29.7751973402
15.8232 28.4106 21.0435 27.5290856311
11.4068 32.2216 21.2177 28.5891493572
12.123 29.4313 20.1855 28.7662534729
10.9857 29.3976 17.5498 27.4489972951
14.4755 31.6279 20.6689 29.1983823049
17.1706 31.2387 19.4855 31.1973283331
14.7801 29.3055 18.4025 24.7967934408
17.2261 28.8287 17.1991 29.7784130192
13.3375 19.3594 22.4573 33.6487764598
14.3425 16.6206 22.1722 33.0572191624
10.2427 17.8386 24.6041 113.1977729037
17.2368 20.0494 21.4764 28.934370631
17.6254 17.0462 24.1164 57.9608442551
16.8088 19.5742 24.2143 65.3390017245
17.3515 16.9629 21.2928 29.9748702413
11.0745 20.5418 24.0713 57.3211911089
14.3446 21.231 24.4309 101.9751934057
11.7709 23.6857 24.0705 63.9616374347
12.2746 23.3483 21.4264 29.5687462506
18.1662 23.4786 24.2943 86.2089956723
15.6739 23.3287 22.9271 29.3679778734
19.2545 20.8792 24.4515 76.5491651859
13.7997 26.8839 21.4265 28.4083033669
14.2011 25.4031 24.1202 64.2170036876
11.5289 28.2413 23.0513 28.722861216
13.9196 28.0387 24.8046 111.7784968873
19.3548 26.062 24.1916 66.0043149507
18.2566 26.8187 21.489 29.9461783557
11.4792 30.4567 24.7857 103.249961202
19.3352 31.1673 24.3271 61.2176860853
15.368 31.9578 23.6186 43.6769385915
18.164 28.6252 24.6914 108.1472278351
15.8863 29.1984 23.6046 29.0855974688
19.0371 31.1642 21.6541 28.8390527794
13.3355 18.4706 35.9741 73.5357541599
13.7138 19.98 38.2923 28.9164260043
18.8872 17.1099 35.7488 96.3015638601
16.0412 18.1179 36.1709 47.9020399467
14.6024 23.7928 35.3747 103.880000755
10.2667 24.3565 38.4593 28.6129352158
12.321 21.2103 35.8762 63.6311952517
11.9569 24.0475 35.9466 35.7693991632
14.1954 24.1222 38.4303 25.7699905067
17.8658 24.3253 37.6474 29.7795259843
15.7216 21.2272 35.7972 68.5487607994
16.0863 22.1143 38.4967 25.3064815604
18.5115 21.8273 36.038 58.4303067997
11.207 26.649 35.5783 93.9642794104
12.1729 26.8016 38.4711 26.0372369037
15.3899 27.734 38.5053 29.0255937154
16.1457 26.1073 36.0572 56.24405716
19.1081 26.3509 35.6575 91.6696913179
12.3255 29.2279 36.4006 34.5645946655
10.7659 31.4829 35.4723 108.2921327165
17.9773 31.7484 38.512 33.0227793859
16.4848 32.1633 35.8992 67.3085565388
15.0812 29.6425 35.8032 100.1333106117
14.5258 18.2077 40.6829 26.1562202311
10.2988 18.0259 40.3546 29.583642717
17.8849 19.3269 41.9673 29.9415830755
17.1146 18.0829 38.8646 28.1781903668
17.1482 16.5119 41.8844 25.3342327212
12.336 22.7836 40.0511 28.7694964397
10.855 24.0279 42.1374 30.7291911183
10.5782 20.5789 39.1293 29.7507672375
13.6588 20.5741 41.8074 28.523438813
16.3095 21.5724 41.3434 27.7393647917
17.0492 24.1261 42.1374 31.0095561431
18.6618 20.6144 38.8383 30.6665738297
12.3942 26.463 41.3551 31.2993497981
15.1243 25.6025 40.5102 33.1809700045
13.6707 32.5474 42.8253 29.6551762459
10.9489 31.7056 42.9167 33.7099952216
11.4287 29.2876 40.9822 30.8577572764
13.6261 29.9333 38.9105 32.8586920812
13.7811 32.6325 39.8507 32.7664993482
9.87453 30.7925 39.0464 26.7401502327
17.428 29.5251 42.4791 35.4062374046
17.6719 28.8581 39.6645 36.1061186385
12.3636 18.6818 43.3377 29.3827347188
13.6369 18.6896 45.919 27.8150200902
14.7085 16.5965 43.2861 28.7417740797
11.8548 17.1966 47.3761 30.1112180546
15.9614 17.6087 46.2443 30.0337497138
18.2114 18.6822 44.9293 30.1187115425
11.2911 22.8042 44.607 30.6629666347
14.4427 21.3582 44.4808 31.5405732255
13.272 21.4027 47.343 31.2420416397
14.5377 23.9827 45.9328 33.1415484465
17.4683 21.5867 44.2876 31.0473988855
19.2757 22.1624 46.5576 30.9345610902
13.8106 27.3059 43.666 31.6004101665
12.1233 27.7159 45.8762 31.0887043209
10.4723 24.9996 45.8365 29.2033249688
16.0963 25.8614 44.1816 34.1442676197
18.2191 27.4666 44.2453 34.215790502
14.6089 32.5659 47.1804 33.1737470266
14.6161 29.8353 46.4848 33.1436375683
10.1377 29.7444 44.7239 33.7620852866
19.1493 31.5899 43.3241 29.2250200806
14.7887 29.9877 43.6193 35.5574986173
18.9422 29.2006 46.4596 32.8845425561
18.8474 31.8902 46.0386 29.6572180137
11.0611 20.2005 50.5088 29.2930028049
10.0703 18.6474 48.3946 28.4117062493
15.2298 17.5088 49.0035 31.5197688846
17.847 17.2777 49.7626 29.7728247744
18.4265 20.2366 48.5984 28.1553027906
11.0787 22.438 48.5436 29.5952792203
11.4056 23.2625 51.3558 29.8045594598
15.8622 20.5704 49.2718 30.4170658007
15.6988 23.1543 48.365 30.2165200095
18.5704 24.4262 48.0345 38.1246128523
19.4897 21.0962 51.1082 33.3791850272
14.3001 24.7758 50.4704 29.891101209
11.4698 27.2609 49.4038 30.8869640935
14.122 27.8258 50.223 31.5712144473
10.4817 25.9322 51.6834 31.0598986625
12.5693 25.163 47.8011 29.4194907248
17.3209 25.229 50.4926 29.331733938
13.6489 31.9951 51.6181 32.3237607939
11.8797 29.9565 50.4941 32.572081652
11.6333 30.1947 47.7402 28.0975667141
16.778 28.938 48.0155 39.4840905166
17.4822 29.7137 50.7665 33.303269725
18.7204 32.4058 51.9206 29.9089273353
13.1193 19.147 51.9812 31.5684197886
13.327 20.1402 54.7143 32.5985050312
12.2825 17.152 54.6096 33.2337104323
17.617 16.9789 54.1237 30.0929618424
18.7343 18.5681 52.0929 28.709278889
15.63 20.3109 52.0923 28.2542621349
16.4399 19.4528 54.7114 28.5362772179
14.2958 22.9743 52.9184 29.8635845956
12.0225 22.7199 54.7877 31.8275220052
16.8857 23.5486 55.2704 26.7293755236
17.4538 23.0959 52.3596 27.8537368915
18.5779 21.089 54.7864 27.2574947982
12.6165 27.3754 53.1152 30.9849802285
12.2012 25.6717 55.4351 30.1038772632
15.8152 27.3352 52.3384 28.900393627
18.811 24.8687 56.3546 30.05394776
15.1001 25.6759 54.551 29.6135549676
19.6813 24.7343 53.2997 34.163624761
13.8138 30.2532 55.4816 31.3576919226
11.5777 30.8661 53.8392 29.2071028416
15.7542 30.1147 52.9846 28.2572719295
17.1703 32.227 54.6862 26.252182119
18.4528 29.4033 54.6977 31.5311596376
13.8388 34.0578 7.13525 27.3920776962
14.064 34.9264 4.34787 28.9320620231
11.6069 34.2555 3.76933 27.8398291022
15.69 35.707 7.76723 26.4346102173
17.0889 34.9304 5.47416 28.0389052923
11.9297 39.2145 6.42327 33.8775925474
14.444 37.7649 5.30436 31.9756190241
18.7421 38.0318 6.58789 30.6884192566
19.4632 40.8051 6.95777 30.9974986339
17.0576 37.8927 4.03929 31.8991282196
11.0389 43.0492 3.83119 27.0183725803
12.2486 44.3994 7.36025 28.9940022173
12.71 41.6534 5.41687 31.548122123
19.668 41.6118 4.18896 32.3217752578
14.8044 44.1282 6.2187 32.9745426075
19.1208 44.089 7.84689 32.1474239039
10.7157 48.4424 7.11442 29.2334590433
12.8514 47.4574 4.7224 26.4103121598
10.8245 45.8136 5.54763 24.4133409773
15.5491 47.0734 5.74657 27.965419689
17.9936 48.2611 4.80796 31.1611847269
19.328 45.6449 5.35072 30.5452281273
9.87439 33.4848 12.3536 28.6848729865
11.8143 34.6298 8.70465 29.0930334463
14.0637 34.9572 11.2309 29.5424750403
18.8027 33.1978 8.11498 27.5328489639
17.0441 34.3827 9.73789 26.7653669182
14.5971 38.511 8.35792 32.3434556057
9.92823 39.7748 8.42527 28.7429037414
14.1646 39.4604 11.1996 34.6343431781
12.6088 37.1395 9.83081 29.1638374706
10.4258 38.3155 10.8588 28.76622258
19.1229 36.8464 10.2843 27.8359677513
17.3822 38.5733 8.8031 29.3853280788
11.2182 44.9203 12.2923 33.1442839019
10.6001 42.5537 8.15938 33.1318457523
16.3834 41.1533 9.81886 31.6090111135
16.3475 43.4796 8.56796 32.3607041839
19.1182 41.5593 9.87712 27.7343683147
12.5701 45.7159 9.8424 33.7976518577
12.6551 48.3693 9.12631 30.888823936
16.0905 46.8892 8.42674 28.4961051001
18.9752 46.9865 8.58256 27.9869876846
16.8624 48.9792 10.6578 32.2397635354
15.2301 45.0735 10.4925 35.5715569258
19.2998 46.6272 11.3065 30.9124795645
12.4723 36.4932 15.3801 27.0529589826
12.4053 34.5643 13.6083 30.821584869
15.1137 34.876 15.365 27.7290719196
18.0479 35.1261 12.5668 27.4688930188
18.9976 36.3191 15.2109 30.6752870385
16.5346 32.9653 13.7427 28.8968471359
13.9657 39.1147 14.6863 26.2271298106
10.03 38.3837 15.0782 29.0138114342
11.622 39.6615 12.8689 27.8570934885
16.3563 37.2329 15.6836 28.7380588172
17.5827 39.0443 13.564 26.9909388811
15.3858 37.1406 12.7814 29.6419986464
18.8276 39.5998 16.0873 28.6977246943
14.312 41.7942 14.5149 28.1363443236
10.7129 42.3577 16.1576 30.7117230456
11.9737 42.4246 13.5992 33.2277719279
16.4363 41.441 12.8068 30.3446371368
18.2082 43.528 14.0803 29.0159054414
15.16 43.4165 16.6246 28.5550105801
12.2129 47.3281 13.8255 30.8789065952
13.2316 46.0749 16.429 30.8951140428
16.2044 46.3283 15.7236 31.4927021931
15.6015 48.3509 12.9323 29.0922903969
16.9239 45.6825 12.6575 32.7171667885
14.7303 33.9413 17.8219 33.7633109286
10.7741 34.5159 19.0902 28.9023036277
15.274 34.5344 20.6242 27.0977687702
17.7845 34.0537 18.8754 34.699007643
14.4385 38.4711 17.5737 28.0725482068
11.9965 37.0153 18.0762 27.9199188173
10.0422 37.2567 21.1702 29.3041826162
10.6644 39.4296 17.2864 27.0978250332
15.2507 37.3939 20.3286 33.1062976939
16.4476 40.2933 19.1362 29.4346369386
19.0717 39.4047 19.7238 28.2147126394
10.9666 44.8668 17.2713 29.8603955026
10.6247 44.5298 20.023 29.6373819142
13.135 41.233 17.3456 25.8689799917
13.8282 43.7529 19.3131 28.2508990239
12.1361 40.9976 20.0202 28.6955347993
17.4124 42.0135 17.1357 29.3870811745
18.8892 43.9089 18.5026 28.5726688718
15.2531 41.9236 21.0838 28.6136861422
17.7594 43.4221 21.2018 30.3230530959
13.5604 48.34 18.4368 28.6020127204
11.7076 48.564 20.6057 29.1354251442
10.0878 47.516 17.8949 30.082711408
15.0001 46.4531 19.8747 28.9394141503
17.6422 46.4672 18.1168 28.819865333
12.714 32.7136 23.8152 44.8325279444
12.8277 35.8679 24.3846 95.8707137118
9.92749 36.4017 23.8819 57.4365224417
12.5131 35.4637 21.3761 28.4530838032
15.6364 36.1595 24.1852 75.2686929677
17.4669 33.3863 24.3031 88.3053436825
18.0444 34.7957 21.8732 28.1014942864
12.4883 39.1007 24.0719 69.566836025
12.4687 38.7083 21.4301 27.3324649804
17.8781 37.8384 21.617 29.003157335
16.9404 38.5884 24.0641 71.8330250376
14.977 40.6503 23.6629 40.5619423049
19.627 39.2758 24.226 82.3791776003
12.4723 42.9916 22.3849 28.9987821089
11.1956 44.8107 24.5286 93.2185859699
10.6292 41.1015 24.2303 77.2802184001
15.5637 43.0957 24.4805 103.3328015547
18.2283 43.7706 24.1228 62.1281383055
14.1332 45.5113 24.1933 57.9953501329
14.5049 48.3823 24.413 91.8470329031
10.0255 47.2035 24.1352 62.725607026
12.9447 45.9196 21.7362 26.8178283832
16.265 48.2782 22.1391 29.244629837
18.9114 46.1568 24.3479 83.9189350216
17.9096 46.2959 21.5668 28.9488132508
12.1362 36.5427 36.634 30.4846558134
11.4069 33.8588 36.1988 42.6781836015
14.3363 33.9077 35.8594 75.4948013535
15.8844 36.316 35.5304 90.3281848183
16.9984 36.1057 38.5332 31.6682235347
19.0476 32.8397 35.8086 94.3689145754
10.1159 38.0592 35.3872 111.1256896314
11.2334 40.8196 35.7983 64.3116198841
14.7502 40.7938 36.351 34.6622173816
13.9379 38.3386 35.5433 87.2850401583
