33.0207 11.6826 24.2103 78.1165316172
35.7701 15.1721 24.1963 59.374813128
38.681 7.40673 21.9953 26.4459550111
30.1936 14.9374 24.3827 77.5655044831
35.8771 0.51555 24.4661 89.0298945845
36.217 8.68973 24.5442 85.6228832601
35.6638 11.3295 24.0928 43.7438828522
32.8942 14.2434 23.7196 36.1872790828
38.8606 15.972 24.0812 50.7083448078
39.2737 8.4075 24.4269 68.0827887301
37.7952 13.0137 24.6425 91.547744286
32.0277 10.1332 22.1647 28.2147790458
30.0971 10.6077 24.347 92.1562914171
32.4265 0.0161977 24.0175 47.3454393356
33.3308 7.7933 21.7618 28.4366976111
38.2363 13.0851 21.6362 28.324689489
30.7681 6.00587 21.5858 29.7432614182
35.695 11.4565 21.3065 28.6612308548
36.0454 8.46692 21.6099 28.219816951
32.8487 3.27277 35.7272 59.7567450161
30.4496 0.759597 37.4485 25.6339743205
30.7756 9.46453 36.0984 71.9231853894
36.3 10.2777 35.5029 103.725163935
30.8236 11.5891 38.6535 28.3592771053
31.1058 5.44672 35.849 94.0804743423
31.8624 12.1587 35.9564 64.1744214975
37.1043 1.94122 38.6117 27.7328441834
37.0279 5.42139 36.184 47.7924854018
38.0629 10.6369 38.7243 25.0140940016
33.3658 3.75834 38.3078 27.8375357441
30.3065 14.5967 35.6341 97.5294897362
32.5643 0.480707 35.6416 99.2699155577
35.5006 3.3225 35.1999 115.4289633064
38.4834 14.0512 37.5418 31.2288160911
32.8443 7.43939 36.9493 32.9117881113
34.6782 12.4514 35.7326 69.9658583929
38.3708 7.27941 38.4731 28.2527145119
39.0474 10.8105 36.2035 44.2825020034
35.2086 7.51568 35.788 84.7775570189
34.7954 15.4011 35.5659 106.6965209073
37.1572 1.15545 35.9957 47.8487590162
32.4196 16.0011 36.5631 31.5548286038
36.077 12.5529 38.1393 30.9826322069
35.6518 8.81525 38.4076 29.9345005728
36.0524 4.5086 38.6658 27.8604526156
33.2495 12.6706 39.2279 30.7208210821
36.2562 0.0389518 45.2412 28.5229817816
33.5998 15.2337 44.6782 32.8723851042
37.0708 11.7677 45.9844 28.5678376142
33.0219 1.8497 42.399 30.2741275293
32.0445 5.30222 39.869 29.1644246199
35.4359 5.51823 41.2742 28.6142449611
35.5727 1.159 42.8577 31.6521464163
36.7557 5.24429 44.5305 26.6879382578
37.534 7.30393 41.9044 31.1214274849
32.0057 12.0609 46.1396 31.2277222315
37.8836 7.92246 44.9693 31.3306734671
36.2984 9.9463 41.5283 28.6139988225
34.0426 1.27498 46.8825 29.5282553235
33.6938 7.52716 39.7409 26.6382418845
30.5378 13.5649 42.0938 31.8540969088
29.5401 1.6734 40.2088 28.3451260488
32.6972 12.9293 43.8412 31.6085156161
33.7861 11.2988 41.5757 32.560107684
36.375 14.7724 45.3603 33.533624546
37.4025 14.0079 42.6353 34.2786732942
31.3648 16.1677 41.4614 27.9123916327
32.586 4.54083 42.5212 27.9483461054
35.7198 15.6237 40.5622 35.7286023474
32.941 15.5511 39.2775 32.1442237741
30.1131 5.31826 43.7287 36.7693133288
39.3645 12.9812 44.9411 29.8958352055
37.6655 3.68836 46.4332 30.3596109111
33.8805 5.62499 44.5751 33.8567253462
37.1468 3.50642 42.4462 28.2974997968
32.6352 1.25287 39.453 31.3164187787
33.4871 4.13163 46.9793 31.7399995758
32.3093 8.81113 41.5425 30.4478627575
33.4153 9.98538 45.6872 29.5134910686
32.0332 8.10466 44.2475 31.1855304323
36.0401 9.97088 44.2761 30.7393933332
38.6704 11.678 41.787 29.4827653468
36.859 7.2342 47.4274 26.5291148404
31.8262 0.866885 45.0393 36.4750867933
39.056 5.01949 40.5541 28.378261224
38.7076 15.8033 46.5932 31.0854010009
39.1898 1.40929 46.0601 28.6935698259
30.0909 9.37114 40.2371 30.7224383503
39.1837 1.84916 40.2134 24.3108731132
33.1138 14.2829 47.5311 29.8682618832
30.8152 7.47579 47.5667 34.2036938395
32.1563 3.18063 50.29 33.4315553584
32.7426 3.87524 54.4861 29.4578157624
36.1353 0.819712 49.4115 30.9313284541
36.9933 3.5241 50.4553 28.9959468103
35.8446 5.00354 48.5978 28.3536612494
29.9834 12.7561 55.7161 30.9258491549
32.3638 13.8712 50.2031 27.6567525097
35.7655 12.6724 54.4772 29.4645996611
39.1922 10.0457 55.3684 31.3054105441
32.3965 10.6284 50.4291 29.8442427999
33.1537 8.42026 49.1174 29.7044947018
34.5802 6.87963 50.6536 29.0496785486
29.657 2.17489 51.1293 30.2388411294
33.4976 12.3204 56.3218 26.0977363527
37.4683 15.0135 49.3421 30.7750847205
35.0351 11.4617 50.1602 24.6581814122
36.3995 10.4083 55.8393 28.2830284893
37.9613 7.47305 52.0432 27.5174542028
33.3086 0.742021 49.4492 29.3333460572
34.4733 13.2057 52.097 25.9650136237
35.6375 13.0506 47.9257 28.6775825262
30.6561 15.841 51.5033 29.8829933082
30.0673 4.23657 55.6498 29.3739039227
32.9068 5.26339 52.1418 28.6447090053
36.4181 15.2661 55.9441 29.8344023005
38.4622 14.4976 53.8593 33.1138594134
32.4078 12.3837 53.7974 27.93519515
36.9938 1.98876 53.1485 30.9102332481
34.8663 5.93548 55.1653 29.0280634706
37.7137 11.0947 50.9005 29.8044576002
30.7181 6.92414 52.3936 32.5420565234
31.88 9.61497 52.8747 28.3690538336
35.9388 9.15086 52.2491 29.6941263217
34.1798 8.72284 54.5086 30.5978512429
31.0916 0.956387 54.9933 28.4940484032
36.2307 4.98254 52.9213 27.9222153032
36.1061 15.5486 51.8441 29.842316501
34.6283 1.81611 54.7296 29.5099016025
38.5708 10.1085 48.512 32.3904436595
32.0237 15.2837 54.2492 31.7633098952
38.9473 5.49491 53.895 26.1860106192
38.9533 7.58953 49.3431 28.5835621166
30.094 12.4392 50.2125 32.9941006424
35.3846 9.3902 47.7028 27.4312282627
31.3783 4.86828 48.2175 27.5601847723
30.7472 19.6269 6.196 28.4919314081
37.9791 23.7611 11.6924 27.5183694756
31.8804 19.9772 8.48888 25.9593035313
33.2599 31.2811 4.44663 31.115587969
37.0715 21.9553 7.31566 31.3928484825
34.6626 21.0833 6.31859 26.6263637011
38.5099 20.9982 12.4394 30.3182172867
34.361 19.0327 8.29978 28.7632640593
32.4246 23.1216 5.56376 26.8915347231
36.2041 24.888 7.26922 27.8818744423
31.8634 30.7204 12.28 31.0237778536
33.9301 23.4789 8.14773 27.7647454018
38.3942 24.6925 8.73907 26.3577395647
31.8421 20.7542 4.06443 30.6245858672
34.5599 28.9828 7.49211 33.4443265158
35.7806 28.7402 4.68755 31.0057850838
38.8342 28.787 9.97968 30.3554006311
31.6835 29.0009 7.45812 27.4290576987
39.1966 29.1053 7.29283 35.7364246934
34.9505 31.5826 8.60128 30.9456560692
32.3808 31.9956 8.04712 29.9432335559
33.4499 25.3969 4.58654 27.6233270304
37.4962 30.5997 5.59209 32.2596088945
30.9943 28.8736 10.3066 31.1194775623
31.2852 17.6618 9.809 31.4892125753
35.3093 31.8307 11.4704 30.3837702682
36.1782 20.2319 9.73973 30.4310071297
39.3921 21.6508 9.24511 29.6536579873
37.2257 18.4459 11.5366 28.534253062
32.5734 26.6574 10.5049 30.6734098402
39.2746 21.2128 5.23103 31.8739730264
35.1495 22.5226 10.8871 30.358225553
32.5008 21.601 10.508 31.920266596
31.3592 24.1948 9.79423 30.1912364108
34.769 26.6209 8.8745 29.2132288031
31.2678 26.631 5.83135 30.2901752376
37.0653 26.677 10.2707 29.6910428627
38.0351 32.0763 10.5795 30.2930619952
29.5451 29.9405 6.31964 30.3258308049
35.4892 18.0675 5.57986 35.1322993436
30.1127 16.9229 5.58596 34.4958648014
36.1268 26.0378 4.8331 32.028187501
31.0234 19.7123 12.5054 29.9639855742
38.2856 16.9093 5.17581 29.4156206693
30.5356 24.1454 7.20176 25.8459840235
36.1855 31.7382 14.5348 32.0316919217
33.6959 18.8254 14.5101 28.3048326772
31.3261 27.6737 21.1953 32.4251144586
30.2514 24.2955 14.152 27.8272346448
38.7119 28.1884 16.793 32.0346484267
32.8873 23.5002 13.8772 29.7515020439
39.1794 25.4629 16.0938 36.4001188425
33.1466 21.7665 17.9141 27.4032996046
36.6397 19.6993 14.3942 26.6326038928
37.3181 24.6462 14.3759 29.6913344142
33.2647 28.1781 15.3159 30.508338406
36.2872 26.9454 12.9667 30.330213081
33.5427 26.2433 13.2107 30.6379383731
30.6604 26.8833 15.576 33.4102644736
32.1283 21.0165 15.3406 27.9782664392
39.2602 16.9558 17.1682 29.5652024007
37.6603 18.9456 20.6334 25.1742844776
34.6135 26.8364 17.6489 36.0929337584
35.676 31.9616 18.405 24.3631042217
33.2797 26.1714 19.9141 30.4102035954
31.2816 16.9928 15.6922 29.3414594379
31.9314 30.6579 15.8323 28.6996293703
38.3955 32.5664 17.2433 27.9264039998
35.3314 23.4738 20.6683 30.4360195872
38.5314 17.3416 14.5171 29.2923152489
37.7852 29.005 14.373 32.4811168909
30.8296 19.199 17.6394 29.9479032112
33.443 19.2669 19.3691 30.5348796043
30.0877 32.3383 14.3913 28.5150859209
37.2459 18.5546 17.9873 28.4708676963
34.8301 17.8563 16.9548 28.9656048989
37.3698 20.981 16.8215 31.7140261077
33.2166 31.5023 19.4084 30.5195616071
31.9319 24.0114 18.5092 31.2189556664
36.488 29.3695 17.9842 30.605013265
35.0215 24.399 16.1035 30.2654833427
35.6432 22.7223 18.1091 31.8114153961
34.5273 29.6283 13.0229 31.6740866385
37.3993 27.7501 20.1731 29.6624827876
30.6975 30.7406 18.2843 32.1670421462
35.4901 22.1833 13.6113 29.4145759614
29.849 29.0487 13.9434 28.9583724646
38.284 30.7707 20.3042 30.2634650473
32.1234 16.6803 21.1147 30.6447907214
38.7789 16.4585 21.1573 28.9942522338
30.9885 23.4285 21.12 27.8300404557
32.6945 17.1701 12.5054 28.482322872
33.4731 17.4026 24.7767 112.7313021496
35.3856 19.3588 24.1627 50.9538484123
30.8387 20.529 24.4714 76.3331903814
33.3537 21.5505 21.3412 31.1259879213
37.8661 18.5265 24.2656 68.712538594
33.2748 21.7784 24.293 81.3900438412
37.5372 25.2507 21.3378 32.1692975483
32.3242 24.4257 23.6942 38.3064950575
37.2681 22.6229 24.3691 89.3862108521
35.1821 18.8083 21.5845 26.9844619623
31.8607 28.6094 23.8689 39.0564716132
33.5759 26.8407 24.5318 106.2093422838
29.6359 24.3851 24.4414 84.0450784994
38.0398 25.5417 24.3297 75.0551391812
36.3239 27.5725 24.4037 79.1239884819
32.6542 31.3625 23.7914 48.0586281718
36.6362 31.9613 23.068 40.4429894819
34.3412 30.4323 21.6551 31.3653689385
39.2223 20.8706 24.2483 62.2298662892
38.3235 29.6604 24.0907 71.2718899231
35.0958 27.6918 21.6264 29.0961688245
37.3285 21.6065 21.5949 29.9005534062
31.1029 17.895 23.647 31.2940672694
38.2668 30.7568 35.8498 63.7052712365
38.4688 24.6678 35.9048 81.6925423432
35.6374 29.4443 35.5064 104.7856663513
36.7459 25.7357 37.7482 29.703787406
31.6394 23.3718 36.3534 45.0596420329
39.0918 16.867 37.3097 31.5339473149
32.7684 26.8394 38.0322 27.6976156967
38.7724 31.4431 38.6681 28.0542044979
34.3867 24.2817 36.2332 59.9062584716
37.5151 28.4166 37.8463 28.5374027099
34.7803 19.8334 36.1881 73.7062232056
30.6846 30.8122 35.7557 87.0769497995
30.4672 20.9217 35.5607 115.4332214113
36.5699 17.3419 36.0148 78.9531106655
36.3347 22.2878 36.0944 77.9454670718
33.5282 31.1585 36.1063 43.1121352071
33.9111 27.113 35.7764 89.5453744907
30.0294 25.6136 35.8214 79.119701278
32.0193 18.8534 36.38 43.6990316688
33.7856 31.2073 38.8158 29.3500909648
30.477 28.6216 38.4376 28.3534777332
29.9346 17.4716 38.7998 26.4331764085
33.8034 26.772 43.8153 25.4837298291
38.3642 26.0277 40.4075 30.3557172978
36.0058 19.3489 45.7295 32.2838441493
38.0916 21.4755 43.1031 32.8095163105
30.6489 26.8076 40.7586 27.5678708742
38.817 27.2907 44.2261 27.726703129
31.2531 21.8004 41.8518 30.5658766759
35.36 20.8459 43.3055 32.8898532356
29.8961 30.7508 42.5807 27.7970529482
32.6232 24.6538 42.1775 28.2036723552
31.8457 31.1762 45.6423 30.5232971067
35.4423 24.9295 46.1731 28.0518791145
29.8053 25.1951 38.8217 27.0340279512
30.7843 31.0221 39.6851 30.1747207153
31.2302 27.6895 44.7729 25.7672423555
36.8907 22.0297 46.2325 31.1313004636
36.5279 29.6957 44.9592 28.3821103026
33.626 19.5741 41.3116 30.2212976337
34.729 32.1247 42.1961 29.2202958023
31.9519 28.8903 42.0999 25.9220819468
38.2751 22.9284 40.5498 30.9852478017
34.0362 27.4404 40.5393 27.7616696989
35.4994 29.3331 39.6355 27.2498162811
31.8813 21.9736 45.8186 30.5142345273
30.0642 24.5541 43.5075 29.496170061
35.1724 27.5346 46.0928 23.891440298
30.1694 18.3965 44.6901 31.8850337259
36.2181 22.2627 39.2453 32.9829201548
35.1686 19.6064 39.0908 32.0368741593
38.6458 18.5802 46.0802 29.9064717341
32.9044 19.1423 44.5966 30.2406356044
31.7139 24.905 45.8415 26.8988017551
36.6847 27.1218 42.6329 33.2239445062
33.6874 30.3421 43.9125 28.0943458539
34.075 23.289 44.2074 31.9357270157
38.2408 25.1955 45.7831 29.9115044861
32.9745 29.023 47.0437 28.0815205976
36.9122 30.233 41.9594 27.0906120078
34.2186 24.31 39.2002 30.8013752634
31.6657 19.7872 39.1216 30.1275187668
31.5522 23.1038 39.1842 30.4277936168
36.4389 32.0978 46.3575 31.9846464649
37.106 17.5774 39.2021 32.3819866503
33.8526 16.7299 42.4192 31.6987098841
33.7497 18.6241 47.3938 30.7840844364
38.3432 31.7978 55.978 32.2530073526
38.1941 32.3715 48.693 29.4739481293
36.0819 17.6854 49.0037 29.9348994762
38.6166 18.5327 55.4013 29.8361315286
36.6508 31.9854 53.2945 27.8791814535
38.1618 19.2227 48.6543 30.172581635
31.9901 16.6295 48.6553 30.6225506453
33.157 21.3537 48.3674 29.0514613849
35.5579 26.9872 53.0867 29.5839485176
36.6249 21.8584 48.9989 29.529832502
31.8442 25.3674 48.7748 28.6402344106
34.6294 32.1538 50.934 27.8398598798
34.2201 29.9163 49.4859 30.8085896004
38.054 29.874 49.5507 28.87329497
35.5727 25.6985 50.5833 30.3173959183
29.8534 22.4518 55.2127 29.721560357
30.2609 28.2509 47.9636 33.3923010658
30.1362 26.8815 56.0973 29.630675032
38.2609 17.4106 52.2715 28.4203216815
32.5004 26.1421 51.422 30.3876430931
34.2361 24.006 48.9036 27.7550612074
36.2964 27.8358 48.4751 31.4098551432
31.0748 18.7358 50.4298 32.6089039985
32.2089 19.0266 54.2597 31.5047029778
37.8643 21.2764 55.7017 27.1039306783
30.3721 21.2504 49.2368 31.6133525649
35.7657 18.0644 55.3796 28.379269077
34.9922 18.8381 51.2294 27.8192844099
32.3772 21.7534 53.3478 30.3001199856
33.9739 23.2471 55.132 26.5676473649
29.8166 18.1437 53.4228 28.6729963804
37.9592 23.8177 50.2252 31.1140898907
37.0643 19.7831 52.8525 27.1908620925
34.3257 21.5092 51.2927 28.7150308206
36.2963 22.946 52.6732 27.6299657159
32.9164 26.3874 54.5931 28.2802455021
32.5186 28.8107 51.7309 33.3811419487
30.8875 24.4063 53.2725 27.1866498788
34.0556 28.9935 55.4607 30.3376372094
36.2356 24.7179 54.8669 26.3518718586
34.3931 30.1375 53.0876 27.1953491031
30.2464 23.7242 50.4713 30.4833453045
29.9536 32.0677 52.0816 29.8634463668
33.9358 17.3322 53.2671 28.1192563648
37.4295 29.1055 52.4045 32.7064258997
38.8701 26.511 55.3179 31.5872006264
38.8964 23.5064 54.4278 28.2441065366
29.901 29.7788 50.473 33.3961189609
30.0303 29.6564 56.2469 34.6224232737
39.254 21.7454 51.9667 27.2395998559
35.2806 21.1027 56.2236 29.7596921805
33.8805 32.4308 47.6786 32.2792021158
36.3015 36.4986 11.3786 26.2563255989
29.6345 35.0852 6.9585 31.7381163913
36.8184 34.1583 4.21315 33.9988143581
31.2953 38.9099 10.4265 25.4464097327
39.3358 33.6198 8.24566 31.8924633745
30.2659 35.4832 9.70657 29.2280812978
34.8734 44.407 11.5631 27.9920872783
32.8108 36.6431 10.0902 28.992035355
32.8052 41.9491 5.60637 29.0635860661
33.9293 36.1117 7.67198 35.0139551585
35.0389 38.33 5.98811 34.3273500194
38.1881 39.3165 9.38472 29.0322453465
36.9241 46.2836 4.86365 30.8558412571
32.7342 41.0017 9.25189 29.5688277965
33.3335 44.6759 4.91767 37.5592684534
38.3996 40.5356 4.21247 31.0762343028
34.8179 40.7496 6.82837 26.4486885492
35.9036 43.6013 4.34064 30.8664943138
30.6499 47.4598 6.30503 32.5152309057
30.3571 42.2044 11.7603 24.6881468088
31.3215 34.8913 4.65893 30.1073409092
36.9541 41.9267 6.32546 27.9492316151
30.4024 41.66 6.98756 32.0050923223
33.5408 33.5433 6.1493 28.1422411949
36.791 44.1351 8.14556 30.8025031633
36.5301 35.653 8.58935 30.1240137596
33.2164 41.597 12.2604 26.3665286199
30.1878 47.7262 9.10493 27.3292451217
31.8213 46.3366 11.2864 29.2571710091
34.5273 47.0393 10.6242 26.5471106207
34.5468 38.8321 11.7973 29.3431403969
34.0689 34.7103 11.9096 31.6370560571
38.5513 38.2324 11.8237 28.594511814
35.1168 46.5587 7.79504 31.4561286518
35.64 40.2772 9.69406 28.3256298254
37.6649 46.9305 11.1211 30.846228058
32.2502 44.0032 9.89533 28.6646262325
37.6454 37.9317 7.21429 28.4350466467
36.9749 42.5887 10.5592 31.4119712058
32.5151 45.6 7.58705 31.5431250915
38.9306 35.9839 4.37487 31.0192775749
36.4069 33.2196 6.90878 27.4837917075
39.0215 48.8084 6.88381 29.4083654082
30.0383 38.9849 7.98252 34.9246860183
38.815 46.3774 8.64996 31.5595520224
31.9621 33.0677 10.5521 30.8515789542
37.9449 34.198 12.4846 27.4563441371
34.1088 35.6182 14.4872 28.0551594838
35.5589 37.2444 19.1878 26.1914314962
36.9338 35.9533 14.7048 30.6521738131
38.9863 41.8319 15.0141 30.0019696885
39.1503 47.5124 15.7598 29.0647563053
33.3048 38.2979 14.9236 30.217726349
34.8537 40.6944 14.5362 28.3481649565
29.9326 47.995 17.8964 29.6877751286
31.0514 39.6771 13.6575 28.8809212194
37.4843 39.6391 14.2763 31.1154510352
32.6937 43.4846 16.979 26.1670182503
37.3331 39.6723 18.5209 27.1914817446
34.2969 43.6188 14.4993 25.8435765524
34.3125 46.1754 16.6911 28.0862300828
30.3512 48.3396 20.8079 26.6842264707
35.124 41.357 17.562 29.5178310916
36.9634 43.6299 15.626 28.2708177427
39.2749 43.9126 19.201 32.1639706683
29.8013 44.7887 12.6248 28.1180155939
30.8636 45.2174 18.426 30.1064476417
31.0519 34.8861 15.379 31.342065397
32.82 35.0093 17.6878 26.2540254596
33.991 48.2093 18.8175 27.0184002152
36.4843 47.1128 14.6947 30.2936098637
30.623 37.4195 18.2282 27.2184383486
31.1338 42.2468 14.8587 26.7878298754
33.2199 45.5427 20.1969 25.3634539637
32.0592 40.5867 21.0099 25.8489698741
32.2793 33.9288 20.1925 29.4269967091
32.4288 40.6672 18.1913 29.7255071853
33.1575 37.8986 17.5698 26.2359455533
35.853 35.0054 17.3174 26.5593886848
34.7569 35.2476 20.9365 26.7707891918
35.2987 44.1678 18.7139 28.7619073997
38.415 35.7679 20.254 32.3622913489
36.1433 41.8922 20.89 28.2555315467
37.846 38.5357 21.1289 28.4834031043
37.4306 44.8622 13.059 27.238135015
36.6447 33.4656 20.6849 28.1247596145
38.8151 48.9671 13.213 28.576220134
29.7486 38.6305 20.8442 27.3903983646
37.5495 45.754 17.4868 28.6497329042
29.8751 39.9387 16.9462 30.1140103719
36.6486 48.7172 18.8535 29.114614023
33.9514 32.8393 16.151 28.6155528391
32.7 46.2249 14.1897 28.7553533929
38.8204 35.4031 17.4494 27.207352077
38.5403 38.0541 16.6313 29.2132413729
30.5694 45.1713 15.239 27.172496204
32.2996 37.2176 21.1232 28.2151014206
38.1557 47.3191 24.1681 50.7480705477
32.2812 39.895 23.8508 45.9870869927
36.6136 37.0523 24.7691 133.112445833
34.8568 35.5535 23.7877 33.4019426054
34.7047 39.238 21.3662 27.6890509372
29.5639 42.4625 21.428 30.8850207081
29.6575 38.8822 24.1524 81.9884790694
36.744 41.5198 23.7763 37.6017862572
35.1116 39.3879 24.1637 66.031809812
32.3595 42.6986 24.1839 73.2841026871
34.8016 32.9503 24.6357 132.9530762512
32.0924 46.4444 24.3922 86.8823675231
37.9768 44.2349 24.85 98.3567727411
32.4381 36.9241 23.9549 64.3447142261
34.9575 44.2314 24.4205 81.293545158
39.1326 37.8502 23.5787 37.4404089298
34.4432 46.4181 22.5721 29.9484276289
36.022 48.72 21.8026 25.0772351113
30.4339 33.0424 24.2444 86.2252751628
33.6641 43.0131 21.6641 28.9586029797
30.931 45.9181 21.8164 25.5300349048
37.8284 44.123 21.7531 29.1191023613
39.3412 40.5212 24.274 80.7393830835
29.8342 33.6063 21.289 33.3684307136
38.3978 46.8973 21.3851 28.6547171463
34.1176 38.1357 35.4787 90.5380285541
32.6135 35.5941 35.6303 78.2270209652
34.3173 33.6561 35.7326 74.3178163624
30.5934 46.8431 38.0922 32.938959038
36.1481 34.8804 37.6974 26.7924101382
32.2348 39.9054 35.8828 44.6651347374
30.0657 33.8888 36.0693 59.9137667007
36.931 39.4413 35.8941 66.1393229331
30.666 43.1791 35.9407 62.8036730436
38.7293 47.499 36.2951 65.225569763
37.9663 36.7548 35.7076 66.5063055405
35.0307 41.1674 37.5817 28.2788148021
34.4852 45.4529 36.1062 70.5475561172
34.5146 37.1186 38.275 27.5601082548
31.8898 37.0725 38.5123 26.0373936379
39.2466 43.2701 35.3358 121.1717079436
33.4738 42.5291 35.7456 92.173287958
37.2635 44.9583 36.2066 51.2857920804
37.8209 33.6881 35.6868 77.5224087083
32.7456 39.8889 38.6678 26.0465651424
34.9096 48.2543 36.0999 57.9822750979
29.5877 39.3174 35.3733 125.8602346688
36.5378 43.6728 38.5365 31.9056012199
37.1129 39.0352 38.6326 28.8555994653
32.5484 34.2769 38.7019 27.8395208541
32.6873 44.8155 38.7644 30.3141751714
35.9775 38.9238 45.0488 32.4128512691
38.3707 36.2446 41.6184 28.0745412259
36.8363 36.2336 45.9504 30.368428106
38.7351 48.0461 39.2364 29.8466046128
32.409 44.8247 43.7351 31.3388108037
35.6759 34.7404 43.4118 32.7262934554
36.4929 32.7873 39.3433 29.1421339079
38.7104 42.4262 45.8018 32.9418817467
38.0547 42.5588 40.8355 28.9471768948
35.159 41.9439 40.9205 28.8574074514
30.7689 48.9326 42.3085 34.2355050771
36.1752 45.3443 42.1576 31.8780606384
30.2997 33.568 42.6958 28.5686691526
31.6917 37.0084 44.6359 35.5835893205
30.8855 40.9402 42.538 29.3037897709
39.2487 44.8888 41.3069 31.6027795914
35.0361 39.1271 40.6815 29.8264633398
33.4012 45.8871 46.3289 30.3128722898
37.8738 33.3632 41.7837 25.5953205421
35.0565 46.1103 39.4409 28.4755695961
32.2213 46.3556 41.3428 34.8146748578
38.9998 48.6989 43.4976 30.6156013739
31.0882 34.1167 45.2685 28.8043826415
37.054 45.952 46.8601 29.9376761698
38.1583 33.7939 44.7301 26.6960373213
32.2065 48.0326 47.5459 31.2697890749
35.5791 46.4118 44.6666 30.9043339344
35.9924 37.4344 42.7172 28.727295099
32.1653 38.8903 46.571 32.4179457017
32.8015 34.2394 41.4476 30.7042134699
32.9953 36.9881 41.7491 31.8990881385
35.6103 41.832 45.768 30.6589277598
38.0089 41.1049 43.5477 30.7918248863
36.9416 48.3402 41.2726 27.1366088797
34.4604 43.1934 43.3703 29.2020249149
32.6229 41.1718 45.0603 29.9069786692
35.2585 48.7725 38.9371 28.6812440502
32.2121 42.0806 40.1632 30.5485826078
30.3075 38.795 40.8733 30.1570705177
31.7156 43.0805 46.7333 28.3565606232
29.6351 43.8457 44.1503 29.3850052531
38.6774 36.3656 38.9306 27.7195106758
33.0216 34.8951 47.3241 32.4774196216
29.6115 40.0117 47.1264 28.4882554719
29.5958 34.2225 38.9809 30.662739563
36.5152 47.763 51.0564 28.6510750847
30.5242 36.7614 53.1931 28.3100268626
33.9176 40.8808 51.1766 32.2273645835
31.0202 35.165 49.3208 29.9020451494
36.6195 39.4947 51.7629 28.725031168
35.7062 36.078 48.3795 30.2103974726
34.2132 38.3626 56.0246 31.7983797789
33.2673 41.041 55.7255 31.1993837039
34.9272 33.0249 55.1442 30.3808643226
33.3572 48.5952 54.4656 34.6335314946
31.272 41.1294 53.6305 35.6657684921
38.3215 38.557 47.7692 31.884169509
39.1215 38.5497 50.5704 32.5702486869
39.2806 44.4976 54.6476 26.815175676
35.1719 41.6862 53.8086 32.5525801513
30.3084 48.5095 52.1041 31.5308595712
32.7109 45.2471 51.1716 37.8708981176
36.5316 45.53 49.6232 28.2442478336
36.6163 44.4366 54.2004 30.8975094971
36.5043 34.3374 50.1663 29.6372875391
30.2756 42.1378 48.7095 30.9773885268
31.7515 32.8079 55.4651 29.1387230557
33.0795 48.0122 51.7413 31.5707454695
31.2265 37.5137 50.6427 31.1356441889
32.1779 33.565 51.3352 32.1444547289
36.8226 34.9302 52.8309 30.1944117394
38.2422 36.999 54.4132 31.1388511836
34.7268 36.8522 53.1636 32.8117707251
32.7353 34.8421 53.68 28.4012266924
36.7069 41.8755 49.6293 29.3109123162
34.7278 38.6605 48.022 30.1740057398
33.8286 38.2056 50.6844 29.5740502655
36.6652 39.3014 54.8195 27.54372602
31.6703 37.2174 56.1149 32.8948629075
37.2935 43.8395 51.439 29.0302256565
35.4815 46.9049 55.2125 34.1594973113
31.2167 42.8947 51.2376 30.5440419926
38.4727 41.3918 53.1217 27.9222430332
37.0571 48.275 53.5635 28.9273963923
33.9113 44.7232 48.8474 28.812492473
30.4939 43.9347 56.2424 37.1104532645
34.3412 42.169 48.2345 27.5272689469
37.9724 48.3893 47.7615 27.2517341346
39.1052 41.2649 48.2627 28.3934351185
29.9098 45.9984 50.7033 29.3046199036
39.2861 35.7753 51.0902 31.3684221711
39.4247 48.7002 54.931 29.8856641162
40.214 1.99884 7.62576 28.6962600031
45.715 13.6871 11.9063 27.7043966514
43.6285 0.789537 4.69168 29.5625258634
41.2605 14.4306 10.4687 32.3314357244
44.0267 0.0212038 7.36652 32.4469818943
48.8878 1.80197 5.3524 33.9368934779
41.8197 5.583 4.7464 29.3538768368
45.9469 13.9071 4.67579 30.9322082919
45.8144 4.51198 6.10907 28.3842743733
48.4133 4.6329 5.77063 30.0491089806
43.0679 12.5684 11.7786 28.4572160775
43.9363 11.7173 4.23974 33.3561935917
42.8606 15.2809 8.35184 31.3598616447
40.0601 7.9461 8.29838 27.9038856932
47.1158 8.50677 7.75248 28.8134987768
44.6174 8.81709 6.7252 32.9207310115
41.705 2.87531 3.85733 30.1434957773
48.5017 14.8692 9.23759 33.4879825186
45.1482 9.69452 11.3446 30.5654600278
48.4446 10.0474 5.80736 30.0578610469
44.7226 6.37227 4.2289 29.3327674305
42.2177 10.6552 10.0506 29.6440840713
44.746 13.4831 7.33008 33.3237024662
46.4687 7.31125 11.9818 27.9459481557
42.6234 8.0055 11.5898 32.0692504675
40.3084 10.7241 6.70308 32.0422725189
46.6068 13.1472 9.42069 30.1615549514
39.7731 4.30456 6.17231 29.0850118391
43.0845 1.80186 11.2048 31.106505455
45.6991 1.22788 11.5455 35.1259131958
42.0423 5.3442 10.5927 29.3959991373
43.1249 11.0969 7.47801 31.6702557211
42.5399 6.92981 7.36606 32.6827481837
43.8638 4.5745 8.5043 28.3588594452
46.1586 5.78868 9.54056 31.7089962965
42.7399 2.15665 8.73426 29.559676235
39.7985 8.66898 10.9613 32.3958019219
47.2213 3.00479 9.55419 33.4402646672
47.5059 10.4723 9.63466 34.2118495717
46.6752 1.83757 7.14235 29.9198398532
48.7439 6.2846 8.04771 28.8514088041
48.6102 12.7179 4.92502 35.7551843571
39.7279 14.367 4.00254 26.7662079016
49.1398 6.21212 12.1802 27.916002217
41.254 16.0735 6.15454 32.6797047222
45.1595 3.03109 3.66635 28.2859093475
47.7543 8.63185 3.77363 29.8082883528
42.024 4.28884 16.8748 27.9455157447
48.2882 9.39765 17.8237 29.5002265607
43.1133 15.4333 13.3588 31.1348837309
40.1573 9.32423 20.8507 25.6024295597
44.8246 3.91195 16.0898 27.9913288007
46.2976 0.92905 15.8204 32.4689361039
48.8569 4.21469 14.2735 27.9540212914
40.4661 1.05958 16.4225 34.7475956444
40.3376 6.49989 15.5881 30.6104736711
42.8062 7.45014 14.5635 30.910849725
41.1858 0.860546 21.2459 27.9079376862
40.4726 3.61974 14.4967 32.0861395336
41.6825 12.0589 14.2173 34.6971953809
43.5088 10.1899 15.1197 30.2122301308
42.1144 12.8534 18.038 26.2388503778
46.0134 10.589 13.8714 28.9045667351
46.2614 12.9256 16.5615 28.8485420134
46.7044 15.3304 18.5509 28.7166488773
42.6876 13.0278 20.9406 29.2288792274
42.7785 4.15919 12.8472 30.1996296985
43.5753 13.6385 15.8008 28.2128388603
46.4035 3.19737 13.7997 31.2234377578
44.8691 4.8259 20.6665 28.2346479117
42.3869 1.71818 18.8013 29.6146348707
46.0883 8.58205 20.7542 29.3634621223
44.0063 6.94924 19.3096 27.0540298258
45.2664 6.61136 16.8938 30.4949852939
44.7619 5.76754 13.7342 26.0518832853
48.2138 6.34622 17.8737 28.2276546948
46.1868 10.9789 18.5556 27.478451349
47.8738 2.50499 17.8295 36.3142874289
41.4323 8.68201 18.5113 27.3550918075
47.4675 13.0939 13.9985 27.9965766241
41.1406 5.70078 18.9018 27.5423536542
47.7739 5.41499 20.6392 29.762146753
48.6597 15.7924 13.6948 31.5290519999
43.4837 10.6664 17.9265 27.2524227948
47.1303 8.12991 15.1172 31.5357844855
45.0013 2.54426 18.9932 27.3592169513
44.5697 15.5409 20.3065 26.5804875312
43.6602 16.0327 17.1616 28.4835076965
39.7745 11.606 17.5908 26.7352902103
47.172 12.9714 20.5668 28.3184090283
41.2066 15.4394 19.1751 28.5258116759
45.6948 1.05847 21.1091 28.5811052843
43.4432 0.442024 16.0947 29.9197603915
49.1965 7.86515 20.449 27.3492085791
49.0418 13.5243 17.7135 29.03303177
48.2183 2.57105 20.5263 31.0124150012
42.0264 3.88194 21.2258 29.7364100445
44.7514 1.57568 23.5629 33.3432213184
41.8452 3.94138 24.2529 69.72671447
46.1834 3.35842 24.752 132.2313873146
48.9623 10.9123 21.2629 29.6302862428
48.6975 3.98755 23.5088 40.8462251045
47.9133 0.0208804 22.8791 30.7532367091
39.9673 11.0309 24.5421 79.3483417404
43.6763 8.34139 24.7041 101.3726294228
44.4369 5.46387 23.6475 34.711100765
46.5081 7.76578 23.6915 42.7321920696
49.1174 6.84111 23.5133 58.1868371282
42.8623 11.0161 24.2515 76.7755129072
47.1114 10.4735 24.5542 118.3108274991
42.5453 8.29021 21.8921 28.8400216907
41.6517 0.896668 24.185 71.7247055167
43.9236 14.8462 22.973 35.1767388815
41.604 16.1619 24.3373 101.084372417
45.4685 12.4158 23.2453 41.4125583952
41.3489 6.86838 24.2844 54.3083888887
40.4199 11.5822 21.9784 27.4466059718
44.2045 10.6523 21.2909 26.8109643841
39.6916 1.99067 35.7523 101.6390720619
42.7233 14.9365 36.05 63.9599760393
44.2441 1.87021 36.1825 57.0687364766
40.091 4.85693 36.2319 49.2222332376
46.4272 7.07186 35.7891 55.6758666689
41.8405 10.679 38.2306 26.5212443364
42.4906 14.5409 38.754 29.8748529165
48.4304 12.9413 37.8806 25.7982574436
42.8577 5.18619 35.6608 89.3993711467
43.2132 7.81561 36.101 50.0412107331
42.2916 10.6788 35.7023 90.3457287695
40.8156 3.44688 38.4746 27.9096614892
46.0352 4.23388 35.4452 95.2443028588
46.9875 15.4636 38.236 25.1018569026
43.7842 5.30391 38.549 31.5326356608
47.4255 9.89131 35.5733 73.8118832386
40.4309 7.83486 36.3163 59.4132302473
45.0515 11.2409 36.2056 43.4759142849
48.2669 12.8399 35.3926 95.7768818626
48.984 3.18986 36.0802 47.5500430328
45.8251 14.0307 36.0035 70.2009486926
40.2968 13.3787 35.6736 105.9605614054
41.6696 0.668214 37.0641 32.7817085954
44.035 2.52183 38.7982 31.5900384463
48.8803 0.392981 35.9411 56.5128915465
49.1645 3.32344 38.7956 33.3987463456
49.009 6.46154 35.474 80.4162341671
49.093 8.04767 37.8812 27.0734461857
45.3023 7.75737 38.4948 27.911193672
42.556 1.40793 42.5753 29.4798530783
48.3327 15.3218 44.283 31.0378833423
40.417 16.3065 44.0731 28.6855359484
45.8231 14.1623 47.2525 29.4594552266
42.1736 5.55761 42.5876 28.9861757938
40.5602 8.67537 39.5505 26.3015205324
41.7474 6.24016 40.1338 26.1100516895
46.4882 6.14291 43.0699 34.2101662765
47.9443 1.5611 40.3648 34.9722651147
41.1751 10.1283 41.9901 28.108177584
43.9054 11.0971 41.7097 27.6835142358
44.9709 8.45001 44.1558 28.9518870626
48.7277 6.85129 44.6334 32.5652966865
48.0501 9.71001 41.6797 29.4843245864
41.8124 12.7102 43.5151 27.6702334
42.6 7.24727 47.5169 33.677926906
42.9952 15.1521 42.688 27.1178779183
40.4363 4.78291 44.3358 28.8563018475
45.3427 13.5977 42.5466 26.6979612111
46.415 11.0071 43.4209 28.2543821968
45.0829 13.8754 39.6403 29.7968488515
41.6064 1.51594 47.3574 32.509264084
47.1847 7.07915 40.5354 32.921440377
45.4186 1.69191 41.0486 30.4727858434
45.6203 2.96466 45.0532 29.4364399244
44.467 3.39412 47.2413 30.4032776974
40.7085 7.99585 44.025 33.0333922863
40.1511 12.9382 39.3985 27.3557747028
41.9496 4.53666 46.4956 30.7357436458
48.794 9.30887 46.5282 27.5129354656
44.3974 3.9164 42.7194 31.6336833243
45.8059 0.32525 45.2381 32.4614875075
42.7418 11.9869 45.9364 29.2039023145
42.6811 9.10878 45.5443 30.3098003485
43.0485 0.395142 45.1684 32.4818960613
39.8878 15.0835 41.5551 28.214022611
43.7971 8.27218 41.3144 29.918118699
47.7808 14.8334 41.5086 30.3192921426
46.1713 8.70338 46.5955 28.967922666
48.1581 12.5721 45.3242 30.3740515382
41.8664 0.527634 40.0677 25.077250405
39.9892 2.12997 43.0009 26.0735448315
47.9454 4.34233 45.7567 32.6484061179
45.3402 11.2589 46.4642 26.2366913545
45.2222 15.6212 44.7308 26.6709767565
47.3825 10.3315 38.7587 27.3426636092
44.5258 10.9874 38.945 25.7540795426
48.152 12.5404 48.1187 26.3890639917
39.6805 3.81094 50.4356 30.0522165263
46.576 15.9783 49.4281 28.5563592368
42.9072 1.48981 51.6955 30.9954925994
46.7458 1.80613 51.1652 32.0916529201
45.9943 4.63999 51.8147 32.589234344
42.3088 9.81028 51.5747 30.5500093415
48.0403 5.2095 48.2833 42.078537512
41.9942 7.46278 50.2039 28.0730531156
45.4628 6.06306 47.8829 28.4372848165
45.2485 0.16796 52.9687 32.2609436917
44.6584 6.41793 50.3346 29.7491796637
45.9335 8.81145 50.9418 30.2352862843
44.0269 14.338 51.3499 28.7307135689
42.7229 12.1532 50.015 29.0945993358
45.5443 11.2044 49.4928 31.8990506551
44.4038 8.88513 53.1743 28.6218462303
39.5307 9.71594 52.6854 29.2530982496
39.6533 5.04825 48.1422 28.9097257419
48.2434 9.93362 53.8569 33.8690587365
44.1995 16.3022 54.0031 31.2266778542
47.1302 13.4419 50.8814 29.6197115061
42.3726 3.48318 53.499 28.3682503359
47.2321 1.5177 55.6152 31.0109541966
40.6013 12.1337 47.6895 31.596990738
44.6348 4.57709 54.2205 29.2581767536
40.2794 12.6353 51.9846 30.6006471414
41.1803 5.65066 52.0712 28.1480674294
42.8532 6.87298 54.4097 30.6774640179
40.5465 1.09244 50.0151 32.8862035808
48.6438 8.50459 51.4904 30.9416351594
44.5429 1.45989 49.4146 33.6798238281
46.6757 15.0526 55.014 32.3547630754
40.1935 14.4952 49.4099 29.1008017845
48.2448 6.20318 52.9435 35.6430660407
40.0216 7.2049 55.8834 32.0704056918
44.604 11.5157 54.2386 27.9469174478
46.8308 12.5391 53.6882 30.1481314928
41.5156 15.7432 55.1799 27.259326674
42.5004 13.3364 53.6937 28.7855705114
48.8154 6.14034 56.0523 34.2435380628
48.7818 1.58127 53.2423 30.101210606
39.5111 2.83745 54.3693 28.4030006706
42.778 14.8169 48.1155 30.2666834733
44.9201 9.05116 56.263 30.5846391849
41.0299 12.0263 56.1683 33.9842476158
43.0231 26.5881 4.34141 29.4139077731
41.0633 19.6991 8.92682 27.4499553715
41.2846 23.3846 7.96363 30.0815202859
40.5109 25.7722 4.73491 31.2381660065
48.2551 19.3948 8.04579 28.4351661621
39.4376 17.3967 9.87643 32.2076830602
46.6719 25.5903 4.32103 29.5937255496
41.2461 27.5033 10.5616 27.6075094459
42.8369 20.3617 5.15949 28.7870380517
39.7649 30.2975 12.3747 26.3010259047
44.8618 22.4055 7.37632 26.5430075499
48.0055 17.4703 10.2042 31.2812167414
44.7195 31.3386 10.7558 27.7168660195
43.7743 28.4092 6.15394 32.0070627926
44.2272 17.0289 9.9131 28.950252339
40.1866 26.2135 7.2731 29.5000570795
46.4466 28.0382 5.3643 31.3949626834
45.5387 26.9793 10.0747 29.8575906044
48.3374 28.2597 7.60654 29.2519212474
43.1009 30.955 6.04616 30.312415966
46.7413 29.596 9.80782 32.569157323
46.9809 20.7886 5.60196 28.4020151703
40.9484 31.2301 7.82977 33.165487427
47.747 18.3573 4.68428 30.9440696532
47.119 32.1184 4.22322 31.3693144853
44.0211 23.6154 11.7333 29.065903213
45.3468 21.2545 11.8661 32.0373987854
40.6758 18.9296 6.39551 29.4345793764
43.7874 19.8532 7.79677 28.8364423382
43.3373 19.5142 11.0982 31.1816599431
47.397 21.394 9.83154 29.9968043408
44.2443 24.0714 5.00478 30.124727181
43.5524 24.3356 8.95642 29.2256902323
45.7464 17.8977 7.67491 29.4245819518
43.067 17.4254 4.25139 29.9066812405
47.3055 23.4574 7.90477 29.2946938443
46.9752 24.7497 10.5058 27.3266025355
41.9981 30.6084 10.4255 29.062484717
41.3753 22.8222 5.13906 25.4435469267
40.6582 25.17 11.8497 30.3470490432
43.014 27.0425 8.65407 29.8885149365
48.8128 24.6477 5.68552 27.5749572764
45.6325 16.7239 5.25205 30.7123445901
45.871 16.3603 11.8419 28.3344120953
48.932 22.2388 4.10243 30.3117954914
44.814 27.9536 12.4529 28.6538552478
44.5209 21.0118 16.5078 31.8655947821
41.5971 18.5532 17.3737 30.1863912225
43.8637 32.5682 15.839 25.8674342651
47.5684 18.0196 17.5881 26.3132016851
46.6472 31.6381 17.5616 26.5280945782
48.8708 20.0404 14.5458 32.3010648615
42.4909 19.9411 15.1153 29.0422995967
48.8316 23.1064 17.6166 30.3202856451
47.5801 23.74 15.2095 29.5617355105
45.0467 25.4907 13.4923 30.0444785891
46.8335 22.0669 21.1987 27.0690819488
46.9482 17.9476 14.8054 30.4587182629
46.4119 27.5616 16.7127 29.8935848605
40.0441 21.2422 17.538 32.4438547144
41.1235 23.2868 15.9454 29.858414376
41.4463 28.9994 16.1979 27.8325486211
44.3349 17.6805 14.7983 29.4862820894
48.0417 27.0721 14.3136 27.0744551272
45.0062 29.7756 15.5227 27.2596392827
40.5042 32.2062 19.9474 30.2874799884
40.2416 21.5616 20.2748 28.9299311814
44.8757 18.5741 18.0258 27.2240898833
47.1034 31.3624 14.3583 27.9054839025
42.8606 18.0486 20.1603 30.3001571313
41.6493 22.5706 13.0718 33.2241643704
46.3856 21.5734 14.3912 30.586351217
47.9996 20.7691 18.9531 33.0572394517
43.2452 23.21 17.7995 29.0999071702
40.2278 24.2583 20.9163 32.0464066381
46.2955 24.6502 20.2884 27.1877032053
41.2409 31.6082 17.152 26.4842524634
43.3791 25.5977 15.9288 28.2972673291
48.3804 28.7737 18.3545 29.0198636299
43.2618 27.7663 17.7066 28.0202724146
48.5946 17.1001 20.9613 29.775294906
45.813 24.8536 17.3988 29.4973068951
43.0342 31.4016 13.4115 27.4551454995
43.8807 30.5358 18.5995 27.9823453227
41.8667 26.6494 20.0384 32.7719675344
47.5761 29.2262 12.6122 27.9873935547
39.3574 32.2209 14.6316 27.9082253355
41.0017 26.1042 14.198 26.8264017883
48.8155 25.0264 12.7488 31.3075529175
42.0012 28.5757 13.5572 25.8610586475
43.1212 22.687 20.3789 28.8549880348
44.5789 28.7086 21.0598 29.565950023
41.0621 19.5072 12.6084 27.8411630052
49.1967 25.188 19.6258 28.3580233883
40.6205 16.6567 12.645 30.1124605964
44.7903 19.7057 24.2571 67.8626355373
48.7739 16.8964 24.094 67.1089123483
41.2397 30.9753 24.1945 91.4443780172
40.4354 19.2027 21.6651 29.6819037789
40.0438 28.2634 21.4211 29.968628312
42.9195 22.0335 23.8092 39.9535180222
42.7255 25.643 24.0259 62.3494751107
46.7849 32.4867 23.9015 63.8630186333
46.9571 21.4487 24.0407 47.1774765341
44.962 23.6158 24.835 128.7500925032
40.5173 23.7322 23.6656 43.4182418487
40.1558 27.6365 24.0986 61.2621887861
42.4018 30.5148 21.3253 26.784023952
45.6747 29.7008 23.9584 62.034479193
47.6581 27.6983 24.3826 99.6226134442
43.0887 28.9044 24.1147 73.6978159774
48.9691 29.6 21.2385 30.5935265734
44.648 20.3414 21.5196 27.762542327
43.6615 25.2294 21.4142 28.470356977
41.9076 18.9983 24.5185 88.286112007
47.3363 24.9212 23.5906 35.7040671067
45.973 16.8679 24.1066 94.0087332704
46.2579 31.1734 21.2488 26.4732059467
47.239 27.1681 21.2723 30.2168219546
45.8909 17.7933 21.3824 28.169478317
47.3997 23.9706 38.8243 32.7725587481
48.22 29.7113 35.9685 72.69817063
40.5908 18.8844 35.6333 100.6913850975
39.5478 21.6728 36.5994 37.7100353179
46.8074 20.92 36.2736 57.5205135172
45.5472 28.4326 35.9832 93.6595021374
48.7694 32.2388 36.4204 40.7915661919
46.1996 17.578 36.6597 57.0149181015
41.6536 22.1674 35.0857 132.5662937187
47.8697 28.1462 38.2866 30.2796103307
43.3655 17.7712 35.8223 83.5624013374
47.3887 23.4876 36.1779 59.0073497842
41.6777 24.9595 38.6619 29.3136436403
45.1668 25.5305 36.0531 80.2542523701
43.71 20.6292 36.068 52.6985119648
40.8116 29.4788 35.8015 91.271601565
42.4948 24.5683 36.0796 44.9526107339
40.4881 26.6938 35.7727 86.722904994
43.5542 30.1459 36.5816 39.8358908736
40.2111 27.3421 38.7195 27.6534316336
43.5658 19.0445 43.7152 29.1176492185
43.6427 17.6612 41.3052 29.7631200652
40.3584 19.0917 43.4649 30.4479874188
48.6305 18.1877 45.5128 27.328848713
42.824 20.2892 38.8892 32.4751904922
42.1798 27.4642 46.1917 30.5814201202
44.5359 20.8081 41.448 32.8816305677
39.9086 23.2274 44.8458 28.185121273
48.1799 21.2459 47.0641 27.8636945325
46.1409 22.3001 43.4447 29.2908232929
39.4592 30.1763 40.9118 27.5369601881
40.619 26.3113 42.0921 30.0500105224
46.2 30.1891 46.701 36.135690078
40.4854 32.3958 42.1283 27.0782841614
45.6563 27.6825 39.9976 35.5301650984
45.8402 31.3668 42.6744 31.2007801043
44.2313 31.2795 44.7925 32.1934595699
44.7799 25.0674 39.0881 31.9216912821
41.5984 28.5881 40.8959 29.1131027011
43.6213 29.61 39.3275 33.5447648693
47.1752 28.943 42.1185 32.4142916442
40.0274 20.271 41.0552 32.0933322435
42.3741 29.2745 43.9321 36.3719590764
48.2076 23.9834 46.7998 26.2260683075
45.5629 20.6506 45.3661 27.3421956813
41.1236 23.525 42.1888 30.125914019
43.4103 22.2332 46.2192 27.7444884564
40.7955 20.9597 46.0371 32.122364883
46.7051 26.7191 44.0371 37.8398193583
48.7023 21.7436 39.4963 27.720631948
48.8485 32.4646 39.0413 32.0532564095
42.595 16.8312 45.6973 30.2907430663
42.5028 24.7603 45.0993 28.8630600109
43.7366 23.7589 41.1936 29.6073132681
44.6498 24.7711 43.4755 31.8678360705
40.7795 22.4123 38.9987 27.1895976925
39.5386 17.4985 40.3623 30.0593884296
46.3285 17.8342 43.7794 27.6973391605
48.5697 22.5224 42.6642 30.6624428656
48.8168 24.9105 44.3156 30.0494019927
48.9374 30.3308 47.4595 31.8024073118
46.7476 17.5161 40.8914 30.5987871522
46.3592 19.8534 38.8584 30.8225427698
40.2643 32.1996 46.5683 30.9369267224
45.7029 25.5968 46.7359 30.2508450383
44.3314 31.9956 40.474 32.8638980815
39.8512 29.7438 45.2327 29.6819938096
46.095 18.186 47.05 28.4872945214
42.0795 17.3146 38.9693 29.2143202581
42.1745 20.4156 48.4861 30.3055376979
42.1573 24.37 48.8696 28.8293904589
39.733 31.0031 53.3773 30.5142619667
41.571 22.8041 54.8702 30.6987450458
45.8678 19.5298 51.2598 30.6782254549
48.3854 23.2476 49.9031 27.4343355843
40.235 19.5141 50.5717 27.2921009066
44.3726 19.4314 54.6947 28.8617734022
43.0201 26.689 49.7807 27.9065305786
47.8272 19.2611 49.1849 28.1793045103
43.3799 21.2041 51.1143 28.6041708288
41.6433 16.9902 50.6612 32.286096912
44.6359 23.0496 48.3166 30.3464802497
48.3252 17.2615 54.7767 35.5277400453
46.0288 31.3387 50.6759 29.0196027288
42.3477 28.52 51.7397 28.9619549482
46.9804 19.4065 53.7931 29.8824739833
45.3402 25.572 50.7043 27.4162593258
44.5747 16.9885 50.8776 26.9184919287
47.7101 26.182 49.0069 32.2325110911
44.2196 27.9423 47.6869 32.4230127067
44.6498 30.8811 55.7072 26.939614189
46.1712 23.1388 54.1655 27.1117187604
47.2138 28.5458 50.9992 33.1615227512
42.0972 20.2926 53.4823 29.4061932048
39.4626 25.5495 48.4725 33.068139371
40.8386 28.5846 55.2568 31.6756190744
44.5836 31.5068 48.4259 30.8106123985
43.5753 24.4293 53.3948 29.9831324915
43.4452 18.0244 48.1926 29.1874063514
45.0562 21.7879 56.2053 27.1866113955
41.5345 23.5231 51.328 29.9019469829
40.7705 17.7734 53.6458 27.1048702118
40.8989 30.6305 50.8394 31.6595203192
39.9497 26.8821 52.646 37.3982087959
43.1689 27.1047 54.0333 27.847127432
44.4623 30.7212 52.9177 29.1538490531
45.6726 27.5054 53.0812 25.7672740245
48.8062 21.7049 53.9649 28.7182812636
47.3807 31.4883 53.6968 29.5890989715
45.9647 23.0186 51.2042 27.3769088204
47.4115 25.6648 54.3378 29.72834502
47.012 29.0038 55.3253 27.4821845984
39.6905 28.2955 47.989 32.9788364829
42.194 32.621 49.7088 29.4860089557
41.7959 30.9989 56.3877 28.7787236416
44.4269 36.0262 7.5822 28.0058499207
49.0596 38.2263 4.48854 28.5117231308
43.4988 39.1361 11.4196 31.6927994249
45.1551 33.3457 8.73951 31.7840873444
41.4717 48.5375 12.2688 32.0118345245
46.9117 47.809 8.12339 33.9190211557
43.5182 43.3539 5.7441 31.5615537993
47.5516 40.4425 5.76571 32.3865861349
40.2749 36.4449 7.01015 28.1043667705
47.8199 40.1341 8.78514 29.81966978
48.3751 34.8409 4.53136 28.7390321984
41.3449 42.2422 5.36477 29.7326928905
43.0879 46.6159 8.24147 37.4556648183
47.2963 45.0736 7.57509 33.1246854893
41.3373 46.4017 10.7268 32.2069669385
44.6006 41.1248 8.72222 30.2756045888
44.6898 33.2876 5.66689 30.8757522175
40.3598 39.0536 5.70933 27.6471707155
40.689 49.0052 4.65471 27.0260224259
41.1322 45.9336 6.18658 30.3618901454
46.7762 36.9262 5.63447 29.4045286873
42.4876 43.8967 10.8438 29.2533581063
42.8897 35.942 5.07134 27.5380937788
40.8383 33.985 4.28345 31.7790934135
43.6097 34.6306 10.807 27.5888049324
47.3414 37.256 8.65344 30.7074261228
48.1135 34.4043 11.4758 27.089272497
47.9533 43.4547 10.6831 31.3336827613
44.7854 40.7648 5.57052 29.1351849452
42.0733 36.7535 9.34015 29.854753237
41.5685 39.8937 9.26655 29.8731678941
47.9278 33.4931 8.95122 32.3414078544
47.7027 46.3116 10.505 31.7946120134
39.6436 43.6796 7.07177 28.7063621756
45.3148 36.9575 10.8547 28.4668394571
40.8264 42.6067 9.31237 29.9168082773
44.5838 43.8562 8.31471 31.9507168145
41.0863 33.3223 11.7161 26.5774426122
45.6902 41.4789 11.3832 27.8533346732
43.1907 38.7634 6.96006 29.0218589672
47.7928 39.9681 12.0799 27.0315437222
39.5422 35.3434 10.3331 27.5988787395
46.2503 47.6005 12.417 31.408354998
48.8908 45.5181 5.49644 32.9934523621
39.5476 46.215 3.91591 27.8323931991
39.4458 41.4161 11.5447 29.6876214776
44.53 33.8723 18.5525 26.5045729879
45.8313 36.4588 17.3614 29.1350701447
40.2246 37.2478 14.047 31.908813537
44.7377 37.9375 14.8698 26.8712720778
39.4636 48.6885 18.9993 27.8428498539
47.957 47.9873 14.5358 32.4143426676
43.5227 44.6826 16.2479 30.062505876
41.9782 41.661 14.1618 30.1402837651
42.9312 37.0588 17.6459 31.2899374007
46.8026 37.4851 13.0382 28.4273462481
48.6821 35.6594 14.4302 29.3493800149
43.3037 41.2138 16.7707 30.4127218808
43.9406 35.1786 13.7251 30.3114119072
41.5027 46.1315 14.6586 33.3626762414
48.2923 40.1953 14.9238 28.3642491704
41.5231 46.3481 18.7886 30.6964299218
47.5737 43.3881 15.1291 30.8055260136
47.7117 43.5655 19.9512 27.3457682965
43.6891 48.0609 13.746 29.2198278959
48.3537 45.7207 16.2952 34.6052580292
40.5013 39.9491 20.7062 32.4954923333
45.5342 47.3655 20.0363 32.8883094394
39.5061 41.3159 17.7301 30.1681319525
41.6104 34.5685 17.0809 27.4417033719
45.2389 45.1307 14.1755 31.1234785874
48.0186 46.276 19.1767 34.3214700374
47.5759 37.7415 19.2724 28.4862358187
45.905 33.0662 12.5771 27.2782913198
43.5242 36.0517 20.4125 28.3628885696
41.4956 39.3848 17.7346 30.5256201124
40.2514 44.0792 12.8732 29.0909429935
44.1421 47.0388 17.4895 32.5118907588
42.3768 38.9208 13.9514 28.9885919332
46.0847 40.2866 19.269 28.6388642781
45.7692 39.8652 16.5129 30.5505462629
42.4996 44.0612 19.8435 31.3373911747
44.2383 43.0244 12.8323 30.8097842731
41.3514 34.5447 14.3524 26.0744525457
47.1136 34.2527 16.0763 27.4890448049
47.2348 33.5526 19.8654 27.1285656841
49.1429 42.9388 13.0925 32.5896743744
48.7879 41.0621 19.1008 31.3264625974
44.9019 42.934 18.2934 31.2819372469
40.9519 34.8154 21.2309 34.5325733423
43.5029 45.5546 24.1901 48.2483156121
41.3371 35.8702 23.9345 73.0487409407
45.4557 47.7457 24.3851 87.8911548695
40.8757 46.6238 24.6022 85.3089623954
46.1644 37.312 23.8966 50.3542423721
43.082 38.0205 24.3958 94.4967713503
41.3499 47.1361 21.6503 29.170005224
48.6961 40.7795 24.627 106.6504177072
48.8031 38.1181 23.651 35.6201118883
45.1956 34.7236 24.3054 87.1964293665
42.4086 41.1874 23.778 38.9501378974
40.6817 43.6849 24.5389 67.3866136588
45.7616 40.2306 24.3405 65.961214607
46.2188 35.7693 21.2625 31.697374811
42.8306 33.3388 24.1106 71.8038884158
47.2817 43.0984 23.7113 36.2501578462
44.4406 43.0679 24.4775 82.2324631338
47.9261 46.1455 24.4473 100.9301459326
45.5683 43.3017 21.4784 25.8203713081
40.6032 42.5827 21.7934 29.3572717065
44.0478 45.8593 21.5329 27.0740133362
44.0955 32.904 21.5444 26.7888361631
44.9475 40.7177 21.8145 28.8022788359
43.0256 38.7565 21.3607 32.1621208341
45.0992 38.407 38.4254 26.8011691544
47.1548 46.8674 37.7694 28.0336478061
46.5768 43.0318 35.7962 70.4506692607
40.9335 34.3176 35.7455 72.5100662431
46.2894 33.4078 36.4296 50.3833530345
46.6407 36.1707 35.5654 116.8348566193
44.3138 46.4172 35.6991 89.380168309
43.8622 35.8915 35.8741 55.8635819633
42.5891 40.6286 35.7221 61.3967205335
48.217 45.1727 35.8425 75.5246828935
44.7774 38.9011 35.5751 80.8385751748
44.0735 35.8373 38.754 26.4093480713
39.5777 40.5486 36.032 47.8666688933
41.2813 44.1648 36.8806 28.3311497229
43.3855 43.2753 35.3155 98.535860876
47.3381 40.1776 36.0934 50.1920439743
40.7044 36.9219 35.4562 89.4419975555
41.4543 46.7255 36.7588 37.9729037115
42.775 39.8626 38.4842 25.6020981908
44.0968 45.8793 38.528 30.3317548789
46.0468 48.7333 35.6831 86.9485456873
40.1158 33.854 38.2957 27.8338428358
41.3461 37.2905 38.1552 26.9555444038
43.5627 32.8117 36.1509 72.2950141251
47.3615 36.6685 38.4015 29.1093370171
45.656 43.4797 38.613 29.0264036534
48.8948 48.6726 38.5941 27.3315364123
41.9124 33.196 44.4163 28.8137661075
41.7893 33.6497 40.3076 28.3898310936
47.5811 34.4627 46.1281 32.7766313087
47.7703 42.3344 41.4386 29.0040749348
46.6759 44.7773 45.8207 33.4962077526
42.5306 36.1291 41.0543 24.9640605725
47.3029 37.1929 47.3198 29.388187883
46.8067 35.4015 41.8411 29.2021764481
47.1784 40.681 38.8985 29.4614183243
41.3608 38.4737 41.1185 27.2292713504
48.9654 36.6674 43.4878 28.7569220568
46.8938 47.5188 47.0035 32.4395574004
43.1377 46.6878 44.0971 28.2411347236
43.6538 42.0926 39.8882 26.6111960293
43.3583 35.364 45.8165 29.8635658439
41.0152 42.8988 39.3667 29.942196569
47.4805 38.1852 40.8003 27.6814478578
48.2824 44.8576 39.986 30.5604149384
40.3883 35.6922 43.1824 26.5933930851
45.1828 46.1602 42.389 29.0257274679
43.9165 44.7579 45.8123 28.4957925894
45.0277 43.2695 42.2078 27.6214534322
44.6142 48.0602 40.4535 32.8064592448
42.0012 43.9007 42.3997 30.5378152094
47.0741 41.9434 46.5347 32.1805694751
48.5286 44.789 43.499 29.6872105036
45.8108 38.9258 45.9 29.6369627289
40.5994 46.4357 43.6911 30.2489331964
47.3828 47.4516 43.6171 31.7387311956
47.8649 33.1613 43.5097 32.1133387489
43.5229 38.0086 47.0351 31.5018354361
42.8256 42.2366 45.7886 31.5698937558
39.6367 38.7785 43.3727 28.9333458243
45.5797 38.5872 42.8946 28.9537790737
44.4191 36.0917 43.0741 33.8269389366
43.1782 40.2756 42.1039 30.5611173394
48.1238 40.2366 43.4635 27.2399129489
40.4615 38.0628 45.8698 30.6957896602
40.9764 41.492 43.7143 29.3834681146
40.1021 35.4116 46.1669 26.1567601174
45.0506 41.55 44.4565 26.6194330062
39.6925 40.3591 38.8825 29.8555462971
39.6713 45.3496 46.3756 35.7187708807
45.9811 33.82 39.5394 28.0474901469
45.0731 34.0135 47.2518 28.9991365846
41.293 46.9444 40.0473 30.5579810702
41.837 40.4364 47.5647 31.540399476
42.401 41.3004 50.5334 30.083456376
41.6167 35.4321 52.6058 31.0443249145
41.391 33.192 54.4217 29.8724745473
