16.5758 19.3919 54.0989 31.6283527488
22.6143 22.2135 54.725 30.3550907931
22.8821 20.5158 52.5194 25.9628535931
22.683 18.5742 46.6173 28.0663094656
20.9754 16.9713 54.643 31.1525023661
15.095 17.658 50.3806 29.4273641265
14.0282 26.3645 48.2723 31.3045897224
23.2977 30.4382 47.9275 31.8097673314
23.8286 29.0864 53.8118 32.153542487
13.1664 17.1555 46.4354 30.8521274911
20.293 28.6945 56.1901 28.3974947747
22.2384 22.3601 46.3582 32.4413615677
12.7498 32.955 6.08906 28.7020705612
18.4137 44.2608 13.9996 31.2249146776
16.5761 34.2953 4.68714 26.0569422747
20.3836 35.051 10.7708 34.5752045065
20.1723 48.0583 6.97953 28.9874376571
18.0512 39.8593 4.01786 29.7390843846
16.6854 48.6937 11.5901 28.0805529466
12.6252 44.9172 10.2625 29.3454414741
18.1129 46.0234 7.84028 29.4542720531
18.5192 39.7137 6.83121 33.2833483401
13.4021 47.1403 4.05565 27.7755453982
23.6458 43.129 6.67992 27.2014214605
14.936 35.6933 13.8107 27.4074700432
17.7554 47.5527 5.09919 28.3084034481
13.8024 38.8305 7.36789 30.8566482425
16.449 44.8066 5.09974 29.7286382682
20.0871 45.489 4.49636 28.8005542149
19.3961 34.2237 5.53182 33.0932253344
13.937 48.4698 9.34509 27.570654913
15.1607 33.923 7.08836 32.8886072381
14.386 42.4007 6.2913 28.8460797025
16.816 47.091 14.2061 28.5592166107
13.8746 45.2722 6.50824 29.0788773324
13.8535 41.1183 8.97657 26.7923373101
16.5875 35.5784 8.97546 31.484527755
23.1746 39.0626 4.44102 34.1195898669
20.1324 47.9908 10.8112 32.3790322362
23.247 34.7609 9.63497 34.6662606027
13.1743 33.5805 12.8386 28.2159983997
22.1302 39.1831 11.5304 33.6051475934
19.2619 34.3597 8.46195 34.6418632237
16.0387 37.0102 4.09218 29.8541324525
16.1548 37.6222 7.01682 31.9989543724
22.2082 34.9016 6.17593 30.9798082193
20.8851 39.2612 8.38899 33.1506007956
17.6292 38.8026 9.68123 32.2098052
22.7644 45.4176 5.41281 29.9314687075
19.7321 42.7791 5.17601 26.8545102202
22.5267 37.6043 6.80787 33.8676634619
12.3453 35.731 10.267 32.4193559497
13.8911 46.6469 13.8986 32.3594719847
21.6512 41.9158 7.91691 28.960165194
23.6486 35.6028 14.0346 31.3012325548
15.0679 45.9772 9.02021 30.0190112969
17.3441 42.3665 6.96454 28.8670951693
19.5523 43.6194 8.43824 31.1573672751
22.4696 47.1701 7.67834 29.2379679327
13.2367 44.1319 12.8257 29.6982112261
14.8294 36.5707 11.1073 32.4568802347
24.0739 37.1236 11.7779 30.0884852215
12.3814 39.3145 13.5477 29.6264759974
15.0159 41.7725 12.6353 28.1844050685
22.241 41.9381 4.22156 27.7367260582
13.1598 48.7368 12.2457 28.2282141557
14.2467 39.4826 10.9801 30.5307497305
23.9406 32.8553 13.8983 30.5080727669
17.6195 41.1989 11.191 31.2153000425
15.7579 42.854 9.65615 30.7666270793
19.1974 43.5009 11.4128 28.5554554053
21.7788 43.8846 11.8971 30.3952182904
19.8754 37.5759 11.1721 30.7968016954
17.9766 46.2907 10.5865 30.4667744904
22.5591 46.1985 10.249 32.0003602467
13.8566 49.0315 5.9688 29.9397971583
23.043 41.9505 10.5271 30.7425906678
19.0321 36.9589 13.9407 32.3871268021
17.4014 39.4786 13.9403 30.8016911965
24.1784 48.2319 11.6694 35.1720244427
17.4953 34.6643 14.1832 30.7989597351
19.3967 48.4397 13.5419 29.7373464068
13.5392 38.671 4.34097 30.5692361865
16.696 35.1906 16.9855 31.6083000428
14.799 38.9894 17.3545 28.0669830815
13.5132 38.2183 21.2093 27.927666097
17.4994 37.3473 18.5083 27.069794894
13.213 36.8157 18.4963 28.8411239325
19.9621 46.1777 18.0064 25.0711635616
20.2434 46.0938 15.1867 29.1849292705
12.493 40.6791 17.2707 28.7835327827
19.1766 39.0394 16.6449 28.3345143691
16.9345 40.5069 18.3562 26.5087701687
22.5012 44.2395 21.5552 27.8379605281
12.6249 34.8498 21.1168 30.9332795712
21.2182 40.2587 17.8793 30.1835644634
15.0001 48.5516 24.5559 85.7543169899
15.0814 48.4616 16.3157 29.249651486
18.326 44.0646 24.4092 87.6929537137
22.5467 44.3861 14.4462 28.1323830103
21.6795 47.214 20.9507 33.2779059466
12.7794 48.0422 21.4386 27.4036136363
14.8466 44.5343 15.6126 29.6235327327
21.2303 43.7491 18.8258 30.8272894189
17.3806 46.626 24.4226 74.517137192
16.7042 34.6119 24.4995 94.3340940936
14.0716 35.0464 16.4959 27.981646567
16.3818 37.2433 21.1277 30.5079551945
19.6826 36.0141 19.0724 27.6584338241
16.3568 41.808 24.203 69.5652816323
20.957 34.8904 16.8788 28.512023082
23.0967 46.6927 16.424 30.2461185587
21.8899 37.866 19.9969 34.6621254715
18.1456 42.8314 17.4703 30.2561160123
17.32 40.1677 21.1256 28.6781355565
20.4333 40.0276 21.4015 30.8106406081
15.3132 41.5905 15.2229 26.9514665327
22.5338 35.5546 21.5177 28.3468802314
19.2814 41.6628 14.9506 30.5957588663
18.6264 47.6967 22.0338 27.9195979428
15.3656 42.9399 19.0033 29.39909915
18.5514 45.2661 20.4695 29.1967112676
22.5618 41.3576 20.2725 28.7368818468
14.0682 45.6187 19.9205 27.8630933011
20.0111 34.2251 24.3762 59.7318130355
12.3578 44.045 17.3833 32.6166011452
17.3426 45.5776 16.8163 25.6284906687
16.0989 47.3598 18.6699 29.2052650266
12.5154 41.6754 14.9542 23.8903883303
18.2444 32.8586 17.67 28.6388153736
15.2187 45.6511 22.385 25.9621575575
16.6497 34.4556 21.6702 31.20480248
21.9889 47.2497 24.3081 64.5908534129
22.3395 33.4911 19.9617 24.2431874621
19.6051 35.005 21.8008 29.0133759527
21.4817 36.4307 24.7065 103.4620695156
21.6491 48.3706 18.3865 28.1524035129
23.2325 33.8962 17.5852 30.7881674166
14.8435 38.4055 14.6494 28.4514221459
13.1816 44.7378 23.756 61.3748586935
15.8229 37.5164 24.0957 61.4611685142
16.7022 43.3075 21.4696 25.9988058516
17.6807 39.4183 24.1406 67.2228376097
21.4033 44.4341 24.2779 71.2797675654
22.9832 40.0453 24.4677 84.4144351847
14.1795 40.8981 21.5601 29.232522106
13.3907 41.6743 24.3448 87.7108589177
19.7945 32.8265 19.9647 27.0467537809
19.8471 42.8937 21.8514 30.2994756127
13.6904 34.9348 24.0225 54.4944510232
23.4662 42.6501 24.3323 71.0572821378
21.661 37.223 15.2697 30.0359810093
20.308 38.8844 24.1821 62.9023856454
24.183 35.5371 23.9448 49.8759828387
22.1775 42.2717 16.36 26.50097344
13.1377 38.5553 24.0918 67.2740790399
12.2254 47.5762 24.1235 60.9602899265
21.9832 39.7794 14.5365 29.5848457354
15.6713 48.5512 21.5241 27.917030184
23.5857 48.6511 14.4762 31.8198367323
19.6143 48.8863 24.4408 75.6859899515
23.8416 32.6366 23.624 40.8034594433
14.7175 35.6023 35.7564 64.9409507372
19.6945 47.6579 44.5121 27.9401628297
19.4657 45.8767 42.1817 26.7972027634
17.5371 36.273 35.6597 79.9163726797
19.1899 38.8012 38.4901 26.9816147073
14.9862 39.7601 44.363 30.4306314194
20.6305 36.1348 35.7911 67.8408963565
13.6669 44.6152 35.6868 69.9773895931
23.0022 34.846 38.5352 30.5386674856
21.7626 39.9392 43.5222 34.9221618542
14.0537 44.6398 38.423 26.683964174
19.5865 47.7721 40.5447 28.5235904522
14.3445 41.5265 35.6288 73.9268589964
15.4006 39.0132 36.2977 39.7568460305
14.6632 39.3113 39.173 29.203998427
13.5363 41.7166 38.5699 26.8115652031
17.0727 47.8735 38.0783 29.0016758238
20.1777 38.815 35.8403 62.6313781275
22.7553 39.6538 36.0238 66.0470913137
13.9377 48.0205 44.8978 26.2016926537
24.4682 37.3883 36.0955 61.1232074975
21.5097 46.733 35.6447 95.2944008335
23.5913 42.2091 39.2091 27.6107020752
20.7243 42.4526 35.7847 82.5020165547
20.6902 41.721 38.5613 26.9840792883
18.5527 33.7978 38.3448 32.5110118852
19.9694 43.7059 40.5197 26.7537121552
19.0286 35.3841 45.295 28.8556718504
14.6563 47.2631 35.3892 84.9333956695
15.7051 41.291 42.4356 29.4346282013
24.0611 46.9941 44.6485 29.4284014665
23.6427 42.1741 36.1575 41.6905415729
23.3502 35.7104 43.2157 29.8545603082
13.4902 36.2316 38.5497 27.5539842531
18.5747 33.3724 35.8314 57.4074160276
17.7008 40.4397 35.7942 76.6076927859
21.6649 33.5871 42.3165 31.2432935179
16.8438 36.8771 38.2455 28.3448434407
22.9368 46.767 38.3705 30.741616009
15.9523 34.8892 40.5738 28.750503611
21.1915 37.3697 39.669 29.5857426862
13.9771 33.3811 38.6087 28.3791284607
17.6907 41.8449 38.5515 27.3810725166
13.1313 42.0924 41.6748 31.7539381153
22.1065 39.5573 40.5767 27.1872369376
24.7626 34.2672 45.7259 29.054113834
16.1081 44.7675 42.6329 28.8723286389
14.0515 36.4572 45.2426 27.030578487
20.8469 44.632 44.6064 30.6637878031
22.8245 44.4688 40.3122 30.3600617429
16.3573 44.1196 39.9306 30.1528354116
14.3179 47.5744 38.5012 29.1871685393
18.5786 45.4393 38.636 29.5039140589
13.7254 33.078 35.5522 79.0402836764
16.6518 48.4243 45.2615 28.2386731381
16.7673 47.4091 42.7418 26.2476638331
20.8958 32.5954 39.7786 28.9327814531
14.0681 35.6697 42.5609 31.664080441
23.3167 44.641 43.0537 28.094721049
20.1149 36.3917 42.0243 29.8995211802
19.0754 33.5874 43.3802 31.108793897
17.4272 37.2202 41.6759 30.5724888838
24.0921 42.1585 43.7833 37.6769732019
12.9219 37.5572 41.0091 30.124856767
17.1127 39.7771 40.5713 25.0351935656
21.084 37.3771 44.4863 25.9467706333
16.8034 37.7079 44.4085 28.6450522911
19.4546 42.2793 43.9955 30.1954091549
23.2194 34.6598 35.7129 85.7718437814
19.5968 41.1228 41.4905 28.9735066467
16.8601 42.962 44.9375 31.7613079293
19.2572 45.1278 35.8067 62.4127694276
13.8431 45.5799 43.7452 28.4017186617
23.6415 44.9215 36.0476 63.9806749401
22.3488 48.9247 40.1791 28.3695243316
22.358 48.4601 43.0178 27.473027923
17.3425 47.6715 35.4594 85.1322433589
16.7842 43.4645 36.1729 51.9098492033
14.3708 48.7862 41.6444 31.5329978126
24.3087 37.3052 38.9911 29.0129825114
24.4742 38.2201 41.7143 29.1577486157
12.5039 37.4164 35.85 67.4318474147
12.8936 33.0163 53.8379 27.9285555465
19.563 33.5199 47.5269 29.285587358
16.4969 36.0673 47.0799 28.2251835572
23.5291 35.0107 55.8718 31.0535526482
17.1564 38.1303 54.0067 31.1439014871
12.652 44.081 45.863 31.3343600915
23.6229 47.5158 51.8395 30.8301429445
13.4606 34.621 56.0955 32.0186668663
19.0927 38.9684 45.6442 28.6354522937
16.3399 43.2224 54.6013 31.0628771362
23.0145 33.0459 53.8813 31.3515445698
24.2083 41.0177 52.217 32.2465304459
17.3751 36.2927 51.953 30.1890975279
20.0206 46.4471 54.4339 26.3538822216
18.6326 41.4758 46.806 29.926576245
14.4584 43.0655 47.3796 27.5382871364
22.6477 36.0294 46.584 29.2098458711
22.6588 33.5958 51.1356 26.7089611321
14.7617 34.6055 52.1497 28.3545265802
16.8764 33.5177 47.6358 26.2208777083
19.0505 33.9977 54.7408 26.3228184704
23.9281 46.1754 47.216 30.0613133626
12.9819 34.6437 49.8023 29.9246369977
23.243 42.8262 50.1478 30.0122001001
14.8195 47.4432 47.7891 33.1820474184
14.2888 37.0763 49.0292 30.5425308821
20.2682 40.3145 54.7505 30.187443643
17.2293 47.8454 54.7187 27.8979224196
13.3431 37.3192 52.1845 28.9499964918
12.3651 41.2468 54.5092 25.9993897149
19.1995 36.7572 55.451 34.6666420168
13.2259 39.1589 47.6323 28.6928446179
16.5395 40.0488 49.6376 29.9390660805
17.4199 37.4455 49.5103 30.7647277316
19.762 37.6473 47.9777 27.9960968059
21.2111 35.2722 48.6918 28.4694262296
20.9073 42.4438 48.5687 31.1535251397
22.4959 36.5172 51.1209 28.9299387463
13.9262 42.3939 50.061 27.9278111562
15.3248 45.8825 54.8413 27.2926576903
15.9906 44.9371 48.383 29.490469883
16.4454 45.0348 51.0777 35.2088843622
18.9054 46.3029 51.7027 31.20997439
20.311 46.3499 49.3513 30.5140280843
19.4212 48.5077 47.7634 32.4406642126
13.8988 45.53 52.5276 28.4973154492
18.1745 46.04 46.823 32.8118234382
21.4943 45.0042 47.427 29.5280804765
19.5225 34.5691 52.0116 30.672995195
15.5779 40.5258 47.1513 26.7885710873
23.4116 42.7433 54.2664 32.5496054147
12.9849 34.3459 46.6169 30.4753198426
22.2157 47.9823 54.1452 30.8216992017
21.1981 37.942 53.486 30.6413034923
15.241 39.1453 52.2637 30.0937500245
12.2466 36.7969 54.732 32.1106204909
22.1118 39.5281 50.8869 30.1652321083
16.3019 33.3766 54.1615 30.3274681842
21.5171 39.6328 48.1701 32.1196624143
14.5142 41.6641 52.9003 29.0594861264
22.4842 45.3025 50.9436 29.6973880074
23.3233 37.2215 54.6892 28.2235697071
18.1175 42.3372 50.0135 35.1536302576
20.2501 41.6364 51.9269 34.0462972158
21.2811 44.1717 53.0384 27.6590834483
18.9631 43.1428 54.817 29.5594839538
23.7931 37.992 47.9318 31.9518388982
15.1656 40.8598 56.0894 29.5464644222
24.1197 46.7607 55.9748 30.1876590661
25.6598 14.4722 10.0158 28.0256477959
34.4785 3.13487 12.9514 30.720399414
30.5176 5.69782 8.54967 29.3810772285
29.3634 2.82571 5.00999 28.3358186744
34.0075 -0.0169282 6.90389 28.3643727772
32.9777 2.62573 6.94251 31.8505712098
25.9357 11.0258 4.15197 29.7458696452
27.5475 7.38473 5.59395 29.9268894667
27.7589 4.68124 7.70294 34.7769072345
28.2588 14.6365 5.59887 29.5134709649
33.4309 5.09728 10.2424 28.7486105395
31.1378 2.90819 8.89388 27.7466435028
30.0301 10.3491 4.98207 29.1078221689
34.1461 3.42333 4.41133 30.1328167427
26.9049 13.1609 7.55789 30.2990295463
26.1023 6.03827 9.81329 28.1895879574
27.6467 3.83133 13.3425 29.9483428976
35.8001 11.1118 7.06305 28.2685415153
27.4003 4.38432 4.73098 33.9486988661
33.0955 9.62322 8.63396 26.8097351311
33.5002 0.34994 11.1191 33.965986505
34.2391 14.2591 11.8335 27.0166959065
35.6754 5.46658 12.0324 27.5897771431
30.154 14.8197 8.31111 28.452922239
36.6432 1.43794 8.8586 28.3966131176
31.9509 11.7834 7.29951 29.4297440657
26.4166 11.6248 11.7445 27.4507407714
28.6517 13.0236 10.3233 28.7868532665
30.5573 6.67559 5.67541 30.2107615175
27.7223 0.44524 10.0009 29.507977582
25.172 3.45466 10.6478 31.2003433123
35.0559 3.80862 8.36707 31.6242858943
31.8036 2.75907 11.4902 28.669132458
34.8804 14.1217 6.23903 27.5846580809
28.0123 9.39032 11.3557 30.9956516234
25.256 10.4415 7.55691 28.4151147232
28.4184 7.80598 8.9593 28.7873164611
28.1491 3.27611 10.7458 25.8056792558
32.3275 7.61303 10.4822 28.8613601052
32.465 11.8019 12.0582 29.2622817627
35.0807 8.0412 11.059 25.1262235275
31.9925 16.0625 6.54114 32.5875116757
28.0514 10.0711 7.22345 28.3887888629
36.3355 15.8168 10.8418 27.0225456651
29.9617 10.8213 9.35044 30.7058927792
30.109 13.2049 13.0203 31.3628228101
34.9446 11.7186 9.99442 27.0343506429
33.81 6.40072 4.48238 31.5528661455
35.5786 5.91842 6.66516 31.1294136361
35.7868 10.1671 12.5467 29.3507597696
33.3881 13.9088 8.71467 28.12956028
32.1132 16.0622 11.1275 27.1557174351
25.6257 0.380041 4.51752 34.3565837375
35.8719 8.17079 8.54063 29.1189995467
32.6618 8.61236 5.95413 31.1665665316
26.5362 14.4183 12.6524 28.6362087038
29.1164 1.83399 7.59728 29.6697027949
29.6301 1.53581 12.9048 28.3243812545
36.7051 0.102844 11.2385 30.9608155157
26.7759 6.69489 12.3651 28.4028228536
29.8936 8.4733 13.2592 28.1497189198
29.8247 5.72049 11.6405 30.2334868855
32.5656 9.30788 13.0233 27.2976268406
24.9121 0.995086 9.5064 31.1050480501
35.0063 9.63657 4.57588 29.2866974293
30.655 13.2627 4.9825 27.9899055
36.8263 1.98953 13.4557 30.6393875146
25.22 8.33816 4.01782 30.5200235096
30.1939 16.359 13.1708 29.1417489093
34.5902 14.6391 14.4137 28.9895289905
31.098 4.47238 3.96168 27.5589367661
25.5168 11.5626 14.4129 29.4050970797
32.2163 6.58378 15.2161 29.8294945398
24.6233 10.247 19.3553 27.4710351271
26.3061 3.00425 15.8959 31.3401703652
25.1934 5.22127 24.4323 81.6299815796
35.7411 0.795267 24.3369 80.7136896928
32.6764 2.44904 17.9568 29.6084288497
24.9099 7.74045 17.7044 31.2422545176
30.3751 3.31934 15.4079 28.0140298675
35.1012 5.85105 17.3555 28.1661372565
32.5207 10.1152 24.1494 61.2257162367
28.495 9.94777 24.4628 84.1998780663
28.5762 9.39674 15.7398 28.3204570314
28.3275 14.2828 15.0051 28.8415265575
34.2318 5.02133 24.5438 95.5942496281
35.4079 9.56799 24.4109 90.2379086229
36.1825 11.9471 21.3215 26.4014323294
25.5786 14.3266 17.3178 29.828149398
26.0805 0.0906374 15.5611 32.2277619513
29.394 3.1349 21.1812 30.3946873029
33.2352 12.2083 14.9635 31.1334208044
27.2071 15.8659 19.0812 29.1288411122
30.6245 1.24364 24.5752 103.2059250999
29.8675 12.5962 18.9054 27.8756517961
30.8681 11.8964 21.5651 29.1422525222
27.426 4.34235 18.0396 28.8559959387
30.4273 3.98374 18.66 28.8053771708
34.3626 5.20859 21.6655 28.6930918906
32.2604 3.00461 21.2921 29.6670395254
36.5514 2.0089 22.0522 27.1631197382
30.3299 9.1257 22.1607 30.341747383
27.8274 6.97631 17.3396 28.6626256842
32.4313 6.04335 18.7206 29.4674533398
32.3706 10.6166 17.6188 27.323458215
31.037 8.20257 17.5 28.8791715892
26.7323 7.08643 21.1664 33.9143275636
27.2162 12.3947 16.4585 26.0733294909
28.9811 8.56751 19.6966 31.5117484224
33.1682 11.6073 20.1709 27.8775543625
30.2948 11.7267 15.5803 28.858361886
32.5365 13.8613 17.409 28.2030633923
29.7112 15.2329 18.9229 29.8133416308
26.3324 15.0069 21.4473 26.324053398
29.2818 5.94558 24.5613 96.1925914127
35.4613 16.2712 24.547 92.0586013084
34.1209 14.1358 19.6632 29.0224395076
26.9025 15.4503 24.0834 52.5125037846
25.2827 11.3478 21.8476 27.6152493204
28.7855 1.47459 17.3607 30.8165933348
34.506 8.16512 14.862 29.2029203141
36.6946 13.2889 18.9449 30.0014641149
32.991 2.53418 24.1469 51.9458825487
25.7559 8.68633 15.3163 29.1272609049
36.2451 5.73474 14.7401 27.7100546804
25.5301 10.0012 24.3861 76.4223974439
26.6031 2.80897 24.3094 69.7477612096
33.5936 13.8881 22.7668 31.0431274711
34.988 3.46873 19.0716 28.3320556404
26.7375 4.20422 20.6488 28.2834162992
29.1567 3.3303 24.0344 37.9178762221
32.0015 6.91565 24.1488 62.2259349635
31.5673 12.6168 24.4013 88.1536206589
32.7948 7.47221 21.2631 31.4830547654
28.7231 12.7932 24.2428 65.7632666822
36.4084 7.79848 19.3258 28.4878237394
27.5155 10.8164 19.1242 29.1636577163
35.5488 12.4617 24.1507 59.0280855585
34.9103 9.45983 17.2706 30.3785882645
35.0165 9.30143 21.3659 29.2745695858
27.6381 12.6306 21.5131 28.6791698688
28.2979 0.441635 20.5311 28.1254145736
26.9755 7.45074 24.0924 42.9222239069
25.4694 1.96345 21.9479 26.2753044173
32.9579 3.82326 15.2734 32.4370024012
24.8924 13.3394 24.2823 78.1447195905
33.4678 0.483778 21.204 29.0756052274
36.0139 0.00438657 20.1538 28.8384535041
24.5765 15.0023 14.7065 26.5006002177
30.5672 16.2269 16.2315 30.3676143784
29.3931 6.08432 14.8164 27.7283214125
25.3644 5.98037 45.1646 27.6776967336
28.6033 2.23024 38.2227 33.1955996059
32.1311 4.6318 35.7133 89.7442422153
35.7844 6.45258 45.0474 31.1684671548
30.4146 6.16031 37.9849 28.0466990084
32.4531 15.553 38.9934 26.9769807081
32.3816 6.25837 42.5154 29.4420234549
34.0787 2.3332 39.3722 27.3152988753
26.5772 7.03475 35.8888 54.8484372791
36.2599 9.7039 41.7226 32.1795694535
29.2778 6.83533 35.4237 109.1152187288
26.0459 13.4927 38.5462 25.9010240179
27.7802 0.134302 41.8401 28.9933551822
26.2045 9.91116 35.5377 88.93419957
33.3875 3.12213 44.0574 30.5838303492
30.6492 9.14884 36.0027 67.0791000194
27.324 10.32 38.6243 28.213224184
34.8338 1.86551 36.483 55.8660957718
35.8027 13.0108 35.7118 98.3332931899
36.0553 6.98458 39.5384 26.7504709474
31.9955 2.08849 36.3263 50.9982475326
33.3178 6.64041 38.17 28.0482380557
31.2954 12.9909 43.9059 27.1889890067
35.5916 12.4044 38.8416 28.5411315795
28.3209 15.7585 39.0822 30.2484863404
35.6575 9.67132 45.0144 29.437579195
33.4899 15.6232 36.3628 51.6241632092
25.1419 14.7977 45.3389 30.4544927976
26.6889 6.27762 41.017 29.5232317705
28.0455 15.5373 44.661 29.9898390136
30.4921 13.7224 35.5841 102.1318459328
26.7236 4.54243 38.0905 30.980027561
31.0352 1.25332 43.3158 32.9010257335
31.4724 10.0223 39.0265 27.486809062
29.3216 8.36253 39.2763 28.3072721562
29.9431 7.80605 41.9444 28.6741996291
31.3395 10.2771 41.9693 27.2094437908
34.4458 9.2925 38.7887 27.4152808932
35.5821 3.94196 42.4357 31.2176602278
25.5141 7.34964 38.3814 28.4697559616
24.7438 2.86314 38.9417 26.497285875
26.1741 12.8671 41.0585 28.6488364506
34.1589 11.385 41.4648 28.2199192008
33.089 12.6538 36.1463 45.280852457
29.4051 12.796 38.8164 28.3636858202
29.7087 14.4039 42.4532 28.2769140242
29.9924 4.85884 44.5805 31.2267614405
33.4319 9.89273 36.1732 53.4396885332
36.1621 15.488 42.4967 29.4145569764
32.3155 15.7918 41.8077 29.3302616704
34.0151 13.6541 43.0138 30.1027505049
32.4871 12.7433 38.8746 27.9471235845
28.2505 2.68953 42.9496 30.9785875463
25.3797 16.3157 35.6346 67.9028256743
29.1886 4.93884 41.5121 28.7229398959
30.6499 3.86249 39.435 31.3454648933
25.7734 8.78708 42.1669 30.2029272813
25.3558 0.964937 40.8505 27.661722137
27.1009 13.8716 35.5226 92.0439367784
36.6675 14.9415 39.0219 28.0016874105
28.592 11.3726 36.3246 35.5214353481
34.7906 6.15931 35.7059 82.6213342293
29.1615 7.83032 44.9264 30.251335292
25.1976 15.3881 42.395 27.9019892927
33.5342 4.88881 40.1789 26.7337378722
33.3527 8.90617 43.687 27.3601094442
35.395 7.07373 42.1707 29.0338410735
28.8039 11.9926 41.5423 28.2776434895
29.4925 1.35758 35.7278 128.3658516249
28.7312 10.9754 44.4725 33.1540207566
35.7918 8.813 35.8599 68.9536931702
25.6652 0.77517 45.307 28.465082307
25.6503 4.03953 43.3377 28.9885485075
36.666 2.38657 40.2923 27.315340922
33.0405 5.44083 45.3419 30.299018833
25.0719 4.35112 35.6828 117.674487084
26.2725 8.66643 44.7754 28.1296710156
35.4506 12.5006 45.4162 33.0192244497
29.0997 16.0945 36.1301 43.9703339741
36.7122 15.7189 36.3527 44.1092852459
33.6429 0.417178 41.2523 29.4684935819
31.4928 9.8425 45.4879 33.0010235482
26.8269 1.11634 53.366 29.9360057827
31.2019 0.678949 53.9059 30.3659222829
34.9651 2.19535 50.0817 31.2588477917
27.6871 6.55935 49.922 29.9922799473
27.0611 10.3089 47.4787 29.5289672634
32.6094 14.506 51.0698 33.4536834673
28.9725 0.798632 55.6403 30.1043735576
26.6891 15.108 55.3924 31.5244547619
29.4279 3.37091 47.0314 34.5166508228
29.3406 9.26295 48.9921 28.87225006
32.275 6.25106 47.9165 29.0366125642
33.4135 8.53765 49.5554 30.3795491414
31.915 10.8052 48.6019 27.698017755
24.7825 11.3893 53.7642 30.090297768
35.606 8.74709 47.6384 28.5154321907
26.0172 7.83778 53.9247 27.1358081756
25.6369 2.7757 49.6925 27.5418831623
33.8922 12.7943 47.9187 27.8527731729
36.6396 12.1431 54.8914 30.0739090974
26.8145 4.83207 47.4227 30.2554299315
36.7765 6.15851 47.8859 31.9841200705
30.1525 3.76424 51.9281 30.2040811161
35.0241 3.85638 52.7263 28.6100844691
33.7681 0.858725 55.4898 33.0433262581
32.2732 3.59259 53.9265 29.681406911
25.6481 8.59025 49.3819 30.4218924918
25.8142 5.05801 51.6839 27.5116248322
28.3146 1.94284 51.3054 32.3357242744
33.0427 5.56546 51.5512 30.3142664848
30.8498 8.23205 53.6575 31.0870520797
34.5769 4.84696 49.2477 30.1144431767
31.7148 14.1253 46.3169 35.8570644452
28.7131 8.38402 51.8124 29.1072674749
30.9849 11.0083 53.8945 30.0657011759
33.4492 8.29765 52.3243 28.447768375
33.925 11.5167 55.1565 29.5441703617
28.4041 11.7518 55.2829 26.4725759181
28.779 13.2658 52.1877 31.0018239173
36.7366 1.32278 46.6419 35.1487806078
29.5847 6.91238 47.6721 28.654270629
32.6167 1.22343 48.761 36.5848094976
31.3242 11.9262 51.2869 31.0198863118
35.4257 11.1086 49.5234 28.0010422382
34.7952 14.225 52.903 28.3625962518
28.8818 8.33767 55.812 27.0572356203
28.5236 0.728089 46.4658 35.4759494914
28.8992 15.7422 50.9613 29.9333164166
29.5092 14.6129 54.8853 29.7036484359
34.7011 15.2541 48.9257 30.7463500586
31.4027 3.86546 49.2913 30.5282691642
27.114 11.5451 50.4184 31.5086930942
27.5471 10.2679 52.903 25.019792942
26.6885 5.20123 54.1429 28.7137103858
25.8087 2.5818 55.6478 26.0652277099
29.4664 5.56975 54.0819 29.7328769691
35.0403 7.69348 54.5246 32.9565831557
27.2519 14.0279 47.1173 30.8310259305
25.2306 14.2223 49.3944 31.6928481025
34.0816 1.27268 46.1771 30.1955628051
34.2235 11.1388 51.9946 31.1166610279
30.8578 0.2766 51.2121 36.5372105029
24.6736 16.2283 51.4362 26.7790012146
29.5767 12.1179 46.9944 30.5083605937
36.1428 1.9471 54.3639 27.6217169493
36.7324 14.8151 55.6435 30.8218835778
36.7981 6.12129 52.7057 28.6549369303
33.3086 13.9018 56.0507 29.020880817
30.7015 21.919 12.5896 26.6080166967
28.9872 19.6439 14.0913 28.2712590758
29.5848 16.9998 9.60885 29.6763380555
32.1569 19.268 6.40655 27.2969235997
31.2368 22.6869 9.8223 30.474704035
31.6922 22.6428 5.61839 27.6075185571
27.0178 21.7546 6.71856 33.139910625
27.2576 25.568 5.80757 29.1038219356
29.0193 20.8646 8.79339 31.812607239
33.0292 21.6143 7.6523 29.3134608543
26.7948 28.4711 4.74546 29.2214013129
33.2061 26.6833 6.67865 28.5365405316
34.9038 29.2161 6.66028 29.9341681255
31.8155 19.0965 9.62918 26.0686855955
36.8497 25.8903 5.59779 26.0171834389
35.0509 30.1866 10.2779 28.141095076
33.6981 17.5307 13.5327 27.1218642324
26.9959 30.3492 6.39943 28.3969518996
26.7543 31.8508 10.183 30.7904483731
34.7587 26.9104 14.1847 30.433803987
26.6258 16.8108 9.11992 32.0066354885
26.8833 23.6312 11.9071 32.0795877873
33.0697 31.3943 6.5672 27.6415573338
29.5856 30.857 7.01912 29.7612368187
29.5209 18.6819 7.11653 27.4372949792
27.5815 25.4118 9.71361 30.7537480564
34.0351 17.1405 8.93549 28.1206268994
35.6359 23.7084 11.6325 30.346147078
31.105 29.8838 4.73211 28.8787931671
32.4987 31.2186 12.0099 28.6179672484
32.7188 24.9687 4.72445 29.2567366124
30.0874 25.1211 8.77631 29.9275641866
33.6287 21.9651 11.2643 29.8650989962
34.8406 26.47 11.0471 30.4031359764
29.6581 27.4373 4.75292 28.9412796858
26.9211 17.0971 6.3805 30.4982369507
35.5675 27.9594 4.0024 26.7491837677
27.841 27.8001 10.94 28.0477279938
24.8714 27.0136 9.46328 33.893794902
29.0688 23.5732 6.64954 27.2226875655
30.2517 26.4056 11.6557 31.198415839
35.6442 22.8696 7.44745 30.9791565671
34.712 32.322 13.1038 28.1149546491
26.0469 29.4483 8.8506 30.8448413741
30.7906 27.5857 7.27427 29.8376791563
29.255 30.2304 10.2434 31.380943085
27.3686 17.6094 13.2787 30.5298375022
25.7863 18.6707 10.9999 32.1853383154
34.6971 19.955 10.3173 28.2625738928
36.3024 28.8373 12.3866 26.2475933051
26.7354 32.2479 13.2795 33.761042028
31.6494 19.0074 12.4511 28.239893613
31.9802 29.5374 8.99629 30.0540132911
31.0652 24.8876 13.594 30.5516599988
27.7866 21.0179 11.4909 34.9661631436
32.5698 28.1465 11.619 27.9271688672
35.789 18.0629 12.0739 25.9714405131
34.8444 25.379 8.45846 29.625377496
27.647 19.5823 4.99717 28.6023094955
34.326 18.3056 4.69216 31.0686509934
35.6844 16.568 6.65822 29.8651993368
25.0041 25.2278 7.41997 30.932357464
27.1046 27.4831 13.483 31.1942157998
35.2631 23.5152 4.625 28.3340786234
31.9583 28.9645 14.228 30.0989581402
28.3449 23.7189 14.1533 29.1988007972
30.4909 22.3852 17.1103 28.9958740111
33.045 28.4635 17.1399 27.7409539623
35.2692 22.1909 24.0893 67.3890717978
34.013 19.9805 15.1898 31.3995320728
36.3403 21.0572 14.6478 37.4066914945
32.7336 16.4007 24.0023 57.1489980092
26.8736 31.1345 19.4391 30.8147613517
29.1058 24.3108 18.9781 30.2940300471
27.9051 22.369 21.1339 32.7443254237
29.4134 18.5731 17.0381 32.4931873203
31.9686 24.2353 19.1213 28.1042400095
28.0912 28.5762 17.8902 30.1898411526
27.6886 25.449 16.561 29.1191392806
29.4394 31.3826 17.2878 29.8278460976
31.0244 31.4596 14.6991 27.6943848874
35.6306 18.6777 23.2459 31.9183581351
25.0329 17.5419 14.8101 33.9919324827
34.6126 32.2778 24.3322 88.5937546059
29.8623 16.4823 24.1389 84.1280891306
24.8331 19.0391 17.2403 32.2817538829
24.7936 20.6357 21.5924 29.196207351
32.0626 30.6895 18.1312 28.87491619
32.5183 26.0117 15.7989 27.9317342556
27.1536 18.6013 18.9773 28.6134670489
31.2939 20.0621 18.5895 29.6465579358
33.9711 19.4574 18.1006 30.1241191218
31.7544 20.6545 21.5752 28.1071485147
33.2477 20.1238 24.2153 75.1371720088
31.9039 31.5104 24.1143 67.6714180955
25.5837 22.5408 19.6628 29.1121945435
35.5124 28.5177 17.9563 29.1978489572
29.8325 25.4051 22.2833 30.0235776663
35.5358 21.7904 18.6187 34.7942383983
25.4883 25.5414 19.1427 26.144697295
28.0423 29.488 21.2863 28.2390975209
32.0484 26.8354 19.4628 30.5958182939
30.5756 28.2725 21.4708 25.6592781992
34.2531 26.6518 21.168 29.2559273433
25.4017 28.5504 16.619 30.1923407565
34.9035 31.6215 21.4864 27.3962947844
27.9569 22.4365 24.1424 51.619618346
30.5306 17.0694 21.11 35.4815757245
31.8291 30.7767 21.055 31.8378182235
27.7894 26.7279 20.1284 27.0134326573
26.8721 19.4373 24.4338 78.3027623788
24.7224 21.157 24.4169 68.6153965413
29.3179 19.1383 23.2967 30.4431735076
28.0294 21.455 15.7821 30.2218447872
35.1699 22.5459 21.4652 29.4022037416
36.6351 25.3003 24.3437 87.4963681217
31.8731 24.3843 24.0177 68.0797869295
34.3491 17.0251 19.4394 29.7384441547
32.422 23.4051 21.694 26.6065768358
26.4204 31.3252 16.3023 29.001582608
29.0303 19.9119 20.458 26.7970936957
30.771 21.6236 24.4492 92.4312272659
28.8134 28.0067 24.264 78.7878369777
36.7155 25.0689 21.5181 27.9326259648
33.6931 26.4022 23.8374 50.5521516045
35.4649 23.8107 14.4634 29.1220005509
25.7182 27.6148 22.1314 27.6635261248
27.7119 25.204 24.6338 88.1900915681
25.6435 21.6198 16.9682 31.4043886668
35.3688 28.9717 23.9401 63.4649217034
29.6008 27.2652 15.4954 30.2795411082
25.7085 18.2212 21.8343 27.5749295631
31.7466 28.4293 23.9567 64.7262925381
35.6987 29.0973 20.9841 27.6863812329
34.3785 31.972 18.5464 27.6845660295
32.2843 22.0896 15.0575 28.2132471239
26.8191 30.0417 24.0934 66.6959372665
33.9149 23.6493 16.8808 32.2542955259
33.2434 18.015 21.6443 27.5341601516
28.1102 29.9899 14.2735 31.043050167
24.7185 25.3341 16.3233 28.0394926877
36.7064 31.0555 17.121 32.2741171927
33.4836 16.366 16.4799 32.4439220403
25.069 26.0682 24.849 108.8009640685
33.6999 28.7654 35.5224 96.5403763037
25.8013 19.1227 38.7049 31.2556671313
36.0569 26.5765 35.7553 62.665683074
31.5256 24.8216 36.003 52.2581896983
28.7907 29.216 41.3562 26.8725851695
33.4442 18.8944 37.6557 26.8880179043
32.2241 27.7371 45.0384 25.626918655
31.7999 26.191 40.2449 28.0230285972
30.4446 17.828 39.2261 26.4642154972
33.8689 30.4812 45.2974 29.1964139034
29.6648 22.6446 35.718 71.6526047626
29.7762 22.5408 38.6262 28.0952707175
26.6462 19.6601 44.8278 32.3019451621
31.2533 18.1868 44.1458 28.9570947004
32.6924 21.7718 38.4925 26.7395125955
25.179 28.4944 38.6113 27.4150031656
33.545 18.4197 42.3224 28.8737478296
32.3917 20.8018 35.54 89.0845977833
27.2968 24.2362 38.7453 30.0491768771
27.9422 26.5243 35.7332 91.1498056884
36.5813 20.7303 37.8472 30.214591109
27.4847 23.999 36.0145 36.0708768711
30.7915 27.5886 36.0227 56.6726170362
27.4716 26.9453 38.5511 26.5042050041
34.073 24.3835 35.5067 83.2584487086
34.831 16.8546 39.6449 29.2120056477
33.2616 27.996 38.0891 28.1740631568
26.8846 18.5371 35.3297 98.457733845
28.7988 20.3762 41.5647 27.6233383545
34.3092 21.5849 45.2645 30.1175207801
25.1343 23.4844 40.2567 35.2706930312
36.2587 25.2269 41.5316 28.9812709905
33.7797 25.9397 42.216 30.4130336701
25.3654 26.0396 42.5715 28.5639476571
25.2919 31.9083 42.4203 28.4963630606
25.8426 16.61 38.3392 25.4859850432
25.0535 31.874 36.0745 65.9181696596
28.3984 20.1143 38.8163 28.3932991441
26.0524 21.0989 42.3089 30.9872966362
25.413 22.4312 35.2839 110.3799247016
31.6988 20.24 40.6852 27.7302527753
25.9005 23.3867 43.6461 29.2545727368
35.48 18.4991 35.763 70.9373111724
36.2717 19.3326 43.392 27.9862189727
29.7738 24.3694 41.102 30.5992479592
33.539 22.6195 42.676 30.7154100252
33.2 24.6596 38.5592 26.6880102432
36.0286 23.7296 39.0158 27.9492408943
34.9131 21.9004 35.6151 64.1617016375
29.9612 27.7225 38.8488 29.1508724699
28.0581 26.5847 41.6356 28.4125370687
34.622 30.5848 39.1297 27.8175751485
30.8432 31.215 38.975 31.8309942235
29.3227 17.4341 41.8989 26.5361977779
35.5497 26.7326 38.5081 26.3690948931
29.293 20.544 44.87 30.7346580107
26.8468 17.5001 43.0657 28.116435522
36.4065 31.4043 43.2932 27.9870593912
33.413 24.8448 45.126 31.4796403216
29.194 19.8786 36.1588 40.280149118
31.1464 30.415 42.0029 31.5874359766
27.3563 30.3486 43.402 27.5461468893
30.6469 22.4671 42.7677 28.5149706893
29.5136 27.0439 44.2221 32.0054497619
34.7303 21.5648 40.5629 28.1996079659
28.9873 23.7757 44.711 27.6314826397
36.3088 28.9269 45.4428 37.2586269582
35.1085 31.121 35.9386 47.3474985508
26.3845 30.5254 39.9508 28.3477015503
29.1945 31.7721 44.6691 26.5594693899
35.4229 29.4687 41.6116 26.9167192824
36.014 16.7859 45.0279 30.3480950045
33.2067 28.8111 42.7202 26.66768473
29.6849 30.7746 35.9267 90.9345686628
32.2711 32.0669 35.9864 66.6670499061
31.214 17.7822 36.2869 51.0011488597
24.9617 26.5056 36.1322 57.9824012159
33.6543 18.8291 45.621 32.5846176966
36.4907 19.3533 40.8485 30.9079484779
28.1988 32.3425 38.7598 31.189680991
34.2989 32.5594 41.7402 27.3409653663
25.9775 28.8862 45.131 28.6421657363
30.9493 29.6787 52.3842 28.2407864346
27.8751 22.2965 49.115 28.2225768299
25.3353 21.1318 49.0929 28.6530897214
30.251 25.6407 50.9963 34.7169835457
27.3034 26.5703 45.9265 28.5758286358
27.4515 25.3032 49.578 27.6099226389
31.5634 22.8837 54.1132 30.6490819183
33.9439 22.5882 47.967 31.9467947486
33.3655 25.0632 53.2512 29.0621423059
33.963 17.7831 48.3179 32.9757060892
30.3375 16.5043 45.9902 30.2258790364
36.2407 21.3962 53.3226 30.2380044954
28.8047 27.8369 47.9408 26.2962204493
30.0605 30.8874 54.5501 27.2761800373
35.3165 32.5425 55.9216 33.1591207204
35.224 32.0766 50.2627 27.3352811111
30.2223 21.3415 47.7244 30.4153000925
33.8017 16.4116 55.0464 31.3377084457
28.5254 19.0588 53.3118 27.2997201268
34.0377 29.7758 49.6436 27.0200444725
24.5437 20.619 46.5608 28.6709724876
27.0183 30.9788 46.8218 26.8643205897
26.0138 18.3516 49.3304 32.6474755606
25.3887 20.868 54.8881 30.4333716663
27.3728 22.2091 52.0595 27.1967912864
29.8158 19.6843 50.9071 28.9441659342
29.7892 18.3461 48.084 34.8079082009
35.5092 26.3042 54.2501 26.4805636623
34.8785 16.8562 51.9635 28.1988855701
31.4319 26.4742 48.214 31.3028496443
33.0942 18.975 51.0572 33.1465469515
32.9017 28.4767 55.2376 32.1436247723
30.9045 26.3135 54.838 26.9241417508
26.1868 27.6684 50.3991 29.5006667236
29.339 27.4528 52.9647 31.4550876421
30.9713 23.9391 46.6012 32.6316604016
34.2011 22.5959 51.7417 30.6511065821
35.5977 26.3514 49.3173 27.6310394884
27.4513 29.7581 49.2032 32.9722627007
26.4205 27.7696 53.087 28.5175536989
35.9624 26.0904 46.2555 33.0924775842
27.2435 16.5965 53.0386 27.7350916338
25.847 19.7201 52.1465 26.649797564
33.7074 27.9902 47.3829 24.4080656195
33.3318 26.5689 50.7253 29.0971773544
25.3137 25.4378 54.21 27.2395932981
29.361 23.8089 55.9537 29.4805793425
25.2735 17.9714 55.5008 29.9151021816
27.5619 29.7037 54.9494 28.2504788483
25.7144 24.175 51.7351 30.6604937486
25.5906 25.1501 47.6756 31.0726356322
30.1316 22.4504 51.6281 30.0015415644
28.091 21.5691 55.0983 26.5179156478
25.3252 31.5823 53.6798 36.2008511424
33.8371 28.9237 52.3872 27.0349957024
32.447 21.3084 49.8122 28.1569681975
31.8403 30.7775 47.7834 27.0256174401
34.7904 21.044 55.8456 31.9617239347
30.1751 29.4947 46.2511 26.4015217257
27.7354 16.4012 48.6326 29.464039456
29.9647 30.3972 49.8947 30.8372944413
35.8408 23.5482 49.9764 29.0908101566
26.4026 23.9645 56.1078 26.8978833051
34.072 32.0031 52.7523 32.489219378
36.3014 19.3779 48.9307 30.6977886778
36.533 27.6463 52.1305 30.212685388
31.0694 16.9324 51.5646 25.9590198877
31.7498 20.7635 55.932 31.0164737821
31.1716 16.8704 54.1768 30.054655332
36.7215 29.6052 48.2269 30.3123147142
36.7036 18.9563 51.8961 29.3680313677
25.2901 32.3988 47.9288 29.0902347907
27.2084 32.5259 56.1986 32.5041078818
29.565 32.6075 51.7276 31.8496308807
34.6148 32.4292 47.2759 29.2419390969
29.8876 18.6279 55.908 30.9942222979
26.8482 22.8558 46.3597 27.7324232263
25.8675 32.9427 6.23215 30.0862308974
28.7286 48.1176 11.9606 26.0542662025
32.9159 36.9802 7.5555 31.1235364511
25.4827 43.2554 8.62129 28.3229348849
29.1837 48.1009 7.31409 31.6165490226
33.9692 46.1621 13.8957 28.7196513071
27.9613 35.0552 13.7701 30.8407738761
28.9198 38.5875 4.02489 32.5723711807
30.6662 38.1567 6.25037 28.6114885365
33.5437 47.4178 4.91952 27.051312584
35.0441 38.886 7.03463 26.6642211041
31.9944 47.7335 12.9035 27.5271017145
25.666 45.935 9.84685 31.2094771794
29.6631 42.9295 8.21207 34.0059546273
31.3141 46.6473 8.44804 30.4949736274
34.9933 41.6462 7.13962 26.9460022337
32.8973 41.9945 4.8635 31.2374922506
29.3167 47.586 4.59815 27.8017851579
30.3214 34.0207 13.2316 28.3284302152
27.6658 36.3899 11.1745 30.7880119157
25.5906 36.2362 9.21413 29.8293445179
31.5713 44.569 6.38363 30.2267356443
29.6066 37.8291 9.7772 29.3082363781
36.5617 33.3483 5.92443 27.3500173232
25.5679 42.3357 12.3358 31.3432941727
31.4564 36.2616 11.4158 32.2281317914
34.8582 34.7387 14.0914 29.9131930365
35.9138 33.2717 10.6519 27.3544991561
30.1162 33.7249 7.73294 32.1287339429
24.9504 38.6075 7.55034 31.1243587998
35.4729 36.0119 11.6013 31.2408050087
28.7267 36.5007 7.2837 31.9862619235
31.6978 39.3501 12.3909 29.3942358772
30.3695 46.148 11.0714 30.7285219556
27.3102 43.5713 6.71719 33.2291999226
26.0037 40.5131 9.65009 32.4731152969
24.9424 40.8011 5.52523 31.4395391573
33.1401 40.343 9.43534 27.7104376145
35.6621 42.2752 10.5684 26.8420203742
30.203 43.2789 11.1644 27.4864718637
27.4551 44.5615 11.7273 28.2747083043
32.7278 34.597 9.09738 31.2942119493
26.3669 47.5302 7.64499 29.801315727
34.5734 45.401 6.87301 30.7268092166
33.7174 47.3793 9.16093 27.6946824719
26.5207 46.986 12.9236 26.2469240105
36.8977 41.6994 4.45479 26.8284108026
27.0071 46.0378 5.11381 29.5837087471
26.8645 42.3678 4.14662 34.2343266884
32.3747 33.5285 4.93942 33.8378603163
30.4735 32.9896 10.6224 30.4298381607
35.0582 38.992 11.059 29.1158778611
28.8059 40.6095 10.2938 28.3024706364
30.7186 40.1946 8.12771 32.5285546038
25.126 44.6013 14.2338 29.1162027417
26.8477 37.4994 5.38701 32.780695292
29.2764 40.9593 13.305 28.1143273667
32.6379 42.1081 12.0978 27.2838057908
33.3064 43.5553 9.15109 29.1344466115
35.622 41.4898 13.4643 28.288258673
26.4661 38.5705 12.0091 28.1553828725
36.6178 39.0866 4.90993 27.7440470152
34.6056 45.3239 11.2335 31.3102021907
31.7199 39.5793 3.97578 29.0543801152
27.2223 33.8897 8.44145 28.4469067169
34.3107 35.8295 5.39019 29.422474468
31.3859 46.2814 3.81615 26.8320465651
34.809 32.8126 8.19785 27.6202503761
36.647 49.0725 6.5364 27.1714569718
36.5733 37.796 8.82943 27.6987849136
26.1649 35.3 4.06317 28.7069138099
32.2604 35.835 14.183 27.8539737242
34.4937 39.0221 14.2989 29.9506882306
35.7651 37.4029 24.3872 114.1984546874
25.1513 45.2598 21.1537 32.0917886079
28.0887 37.7713 18.3921 30.8528458119
32.9309 33.2302 15.9072 30.5568393075
27.0307 34.2904 16.6228 31.7020439787
29.166 36.654 16.0962 25.8239788579
35.9855 42.0677 24.2957 82.3409063744
31.7117 40.6605 24.1665 61.373911461
28.2741 39.2311 15.2227 27.7688641838
31.1743 38.9392 18.2066 29.2723236912
33.384 40.5255 16.388 29.0823382675
24.8532 36.0641 16.6317 35.7304606426
29.3701 34.0896 18.5935 29.5989619864
31.5569 42.2661 14.6405 26.6421296787
35.8697 41.4584 18.4245 32.5937208632
33.1662 48.3154 23.9857 63.4000154302
29.723 42.5407 17.2159 29.694367373
28.7367 46.9151 15.1386 29.5828010643
30.9492 43.4517 24.4316 103.7591329377
26.2632 43.9931 16.737 27.8766356283
31.4475 35.8455 23.9657 57.1307232386
31.2452 47.8735 20.3198 28.8378384405
29.2808 39.7787 20.5361 28.0044431619
34.308 34.608 18.4745 28.8657444054
35.2301 34.9172 20.9568 30.5719715101
35.0401 38.3661 19.2391 32.3051298987
32.6965 36.9473 19.6061 31.5591910773
28.1627 44.7036 18.6437 28.8147099455
29.1432 47.1707 18.1179 27.3645924641
32.0742 41.9383 18.8482 29.5538320703
34.1903 43.6881 17.8402 28.2282631109
27.7861 47.5341 24.343 83.2908670367
35.6903 46.2793 18.5316 29.0523843213
29.8124 48.535 22.5142 30.2099427539
25.1051 38.7048 24.1446 58.5436337593
31.4465 45.1574 14.8105 28.4384975104
31.8125 45.8695 17.5769 29.7924364306
34.8837 43.4668 15.0066 28.2785330043
24.9054 37.8352 21.2822 29.5227825208
35.4129 44.7117 21.0793 31.4163709234
25.0565 40.2526 20.0824 32.1869120147
31.5503 38.3375 15.119 27.8109007111
27.0046 36.4282 24.2893 78.9005890955
27.3947 40.5051 23.9534 57.5418220039
26.9839 33.452 21.2791 28.9593470769
32.7161 45.6524 23.7784 52.694268343
30.0382 33.5823 24.4486 97.4542177929
30.2265 35.6885 21.3163 31.6928688844
34.2988 35.2777 23.7648 47.9881586781
30.1095 38.4327 24.4888 101.1829325373
27.1474 41.4806 21.2812 29.5551262578
31.3108 35.5208 17.5158 28.4234042328
26.3369 43.1137 24.3711 84.7101898871
24.7353 47.7635 24.4845 87.499376074
31.4611 40.8958 21.3915 28.4890207727
28.4648 37.6797 22.4024 24.8989489023
27.7398 40.7173 17.4589 29.5379888107
35.6804 44.939 24.1254 79.8849249603
34.352 39.9733 21.381 32.6804746637
25.2836 45.725 18.5451 30.9467837484
26.7353 36.1925 20.467 30.7536881557
27.7393 44.0157 21.2956 27.0563655045
36.5668 35.9884 17.389 31.7897441176
30.4909 43.6678 21.648 30.5798168752
26.128 47.913 21.8115 31.179986906
35.1172 47.6441 16.0007 32.5328036793
34.4578 39.7883 24.0684 57.7055193131
32.5211 45.4829 20.9058 30.2654227462
28.4603 44.8846 24.2073 60.7804257052
28.5187 43.7725 14.4749 29.3258932773
24.776 41.5588 17.298 31.977642954
36.8473 37.5941 15.1313 28.2489737361
32.6871 48.5711 17.2989 31.3965462255
26.3575 48.473 18.2178 27.3364791054
26.871 33.1863 24.1838 75.8530347677
25.7644 38.3121 14.6984 28.3033404716
36.2161 42.1959 21.167 29.273133479
29.817 32.894 21.5418 31.0820147958
30.7656 48.8455 15.0577 28.7832534064
24.6048 40.5106 14.561 29.3547163267
34.7884 45.4552 35.966 115.3426882683
32.7773 35.16 35.8005 82.8551864263
28.419 35.1755 35.5864 113.5131386265
32.3964 35.7325 38.7821 28.7290525104
28.2005 40.232 35.9666 51.8127633186
30.0417 37.974 38.8274 28.6541090766
30.459 48.6744 40.7458 32.7518797754
35.1952 36.1631 36.0976 65.9898664029
27.0575 37.7648 36.0334 57.7735491755
31.8477 48.8547 38.1312 30.0687383776
27.2865 39.2941 40.7298 30.3942831989
30.9907 40.2966 35.5679 104.8414145425
25.771 45.3565 41.7499 33.214388967
29.334 34.4534 43.7569 26.7751901282
25.5424 34.5106 40.654 29.8186647057
26.9742 47.3814 43.8027 30.658875094
26.4937 42.4596 35.4319 104.4083561533
32.1626 42.2555 40.739 32.1018718111
36.0187 44.7874 43.3629 33.0291543892
35.2484 41.0008 36.2309 70.3181615453
27.6625 32.668 36.209 46.585848786
30.2812 36.9009 45.1516 30.2764051085
26.4486 37.3574 43.8577 31.3406561595
36.6676 40.9517 38.5949 27.334870066
30.6291 37.1184 36.2002 45.442749243
33.3197 46.1145 44.12 34.4303578884
29.8537 46.4958 37.4437 41.1609659448
30.1681 44.0876 39.1375 31.486554124
26.5117 48.6213 35.949 101.0941661395
34.4552 48.0378 37.0935 40.3296253868
32.5161 40.1985 45.4985 30.9263410838
32.9474 32.95 39.0998 29.7221072378
29.6707 35.8931 41.0293 29.1230081121
35.0342 36.5516 39.0439 28.655578537
35.1624 41.3145 45.2534 33.0616923675
30.9338 44.6735 42.9026 34.7793062828
36.2849 33.7572 35.4651 105.522248916
29.0411 37.9831 42.7445 28.8821346794
27.7591 34.9253 39.2962 29.6596492133
31.3052 40.4754 38.6905 27.7551498133
29.2071 42.3876 43.2876 33.21284131
34.0897 39.4226 39.0225 28.2151156529
35.6696 40.2418 42.6771 31.9164364317
26.0704 45.7579 36.9899 28.5326523335
25.9911 43.2812 38.181 27.8879090575
27.4487 43.3193 40.9913 31.5951539787
30.815 40.287 43.0651 30.3584290843
34.5043 46.9985 39.8795 29.0653479406
28.3532 41.3264 38.6302 30.1607567913
30.5441 48.4753 45.3599 29.5404784323
34.1621 43.9351 39.5868 29.753414558
31.899 33.1291 43.0356 28.3457815429
34.6991 48.7857 43.7889 28.3419204948
27.1604 37.6074 38.6101 25.9528940464
35.88 34.6159 41.0855 27.2167539619
31.8003 46.0992 40.1786 29.3688208507
36.5429 47.3436 42.1806 29.46761346
25.2166 41.2859 41.2609 30.0640714059
26.6265 34.5401 43.5097 27.1990809408
29.3556 46.1197 44.3508 29.0659055916
32.4874 35.7026 41.5943 27.8084711908
33.5041 38.7069 36.1561 59.5011132791
30.9861 43.0008 36.1979 62.2944728314
32.8786 37.4447 43.6006 27.3623203922
27.8467 48.2667 38.2703 28.4468641973
33.1767 39.4819 41.7009 27.8808427023
35.9086 36.6267 43.0895 29.4231036505
28.2614 44.5901 35.6432 109.1958620249
33.8026 43.1626 36.7974 34.4197605774
36.4502 42.5893 41.0237 29.2288016332
25.4826 47.4918 39.8121 28.947517284
36.5027 36.0004 45.4893 28.2889411179
32.4524 34.6093 45.3593 28.7602883569
26.4574 49.0493 48.8495 31.6692118877
34.9242 44.2621 46.4227 28.1060223404
30.9013 41.6483 47.3205 31.0524839749
35.9182 37.2479 51.8882 29.9001546432
28.4222 38.017 47.2132 35.0501812819
27.8149 34.0141 46.6385 28.8494980389
36.6666 48.9891 52.3531 32.2532859416
27.9743 41.7635 50.2718 42.4610280797
34.3866 35.6895 47.1113 27.0618719769
32.2645 43.673 47.9263 30.3881112242
36.6562 35.9626 55.8957 27.4709233896
35.039 35.1327 49.7751 29.4139510185
26.9599 35.9051 53.915 29.3424527632
35.7427 39.8495 50.601 30.1137998622
26.0764 45.2809 48.2209 31.6771060727
25.3869 38.0232 52.898 30.6512051907
30.8374 45.7862 47.6684 30.9726360038
27.66 46.1707 54.5026 31.2772250028
28.9982 43.7503 53.5393 34.1033262246
35.6608 44.8529 51.1625 31.4365793593
35.2448 42.4252 48.6215 29.6345437581
32.3566 42.8245 53.8235 27.6377992762
29.5559 36.1771 54.7174 32.3996605987
32.4127 36.2198 50.5564 31.0633284506
32.0133 33.597 53.376 29.9185304453
34.9711 43.1156 55.7937 27.5998995218
25.4894 44.6444 55.1242 31.4842326546
33.102 38.1143 47.1078 29.1789588697
35.6457 38.6393 54.6043 27.8614675398
25.1967 36.8914 50.4063 30.0192838264
25.743 41.4255 45.9513 36.094101828
25.7319 38.7272 46.1356 33.8767779592
28.3543 38.0802 51.0655 32.0353676143
28.064 35.6876 48.8407 30.6294373957
32.2322 38.9507 49.682 28.8458062371
30.7 33.4696 46.9829 29.2690101032
29.5547 39.8304 49.0831 28.5858677941
26.9101 33.6934 52.3171 33.1087843053
25.535 42.541 48.5849 35.8794424372
35.3098 45.9189 55.6554 30.654615885
28.4715 41.042 54.6043 28.5533017488
33.1143 43.3794 50.6147 30.6203217106
30.1761 33.5081 55.5813 30.6316526619
35.1205 41.3235 53.7742 28.5969263847
26.9272 40.6276 52.3988 30.348861611
32.9877 40.7887 51.4044 29.3016361324
27.3002 46.8345 50.2341 34.0156591949
32.5682 47.1818 53.7683 29.7669502145
35.6099 46.6507 47.1489 29.596065326
33.472 35.9118 53.4324 27.335329947
31.2234 45.1475 52.2711 31.0208894648
33.0744 47.5154 46.7767 29.6535437204
31.0324 40.2856 53.7842 28.9195415583
30.142 46.6342 50.2865 35.9776509999
25.2185 34.1908 50.114 30.4475117653
33.3408 37.4322 55.6822 29.7674525683
35.2024 46.6923 52.9327 33.4675991239
30.2729 34.3195 49.6577 34.2002820825
35.8765 34.4525 53.7131 27.9312399011
26.2303 47.3578 52.695 30.7592181824
35.638 39.4344 47.6676 28.1233145267
30.6212 37.7308 52.5315 29.9370419205
30.6921 43.514 55.8854 30.7690800503
28.3458 44.8721 46.5138 33.4607199124
28.4936 42.3145 45.9299 31.5969897024
39.7369 0.105147 10.2979 30.6147176687
41.0036 5.31971 12.4761 27.2926963386
37.7757 11.3243 10.0523 27.3012587131
39.4371 0.00686418 6.32596 29.1215322837
45.4192 10.7841 13.1614 28.9333823577
39.5458 3.32351 3.99324 25.0470250839
40.6495 2.62473 6.4956 28.6689929653
45.0413 2.42094 7.41781 28.4698206978
45.7253 16.0947 8.06935 29.1661887935
42.9381 3.82617 7.84577 27.0984684925
41.016 14.8284 8.90042 28.2649018285
45.2298 6.21881 10.2445 31.5994465127
47.8326 2.85494 6.14193 27.4959651082
42.3494 14.7238 5.41441 27.1693071229
40.4062 10.4739 13.0018 27.2511238245
40.1776 16.1315 6.60532 26.7101995088
38.2666 13.765 8.71822 30.2155524048
47.5755 5.80019 5.89918 28.1679587701
42.377 12.8141 7.20756 30.8253038979
44.9846 11.4865 7.09924 28.6574249984
47.4675 14.4772 6.88472 27.7410617824
45.4925 7.93802 13.4302 30.5151793129
41.0928 13.3803 14.0946 28.4989691066
45.4752 8.89262 8.257 26.8271173986
43.1311 14.5756 12.3957 28.9225170826
46.3605 1.43323 9.91719 31.6321189454
41.7086 3.52011 10.385 32.7097295317
38.6666 6.95548 13.7747 29.5879501033
38.4065 10.9153 5.20144 30.6990637974
39.047 2.52314 8.96861 28.2086487755
47.42 11.7399 10.8739 27.7348258999
43.0187 7.0867 12.011 30.3155407151
44.3485 8.91225 5.2344 26.9345135236
47.4939 7.23578 8.21302 27.2520696431
39.953 13.0256 11.3262 32.0870429681
41.221 8.87644 8.58274 31.3134278879
44.2945 11.0605 10.1601 30.1185979052
40.2542 5.69514 7.41009 29.7781676244
41.8526 7.56926 4.46024 27.0663515308
38.3259 4.67895 10.9912 31.9482398392
45.4345 13.8486 5.0569 29.3492163833
49.1625 1.67831 8.72557 28.1666375385
46.9169 8.34698 11.1694 27.8749139641
37.7574 13.6588 5.71792 31.9510290347
43.2692 6.96429 7.89084 27.8380926104
43.6454 2.46801 4.63662 27.5561798851
49.2643 2.69877 13.0795 29.8610284293
42.1746 9.51435 11.208 29.5904222977
38.4975 15.3681 12.6295 28.4298442621
41.424 10.4206 5.91822 30.0918124083
38.4096 9.89398 7.99617 28.694090728
46.9212 14.8012 11.2808 28.4094345288
47.7625 11.8137 8.2285 29.6812710742
44.776 2.87198 13.4442 34.3055362702
46.7635 3.70706 11.5908 30.4084130232
38.0929 5.32362 5.84798 29.5490444384
38.5078 8.92248 11.8546 27.4764493366
44.2024 13.9932 9.737 30.7126791934
43.5487 1.47779 11.2957 27.6778284326
48.4455 5.40871 10.2151 29.2700016609
38.7001 7.12952 9.419 29.9472553717
44.6473 5.72782 5.63563 29.044036092
49.1938 9.5564 7.59115 30.3889791334
46.562 14.7823 14.124 30.1077567442
37.0737 2.11676 4.61564 32.9550218418
38.9505 7.15624 4.30677 30.6738193244
38.4652 7.94245 21.2449 25.349932469
46.702 11.4497 24.4066 64.2086293179
47.7792 12.9115 18.0823 29.2219453357
44.3082 3.87963 17.9379 33.8824051139
