33.2137 13.6863 46.7287 28.9066597549
36.1307 14.0316 45.8278 33.1837224819
25.801 16.4696 45.6645 31.3119938212
27.9825 17.2272 47.5539 26.3898964387
29.9747 19.6251 46.6169 28.8438993601
31.1613 18.5461 44.1997 28.5529922432
33.7936 18.6144 45.3872 30.668796123
34.119 17.2262 47.5058 30.5094838968
27.8239 21.2499 45.3636 29.6522969709
25.7063 22.2188 47.5224 27.8376671835
25.3533 21.8188 43.515 31.3663561348
30.536 22.4921 46.5624 27.4111445849
34.3643 22.9655 43.8297 28.8969749762
33.5028 21.457 45.8874 31.0562110834
26.0223 13.3352 51.4396 27.8614639756
27.5578 14.3396 48.3801 29.3819063563
30.2503 14.3222 49.4949 28.3675957998
34.1853 13.2923 49.4949 30.1017005557
35.8272 15.3821 48.4893 29.5392380184
32.8189 13.6569 51.6991 30.0264208629
26.6299 16.5078 50.2931 31.5428537292
26.7983 19.7508 48.0949 26.8855253787
28.1179 20.1184 50.4684 28.5468122541
29.8584 17.708 50.1412 27.7739647754
31.757 18.7123 48.7318 30.0043399651
35.9602 19.57 49.3011 30.6097885432
35.8339 16.9282 51.006 29.2705138303
29.9733 24.3858 48.3648 27.4866658476
32.0514 21.7342 49.0873 27.7679078801
29.5893 22.4258 50.4119 30.8130779878
34.1722 23.8819 48.9527 31.1358129879
34.4611 23.4169 51.7728 32.2031706383
35.5774 21.8398 47.7838 32.4277276976
33.6443 20.6284 51.2128 27.2973658405
26.0168 14.333 54.9976 31.1652279575
27.5389 15.5153 52.6876 28.8543437866
30.3745 12.671 55.0362 35.4924446568
29.8259 13.6602 52.34 29.7513279456
35.3751 13.4009 56.3233 32.3433959777
33.6653 16.2063 52.6486 31.0209883534
34.0234 15.7513 55.3827 33.7935329134
26.8968 19.4457 55.786 29.9714997614
24.7245 16.4441 56.1192 30.3520275975
28.688 19.6165 53.3255 29.9916972111
32.6195 19.575 55.973 31.422568964
31.2417 17.4893 52.5336 28.5277073088
29.3876 17.0826 54.7191 30.4773023602
32.4031 19.7714 53.3748 26.5748540236
31.754 17.171 56.4394 31.9274755608
36.3552 17.3918 55.2351 30.8383140637
35.5496 19.3585 52.8585 29.4377458658
35.4421 20.1115 55.9784 30.5212462973
26.0569 20.6638 52.6952 29.4123516694
25.985 22.425 55.0266 30.0501687398
27.1815 23.8037 52.1338 31.2375387314
29.1387 23.1496 55.4754 32.9212495303
30.601 21.9175 53.0642 28.8294092026
35.8553 23.0463 55.8944 32.2779856006
36.9119 23.4041 53.2304 26.453329262
27.8714 26.4203 6.75421 31.5106954271
25.6131 27.7081 6.08753 30.3311323857
30.4069 26.8468 5.58611 31.712631462
31.8159 25.1533 6.82126 28.8279174632
35.1238 25.3672 7.49566 26.6347635389
35.559 26.6219 4.79117 29.3701764289
28.2863 31.114 7.36694 30.2190141675
25.8318 30.023 7.91089 27.8603578105
30.2676 29.7012 5.83687 30.436126197
32.7907 30.9495 5.98102 32.3699949051
36.0709 30.0374 7.34737 32.2100870796
34.8443 29.2215 5.20067 30.4907290971
33.0288 32.33 3.63899 29.9743733562
26.0248 34.8534 7.06571 33.1123607801
28.0155 33.0884 5.7287 33.2882412413
30.4721 36.7554 4.67029 31.0823374097
30.5629 36.642 7.51597 31.7041048934
32.5358 34.7218 5.82099 31.101924109
29.0407 34.6722 3.71593 30.1296656148
34.6328 35.4249 4.25354 30.1471556623
33.4453 33.1579 7.99383 32.287546227
25.7793 25.2002 10.6204 26.7932710626
28.7786 27.2563 9.26746 26.2659255405
29.2325 24.7373 10.354 26.8487884637
32.0937 25.2073 10.7284 33.0091355916
30.9852 28.5808 8.71212 32.7310477616
33.509 27.0262 8.90449 32.5838100031
27.5161 31.9035 12.1717 24.8826253494
26.7934 28.7426 10.2694 27.800964984
25.1098 31.6041 10.4743 31.917982334
31.5831 31.4841 9.84845 33.4002423198
29.1953 32.6128 9.6584 33.5756908447
29.0178 28.6284 12.341 35.3275605399
36.4 32.6343 11.3786 29.7712153212
35.9083 28.6248 9.71232 33.2915939649
35.6007 29.8437 12.0844 30.449882198
26.0105 35.6713 9.67485 30.5497119992
28.9113 35.506 9.76828 33.7933157788
32.3311 34.3521 11.901 30.2266644021
35.9521 32.772 8.79138 29.0845610747
32.8498 36.1655 9.34863 28.6735437035
34.8833 35.1846 12.1399 25.865608039
35.7912 35.9797 9.20736 27.0910337646
25.2059 26.3895 16.0319 33.7232470062
25.5993 27.7657 13.5769 30.288171961
27.5277 25.8564 12.5547 28.5908891727
31.6182 27.4251 15.9009 33.7639410981
31.3362 24.8671 15.3607 30.6278198005
31.9095 28.229 13.1187 35.4084927111
33.3448 24.5313 13.6918 30.365793396
34.7566 27.2875 13.6588 31.5954622767
34.1531 27.8819 16.3334 31.8358196523
26.8561 30.1355 13.858 25.6045803954
27.6001 29.9099 16.7134 32.687346391
24.7045 31.6658 14.3419 27.592300052
25.4864 32.1909 16.6876 32.3277354815
30.1765 31.9807 16.3041 34.3229397642
32.1846 31.1115 12.4588 29.7898258727
29.8896 32.4347 13.4189 32.314931984
35.0339 30.7783 16.7603 31.3820070729
34.4783 32.0407 14.0686 33.271234604
25.7606 35.741 15.1057 31.6266888304
26.0247 33.8776 13.2208 31.8984833107
31.1181 35.0847 14.5107 32.2105425544
34.4659 34.8052 14.9786 30.5543298985
26.095 28.1033 18.4223 30.0407548804
28.0563 25.8567 19.4292 33.9852738257
32.0473 25.8313 21.015 30.4589797365
30.3314 27.6638 19.9628 34.9173520072
34.3302 26.6918 19.7822 30.8509818511
36.1109 26.3524 17.6101 28.8991235508
27.2643 31.4587 19.3135 29.2736878683
30.4252 29.2664 17.6153 34.6650337477
28.7185 29.8908 21.1968 30.649126548
32.748 32.1159 17.6409 30.6765766279
36.353 32.018 18.6991 28.6449959418
34.5901 29.2413 20.941 31.0498080506
33.1655 31.4232 20.4477 29.423758469
26.6498 34.9942 17.7143 33.1966853541
29.0419 33.6871 19.7177 27.5840053008
30.2143 34.8762 17.3102 27.5075624783
29.667 36.578 20.1634 27.7640814856
32.89 34.9539 17.5775 29.5655972158
34.9715 33.3262 20.9663 25.124448357
33.8753 35.679 20.1822 28.6820038651
26.1548 28.4495 21.435 30.963060986
27.6638 25.7895 24.0505 75.2424987114
25.919 25.6264 21.4205 29.5837379468
26.2736 28.2504 24.5216 105.666418133
30.01 27.6457 24.1474 82.0482266851
32.0309 24.815 23.8233 54.7337907608
35.3049 25.621 24.1208 79.4635265285
32.9663 27.4532 24.4129 93.5338356343
36.3708 25.2058 21.6264 28.1325820046
28.229 30.4954 23.9074 45.2288604362
30.8469 32.4168 21.3232 28.7454354826
30.5372 32.3022 24.1529 60.0668342548
33.037 31.8741 24.4984 105.9630893455
34.4237 29.5784 23.7262 37.3850124098
26.4912 33.6322 21.6535 31.3171896036
26.1955 35.779 23.7791 51.5187153504
26.9054 32.795 24.445 93.2702933612
32.5374 36.2688 24.0811 75.3577768152
29.4345 34.8209 24.2128 73.6403861679
31.6786 35.1315 21.7765 27.1739151959
36.4292 35.1523 24.5693 102.0677179896
34.5003 33.7731 23.537 31.8521773272
26.7061 28.0596 35.858 77.1673286538
26.497 27.9639 38.7925 29.0910025722
25.927 24.9535 36.2344 68.1914853045
28.7845 25.3129 36.2327 49.6066023162
29.7185 28.3758 36.2329 51.7205285104
32.0307 25.8357 35.983 67.9900130821
33.4636 28.1343 36.0722 63.7872616104
36.3143 27.8062 36.3894 40.2556969142
36.4126 25.2193 35.4956 122.2235713508
27.7977 30.9742 35.9341 71.6992331931
27.6867 30.7771 38.805 29.8663110346
24.8289 32.3613 36.1171 56.1425646392
30.3071 29.5704 38.5891 26.9435519861
31.8355 30.6009 35.6699 86.5834980334
34.1726 32.5924 35.5365 109.0756265518
33.2308 31.3745 38.1195 29.2398921465
36.902 32.0872 36.2815 41.0483323666
27.7923 36.7144 35.6863 106.3378805481
27.3224 33.9939 35.97 66.2935472532
26.1743 34.319 38.4376 28.0981351257
30.0695 33.1367 36.173 44.5379439886
30.9677 35.6847 35.6427 99.5178346077
33.1539 34.7369 36.8568 30.5366131293
26.007 26.9139 42.4882 33.7006659807
28.1389 26.5286 40.6845 29.7350609038
25.4479 24.8311 39.2132 31.936569823
31.4159 26.5006 38.9855 28.5115984517
30.1643 28.5947 41.1631 25.5087772539
32.7361 28.2227 41.7477 26.7841007413
34.0213 28.328 39.059 27.1326494029
33.4303 25.7176 42.7445 28.6373141514
33.6442 25.1744 39.9901 27.8805245251
36.797 27.2433 39.2166 30.9216749824
29.1931 31.0782 42.1895 28.687934205
31.5908 31.8975 43.0161 30.871101066
34.104 32.5352 41.8056 29.1112852045
35.1303 30.4655 40.6107 27.1105901873
26.3839 35.1568 42.216 26.9006108726
24.8567 33.1015 41.3008 28.7330817841
28.0563 32.8509 40.6512 26.2013614087
31.5549 35.8793 41.1146 31.9305162529
30.6459 32.686 38.8537 31.2407764149
28.8243 35.4155 40.5137 29.9649884112
33.5449 34.2243 39.6453 28.3282797056
35.8987 35.8881 39.9278 32.50623287
27.3195 28.1417 44.3845 29.7598677037
26.5102 27.1822 47.097 32.6889005515
28.4946 24.979 45.1112 31.7633242848
29.7874 27.4247 43.8314 28.7564817819
31.6465 28.22 45.836 32.6927003964
31.4067 24.6906 44.4707 27.1291950933
32.6046 25.6437 46.9736 30.5631060635
35.2575 27.1482 46.6334 31.2228390213
35.8583 26.2295 43.9439 31.1180488691
27.6217 30.832 44.3849 32.1293385394
25.0767 31.2153 43.3776 33.0789124122
32.9473 29.5406 44.0289 26.323351517
34.4284 31.3415 45.7154 29.9935308714
36.0146 29.7185 43.336 31.1550202873
28.5304 33.0945 45.9657 33.0203365831
26.7839 35.1125 44.7295 30.5467550851
30.9941 33.5919 44.9888 30.801597826
32.7245 33.2252 46.9908 31.0929415916
31.5748 36.0989 43.8857 32.7135113796
34.2014 35.6308 45.1454 29.8934383873
35.4211 33.2032 44.0807 28.1025687145
28.319 28.4011 48.9143 28.8582404347
27.2307 24.6022 47.6815 28.2813473545
26.425 25.7084 50.339 28.3119331687
27.2997 28.4212 51.3187 27.4992203207
30.3889 26.9958 49.3857 29.9726411966
36.2688 25.9432 49.6787 29.6740704982
34.784 27.999 50.2907 29.7048822229
27.6214 32.1926 49.0396 29.7437641317
25.9206 30.6677 51.5127 31.2077781404
29.4974 30.7293 47.8016 33.2581033447
32.6058 28.856 48.9609 30.2759874864
32.0626 31.5643 49.0605 31.8523116898
35.613 29.8455 47.7325 29.1253200059
36.1218 30.837 50.4945 32.0767116506
25.8817 34.3271 47.926 32.7021698415
32.4497 35.7666 48.6331 29.467616334
28.7901 33.694 51.1267 31.4753071316
32.6712 32.9445 51.4068 28.1035170457
30.0694 35.8563 49.842 32.4088132441
33.9239 35.1284 50.9861 29.7151454191
36.5234 34.9325 49.9871 32.170434824
35.218 36.4369 47.7622 39.0317873498
24.9327 25.0474 53.9062 28.5527254454
26.9964 26.9485 54.1761 32.4418616244
26.0524 28.5823 56.3014 31.7023830457
29.2143 25.3532 53.9226 28.309985816
32.3428 24.5193 53.3118 32.6658344879
31.0065 27.1223 55.6619 32.0620039882
31.2836 27.106 52.048 31.5280336224
33.3511 26.0032 55.6245 28.6624412638
33.9998 27.6428 53.0689 29.7641969455
36.7855 27.5551 53.8265 29.0726980309
25.037 32.5074 54.5723 29.8225058185
26.652 31.4223 56.353 30.62024757
29.4665 30.3016 55.8933 31.9436985692
29.4986 28.795 53.3374 29.77106126
30.3758 31.624 52.5999 36.6347660966
30.8016 32.6287 55.2645 27.8164220012
34.2315 29.875 54.7208 32.464463606
35.1417 31.8036 52.724 28.8309753491
36.7494 29.9236 55.8808 29.0265009324
26.2696 33.6621 52.1846 31.6879460141
27.1092 35.2356 54.6371 30.0992522125
24.9499 36.3284 55.5071 28.4369981427
31.5559 34.7972 53.5302 29.3960175005
34.0766 35.6301 54.3068 30.1686689349
36.2623 32.8513 55.8762 31.2757211347
36.5235 33.9107 53.2496 28.0217438129
28.3062 38.7692 5.05473 34.4831220963
26.0126 37.0195 5.22598 32.62927585
32.7148 40.3487 6.97598 30.0074007771
33.9902 38.659 3.98949 28.9668492905
33.4426 37.776 6.70011 28.515170657
26.4829 44.8665 4.86378 31.2328825113
26.3183 42.1454 5.99829 27.8595380115
29.0661 40.8825 7.05621 30.5798513691
31.0317 43.0706 6.68611 28.2253458384
32.7187 41.4477 4.18825 31.6024350473
29.5683 44.5065 4.44613 31.0011910977
35.5078 42.0817 4.09765 27.8687345222
36.6775 44.4686 4.33668 31.9079923668
32.9991 44.413 4.33722 34.1430673434
36.6054 41.404 6.60081 29.2567252541
26.8432 47.3081 6.69309 33.8313939521
31.5758 48.2119 6.50937 29.3391666718
30.1796 47.6717 4.05597 28.0198456596
35.6665 47.1672 5.53749 29.513274533
33.2237 46.1499 6.6346 29.967785771
35.3857 48.9843 3.67771 26.3219853878
27.2722 40.742 9.19813 31.7241750475
27.5416 38.0446 10.9315 32.3155517957
25.0153 38.6282 9.69696 32.1953781035
30.4986 39.2 8.99943 30.1408400734
32.4551 40.4281 11.0174 31.2542641529
30.7337 37.5079 11.2567 27.1688501191
36.2607 38.4724 8.20251 29.1063332405
35.2265 39.4874 10.6627 28.9442291874
26.439 44.4328 8.0687 28.0829744833
26.8888 42.7912 11.1209 33.0794276104
29.0821 44.4497 8.5839 30.5854588085
31.3623 43.0718 10.8572 31.9647654951
36.583 44.2939 12.193 35.4805175511
34.7693 41.6019 8.67119 31.1224317179
32.9772 43.6623 8.75377 29.8987199728
25.5286 46.0766 11.9769 27.2077659227
25.9239 48.622 11.069 28.3279723894
28.8577 44.9659 11.4028 28.3592518886
28.7477 47.8199 10.8087 33.0344750799
29.4207 47.4236 8.02522 32.2097411621
36.0953 48.2398 8.2562 27.0490846895
35.4622 48.6746 11.5701 33.8548377433
34.4334 46.0255 9.38104 32.2570688709
34.33 46.0497 11.9406 33.1685844162
27.3133 37.8541 13.7412 34.2985129249
25.4575 39.786 14.9348 32.1906775969
30.0831 37.6077 14.4507 29.0840512789
32.5205 39.9762 15.4171 30.8631036064
30.6698 40.0866 13.335 29.9351368375
36.3501 40.4951 14.49 30.4864899031
33.6854 37.6504 12.4238 28.3194980624
34.7204 38.2991 14.8881 26.6437997014
26.7822 42.198 13.9372 32.8137933693
25.1 43.8983 15.3406 29.7283841361
29.2794 44.9256 14.3469 29.9020748912
32.0098 44.6135 12.8461 31.4228037936
29.4679 42.1633 14.564 27.3053528077
32.6298 42.9414 15.1061 29.6722654035
35.2285 42.9173 14.3756 33.334952704
26.3947 46.4503 14.653 35.2208348163
30.9479 47.8323 12.8761 41.2436084004
35.3996 48.4336 16.1416 33.1547164079
27.7053 39.7554 20.9631 29.3418216542
26.3902 38.9824 17.4111 30.6337946884
25.3024 37.1266 19.1541 31.2622366162
30.7216 39.4271 17.617 29.1304433954
28.7377 37.4177 17.2517 27.5061662445
30.4424 39.12 20.6743 29.2947269207
34.4663 37.5169 17.579 29.0998644885
33.4745 39.3389 19.2153 30.0261204065
24.9249 43.674 18.2527 30.9510660097
26.8452 41.298 18.6809 32.7886374867
30.8366 43.344 20.8208 29.2742936826
30.7064 43.8217 18.123 30.7858433471
29.3143 41.5004 17.2396 30.2319851645
34.8227 42.0214 19.116 32.4630420367
33.506 44.0022 17.5959 36.1476606314
26.7333 46.1464 18.3979 31.3448220378
29.1596 45.7388 17.0226 31.3017436725
31.3977 45.9933 21.2082 30.844089335
29.9838 48.2693 17.2958 32.3445310523
31.0996 48.5243 20.1394 28.1515354859
35.5375 46.2873 18.1156 30.0261965102
34.2955 46.1427 20.945 29.128761944
28.1907 38.1031 24.3317 102.975252916
26.5988 40.2339 23.6818 35.0993334073
27.148 36.9889 21.2768 28.9671433952
30.8267 38.7112 23.5587 41.3044240386
34.914 37.8408 24.0791 59.5239641224
35.0826 37.9624 21.3754 35.5041687359
28.1844 42.8034 21.5936 28.2841080754
27.2513 42.8338 24.4114 91.0034459836
25.0119 42.7883 21.2434 30.3412758801
32.7647 41.38 21.5925 31.4977926068
32.4085 41.1472 24.3485 96.4532255055
30.356 43.0252 24.1268 63.3349031261
34.8304 42.9184 24.207 66.5568533831
35.4644 43.3806 21.4132 32.4779518468
27.037 45.2722 21.2717 28.5828217982
26.7475 45.8667 24.193 65.1311876044
28.4892 47.6976 21.6807 28.4421206936
29.3235 47.5185 24.4146 88.2975863136
31.4915 45.4531 24.2109 76.464275353
34.406 45.806 23.9582 52.7019120013
33.8456 48.7309 23.4496 31.3166528923
26.5273 40.5429 37.5456 29.9403494967
27.8561 37.3676 38.4599 28.5143224518
25.183 38.1496 36.3999 55.4447180823
30.6205 37.8815 37.3702 29.494586397
32.7446 39.7432 36.104 60.5045512555
29.1135 40.2795 36.415 55.7383920777
34.5204 38.1051 38.6007 29.2087146465
34.3289 37.3892 35.9295 73.8594847937
35.3035 40.7369 38.7463 28.6763432665
27.2371 43.0147 36.0659 74.2061076689
26.0081 44.4907 38.696 29.0684464833
31.12 41.9164 35.7375 99.9075168364
29.8522 44.5252 36.0328 56.9052503429
32.6733 42.7724 38.0375 33.7668571673
30.5236 44.6261 38.7792 26.3455802987
34.9544 41.7597 36.1539 62.8815952484
36.3584 44.2398 36.1746 71.6322999063
25.5033 45.4716 35.7127 80.2407311828
28.004 46.9711 35.8449 66.4858091955
26.899 48.8068 38.1081 33.5362461796
32.0778 46.5605 35.8729 86.349264793
30.8366 49.0041 35.8148 63.5612088901
35.0511 46.8398 36.1249 71.92784661
27.7451 38.7538 41.1717 29.4760543166
25.0368 37.5421 41.2521 28.1443954343
32.1313 38.1766 39.6606 30.1118907666
31.626 40.352 41.1628 32.9346319997
29.2442 37.7781 43.1865 28.8182468657
35.5655 40.6447 42.6694 28.7813522761
36.2688 36.7877 42.7681 33.8016700631
26.9645 41.2568 40.3663 29.4491347505
25.1527 43.0337 42.5385 26.8899045666
29.7429 42.3895 40.2797 34.4842060265
29.4913 44.3427 42.4259 27.9092931449
36.6208 44.1877 39.2032 28.6636720207
34.0881 44.2774 42.7584 28.669741811
34.0505 42.0132 40.7768 28.4796634068
28.0696 46.4045 39.0613 29.5323784641
25.171 45.4735 41.0838 28.4207303646
27.6855 46.3056 41.8634 27.4879304373
29.1433 48.8998 41.8876 31.3270849265
32.3929 46.628 38.8459 28.0396780137
31.888 48.2986 42.6982 29.6129381879
31.8394 45.6932 41.8451 29.0655041944
34.9694 46.9436 38.9564 28.0127385703
35.8133 45.5562 41.3059 28.8123284238
26.6582 40.096 44.0946 30.2125836265
25.0085 40.7104 46.5996 32.2764863978
27.8049 37.8286 45.468 32.2708601503
29.347 39.7465 46.9148 28.7052243004
31.7814 39.2096 43.6965 30.1796185731
34.6234 39.1093 46.928 32.77746095
34.562 38.6984 44.3779 30.1226125636
25.9164 44.6056 46.0356 28.6459157376
27.232 43.124 43.9479 30.5103387466
30.4613 43.9741 44.924 29.0803140396
31.1087 41.341 45.3813 33.7600022503
32.8733 41.4844 47.544 32.9809259025
35.7863 41.6946 47.5594 28.01065227
35.9918 42.3506 44.7497 29.4997421042
26.5106 46.9934 44.3109 29.4578752833
24.7869 47.1001 47.6106 32.5813161192
28.7456 45.061 46.6468 27.7578570496
32.5166 45.9612 44.9201 30.3534712004
28.7525 47.6132 46.2498 30.5543568554
35.8259 45.2956 44.8389 33.3182462368
33.6584 45.5415 47.31 31.2411401798
28.4688 40.4566 51.1345 28.3056980524
26.143 38.3689 48.0886 31.6448325891
31.7393 38.5694 48.2763 31.9492227878
32.5662 39.1361 51.1318 33.1056808285
28.7553 38.1014 49.3707 30.5296833423
25.2241 43.9061 50.7557 34.2214608394
25.9962 42.6123 48.3505 30.0959721388
28.5373 41.9243 48.5819 30.2993896934
28.4927 44.4521 51.8077 25.9442072725
32.4207 43.984 49.0574 33.8905923505
29.5672 44.3233 49.2603 30.1655089951
32.7028 43.5995 51.9295 31.0296848309
36.5454 44.7891 47.8055 28.3589939373
36.2904 41.1412 50.5241 36.9731540944
27.7106 47.3859 49.2913 29.5911694819
25.2804 46.7802 50.6648 28.3519217301
31.4887 48.5497 51.4639 28.2608606866
34.7828 48.2416 50.3155 30.6523104548
33.4081 48.5064 47.7586 30.6450567914
36.8653 45.6245 50.5567 29.7865949429
26.1613 39.385 52.0518 30.3497286284
28.0358 37.555 53.3211 32.5148072957
27.8182 39.6552 55.3089 27.4348642989
25.0022 39.2472 54.9445 29.9187105375
31.9391 38.2198 54.9862 29.2083390695
30.6593 40.6767 54.9516 30.8422391598
30.6203 37.1711 52.2932 27.4426523243
34.3498 38.4852 52.9847 30.2142650375
36.6719 39.0775 55.8102 31.2307034618
27.9605 42.4679 55.9213 27.5591182501
26.6415 42.6264 52.9357 30.5982396559
25.7249 44.3806 54.8252 26.4625708729
29.8025 43.7783 53.9579 26.0363729558
30.8074 41.3464 52.2099 29.3581102673
36.622 41.6356 54.5428 27.3378368892
34.5722 41.4743 52.7143 33.0119443875
27.9277 46.301 54.7168 26.8389124225
24.9933 46.7523 53.3387 28.9543654732
28.322 47.4404 52.2274 25.7406726801
31.5452 46.053 55.1852 27.8054982961
31.3013 46.0377 52.2819 26.3504391733
36.2522 46.0803 54.6004 32.3622478012
33.5449 48.1411 54.4719 26.6874429684
34.4373 46.0496 52.2378 30.5789163827
38.826 2.18958 6.12837 30.8941421467
41.7946 1.37733 4.18677 28.9023681405
43.3103 3.65471 5.22527 34.1375868813
43.6283 0.171578 7.91117 36.3582930497
41.3592 1.8128 7.17412 26.349404624
48.6997 1.64857 6.72835 31.182186985
46.734 1.54559 4.5768 30.85029539
44.3355 5.77167 7.77678 34.5784947072
46.1394 4.21356 4.38907 28.0717579217
47.5575 7.94813 6.38568 27.9404205323
47.0732 5.394 6.82302 31.9443064758
49.0672 4.19466 3.83484 28.0301435544
39.1443 9.45422 6.24007 35.7942246952
41.9961 9.14809 5.2078 34.2365746178
43.5274 8.24462 7.29149 35.3335245902
44.8577 10.9363 3.95901 29.6339338755
42.1639 12.1354 4.79217 34.0097281236
45.5918 9.92542 6.67699 32.0377373597
47.6053 8.57126 3.94956 30.4882744472
37.4595 1.24693 9.83774 31.7499990717
45.0384 0.702142 10.2575 32.7912209112
41.7245 4.00205 8.70095 36.2583882649
41.8856 3.97937 11.3199 30.099639438
43.1932 1.5525 12.1837 32.7817087613
48.7017 4.0132 8.71793 28.267700296
45.9554 3.97158 11.6992 27.1904345635
47.3409 2.02322 10.2882 32.1931300988
37.8525 7.75742 8.05971 31.9124764891
38.2077 6.14616 11.3241 29.6029461336
39.0039 5.48247 8.83504 37.8373129872
44.34 5.55233 10.5368 30.4227331839
44.0787 7.71028 12.0846 29.6030111687
48.5717 5.90327 11.1353 29.7370535655
39.7154 8.56329 11.8985 34.0593536428
39.879 11.4675 8.36237 33.2474633972
42.0743 12.18 12.1213 28.7283938791
41.1913 10.4078 10.2108 30.0539841863
43.4596 9.10228 10.0124 30.329648841
48.185 8.75129 10.9139 28.7413071923
45.9372 10.483 10.56 31.6967569235
38.3252 1.54257 12.5574 29.9705803597
37.382 3.07288 14.8095 30.0210852507
42.8508 0.816439 15.4466 31.6971256445
44.3859 3.32213 14.1318 28.6852208331
47.677 1.48265 15.1899 28.0206842409
48.6784 0.647499 12.6423 31.4574742365
47.592 3.80721 13.9812 25.4188791262
45.6283 1.39816 16.6577 29.4762844502
39.575 6.94658 16.7255 29.8052550941
39.7158 4.1829 12.6794 30.3366850348
39.5243 4.28446 15.8022 29.9982377946
42.3307 5.07379 14.529 31.1211490313
42.5619 8.06814 14.6022 28.889284604
46.8309 5.96407 15.9398 29.6750392028
46.7572 7.67081 13.4427 30.4221469881
40.6556 11.7929 14.7259 27.9536671204
37.4611 10.0704 12.7696 32.3163118166
40.0291 9.10551 14.6686 31.9133074085
44.9072 9.55496 14.9002 33.3713061467
44.6534 11.5462 12.9014 31.9850079501
49.1469 9.14927 15.0128 28.7224577692
39.2289 0.3781 17.7192 26.8156790692
38.9513 0.380968 20.6808 26.555752887
41.1567 2.36166 17.3521 31.763551282
43.782 1.17506 20.8816 28.866757061
42.336 3.12503 20.1123 27.9134053672
48.6046 2.48692 19.7042 32.857038777
45.152 0.0641848 19.1076 29.9103928402
38.7943 5.14822 20.1467 32.6652129344
37.0669 6.32246 18.0587 28.6290312538
42.7708 4.90783 17.4873 26.7850490945
42.2348 8.10608 17.4489 28.9470336081
41.3536 6.45751 19.6664 28.0674029692
44.6393 7.38392 19.2797 27.7979555743
45.3423 4.18624 17.3867 28.2973522797
48.1086 7.12629 19.6897 29.3602273551
46.3855 4.73892 19.9254 35.1942800612
37.9265 9.14873 18.4206 31.3599193679
39.658 11.4782 18.9035 32.8479334484
37.2422 9.29462 21.1786 25.9533794012
42.4272 11.0647 17.8839 34.932994053
44.2252 11.7188 20.0047 40.9869537926
46.7942 8.3174 17.5666 29.3843258715
48.1585 10.7455 17.8253 28.4180820406
47.3208 12.1772 19.7564 32.0159972139
40.0068 2.7769 21.7027 28.0527218067
40.9994 2.08001 24.2409 70.0766890936
38.592 0.404887 24.0595 56.1229179723
37.1063 3.27817 23.7235 29.7530269396
43.4402 0.187194 24.1804 79.9669739267
47.9196 2.81245 24.0192 52.8174262876
45.2643 1.74744 23.2353 34.1833890225
39.454 4.58615 24.5779 95.9394454684
39.6352 7.18353 24.1357 55.5240103192
37.441 6.64591 22.1658 28.1208406269
43.7702 5.34432 21.2534 30.1084124936
43.5153 4.57687 24.034 53.7622456462
42.4283 7.11998 24.3762 74.7215637195
46.245 4.93758 24.6752 102.1905271693
46.5076 7.7248 24.5312 85.6159498342
39.8841 11.1507 24.3976 81.0948521405
39.9058 10.4626 21.7383 29.792069663
37.4608 9.56693 24.2516 68.3252550747
42.8029 11.8579 24.2428 75.6708993616
41.8114 8.24031 21.7849 29.1323645639
44.3627 9.22843 21.3022 32.3891224123
44.0314 9.25128 24.2565 67.1378986876
48.0607 8.29336 22.1728 31.9450105663
48.6426 10.9958 21.8843 32.2149720477
39.4358 0.334893 35.5405 93.0232013203
41.4369 2.44148 35.6525 69.8355926783
43.8714 0.914792 35.6908 73.7636797367
44.5432 1.37825 38.5241 27.8766576335
41.0291 2.9763 38.1761 27.9402619238
45.817 2.94199 35.6228 83.6614351532
48.1447 0.46631 35.9348 62.2857229754
49.0734 3.10236 36.3191 38.7005252664
40.2432 5.17071 35.7164 75.7132579072
38.5187 4.56504 38.3126 28.9853365342
37.2141 5.10204 35.5576 89.2614910246
43.8399 4.7565 36.1297 42.3208726699
41.1344 7.63658 36.9842 33.2543958535
43.7318 7.48252 35.4638 112.6389535842
46.4127 4.95513 38.2828 29.3636610142
47.837 5.52076 35.886 66.4816637612
38.2889 8.45771 35.9421 74.5409884918
38.804 11.3147 36.2752 42.3407552227
37.0338 8.40381 38.4819 26.2648715936
43.1968 10.1366 36.7712 29.5725574211
41.4021 11.8954 35.5689 93.4735577244
46.543 8.18534 36.0491 50.0014903064
47.4016 11.7838 38.1688 29.5420887706
48.7371 10.1564 35.6256 83.0792239151
45.9391 9.29428 38.4093 31.0275276058
38.3005 0.830796 40.7177 29.6120905331
40.3073 0.300333 39.0214 28.3089687379
39.2409 3.71367 40.857 30.5354681997
42.5753 0.489666 40.2595 28.8932723249
44.2783 3.61008 41.7024 29.2522749058
47.0186 2.57097 42.5378 32.0690216152
46.8078 2.49266 39.758 26.8261229972
38.5479 6.79953 42.059 26.4555248593
39.3678 7.22881 39.6269 25.6995350395
40.603 4.87403 43.1674 27.035425972
43.4634 4.49722 39.162 28.9573653419
42.2754 6.9715 39.8863 30.5827994508
42.4359 6.65774 42.7231 26.434046234
46.2066 7.85574 42.4599 35.721097964
47.2756 7.29976 39.8373 32.3875697273
38.7556 11.8556 39.0663 28.4529927991
39.8459 9.96937 40.9528 29.8588601695
37.0445 9.1769 42.6504 26.8245071686
38.5786 11.9248 42.9563 31.7093525023
42.3612 10.9268 39.3531 29.5749541097
42.2413 10.7642 42.7011 27.8472346802
44.0349 8.94053 41.0244 29.9395465769
39.7849 2.05163 44.7778 29.0861693734
37.2314 2.95613 44.9775 33.9966857494
36.9884 0.0491883 44.6967 30.7667682531
41.6388 2.34104 46.9543 30.8582605539
44.1918 3.44204 45.688 29.0474654916
42.4183 2.66767 43.4696 29.3497449829
46.2072 1.48004 44.9643 29.9731792533
48.248 2.39728 47.256 29.8088399917
39.4011 7.5885 44.8363 31.4802492966
37.2962 4.22606 47.3775 26.4103452451
39.6659 5.20894 46.2088 28.6186800614
43.0691 8.14634 47.3127 33.0888990547
44.9322 6.21991 46.5289 29.9028928979
44.6918 5.62082 43.493 28.04254906
47.1377 6.98215 45.2796 33.8472441412
37.7583 11.7314 45.9124 32.1961234039
40.478 11.6039 46.749 30.1474447576
41.9806 8.79861 44.5785 31.1946444749
43.8258 11.8649 45.2391 29.0736872556
46.0172 10.4623 43.8266 35.4305845837
47.5211 9.62131 46.1868 35.0203870838
37.2485 0.204947 49.2673 29.7666935729
37.6673 3.53461 51.9597 28.1870742488
38.4862 2.87037 49.4034 32.3542286985
43.3812 2.39172 50.5256 27.007116213
41.2441 3.79423 49.3195 26.9930120913
45.9288 1.18616 51.1191 29.4434485365
45.2066 2.38145 48.0876 28.6862117874
48.2507 0.90499 49.7687 29.0121288552
41.1137 6.24303 48.1488 29.9149049551
43.7826 5.06083 51.5325 33.0176533802
41.0887 5.40622 51.7346 27.007218175
45.5101 5.41155 49.152 31.0932390839
48.515 5.31874 49.3906 33.7206151528
45.8403 7.79252 50.4738 30.5038520877
39.843 11.0027 49.3958 32.9644235377
37.2087 11.2993 50.424 32.9932733783
39.3599 8.17225 49.2895 32.7329828482
43.3605 10.8995 47.8982 30.9868346619
44.2064 11.9998 51.9659 31.8673408685
41.278 8.30809 51.644 32.6963828013
47.4152 11.9456 50.1111 29.1785197533
48.0253 8.25895 51.8966 30.8025143384
46.1093 10.1083 48.7793 30.7184581343
40.2471 3.42241 53.3137 30.1433903995
37.5785 0.974333 55.5007 28.9517636391
39.5363 3.26169 56.1044 28.9258097012
44.2613 1.94676 55.1605 27.4805020704
42.3095 1.35882 52.9566 30.6778038584
48.3996 3.2797 53.9219 29.4723293652
46.5045 1.11665 53.8057 29.0319356484
37.5566 5.26366 55.2395 32.8348558422
38.3007 6.21965 52.5113 28.2536988174
44.0223 4.47262 54.4068 29.3651625081
41.6625 7.82343 55.6008 33.4492707091
41.9949 4.8322 56.033 33.711728427
45.6944 6.67693 55.3497 33.2965835084
48.2164 6.32774 53.6481 31.9049944622
39.8762 8.99629 53.8309 36.4974425313
37.6494 11.9188 55.3467 28.842921597
38.4104 9.54189 56.4386 30.460861644
44.02 8.87743 54.9145 31.2571903056
43.9386 9.15981 52.2872 32.6824112658
47.8268 11.38 56.3136 30.2051944787
48.1989 10.8364 52.3788 34.4768016882
40.6966 13.7244 6.84807 28.6583542767
39.0559 14.2011 4.58955 34.9249131783
41.7723 15.4374 4.07136 32.4012732069
47.3269 14.0004 7.21246 33.2950830584
48.9285 13.1003 5.29499 27.9228668148
38.2167 17.3821 5.20478 28.6245629249
39.499 17.4642 7.59552 35.783232445
39.5396 19.569 3.71252 31.025925094
41.8827 17.2212 6.16382 30.5656233306
42.2083 20.1262 5.31743 32.2489619453
44.4633 16.7331 7.479 31.6506035496
49.1151 17.5923 6.84228 30.6734696133
45.3648 19.2447 5.28951 32.4135255219
46.8455 16.423 5.73594 30.0648861729
38.1277 21.841 4.43686 27.0857980369
39.6924 24.095 4.15596 27.8130266428
39.2042 23.4608 7.12164 30.1044678192
44.8446 23.6472 5.24162 30.5704468706
43.3051 21.9219 7.51966 31.4002153264
42.3312 22.698 4.27615 28.1747887107
46.6533 21.6355 6.79474 29.6920426503
48.9455 23.0923 6.04407 28.0690077422
38.0936 14.8665 8.13447 31.1139410972
37.6321 12.7942 9.90025 26.6605940933
39.3426 15.4508 10.906 30.4061328593
43.1841 14.3681 8.57813 37.4379910455
42.0036 14.6268 11.1359 31.1163247446
47.7536 14.8476 11.7216 34.9485696619
49.039 14.0739 9.40661 32.0676958015
45.3254 12.2742 8.30481 37.4324502258
39.9011 18.4652 10.4414 32.3360931209
44.9945 18.3654 9.43998 31.3715443534
42.4519 19.5597 9.44222 34.823892232
48.7369 20.0901 10.4569 31.8934195711
47.4043 19.1087 8.48562 31.484054029
45.5354 16.8493 11.9685 38.0906204571
40.2657 23.1459 11.0333 29.3865668509
37.8214 22.5365 8.97271 25.686345016
38.3277 21.0277 11.1699 28.6137846416
41.6145 23.9227 8.66745 32.4851620514
42.2372 21.0689 11.6996 33.1389734153
44.8672 24.3244 11.8331 32.3967238881
48.3735 23.0554 9.45115 31.3991074979
45.6048 23.3411 9.43018 30.1351337564
38.3565 14.5775 14.0191 30.6412570859
39.061 13.1469 16.7479 29.5841362729
38.8298 12.4636 12.4328 27.4209858817
43.2658 12.5524 15.5995 36.2086868877
42.3428 15.4487 15.4507 32.9435709701
49.1631 16.3209 16.4304 27.1445646757
47.4627 12.475 13.0143 32.7326793934
48.2911 12.6471 15.7849 30.8408915997
46.6581 14.774 16.5289 35.9487780992
38.2966 17.2441 12.9805 29.0942250529
39.3871 18.2617 15.7192 28.0922267476
43.113 18.9712 15.8189 27.5632885777
45.0354 20.292 14.9668 26.8179994791
42.8393 16.3884 12.882 31.5202809395
41.3176 18.5936 13.2354 27.9430101449
48.8249 18.5278 14.1582 29.4668992302
46.6529 18.2077 16.4549 29.5742594956
46.5562 19.2788 12.5233 29.3523177637
38.3881 21.4726 13.8885 29.6013326724
40.8794 21.0803 15.136 27.7192847733
38.0376 24.3609 14.518 28.2885109765
40.9185 24.0602 13.6082 27.7822788779
44.4112 23.1512 16.6788 26.9102292588
43.4668 22.6328 14.0205 27.8490803898
47.3436 22.5919 15.2965 32.8629302192
46.8155 22.1287 12.4585 29.5992304791
39.0515 15.5638 19.9162 31.343937572
39.9291 15.7558 16.9799 32.76896869
47.1687 14.9911 19.1728 33.7546565023
37.1161 16.9004 21.0698 27.7295139231
40.6865 17.6946 19.6071 30.8009648996
44.2999 16.772 17.1138 33.5549727633
43.7452 18.5019 19.4603 27.5091822169
49.0486 18.81 18.6996 31.626545816
45.8034 16.8556 20.9656 34.105251254
38.8452 23.1839 18.8654 29.9561828414
39.5397 20.5781 17.7766 29.0509307034
44.9846 21.8477 18.9702 26.3539654835
42.3921 20.66 18.2883 26.8963109253
41.7205 23.3369 18.5486 28.5809247142
46.9883 20.8308 17.6295 31.3673322739
48.153 24.5046 19.8181 28.3875847518
45.4029 23.8313 21.154 28.7302450618
39.7405 13.5266 21.6218 30.8959690168
38.7002 13.8277 24.1746 80.1184003123
42.6358 13.7595 21.8145 36.4365560051
43.6011 14.9254 24.4923 113.1854913715
46.1027 16.0746 23.7361 37.5977543939
48.4462 12.3795 24.5249 106.3552007958
48.4222 15.2531 24.444 79.4169922856
39.2182 19.6109 21.2979 28.4823118278
37.587 16.5014 23.6638 41.9120436333
39.8209 18.5066 23.548 39.4538265496
42.6384 16.5523 21.4005 31.1831052525
42.2007 17.7645 23.8951 66.2888780009
43.703 20.298 23.2155 29.2585920955
45.4868 19.9913 21.2751 28.008371399
48.319 19.8071 21.4545 27.8851110152
45.623 18.7967 24.4848 96.9908155864
48.2365 20.1572 24.1792 64.797776836
38.9137 24.1523 21.6546 30.3817533582
39.5458 23.7922 24.3992 91.2410982488
39.4874 21.0902 24.5384 94.6841943811
42.5945 24.0819 21.271 27.7700982752
41.1377 21.6452 22.2453 30.3463220563
44.0512 22.6044 24.677 117.544485117
48.7511 22.7856 23.9861 67.530128526
46.204 23.8626 23.7392 41.7067003688
38.2876 15.4516 35.8441 78.7301299547
37.8936 15.3317 38.8012 27.5439299402
40.8748 13.4813 38.4995 28.265231256
44.5437 12.3491 35.3429 97.8428022219
41.3259 14.6634 36.0091 53.0856914321
44.2607 15.6331 38.5296 29.8381989732
44.1919 15.2009 35.83 55.6228871495
48.356 15.2868 36.5951 30.8930443269
47.1868 12.857 35.6103 72.4629104427
40.7407 20.2911 35.678 97.6802402202
42.2473 17.9176 35.6877 90.4227536755
42.4716 17.968 38.6875 29.8059743249
44.5867 19.5599 36.4045 42.8809521195
46.2959 17.2915 38.6471 30.1035053958
49.0289 18.5597 35.7064 79.7045111602
46.4009 17.1791 35.718 81.8546586475
37.699 20.5036 36.5505 36.7655574651
38.6434 23.5734 36.2644 48.8069566491
40.5106 20.9486 38.6409 27.9117721485
42.9675 22.0021 36.1892 49.3123962991
41.3485 24.4157 35.7204 89.7485242218
45.7943 21.7089 38.4881 28.4497439386
46.3699 22.3979 35.7383 83.4323529358
48.9085 21.5162 35.5707 86.2581740729
38.8169 15.2022 43.0189 31.2642816746
41.8806 15.0103 41.8374 28.7213636519
43.501 13.4797 40.1672 33.5654056298
48.5315 15.3913 39.5836 25.3651207841
46.6839 13.4474 40.211 32.7603726409
47.5066 12.7616 42.781 34.43595925
40.2041 16.5158 39.5637 30.2787979955
37.9233 19.9238 39.2435 28.8366633043
38.9999 17.9078 41.5881 29.7026156195
40.8241 20.2738 41.7592 29.0086772104
43.2618 20.0003 40.3506 27.4334198156
48.8782 16.771 41.9556 28.4751296334
45.9106 19.4377 40.5542 29.1123454396
45.8161 16.9597 42.8366 31.3594964089
48.6702 19.8874 41.6442 29.0932811106
36.9996 22.4006 40.2804 29.9888233763
39.705 23.9805 38.9167 26.7581654293
38.7052 22.4102 42.371 28.9977316978
43.1281 22.4633 38.951 26.3321173402
44.545 21.9816 42.8571 32.1881370244
41.2994 23.3212 41.3428 29.5272656773
48.1067 22.2198 39.9233 28.1745813349
46.9396 23.2205 42.2836 25.6846111878
44.3785 14.8007 45.5503 30.6434805717
41.2015 13.1025 43.5541 27.0630348509
41.3248 14.1826 46.483 27.7407789357
46.2312 12.8854 46.9794 30.2985166209
47.1057 14.9942 44.2757 28.6381253536
49.1872 13.6389 46.0567 30.0390451675
39.6975 16.4355 45.2793 28.3437431041
37.7593 18.5072 45.0812 41.2972762677
39.978 20.246 44.4966 29.1110818022
44.2633 19.8504 44.6865 30.855852958
43.1827 16.4748 43.4887 31.1603822865
41.7259 18.3698 45.2139 28.5450946777
47.5709 18.1672 47.392 32.7451039385
46.7959 18.9403 44.7062 30.6207977133
37.0601 23.7497 44.3961 31.3542672317
40.6632 22.4042 45.988 32.8069372045
37.9328 23.4362 46.9783 30.434732071
44.2022 21.2851 47.0202 28.9211896892
43.1366 23.5421 45.4848 30.7155130755
47.7471 22.4718 46.7678 32.3717550358
48.1865 21.178 44.2477 27.4081714377
39.1276 15.1425 48.2538 30.7954362913
39.7873 13.7196 50.4591 30.3770247907
42.0799 15.7743 51.385 29.2990557722
42.5851 13.861 49.1794 29.4536517594
45.3065 13.9953 50.3151 27.9493255059
46.6839 16.0911 51.7928 31.3648842639
45.6755 16.0732 48.0719 33.9586097961
38.4684 17.7225 48.9951 31.3642154299
39.8388 17.8308 51.3212 29.2746110109
43.5456 17.1637 49.3867 29.497146521
41.2878 18.3916 48.1008 32.0492274275
44.0054 19.8382 50.263 27.6441120782
48.7007 19.0592 49.8559 29.4256544574
39.5073 22.7404 49.3833 32.1687813203
39.9566 20.7614 51.7843 27.668889477
37.3458 21.0983 51.3635 29.3546056938
41.8144 21.2646 48.2387 26.3596924044
43.8502 23.7987 51.5193 28.9734930227
42.6223 24.1521 48.8985 29.9723740243
46.1525 20.9487 48.7722 28.4930005341
46.5519 23.2595 50.5962 30.0677911224
49.1152 24.356 50.6961 27.8502673331
40.4601 12.7946 54.9921 34.9289087977
37.9547 13.6153 52.7024 36.7787036358
44.0796 13.6792 55.7699 30.5522097535
42.4788 13.7395 53.3564 31.1365760582
46.2338 12.3555 54.0162 27.7370727687
47.4134 14.7796 53.9424 30.9286548697
45.6592 16.089 55.7552 33.4936771893
40.5342 18.7234 54.0547 30.5834270103
37.6404 16.4833 53.0186 33.1534375369
42.6518 20.358 54.9571 26.6542316657
42.7607 16.885 54.3816 31.2455651408
44.8268 18.7432 54.8887 27.3892142641
45.4292 18.4929 52.0811 28.7684059094
47.9257 19.7068 52.2796 27.5098159136
39.1862 22.13 54.3026 30.8745155474
41.9682 23.6032 54.2039 29.2435022832
45.0966 22.9136 55.2053 31.1051945776
42.789 21.3397 52.1342 28.9770309333
47.4421 22.1621 53.211 31.8316189097
46.9111 20.5658 56.1146 31.5556179172
37.9393 25.8132 6.65435 29.2387723776
39.5495 28.2246 6.53089 31.4590861275
38.7303 28.1114 3.82666 29.2334360009
41.6457 26.8122 7.78362 33.1539597711
44.1746 28.2156 4.57851 31.3469367531
44.0893 28.0017 7.54854 31.730659119
47.4097 25.4625 5.97524 28.637186472
49.0453 26.9505 7.73971 28.7880090388
38.5344 31.4433 7.12633 30.5710487169
41.8956 29.7251 5.47161 29.0565087739
42.911 32.2046 4.6404 29.8138900423
46.2318 29.9378 3.78184 33.2893692045
47.0765 31.4701 5.9532 34.0270806314
38.7361 32.8608 4.6092 30.7251870962
39.6216 35.4638 3.75993 30.739445126
37.8513 34.5812 7.43168 29.6764914424
37.2786 36.3102 4.94189 30.3895686592
42.0553 34.5268 6.16478 30.2832418081
44.5985 33.2346 6.86946 27.1381130576
44.8716 35.7673 4.85062 30.7374118914
47.2915 34.1671 5.18158 32.3635028855
40.5044 26.8488 10.137 29.8331698807
37.7477 26.4411 9.8645 29.4865513559
42.5427 26.0314 12.1209 36.0519964801
47.1428 26.5119 12.0927 33.2186169715
46.8563 27.7889 9.63286 28.151787566
45.7187 25.69 8.01781 29.8483946992
40.3257 31.6108 9.18279 32.2498934603
40.4121 29.5569 11.2386 34.39362884
43.1873 31.1495 8.13556 32.7384904063
44.8694 30.0964 12.285 30.0855966957
47.0476 31.8287 9.2527 27.8370697276
45.129 29.9952 9.63164 27.7324499651
49.0825 29.6863 10.2693 28.3385487999
48.6033 31.9207 12.3426 30.9009445499
40.5412 34.4904 8.37477 26.7343507178
38.0723 35.8989 10.9745 29.3560554854
39.0047 33.1594 11.8065 30.3952266774
42.3987 34.9587 10.2976 33.1896194351
45.9307 32.8313 12.1671 28.5287295212
45.2405 34.2962 9.58936 33.303678829
37.2032 26.1747 12.7323 33.1722061794
42.5973 27.3055 14.6909 33.6457375082
41.6826 25.2014 16.3343 29.4569447268
45.1836 27.9195 15.7431 27.7183904688
46.5545 28.4222 13.7909 29.7164296349
38.164 29.8116 16.2408 32.7948370133
38.2034 29.0132 13.0749 38.2598395987
41.3809 29.9016 15.9295 29.9790608215
42.3101 30.6772 12.9496 31.7643809019
44.1465 30.6627 16.1789 30.0924760978
38.4781 33.6549 14.5959 33.9577461564
40.7198 35.3686 14.702 31.7934979326
37.0489 36.1431 14.8317 27.3104759605
44.856 34.6908 16.642 30.9770138322
44.3156 32.7983 14.4819 31.9115193993
41.9239 33.7248 12.8659 32.3553369055
47.3866 35.2489 12.9957 32.0016698208
49.0453 35.3425 15.45 26.3998020854
40.8618 27.9107 17.7844 29.9737177545
38.2091 28.1308 18.3159 28.8644188416
38.7061 25.1527 16.9252 30.2502490987
44.4035 26.1786 19.3812 29.3238785335
42.3391 27.8935 19.8676 32.7368507885
46.4937 27.3577 20.8153 26.9950089435
46.0562 25.4435 17.0718 30.9483493551
48.7923 25.3718 17.3998 27.5533083001
49.1093 28.0294 16.8829 27.9105911635
37.2685 29.8176 20.3784 27.7445005768
38.7513 32.309 17.1475 30.3462274492
41.5733 32.0282 18.058 34.0374452122
44.8065 31.2611 18.7227 27.5633913635
43.5182 30.3983 21.1301 31.7421676956
46.5316 28.8046 18.2036 27.4131707148
48.2524 30.6668 18.8417 29.1195737238
37.961 34.9006 18.9113 32.7166778017
40.3085 36.122 19.5063 29.0657730091
42.6654 34.878 20.8974 32.0114279774
42.2468 34.7508 17.4241 32.8402643522
46.5492 33.2905 18.4448 27.2079177279
45.7549 34.3643 20.8042 29.380307128
46.9056 36.6679 16.8645 37.4848040736
49.2072 35.1301 20.2181 29.4304693092
37.952 27.6611 21.8649 29.5995833556
40.7552 26.4534 21.6422 29.0419720179
40.6308 27.8233 24.0506 65.3480717037
43.6433 27.2721 24.4688 91.2679786931
42.2188 24.6603 24.2035 50.6215596309
49.0906 26.4653 21.4051 27.1015233618
46.5751 26.6703 23.6953 45.5784676311
38.8862 31.5843 21.9073 32.0088131217
37.0693 28.8273 24.2642 95.522388923
39.4537 30.4388 24.2797 78.4102388242
41.8287 32.4839 24.1578 59.7929306489
43.7938 30.1132 24.4297 77.8681943517
41.4822 32.3095 21.4575 29.7010499491
48.2116 32.6571 21.6639 26.2823933633
46.4963 30.0391 21.5786 28.085840242
46.3651 30.7543 24.369 93.9786363623
37.5306 34.0632 21.659 28.2798092487
39.2304 34.2244 24.5792 88.5307093338
39.3349 36.3673 22.2422 28.8819991178
43.0125 35.129 24.027 56.6535084113
47.7657 34.549 23.7588 55.5563880389
45.3381 33.4484 23.455 38.7829210234
42.2366 25.4666 38.0401 28.4086110988
42.282 27.2407 35.564 102.1429082695
45.0761 27.797 35.663 65.6446983542
45.4788 28.0084 38.3452 26.1489405472
49.0588 25.7008 35.9828 53.3335986087
46.3516 25.3341 35.9238 66.5975890472
38.2371 29.6811 35.8558 101.9990023876
40.8818 29.509 36.4463 40.8001585809
38.9339 29.2446 38.7059 26.7323171908
42.1189 32.1616 36.329 60.5882539987
44.9189 32.5901 35.5359 91.5408396987
46.204 31.9405 38.2832 26.2516666217
46.3147 30.1261 35.3868 84.1686550551
49.1203 30.2282 35.5635 64.3104198119
47.7547 29.7246 38.2478 27.2641291474
38.0886 34.4784 35.7124 93.92007497
40.7783 34.6127 36.2413 55.057333852
38.0465 36.4706 38.3955 30.4703678809
42.6165 36.5065 36.1868 69.4946956627
48.5026 35.1206 36.1276 58.3607386758
45.5919 34.9599 38.3978 27.8290237393
45.4648 35.183 35.6821 82.5678838383
39.261 26.4952 39.9838 29.9671727797
39.3226 25.5386 42.6941 30.1458890379
42.0099 28.0225 39.0211 29.0569618986
43.291 24.9952 42.9488 32.3862134796
45.8885 25.5937 41.6587 27.4727453109
47.7406 27.8541 40.9379 27.3967035112
45.2703 25.3492 38.895 32.4779546636
49.2037 25.3576 41.6776 25.6751566343
39.8622 30.4933 40.8918 27.8471035804
37.0275 31.6195 38.971 31.786104486
41.6845 32.0022 39.5723 29.1501707916
42.283 28.9269 41.8566 29.975832378
44.1238 30.303 38.9963 27.9842588407
47.3194 31.4363 40.9285 25.4410104616
45.3482 29.4542 41.5639 27.6816674736
40.1942 34.7926 38.8572 28.4198645254
38.3372 33.4086 40.7883 33.9284696882
42.4922 33.6373 41.3442 31.5502312394
41.7759 36.344 40.8196 30.848536248
45.9975 35.9952 42.6183 28.0244555378
45.1551 33.8034 41.3628 27.4394888356
48.2511 35.1651 39.3725 27.8614728561
48.83 35.0879 42.1721 29.6318669015
39.7976 27.864 45.8104 29.4438191121
37.9784 26.2684 47.3562 29.8703973137
38.1655 27.9443 43.2476 30.4507280347
42.6632 28.0457 46.5774 27.7684263203
43.9666 25.8378 46.9959 31.4547701444
41.5581 26.9537 43.6375 28.9968426601
46.7499 27.7046 43.8319 29.4203802616
47.5866 24.9809 44.6306 30.3015441583
48.7826 25.5402 47.228 31.0309980699
39.597 30.6542 45.3634 28.9030987876
38.0906 32.2053 43.2627 30.2604640334
44.8016 29.1642 45.0729 31.2976201922
44.8784 31.8772 43.604 27.7456241024
41.3202 32.5384 46.6893 32.1910912155
41.7422 31.4657 43.3219 32.4081216405
46.1378 30.2574 47.3024 31.0863032262
39.6053 34.6863 46.7973 35.9357396849
37.7849 34.9917 44.5439 39.5476015931
43.8621 33.3892 45.6774 30.7391104217
44.0811 35.9333 44.9351 30.4008087733
47.7904 32.7158 43.4583 32.1016243916
45.8809 33.0193 47.4921 31.9175582255
48.284 34.7138 46.7924 30.1423230405
39.6045 25.3368 49.7278 27.8523505992
43.0256 26.3508 51.4441 27.6244421341
41.5753 27.2391 49.2434 25.9395262375
46.3147 27.8748 50.1829 29.8974815575
46.2681 25.4687 48.7057 31.2099902695
48.8978 26.9898 51.1585 28.717268119
38.3037 30.3212 47.6883 27.9018464785
39.9222 29.4315 49.6035 28.2944286637
38.4458 29.8016 51.9374 30.4755564475
41.1203 31.9342 49.4713 29.8416697698
44.0736 29.3884 48.8123 30.1350486862
44.103 31.9086 50.2264 29.9278319122
48.5267 29.6786 48.6345 30.2661555641
39.8611 34.1432 51.326 28.901270016
38.5768 36.5806 50.8621 34.0008193139
38.4638 33.1047 48.6715 31.7108377809
42.6721 34.3167 51.4952 30.2683026486
44.0076 36.0427 50.0106 32.2386277296
46.2753 34.2201 50.3207 29.9232935262
48.735 35.3905 49.5977 29.6474398978
37.494 25.4919 55.6849 26.4530968047
40.5979 26.5956 52.6372 27.9336087908
37.8486 25.6595 52.1473 28.1384805922
41.1117 26.1934 55.3189 27.9742717004
43.6 25.8533 56.2981 29.2036745628
45.1187 27.94 52.5447 34.2713050603
47.6327 26.8499 56.3305 33.0416904681
45.803 25.9388 54.5795 35.2442063027
40.6445 31.9451 55.3351 27.987516146
38.6548 32.3043 53.301 29.0282704862
41.2213 29.3546 55.4386 28.8053206941
41.2677 29.3617 52.6737 28.1103285662
43.7405 30.3538 52.5091 29.1203865475
44.5078 31.7249 54.873 31.7969688373
48.5499 31.8219 52.818 35.2117601135
48.8712 29.5712 55.1975 33.7686656476
39.5754 36.1718 53.8639 29.9171402555
42.5947 33.9551 54.2122 29.1160061677
43.8982 36.1165 54.9779 27.1953925398
46.3182 35.6915 53.8647 29.9999810452
48.5927 35.1733 55.8174 30.2514704669
46.1368 32.9613 52.8834 29.3550367567
40.6968 40.7848 4.03709 32.1005730716
40.5793 39.0974 6.17137 29.0255186902
37.9059 38.8716 5.73368 28.4116987781
44.4235 40.5184 5.60096 29.1338915842
41.8508 36.9327 4.8803 30.5616416411
46.1097 38.1294 5.65778 30.5321883925
47.9146 37.7356 7.26957 25.5545979293
38.2121 42.9187 7.95155 29.388816711
39.3141 43.8076 5.00532 29.1468412334
41.2203 42.9477 7.46894 29.8303460424
42.6354 42.9298 5.02096 29.8536559422
44.6039 44.7294 4.0501 31.3806230057
48.192 42.0014 4.33058 32.1609509949
47.5763 42.3392 7.23316 31.0720011312
40.2061 46.4033 5.69446 33.9316189444
38.31 48.4278 6.44244 30.9117069009
42.5802 47.077 3.76918 29.9605532468
41.7691 46.7899 7.78543 34.1987161057
44.5719 48.699 5.22197 28.8143142449
46.1023 46.3688 5.70872 32.9158760792
48.7767 46.6227 4.24855 31.6952675298
37.3378 40.0703 12.0653 30.8685985979
40.7545 39.7791 8.84317 29.3625851307
39.3019 37.217 8.8621 29.7617757134
44.6114 39.319 10.0192 30.7106772768
42.0539 37.6505 10.3482 32.3369912708
46.9377 40.2262 8.74215 27.648096021
48.5241 40.8246 11.0074 29.2601122975
46.3948 36.9291 9.4651 34.3293657048
48.3785 37.2152 11.4304 28.9778885298
40.6275 42.8017 11.8027 29.2766024998
38.8325 41.5762 10.2324 30.0095854568
43.4057 41.0625 8.1429 28.4152564444
42.2302 44.5303 10.0001 28.0203449277
45.0163 43.3571 8.75956 30.5114382057
48.8864 44.8653 8.56857 30.0272696761
45.184 42.9592 11.6062 29.7254004757
48.1158 43.3576 12.3917 30.4146346944
37.4339 45.3059 9.44493 34.3184506
40.7968 48.8268 12.1879 31.4895508882
39.9308 46.2733 10.3732 29.6383816771
39.9404 49.013 8.97942 30.1405840387
43.6891 45.2672 12.0824 29.6026646433
46.2315 45.7547 8.3847 33.142671305
45.5453 47.0832 10.9702 35.0786198141
38.6499 37.6892 13.0582 30.8404504161
38.4548 40.67 16.3971 32.922708412
44.5214 40.486 12.5537 31.9571468801
41.3387 38.2245 12.892 29.2031561004
42.6198 37.4974 15.2495 32.499734011
46.3277 39.5934 14.4231 31.0263161969
48.6896 39.21 13.2393 27.8678301913
45.4101 37.0829 14.2247 34.5102211764
36.9984 44.8736 16.1541 32.2849493585
40.9683 41.7244 15.677 32.9194905752
39.4482 44.8809 12.8555 29.6950464302
41.9711 44.5087 16.2238 35.7695347083
41.6674 40.9353 13.1773 31.1794581413
46.2459 44.3709 14.2559 32.4845943305
47.0295 42.8058 16.4293 30.4526741468
37.1609 48.1969 14.0791 32.4780898957
39.4428 46.0213 15.7193 26.6337366184
39.887 48.8821 15.1281 27.4313904233
41.6601 46.5402 13.5959 26.1777163908
43.7997 47.1766 15.5953 31.6390395117
47.9412 47.1332 12.6161 29.7663923306
46.8249 46.834 15.2518 29.7123878283
38.2227 39.3881 18.7208 31.668965343
37.2703 37.1078 17.3607 31.5082324344
41.0932 38.7106 18.8968 32.455105405
43.0336 39.5538 20.7857 29.5862888366
42.7106 39.7958 16.8244 32.9533966068
47.1181 39.9244 17.5143 31.2258003601
48.3776 39.5965 20.0513 27.9696512523
39.5345 42.9345 19.8385 33.4981774385
37.2792 42.6596 17.9254 30.4922368767
45.083 41.9583 21.2237 29.357665956
44.715 41.0148 18.2946 33.3754450558
42.1698 43.2323 18.6602 34.3218585556
48.6429 43.8804 20.0674 27.9195929948
45.1318 44.7555 20.8358 29.0548664465
39.6252 46.8359 18.4174 29.5488923657
37.4928 47.1569 20.1137 27.5933193291
42.0149 46.1093 19.8171 28.2501873655
44.2346 46.7248 18.3059 28.9485396436
46.725 45.0337 18.2156 30.733464476
47.6201 48.7918 20.252 31.1604062916
38.1274 38.7369 21.894 30.2012631075
40.7843 36.8826 24.4961 97.3932822704
37.1999 39.2334 24.3015 71.8848354886
40.1454 40.7052 21.5849 31.1458449499
44.3386 37.5376 24.2457 72.0296522981
42.3935 39.3154 23.6513 40.3389380262
44.6529 37.4386 21.4784 34.8370901117
47.5831 37.2249 21.3012 30.5369658883
48.2149 37.3207 24.2411 65.6379412298
46.2076 39.8622 24.595 97.3104967679
37.2931 41.7367 24.6114 98.5425650201
40.4766 41.9988 24.0885 61.8919513191
38.0645 44.7687 21.3678 31.0962582906
38.829 44.6626 24.0469 53.7841016126
44.1241 41.491 23.661 34.4041497781
42.8111 43.6412 24.6116 112.2705938387
47.7341 41.5362 21.3948 28.9135703966
47.7103 44.7103 24.4883 96.2220036993
48.4846 41.6616 24.1505 54.3278016001
37.0417 46.8823 24.479 96.996002468
40.6583 46.8057 23.9819 65.1296744867
43.055 45.7106 22.6659 30.0397682424
41.5662 48.2763 21.3837 29.8058819499
47.3669 45.5203 21.9031 26.365736273
45.1585 46.8016 24.3662 87.5568542518
47.149 48.2093 23.1627 29.9057458094
37.4337 40.0826 35.7359 95.3341927357
37.2558 37.3187 35.685 88.9079666479
43.0515 39.3937 36.2505 37.10679893
43.5335 36.8822 38.7302 26.294507637
45.536 39.5916 35.3306 94.3421142365
46.856 37.8168 36.8108 29.6235708523
39.7371 41.642 36.504 33.917135012
39.005 44.4023 36.2432 55.6955655978
41.9633 41.5916 35.2434 127.2947427209
