19.2489 11.1771 19.1454 28.5655220778
17.368 3.90994 20.9261 27.5047624898
18.8516 11.3456 24.1275 72.2429425683
18.1328 0.958262 21.819 29.1593940599
22.9611 4.40486 24.2327 77.7483856836
24.34 0.376041 17.0217 33.1407098569
21.1056 9.43345 17.0429 26.4877959883
20.2754 3.91877 20.7927 28.4843021861
15.7424 6.39469 20.8773 30.574974381
20.4472 3.7648 23.6212 51.8002269849
15.3072 7.20116 23.5535 32.2801578035
24.5529 5.24565 18.0166 28.7160819315
14.8457 10.5283 21.0308 29.0847029008
13.9285 10.9085 23.8032 46.3015018674
23.6809 1.45219 23.7516 40.6338966772
16.4164 9.82507 24.478 104.2881118905
17.899 10.1833 21.7659 29.7937518497
19.5858 6.29623 23.6791 36.356993011
22.0385 7.55703 24.6006 110.3479470145
23.0613 3.72146 19.8601 28.8643265325
19.4126 7.10772 17.5686 29.6022356728
15.2645 8.64644 17.1525 30.8414935037
23.4745 11.1515 19.3911 28.4683673613
24.2138 4.88202 21.8601 26.6938810172
23.1498 0.935213 19.4836 28.5276293722
17.7446 9.53462 17.0078 31.4642427337
17.9774 3.48956 35.7439 81.8212021066
16.5573 8.25497 43.1208 33.0254337045
16.5291 3.10426 38.9408 29.0943087
15.222 10.5635 38.8753 29.3991440836
20.8062 2.40907 36.1004 55.2258856496
12.9973 11.8484 40.3471 31.7289037788
19.2306 4.57183 38.2866 29.3742440943
14.9594 3.66733 42.5922 27.1737428306
21.9389 1.40454 41.4418 30.6916980349
23.614 0.696249 38.3939 28.8756832977
19.7624 9.05016 40.0489 33.891906875
15.4219 5.31522 35.3652 106.5662071863
13.3098 6.75593 40.542 30.3705879309
13.8872 0.62462 35.9131 72.9905134
23.0287 4.4501 35.9911 62.2642778767
20.2416 5.88414 35.7384 80.2207091246
14.241 6.71401 43.2248 27.2016993039
22.9681 5.47146 38.7406 29.832596804
16.7046 7.91905 35.6694 72.6517771544
15.0711 10.1884 36.0907 48.0910884365
13.2453 2.14375 38.3619 29.7426387986
16.6379 8.4529 40.0124 31.2291247189
19.4315 8.64282 35.6774 84.0780740058
22.1014 9.82813 35.7456 71.0260053177
21.3665 7.8781 38.211 31.3671896775
14.603 1.27649 40.8991 27.5831030634
20.9223 9.05052 42.5013 33.5803706095
19.1487 4.99342 42.359 31.3289993201
16.7417 5.02399 41.026 28.9328581492
12.8162 5.22636 36.0273 50.9719319601
15.2284 10.6857 42.9156 32.955905805
14.2202 4.96103 38.4188 29.344595541
20.8705 1.94967 38.8857 29.0427696793
23.756 11.6527 39.2512 31.8918268161
16.8261 1.09109 36.6002 34.4665392819
16.9798 6.63011 38.1199 29.2154387271
24.2613 4.39939 41.3732 33.5903174477
21.26 4.37967 41.0147 32.8350623904
17.1814 0.292875 42.2589 29.8654120615
24.2222 8.92915 38.3835 28.3635455146
23.7736 8.67955 42.6979 33.54231841
19.1386 11.7273 39.9751 33.7057046464
12.5086 8.86669 38.5031 32.3192527707
12.1808 9.67167 35.6333 114.346654113
19.8028 0.620909 43.1315 31.6145084985
13.7613 5.41281 47.8935 25.8687719648
15.2194 5.26612 45.5718 28.4961625909
24.6576 3.31643 49.5025 27.8988253771
18.1098 3.18778 48.4934 31.288408711
24.4011 8.25994 45.2335 33.6140216862
13.262 1.32981 48.9188 30.9912821473
23.5924 1.90499 45.4146 31.4621707203
14.8664 7.74347 49.4259 29.7617186528
17.4047 3.49028 45.7926 30.6640325236
17.2489 7.30696 45.9983 31.6335206374
16.1547 1.53697 44.6072 27.2297258853
21.7521 4.0422 45.9157 34.584237021
21.6117 6.94382 46.1494 34.3935249224
19.8136 3.17403 44.3702 30.6731762116
13.8196 10.3842 45.0446 27.8190799069
15.4506 12.5509 54.0936 27.8298467093
20.2423 9.95468 48.6159 34.1736561486
24.3194 10.8117 46.0135 27.4268333798
17.0029 9.85016 53.9376 28.0053133479
23.5189 10.2444 53.9141 29.4969468878
22.2798 0.576114 52.9981 28.7524938135
19.1046 3.84973 52.6193 35.190037573
21.9008 3.26967 53.2477 30.3655294044
14.2658 2.09111 53.246 29.2546148722
17.7864 0.41847 49.1306 29.2585634972
21.3018 11.5253 43.7631 34.4901297714
20.9602 3.55091 48.3971 29.5837305474
13.3689 7.26768 53.4407 27.6380134355
19.4725 7.20249 44.056 32.8020636218
12.5766 9.61783 50.7532 32.3544809239
15.2821 9.21818 47.2172 30.439593203
17.0634 8.10525 50.9768 26.0257108347
18.7029 5.84016 50.5865 27.5867766764
19.278 7.38456 48.0252 30.3136343695
20.4704 8.00303 51.4443 29.5585662869
23.1939 8.07582 52.3007 30.5095236769
22.7105 1.24547 55.9095 26.9094269788
16.6255 10.9528 51.0293 32.1457219563
17.3374 10.7161 48.1706 32.3731798619
19.649 7.64952 54.8689 30.7853560821
20.231 10.3054 54.1671 31.0466225604
19.3266 10.8291 51.6071 29.2830375476
13.975 4.4539 52.1011 29.6985748247
22.137 6.69248 55.9096 31.5440599887
15.8926 4.60903 49.815 31.1891686217
21.9013 0.896433 48.73 33.2386622451
21.6831 11.5679 46.8611 37.0249083337
17.5809 5.39847 54.5061 29.1452651996
13.742 0.946881 44.6415 29.9098763976
18.0991 0.994528 52.3889 35.6696300639
13.0854 10.1919 53.7895 30.988767034
16.0306 7.26484 53.3669 27.2469764058
24.3628 4.94768 52.9308 28.7028425782
12.4338 3.57715 44.8645 30.2887940216
15.1532 4.41048 55.1689 31.429560133
16.2472 0.834015 54.9427 29.8857780831
22.3341 7.33618 48.9812 31.6785435564
15.4806 1.59203 50.6453 27.292703775
22.3562 4.62383 50.4592 29.5179196957
24.2276 0.839137 50.8898 29.6098190886
13.2297 6.06765 56.0256 31.9903096045
21.5792 3.77433 56.1338 27.5164832284
23.9007 19.3837 16.068 27.7344033213
17.2419 13.0558 5.47942 30.21272544
21.0547 13.6219 15.4403 30.7816932045
24.3893 19.3753 7.04374 31.9985702335
18.9971 15.3924 5.5216 27.6899105573
15.0324 13.9915 7.58279 28.8825895198
24.2439 17.0382 4.62244 29.7661667409
23.4296 17.3458 14.1291 26.4865569936
15.7344 16.7073 8.42563 30.2546821111
14.3702 23.4647 8.30868 33.7452006158
13.3959 19.4026 4.83059 34.5920408916
14.6288 17.1117 5.80307 31.9110176415
18.2365 18.0253 8.30682 33.0740894154
22.5109 21.0205 9.06649 28.2394158932
19.8618 18.1235 5.8834 27.3295060859
20.9173 19.4377 11.0601 29.3612099301
14.36 22.3266 12.1172 33.5109550515
24.0799 20.1514 4.37049 28.6753635334
19.2625 22.1417 7.96517 29.2984592825
19.7075 19.083 13.7914 32.0234182658
21.2026 20.9262 6.14013 27.6838844023
23.1047 22.801 4.74673 29.8265214197
17.0709 14.0604 14.5927 33.0122731393
15.3171 14.7205 10.998 27.9622043974
17.2918 22.4913 4.9023 34.6239988145
17.449 13.4453 9.23858 28.3135058881
19.2874 14.84 8.24101 26.9540289382
24.4684 21.1861 13.8899 28.3117324109
20.6033 14.136 11.9845 29.1236142363
14.4003 18.4265 10.1832 28.007502086
13.3671 16.5729 11.6809 28.2963336321
13.862 18.7817 13.6635 28.8062056012
16.1509 20.2328 11.1535 32.6932217101
19.6521 16.8089 10.4916 26.7116654579
20.79 16.6655 15.147 32.8673462668
23.0654 14.8361 13.1352 25.9442042072
16.5807 16.4496 4.12327 29.1617136552
23.3391 24.3239 7.30438 29.5514553663
22.776 14.7107 6.26647 30.1553553381
18.4187 20.2971 9.75754 33.3244713312
13.1576 14.6817 5.35081 33.6568096167
24.5041 23.4703 9.73258 29.0590704961
14.4051 18.1817 16.359 29.0217230935
14.4532 12.684 12.9084 28.0650352761
17.7662 15.7172 12.4053 30.0830018914
17.0867 23.5406 7.59247 32.002421436
12.422 19.3899 8.65814 34.0333706542
19.665 21.6648 3.96863 29.2845582494
15.407 23.3822 14.4333 34.4897984406
22.1845 17.569 7.21515 26.9938408893
24.6459 20.3482 10.8809 26.4258012444
20.2433 22.0555 14.1529 31.246988003
16.7774 18.3384 13.0525 28.24534507
23.8187 23.6212 12.6132 30.6872563653
22.4119 22.096 15.9592 31.1177376042
21.6955 13.6546 9.13076 31.0105078897
21.0619 23.6918 12.2302 35.2033789799
23.2661 18.181 11.4028 26.8297375085
14.3467 13.3898 15.5322 29.8658108122
22.1655 16.4535 9.47313 23.5409124469
13.0015 24.3876 10.6672 31.266992232
17.3454 21.3328 14.8179 31.5022465699
12.888 21.6521 6.86932 37.169491532
21.0097 23.4055 9.39877 26.7434452014
16.747 18.8295 15.8307 32.1526122118
12.7819 15.92 16.5403 30.0128895742
14.9286 12.5696 4.17504 32.0586850424
24.1144 13.3234 15.3723 28.9086779411
13.361 12.609 9.43393 26.874978544
21.0443 14.4804 3.96596 34.124843935
16.9099 16.0051 16.5491 32.976403651
21.2762 21.1522 24.5734 98.0225708671
14.6915 22.7419 17.2514 31.7808963763
18.7947 13.6372 21.4576 31.082057392
14.3973 22.2205 24.3265 68.8992456801
20.6929 14.936 19.986 31.2162755146
16.4774 12.5221 19.537 33.7591782849
15.4388 18.3518 21.354 33.1850929851
14.6408 14.2828 18.3144 30.2889705309
23.6314 17.2112 18.3869 29.180597027
18.3438 16.5029 18.85 32.3739898149
23.394 14.5596 24.3652 78.0753960172
13.8369 14.4989 21.6274 26.9824720836
18.387 18.1834 21.3682 30.7870039666
20.8743 17.3703 17.9471 26.742692725
21.5767 23.027 21.8253 26.2541544886
19.8878 24.2237 20.0346 27.5432307803
24.6177 22.8031 21.6043 27.8885849632
20.7237 20.0961 17.2527 29.5576954829
14.3616 13.7082 24.4237 92.9081293069
16.5949 15.4286 20.9372 25.7902957909
16.5128 15.4192 23.757 40.0248709552
17.5089 22.49 19.5444 28.9252615324
24.3445 20.2999 20.249 30.0391036456
13.1647 20.267 17.4925 27.3921467614
18.8058 14.0565 24.2391 79.7456636252
14.8067 19.5319 24.2913 77.1380266101
17.3551 18.098 24.2288 86.4224250479
20.2098 18.5881 23.9397 51.6746420876
19.1089 21.2247 21.3795 30.249682169
18.83 22.3001 17.1918 27.7111003501
21.6735 17.7344 21.1179 29.0982961964
16.3328 24.6423 21.1428 27.9377267214
21.1513 15.7154 24.2467 78.7380571808
18.7306 22.4934 24.1978 72.3797701987
14.9387 20.9413 20.0074 32.6562546257
22.9976 22.8159 18.7038 28.2029707901
23.6645 15.0936 21.3317 30.9519928027
21.2933 20.1481 19.9134 27.288828738
13.8544 22.6138 21.7285 26.7132666552
12.7882 16.978 21.3892 28.6260521052
21.3958 12.6114 18.0837 29.15459552
16.2647 24.0332 24.0482 51.2158455339
24.0307 20.9756 24.0868 63.4146555988
21.5403 24.3971 24.3758 80.9608885965
24.5369 14.0399 18.3667 30.0362368466
12.7815 17.5787 24.0846 51.0211589688
13.165 16.7603 40.8021 27.9457569819
15.4387 23.769 38.1552 24.9621191889
16.6575 16.9709 38.4843 30.755636321
16.8823 12.7582 38.6695 32.5200010796
18.9006 13.774 35.8527 75.5378314309
21.4593 12.4575 35.945 51.6859260478
21.3248 13.1072 38.8523 34.9066279711
23.2399 14.3327 35.3526 113.2762241628
17.6884 21.2972 35.9436 66.7405795905
14.526 22.7237 42.4663 29.1658146248
17.4085 21.8057 39.0195 29.911316232
18.0923 16.3915 36.0176 63.5051732351
20.1952 18.2544 35.9986 75.2135700537
22.3868 15.9916 38.8011 27.1564623263
22.5466 16.5933 36.2062 37.7014138758
13.0852 20.4967 38.9293 25.7992176416
21.0144 23.829 38.4508 26.3304738915
21.8022 23.7131 42.4985 31.7613782572
20.6233 24.2747 35.8726 77.9281701516
20.4708 21.0246 36.1678 47.2728261054
19.0302 23.8817 40.9376 28.1330056982
23.4903 20.9022 35.6218 96.106482732
23.0868 20.8999 38.5625 31.620040522
13.5645 14.2749 39.1192 28.4853539447
16.1781 15.0487 40.2507 29.7668614284
19.2533 12.8654 42.6057 35.027743763
16.3096 12.6842 35.6456 94.2778841905
20.2951 21.1781 42.3916 33.4905616012
14.5953 18.9235 41.5717 26.8821001926
24.092 18.2689 39.3691 28.0025290521
14.5207 23.8184 35.7524 75.6757966833
15.2884 19.6724 35.743 74.9624840431
15.522 19.495 38.8611 28.7941449269
20.0912 15.695 42.7643 35.3650175456
20.2845 17.9538 38.894 32.0756517116
24.1424 22.3854 41.1702 32.5145333645
18.6186 17.3001 40.8552 34.3724322023
24.0691 18.0264 41.9258 29.1593835769
20.3902 20.889 39.1754 28.4971206842
17.0591 21.598 42.1707 28.0068291111
22.6073 15.4401 41.6364 31.8682360469
12.6352 21.1604 35.7871 67.6057188387
13.9502 14.2728 36.116 48.9869172425
14.9367 16.7275 35.5616 92.6599890237
12.4561 18.4342 36.0606 45.9862999395
15.311 14.6503 42.9201 29.4866112713
13.5877 22.9847 39.9084 26.174587882
23.6663 23.9866 38.5459 27.0057459837
16.9358 18.7735 42.9625 31.7217519836
18.0014 24.1234 35.699 73.4922478577
12.9187 13.0573 42.7286 32.744008366
13.5282 14.8396 50.5322 28.226419097
13.5558 23.9523 44.8137 29.708989542
21.3397 17.1487 44.7131 32.6735525375
18.276 15.6492 47.8294 33.9473432017
24.5784 22.257 53.4085 29.7673939037
17.818 18.7645 56.1445 31.4604796969
22.7845 13.9357 47.6477 31.8368571576
14.8711 16.8393 44.2704 28.1795217878
22.1559 16.4252 54.7668 26.530231549
16.9454 12.9938 47.0376 34.6333284006
16.0029 23.4874 48.5038 30.1242631149
13.4692 21.8561 54.7106 30.8026005846
12.8948 16.2184 54.1486 33.7534059373
17.5248 17.6853 45.6103 33.4841513189
13.7388 23.0313 52.088 29.4926249654
13.7667 22.3378 47.1592 29.7847808866
22.8781 17.7238 52.145 31.5094248388
16.8375 20.2372 46.6898 29.9376070463
22.6613 23.2725 45.1348 34.0988495451
12.4394 12.5774 46.2013 32.4390083
22.371 20.5062 52.9024 32.1345954022
20.5806 21.4597 45.6317 26.9663604711
16.2069 17.1661 50.1086 28.0469558901
14.22 13.7191 48.0582 32.9283362367
20.5625 13.571 51.438 33.2172333277
18.6926 18.423 48.995 26.9077703424
16.6248 18.2092 52.5643 27.7321422494
20.6129 14.8192 49.0865 32.209833462
23.1498 18.3788 48.1604 31.5396509995
14.0909 19.8382 46.5763 29.5402874268
21.3382 24.0072 55.6329 25.5814522668
14.0542 18.579 49.2637 26.5726697686
17.85 21.1769 49.4433 26.6956702218
20.3827 18.9264 46.7757 29.0252511384
19.3369 17.8675 52.4339 28.3325933841
20.0566 19.8367 54.1735 25.0840802504
22.5337 19.6206 43.8343 30.506262768
21.1447 17.4291 50.0009 28.8463225059
23.4972 15.5103 45.6182 30.2171557321
15.1509 20.9217 50.2416 28.4472812987
23.3349 12.7231 52.0111 36.323486984
12.9886 17.3964 51.4075 30.041516067
23.4273 20.8299 49.1154 33.00696829
20.1366 22.5169 48.3071 30.085863384
16.5835 14.2182 50.1677 30.532594212
21.5538 22.2813 50.6956 29.7956170414
17.118 14.3285 53.0119 29.3860102549
13.066 13.4696 52.8892 29.0554151839
15.9194 16.2324 54.2388 28.2021084718
15.7243 20.5344 55.8377 32.0116485705
19.6301 15.3526 53.5035 32.4674019393
12.64 18.5973 44.4322 26.1003675075
18.0991 22.2522 44.8514 31.7705396786
18.7923 21.8189 52.1253 34.1019258168
16.2563 20.9655 52.828 30.9970927201
23.3998 13.1518 43.5059 29.4120755544
16.7415 12.8363 44.0882 35.9087661363
13.753 16.3155 46.9562 33.7750266459
14.559 24.335 55.1836 32.1197544298
19.174 24.2914 54.0138 33.8317576439
17.6484 24.4915 46.4768 28.1253057367
21.5441 18.6358 56.0342 27.5538503674
24.206 15.0981 53.3722 33.2650467677
12.2778 22.9775 49.4812 30.995133361
14.5988 25.7628 6.82895 29.0902673629
20.3747 26.0107 13.743 34.7929716155
12.9948 35.6511 9.60168 28.2431200803
14.7418 28.1329 11.5859 30.6839831851
13.5029 25.4643 13.6484 30.0016910017
18.5865 25.7576 8.63582 38.3072345242
13.8421 30.0814 5.96038 25.0929294449
24.5686 25.8196 14.001 29.8183680761
12.1336 26.7015 16.5578 31.8925732638
23.9899 33.5416 10.8531 30.0855452023
14.4191 31.9917 8.21667 32.0134258472
16.2763 33.7338 5.33523 31.4109534641
22.3144 30.5737 8.56869 31.828322416
13.0589 25.6727 4.59947 31.1984395112
22.2955 32.0632 5.2755 27.9599470498
16.4379 29.0629 5.91003 28.9311057561
14.0199 33.1274 11.1543 31.4029710029
21.3359 35.0921 8.46993 32.026115893
20.9333 36.3243 15.1553 30.5715726776
23.7243 35.1089 14.7936 29.4408934371
18.4141 28.1063 12.4178 30.5580825205
12.3157 33.8489 7.07799 26.662271301
14.2137 33.6927 15.8638 27.6118119366
21.1972 29.3713 13.7297 28.415655585
22.5855 27.0306 15.3491 32.5025015006
21.2579 27.5992 11.1317 28.8629848854
21.3807 26.0938 8.82468 29.9269335148
17.0084 32.9664 7.79964 30.7448681357
17.2412 28.1326 9.57176 31.8577885396
14.3378 31.0435 15.2788 30.1528995812
20.6114 30.0666 6.27108 28.3753707831
23.3737 29.356 11.3526 27.5599713122
19.7554 30.0423 10.6015 27.6261097669
15.526 30.8863 12.3354 32.0355275844
21.6735 27.1655 6.11261 30.6302730357
18.2147 30.1807 7.81394 30.4889507709
16.6762 25.853 16.126 32.4654264942
23.7202 33.3299 7.92955 30.5294704422
14.2942 34.8611 13.4255 30.9976231285
14.2086 27.9258 8.53817 29.8200075388
19.6729 32.9553 5.99047 30.200840419
17.0718 35.4912 9.13818 35.33282748
17.1218 34.4746 13.6592 27.7196964706
21.0504 32.691 10.9841 29.4672842116
22.298 31.5444 15.4859 28.7587021495
16.2678 29.2879 15.76 31.1028674453
18.865 34.3195 11.1334 28.074614709
20.0018 26.0857 4.33827 30.9565441952
19.3459 24.6451 16.4116 31.4961356153
18.0555 31.7369 12.4796 27.268628204
18.5375 30.5492 14.8741 26.2376812517
16.0002 27.1028 13.7541 31.6036513696
20.7999 33.5938 14.2002 28.6168866942
12.2877 28.4024 13.5545 28.9385467557
18.5235 30.0237 3.92357 27.7182828424
18.3628 33.1421 15.7859 29.4714635351
17.1565 26.3545 6.12832 28.9898948052
13.7908 32.2407 4.36619 32.9598443504
18.5163 36.6098 3.83823 27.6474552319
23.43 36.1616 11.7184 27.628119386
20.2232 35.9417 5.88368 25.8933451669
23.6007 31.5179 13.1559 28.2301152352
22.0627 35.8589 3.72872 27.7764576479
20.5812 36.321 12.2015 26.8319869814
15.7882 36.2254 4.00229 28.2127849448
24.0908 27.9211 24.613 109.2317266885
22.5179 34.5769 23.8905 52.9677467016
20.3891 36.0235 21.6703 29.7342483528
13.4902 30.0943 21.974 28.4962476241
21.3768 27.8069 21.2392 31.1108126986
13.8341 26.977 21.1151 27.8647637169
19.1332 28.5033 19.2522 29.9723006405
20.9917 31.7584 18.9984 26.8015650606
16.9542 35.5859 23.7924 50.3344506151
16.3968 28.2296 18.3483 29.722256476
23.5983 32.3655 24.7604 107.0521927343
15.0262 25.529 18.5077 28.7195447077
22.9803 25.7188 20.6253 26.8081142644
16.0348 35.0367 17.3821 28.9882879358
21.9604 33.9918 21.2178 28.4213267284
12.2355 28.448 18.9273 28.2235324542
14.7307 28.5545 24.5131 119.3344946764
16.7682 28.404 21.7436 27.1280930797
23.6899 31.9482 17.9289 31.2819507825
18.5115 26.184 21.4181 26.2809409742
21.1501 30.8193 24.2049 71.5864669907
14.397 36.6828 21.1215 27.3221993147
21.283 28.2601 24.155 55.4174508839
14.1556 33.7133 21.141 28.0235852043
13.3084 31.0115 18.0873 28.567412486
18.5978 30.9868 20.5955 29.2954249248
18.9668 25.7262 24.2305 69.2033735753
17.951 28.6196 24.2129 74.5375845576
22.245 30.9733 21.5323 28.0856850575
19.1791 34.2339 18.352 31.8946783236
12.877 34.5519 24.2379 96.8547682624
18.5195 31.1057 23.2846 34.3006878586
16.6801 33.1535 19.7471 30.2099789203
23.9135 25.5938 23.5644 33.7212474465
21.627 25.1296 17.9591 28.0047258139
14.2597 25.8764 24.1348 61.9397111975
22.2161 28.0312 17.7872 28.0227040988
17.6139 35.623 21.0896 28.3260017002
16.5876 32.952 24.3308 112.3930991177
15.4401 30.4193 19.948 27.2926344015
23.9311 35.3237 19.919 27.288602563
20.3758 30.0851 17.1002 28.0540177339
14.0964 32.2438 23.5354 42.3825009564
16.5792 26.8996 35.6386 82.3572147345
14.4253 35.0834 36.2587 42.7833501512
12.9041 36.1915 42.4059 28.0927991289
12.291 29.4241 35.7364 65.7906003102
19.8011 26.4657 39.155 26.5911474979
23.9598 32.2815 41.8384 36.3207636483
24.4966 26.1343 35.5954 78.7886286022
23.1453 28.4026 42.7238 32.4386954508
13.5827 26.7909 35.831 70.8677236734
22.5004 33.4512 35.7894 101.2536793946
22.0293 26.9532 36.5056 30.489241339
19.2614 28.2246 35.9868 67.6556554776
21.1739 30.8677 35.9634 51.7457549404
14.7605 35.0624 39.0485 27.0208979598
17.7555 31.4881 41.0172 28.840778647
21.8678 34.4923 40.4929 28.571683699
18.2982 31.5873 36.0758 57.6853835806
15.3847 32.511 38.0988 25.5070494187
21.6783 26.329 41.5916 29.5840876752
15.5389 26.6957 40.1192 27.4074831964
21.4158 35.3051 37.431 27.8431392423
18.9095 35.9666 36.4938 48.3204531305
19.2427 29.636 42.7239 29.2787870905
18.9102 26.9771 42.4834 27.2863734683
19.3525 29.3546 38.4367 26.7749247835
18.814 32.5985 38.6629 26.4040237493
13.7178 29.33 41.2698 30.2973265918
13.6594 30.1172 38.437 26.6647863222
18.2539 35.3735 39.1265 27.1130783195
16.6682 25.1271 42.3011 30.62733719
17.5146 25.6721 38.1589 25.7481381969
14.9694 32.0448 40.8327 30.0148476987
23.4746 26.5984 39.1476 26.6763079509
16.7215 29.2901 39.3119 28.40872398
16.9544 34.1398 35.5559 110.2682777982
16.2977 29.7358 36.2759 36.6398186309
21.6042 32.2791 38.6977 25.2944540313
22.5903 29.4685 38.8222 27.496178833
18.1834 34.5938 41.9188 29.7750845619
13.4537 26.0505 38.4215 28.5396543655
14.1977 31.4072 35.4361 96.3361912277
21.7125 30.4303 41.6737 31.9394090062
23.2245 29.2607 35.3764 100.6353077585
14.8636 33.6735 43.1635 30.7055492623
15.537 27.9164 42.9636 31.2507338833
19.2029 26.7062 45.1622 30.7410600627
18.8868 34.428 49.5325 27.1183362741
15.2069 31.4911 45.2257 30.2908528377
13.7196 26.7555 47.7798 30.4859834582
12.5075 34.2191 47.4935 24.997619808
18.2094 29.2335 48.5642 30.9747671528
13.1918 26.5265 43.8833 29.6525296229
24.1536 30.6645 56.4079 25.0015507321
20.9313 30.0886 48.4432 30.376559588
13.7943 25.9384 52.8721 30.4265259715
16.7885 35.8006 44.1021 27.1726394702
17.7873 30.7471 44.5664 27.7536072627
20.4434 31.5455 51.9987 34.4605380835
22.3259 25.0076 50.9099 32.2909580652
20.279 25.21 47.9485 30.4579530005
17.3931 28.4365 45.9957 28.1330019255
23.4387 29.8834 47.0336 36.6462207921
21.2695 36.0213 47.4305 27.8780006226
22.616 34.3271 45.6444 30.7067440729
12.4828 33.4224 44.9283 26.9458540881
22.2756 33.4594 50.7109 30.882876102
17.587 34.686 46.4851 29.0157959587
23.8838 36.7108 44.8992 29.0742047781
19.052 26.8383 52.8177 32.2698788896
17.2969 27.1166 50.069 33.4248761918
21.0514 35.9079 50.3699 29.5283127261
24.3187 25.6508 49.0033 29.8349469978
14.8358 31.7797 54.3552 26.6293837561
23.0617 33.464 55.0408 27.9010597322
14.882 29.3991 51.183 33.0046001445
19.1562 32.6771 45.5935 31.3331648844
17.7723 32.3938 51.4316 34.1327156886
20.3619 27.0063 50.398 29.9320991812
24.2722 32.4522 46.6318 31.561677568
13.7655 34.7497 50.0397 32.3440537776
12.9148 34.0099 52.7128 30.5386030094
19.5073 36.554 52.5969 33.9770695184
16.3162 31.1846 49.2463 30.6301300905
15.2769 33.1557 47.4611 29.7423815092
20.6395 32.7612 47.8805 29.0060258491
23.1337 24.3457 53.7068 28.1496554488
16.3052 27.5342 53.0718 33.2691967263
16.509 35.7281 50.3646 28.2730981659
16.7429 33.5444 53.6385 28.6018164948
19.8869 34.7893 54.786 28.8521999857
20.1661 28.3131 55.0216 31.7264405299
13.0268 30.906 52.8724 28.1024710758
14.1657 29.6438 47.6638 30.2260465272
21.8501 29.5277 50.7844 30.54610568
16.0707 29.4975 55.2883 33.2460192571
18.1558 32.7296 55.954 26.3727577112
13.419 35.8349 54.925 31.40050289
22.0305 27.9794 45.2117 35.3641099488
16.5866 36.3506 52.902 28.1161357529
13.7145 36.2952 45.1758 29.851659677
20.9407 31.609 54.918 27.7296692457
15.5268 26.1593 46.0253 27.2051748742
23.2606 26.831 56.1391 28.0546805078
22.6117 25.8071 46.8702 32.783408324
14.9367 25.5971 50.0252 30.6420375869
22.8718 29.215 54.7288 26.9758290752
24.2712 29.1199 52.2238 29.9564943422
13.0637 28.2424 56.0836 31.5616468655
17.198 24.8141 56.0926 31.1707780109
20.4775 33.9259 43.2724 32.7783320249
14.8285 41.0541 6.27465 31.0259346335
12.754 47.8636 3.61141 33.4372523126
15.3361 38.7896 12.4597 31.4276450612
23.1913 44.0695 15.3597 34.2129743366
18.8154 47.4892 11.6387 28.9558548801
14.7586 41.5181 10.325 28.0690152212
14.0849 48.661 11.8531 31.1973182084
14.165 48.0393 7.66368 29.0685711575
16.3944 43.8526 4.25427 26.082069675
16.9318 40.151 4.34975 29.0737849111
18.4188 43.5151 5.87338 30.3612424771
20.383 39.847 7.10999 28.2421376813
17.6198 47.3389 9.16198 26.1572905867
14.2655 43.8982 5.89441 27.886361107
13.4331 37.5491 14.033 25.5984648905
22.839 43.6312 8.26524 33.8648047237
17.6781 46.4798 6.311 29.9673830284
20.9486 48.4393 14.2204 32.0111415125
16.0004 37.9303 5.96006 25.2852380193
20.6842 45.6287 5.13339 30.1644274745
14.9365 46.7407 5.53922 29.7642308681
18.3242 37.5807 7.22533 30.1546224101
21.6731 42.3358 13.5062 33.1753962664
16.6127 39.1886 15.9448 28.5807621495
17.9353 40.1979 13.6119 30.2277826697
18.4248 40.3261 9.3719 35.3039331232
20.8114 39.2961 10.9811 30.4342137775
17.9647 36.6182 15.9224 26.9323473491
17.966 37.195 13.0175 30.3118759379
15.6669 39.4203 8.52818 27.5601021383
20.9935 40.0014 17.1074 32.0447296016
14.5884 43.9778 8.88641 30.1282957685
23.2 46.806 15.7812 28.043943958
22.6095 43.1823 5.20891 32.0292727943
17.5039 42.6836 10.3031 30.4731177259
22.3967 43.2785 11.173 29.36470948
23.2936 40.4621 10.8912 26.8852790533
18.6123 44.5767 8.58717 30.7664339412
17.196 45.0094 15.7867 30.2027766397
15.2677 46.4543 9.8637 31.0095374963
22.8017 40.9401 8.05348 27.6053260879
20.5947 45.4309 10.2202 34.1180854911
19.0975 45.9213 14.0969 31.2450345641
14.7071 42.8419 16.3824 28.9756483358
23.7203 48.4954 13.1812 35.9029165946
19.8149 41.1509 4.90613 28.5386973012
22.7001 47.2289 6.02702 30.0591654745
20.7446 39.8096 14.0855 28.8320724392
22.4682 37.9765 6.11246 29.5150934862
14.2646 46.4235 15.2731 30.9924304499
22.8911 46.7154 8.53642 31.856938319
14.0581 38.7223 16.3675 26.9977714864
14.9233 37.2284 10.2236 27.7540838222
13.6381 45.9425 12.7086 29.2566883203
13.3707 36.6874 6.72609 32.551862098
14.3295 43.3682 12.4648 29.200347322
16.4866 42.9076 14.0138 29.7973747959
18.8497 43.1962 12.7765 31.3882507538
16.8447 47.8736 14.5932 28.9721105302
22.6053 40.2326 3.95143 26.2464198031
12.2999 40.7632 4.86871 29.2828373994
23.2413 38.0403 14.1622 28.0822827826
13.2298 48.7131 16.0217 31.2393527355
22.1548 37.5411 9.32694 26.2752520104
12.6275 41.0128 16.4972 26.0249127766
18.2734 48.324 4.00389 30.5003519035
19.8196 37.1644 18.3424 28.8580591459
17.527 38.4443 20.3251 28.06382803
22.3074 38.7006 24.2328 67.8172033751
15.1917 47.6133 21.5623 32.2747745697
15.2883 39.6666 21.3967 29.3285329589
14.1011 48.6574 24.35 77.4247582393
19.7477 41.236 20.6628 27.9456923207
16.2965 42.2932 18.4593 29.5589445764
13.5098 40.6855 19.5784 29.6568235088
21.7264 39.6751 21.4959 29.7295591331
21.0103 43.8973 21.5032 29.1966356425
21.8701 48.67 24.2544 88.5036744682
20.8886 42.431 18.3743 31.0434886464
18.5278 44.0524 18.2576 29.5961683883
21.3906 47.8842 21.2932 28.2616034968
23.9605 39.4467 17.948 30.9225822355
22.9793 44.2027 19.225 29.1892778834
13.5933 39.7535 24.0154 58.4673679731
12.8584 43.2217 19.3761 27.4177276043
19.7616 37.0939 24.1204 83.6307026701
18.3218 40.1257 18.1397 27.9280111502
19.6584 40.2307 24.3393 74.3336247197
18.2294 42.7428 24.002 48.1090489278
24.3158 46.5562 21.4183 29.6478595199
16.9995 38.9386 24.0855 66.7056640708
22.3588 37.5231 19.5022 29.5006450608
22.4355 41.7698 24.4816 88.715465957
15.6216 41.6923 24.3599 89.1611586158
14.1703 43.8887 23.4509 33.772459351
17.3497 46.1124 19.984 30.2060124595
17.6358 43.3051 21.3907 27.6616822029
18.254 45.8091 24.5228 100.2332614827
19.2594 46.0165 21.7922 26.407151249
21.2198 44.2265 24.1129 57.0403522253
14.8776 44.2379 20.8441 30.9748609136
15.3143 46.1069 24.2599 75.3301624024
23.2054 46.0895 24.03 61.1404150103
22.6055 46.7881 18.7537 29.443355771
24.2108 40.9838 21.651 29.8647240633
12.6499 48.0665 20.2844 33.4374008029
20.1451 46.6417 17.0842 32.4221440187
14.3396 36.8654 23.9571 63.6032748756
19.2303 48.5947 23.9827 70.9202198293
18.2728 48.2314 18.2974 30.4601010881
15.5927 37.4119 18.5972 27.792093069
12.3214 44.9231 17.0278 33.4221845737
14.6414 37.8938 35.7573 90.9539413846
21.5692 42.0443 38.9263 27.8213410082
15.7691 40.8404 36.4815 43.3658996669
19.5014 48.4849 38.6145 31.7558804836
13.6201 43.5248 35.4487 104.8533998908
17.5103 46.5789 42.3741 30.3419972583
16.3486 44.6596 40.5538 32.590397599
13.814 46.8782 35.5717 83.8056183081
20.5078 39.8873 35.7882 107.0535860993
16.5513 43.596 35.637 96.1536508463
21.6712 42.4825 36.0036 52.9638528147
20.0407 44.4273 38.5016 28.7051391333
20.0357 37.057 43.1533 32.6757455557
18.5923 48.2031 35.9989 77.8160938272
20.9115 46.2928 40.4789 32.7707488021
16.5394 46.2922 36.2782 41.5975131338
19.9443 45.3851 43.0303 27.2330582788
19.7338 44.2705 35.8967 71.9009035418
13.3681 39.4733 41.4927 27.1415426101
19.8628 42.5781 42.432 32.5271943263
13.2136 38.9627 38.7331 29.0338718064
15.1205 37.568 41.7109 30.0228888701
22.6839 42.5287 41.772 28.7634179635
15.8482 37.6392 38.3832 27.8010007101
22.5921 38.0371 42.7298 30.6403740667
22.9859 37.715 39.743 28.21777878
17.8186 38.5172 36.1596 64.4347280503
16.1825 40.6258 41.6933 31.7860071551
21.049 46.8243 36.0229 52.1046544312
23.3216 47.8386 41.3955 29.4062393772
20.0777 39.543 38.7537 32.5068068314
18.3751 42.9132 40.0845 28.6429357645
13.3152 48.0025 42.5498 31.0605497231
14.5231 42.9057 41.6555 30.0076690602
12.917 41.4765 37.1921 29.4589706227
15.4244 46.6243 38.8955 31.8054777344
23.4786 44.661 38.8892 27.9303810738
12.8336 47.4698 39.7669 33.5141801576
22.1555 37.8136 36.7996 37.1076382415
23.2736 44.6384 35.9812 59.2969282871
17.3129 40.5108 38.8554 32.485243823
24.3417 41.2222 36.1561 56.7087068864
24.3132 40.3876 39.4577 32.7271440553
16.8746 48.9693 39.2916 26.9545729333
20.2216 36.9521 40.1634 28.4471299414
12.507 42.7288 39.5958 31.6694859093
22.8616 48.9388 35.4033 119.3186925782
14.7271 38.6694 46.7563 31.6834381426
22.463 48.4965 46.2846 31.5331652171
16.2473 38.6475 44.3555 29.4177240325
19.2755 38.6085 45.1879 28.3780643448
15.9835 42.1554 54.4297 29.7482071484
12.6464 45.4909 51.4196 28.5095429669
22.2588 38.5089 46.3508 28.3267523146
13.6152 40.986 46.1001 31.6351694221
15.5982 42.5558 45.166 31.5667108412
18.8957 45.0496 46.082 31.7178086552
22.6518 44.21 44.1531 29.1410639691
20.4097 47.9086 49.8888 35.0779055255
21.3072 43.539 46.5573 32.7473620163
24.1477 47.85 54.9431 30.1310414152
13.8377 44.245 54.1516 31.5470034073
23.2989 38.7206 52.7374 29.7760613459
19.9954 47.5504 44.9809 29.7378138184
18.6314 41.6393 53.6656 30.2779731728
17.5445 48.4589 46.3508 33.7272609647
21.8394 43.8174 53.2935 30.8676254338
13.6642 37.637 49.902 30.2064180458
20.9906 41.0294 45.6442 34.1268460118
17.4119 45.6016 50.9868 33.4331605582
15.0564 46.1146 43.7298 30.4147476981
17.024 40.5812 50.9193 32.5273851082
20.1213 48.1571 52.6343 29.0598332316
14.0065 47.9001 51.725 26.2244454494
21.6848 39.103 50.5718 33.2235144523
19.8418 43.757 55.4701 27.9940380703
18.601 37.2165 47.427 32.7546863363
16.4686 38.2939 49.1015 34.5811867164
19.8342 41.0522 51.0209 37.355730036
16.4994 44.1831 47.2653 31.2045549379
21.1591 43.6074 50.5797 34.3159714447
22.9209 42.7302 48.7452 31.6717784974
13.5993 48.2413 47.2641 28.6295314779
14.11 39.5596 55.339 30.0532384684
18.0286 41.1286 44.0928 33.9359257196
15.5606 46.4547 46.672 28.5668513205
18.6953 39.1093 54.8456 27.1387853091
14.8493 47.3601 54.3463 27.5382169241
19.505 45.4042 49.1855 32.0554088205
21.6463 38.3116 55.0038 29.2979342565
15.8559 47.3843 49.6936 29.1232047451
23.9799 46.7181 44.0453 29.0270897944
20.89 47.5541 55.5224 30.3320273981
23.17 41.3988 53.9144 38.2429003382
16.2878 38.9287 53.2705 29.4130296431
23.0812 40.5266 43.7688 29.0255883537
24.1893 45.1575 53.8849 33.9603948095
23.4563 39.9535 48.5482 29.2268798191
13.6638 43.4141 50.3755 32.6241029224
19.0058 45.5395 53.5954 28.399014619
17.0165 46.166 55.2302 27.5184856838
13.8193 41.5449 52.4143 28.0242079161
13.7602 43.9112 43.9679 29.3332873117
16.5286 43.146 49.7392 35.8286464572
30.6776 11.5216 13.8198 31.6376655587
34.906 2.61743 11.0568 29.8788106281
31.4818 2.92325 4.11054 30.8345944471
30.0509 0.512016 4.71834 29.3405508262
32.6976 3.32745 9.3046 26.9243971958
28.3399 2.57665 6.384 28.690219665
27.3367 10.5989 5.76264 29.2612485463
36.1925 1.82027 6.68629 29.6084944078
36.3311 10.2965 4.22839 26.3486298431
33.0759 2.19714 6.27714 29.2212422446
34.4362 5.56255 11.2951 28.165464113
29.5672 6.377 7.33985 29.1599050419
30.6508 6.93965 4.54058 28.3955326083
28.2805 4.70287 16.5322 29.0907698442
35.603 4.54488 8.44855 28.5580637002
27.1882 8.9443 15.5491 30.6719037734
26.626 1.51987 15.5077 33.1463313759
29.0769 6.86486 12.777 30.1622310039
27.9091 8.11381 4.49823 29.2312536448
30.7067 9.57725 6.47357 28.6645104615
29.5878 7.19292 15.5584 31.7087627812
34.4809 0.600283 15.0298 30.0782829088
30.2494 1.93306 8.62208 29.7780270793
26.2982 0.629899 6.02143 30.1690923099
33.9577 8.2321 14.272 32.1412730771
26.452 3.19297 8.32175 25.5457182694
27.0823 4.52772 14.1567 31.2956391402
31.5586 4.32364 11.8622 28.829664527
36.9618 6.43364 13.0675 29.2529737432
33.8827 11.4581 11.5138 32.4032006574
36.0609 2.57823 14.1002 30.0171960932
28.7473 10.4598 10.1088 29.4650558037
35.219 4.63713 5.36638 29.0777773919
28.3526 4.61884 9.22883 26.8866428781
26.5152 6.74069 9.46739 33.6253822601
31.9931 6.38739 8.49611 30.2667307607
34.4695 10.0049 9.33184 28.2007782322
36.8697 11.4936 8.33065 30.4099487748
33.6916 9.84706 5.50822 28.4382369006
34.5955 4.96806 14.484 28.3736843389
32.2192 9.5255 12.5537 28.8124563948
28.1064 8.66505 7.91475 27.5860523606
31.4492 7.53577 11.0107 29.4370436666
26.2518 11.185 8.1942 28.242605837
34.3579 7.29948 7.19888 29.8480687276
31.7351 9.68117 8.98647 27.3901874247
35.8544 10.9623 14.5771 26.8155743759
27.8897 1.14004 12.4082 29.4701637782
24.7667 8.33291 13.7017 30.6531618998
35.7347 7.64289 10.0033 27.4083066921
30.2204 0.614609 14.161 32.110915463
27.8048 11.1001 13.6797 31.1028691493
33.3923 0.294737 9.2924 30.3037482129
26.2665 11.4327 11.4697 31.0830038294
28.9256 4.10508 11.8631 29.0118228994
28.9192 4.63013 4.40525 27.1280761432
31.8904 3.505 14.4442 30.7179424801
32.9908 1.19584 13.0479 26.5987820485
27.1497 8.31313 11.598 29.0030475992
32.3744 6.41021 16.2717 27.6048869351
25.4115 1.90044 10.6101 29.5452968122
36.0699 -0.143782 8.85169 29.0981383646
33.469 6.19966 3.77791 29.015500718
25.2546 12.1454 4.34672 30.5012458081
29.6635 12.2513 5.75774 30.0557165284
26.1721 5.86521 4.22921 30.3366201598
24.7104 2.79252 4.37789 29.8728766095
31.0196 11.6414 16.5209 29.7971142964
25.1296 5.02574 6.57289 29.8339385136
29.3216 1.45642 16.9292 33.3999962004
33.4048 10.3513 16.4559 29.0217860205
30.8946 3.89224 17.1744 28.0458263507
32.0423 1.82052 21.88 25.8513835526
28.8272 2.09337 19.608 34.7368613311
30.346 10.9705 19.9299 28.9214028995
24.8186 9.2223 17.7004 26.3114991643
25.6455 7.91296 20.156 27.5598124999
36.884 2.75889 24.5006 103.4382972024
35.2559 0.13792 23.8 50.1154474093
34.4562 5.00198 17.6793 28.5449179638
29.6237 9.5127 17.6551 30.8266345978
26.3555 1.09221 24.5075 102.6403253485
31.6471 6.10642 21.5577 30.4364097679
27.0203 11.2408 17.5693 28.5289509453
25.1472 1.05505 21.3407 31.2100890647
26.7056 9.93641 21.5555 29.773180607
35.0794 7.42245 18.7906 28.5977540566
32.4502 8.44684 18.1545 30.3227637678
33.9636 0.285566 17.7363 34.927917713
26.9223 3.92155 20.8955 32.0557135531
31.1956 3.87871 20.1767 28.9625210393
34.7816 6.3541 21.3026 27.0775892511
32.3611 2.65107 24.5087 91.3474450972
28.0655 3.35052 23.9368 49.7480952858
34.8479 11.8434 18.7171 28.7759707002
26.0049 5.4885 24.4061 77.0102110309
27.2185 6.07677 18.7125 31.7573421243
28.5125 6.79726 21.5445 31.0237532027
32.3803 8.97822 21.4739 31.0672733661
34.607 7.2954 24.0078 77.9164657559
30.7654 4.91877 23.9416 59.9565821882
35.1258 3.52727 21.2673 26.6777849148
34.565 4.29985 24.1995 63.4747161441
29.6508 0.86854 24.0301 50.2822815455
25.8456 10.1363 24.3121 77.2237969223
28.4592 6.71551 24.3531 83.5710661647
30.3199 10.0463 24.5397 99.0487588415
29.735 9.30755 21.9368 26.9076282314
33.0407 9.89391 24.1823 82.680921403
32.9625 12.2575 20.6706 29.171900273
33.3902 2.9317 18.9301 27.5022850898
36.6597 0.510194 18.7083 30.1506325799
34.3747 0.57937 21.2857 27.3031036758
29.972 0.0852317 21.2562 30.7310397764
27.5069 12.3267 19.8978 26.5414576418
30.2193 1.69166 40.5555 31.924974965
25.4807 6.85685 41.0744 28.052187914
28.4132 7.46102 36.2882 40.1960529241
36.2861 1.92055 35.3855 101.798762015
33.6977 5.76279 41.5919 27.2112591237
28.5283 9.5274 42.2042 27.8893167465
31.6407 7.30217 38.1307 29.7986345373
32.11 2.92547 35.8412 70.5990038961
29.4477 2.23139 35.9381 64.8110721744
30.6868 11.4551 36.2389 46.2499099766
32.3234 2.82942 38.8677 29.1252318427
34.5166 8.846 35.6111 100.6315135236
36.1639 3.41593 38.5824 24.6641105351
25.3937 1.24826 40.2149 26.210961884
26.3171 7.00715 38.6115 24.8281341664
29.6114 6.12927 40.0289 30.4586064981
34.2171 10.7743 39.5709 29.9421846376
28.4299 8.97675 39.4805 27.4327622996
31.1003 8.67183 35.7623 91.5206777409
31.919 9.41595 39.9333 28.2649794909
27.6252 4.66113 35.654 100.0172248756
33.3262 5.39627 35.9775 69.3593513604
28.6221 3.9434 38.4787 30.5596164768
24.6977 11.3388 42.0877 28.4053137899
25.8833 3.89053 38.5727 26.8298058971
30.9889 8.30955 42.4292 28.598906859
33.9767 0.564623 38.3093 25.8879807153
30.2086 11.3311 38.8698 28.5068663381
27.1934 9.74112 35.5357 93.0250293816
27.6302 6.48479 42.4948 27.1427512913
36.0375 4.68802 35.94 46.3660487051
24.9181 2.50731 36.314 41.8895110644
36.3172 3.49863 41.508 25.4571503513
29.8619 2.43612 43.3707 26.5741628592
31.1665 5.52955 42.6591 28.5454938125
24.5698 8.76782 35.6371 77.4553167976
34.0262 5.16767 38.8491 24.8677843696
34.9269 11.2086 36.8658 31.6849376238
33.9009 1.92739 41.2665 29.6144157541
27.1475 0.341194 35.712 89.118303567
34.9727 7.85485 38.4525 29.1743531476
26.6513 10.9833 38.2498 28.3444474867
25.1266 6.03797 35.9266 55.0341756066
34.4549 8.4048 42.1969 27.8634870935
27.663 0.962555 38.9935 29.0867453298
33.793 0.641265 35.6393 69.5892397715
27.6512 3.87854 43.451 30.8417733355
27.3023 4.73869 46.1586 27.7244886582
36.9257 10.666 47.6782 28.2136565894
29.9315 4.28378 46.8258 29.7033659199
30.9488 3.83853 49.5224 27.9437621847
25.2432 10.4254 48.5665 35.4371407359
36.036 1.76736 51.4221 30.6466837498
30.211 1.51939 46.0483 33.579218214
26.8671 7.12825 45.0307 31.1151383493
31.1083 8.61752 45.6748 28.5116283771
33.3731 10.0106 44.5019 34.9713670868
37.2572 6.41889 51.7959 26.4532959574
34.3594 4.89634 47.4355 27.7793072969
36.1761 7.63437 56.266 27.8906240907
25.3353 2.50033 43.2072 30.689585893
34.2483 1.81653 47.6502 29.1701878403
28.4849 9.41818 45.7483 30.6722755626
27.6029 0.749731 46.9619 32.6313318608
24.6576 7.23384 54.6693 28.058562519
32.5903 2.81282 43.5492 26.640974985
31.762 5.93406 45.6859 30.3219192643
34.1588 4.97489 44.5055 25.9197277548
35.2093 8.54352 47.791 27.2333011522
31.4418 7.01334 53.1573 28.6981146937
25.5789 2.85477 47.0004 31.1092457304
26.5481 4.25967 51.0366 26.3235183273
32.3923 1.34216 49.4412 30.5114056344
27.2382 8.8785 54.389 31.0718954343
25.7282 0.872647 53.2654 29.2826174405
27.1166 7.97918 51.6389 29.4832476158
34.2511 8.27992 54.1067 29.9037622217
26.5194 6.01627 48.8598 31.2001754868
32.9456 5.45158 49.7773 29.8778120955
30.1752 1.94205 53.3208 30.2164284352
29.2287 6.36917 49.3571 30.8564162694
31.7148 11.5281 49.2873 29.1025445907
35.4412 7.5427 45.3199 28.3315282706
28.4136 10.7173 48.1748 31.9331165175
29.1477 9.3348 50.514 30.209444452
32.5212 9.30014 47.9815 31.3335273251
31.8404 7.93064 50.5167 27.1235455744
30.1206 8.5108 54.9348 28.735166428
28.9526 2.52518 50.8365 30.2345371706
30.7061 11.1618 51.8148 30.3281041463
26.0711 3.45011 54.4897 29.5564990614
28.7753 5.7092 52.1616 27.7691175024
35.6916 11.0469 51.8321 34.0290683414
28.3833 -0.0119546 49.6024 32.5931341517
28.8865 4.17131 54.443 30.0289973625
33.4193 0.544309 52.0241 30.0860012341
33.1907 2.32192 54.4887 28.7127545606
32.2519 10.1188 55.4977 28.1757303953
36.0684 2.64155 44.3548 27.7476141411
34.9185 1.14699 56.2404 29.1210626403
35.0212 8.48161 51.2033 31.0125580532
33.3953 5.15431 53.843 29.9779151967
24.9359 7.91688 49.9606 27.8130615944
35.0869 4.73216 51.7468 31.4218673892
33.7717 0.886569 45.1271 27.5445013823
26.7628 10.8952 43.9853 27.5605707095
25.9973 11.3889 54.3873 34.6828932084
31.6226 12.1769 44.4983 32.6543007886
33.1551 11.5557 53.1367 28.8805762252
36.9136 3.07462 49.066 25.9189972839
36.9384 11.3688 54.3545 28.258848481
36.9902 11.4583 45.1538 32.8712785695
35.9107 12.5757 49.3921 34.7103959006
36.8081 20.5439 9.02888 28.1858793264
35.3821 20.5519 4.6097 28.0860139308
27.6845 14.2908 5.73885 26.8445247669
29.379 15.2808 7.68052 27.4415408958
36.7453 18.0842 11.885 31.379878484
35.473 15.4117 15.9719 30.2736488548
34.987 13.193 13.3584 34.0840352806
29.0423 15.7581 14.8381 31.4524575203
26.6436 20.0187 8.99104 32.8161013657
31.8237 22.3306 9.19123 28.0531808059
26.9283 17.0754 4.80935 26.3860105695
31.1806 21.2977 6.48607 29.4065995545
32.0567 17.0097 5.95288 30.1485632957
33.4784 19.276 6.41073 28.7314870245
25.5748 16.2432 16.302 29.7075229217
34.8772 22.246 11.7072 29.7467862552
34.0087 12.3556 6.33297 28.9603799636
35.9563 15.3543 4.52307 28.8688090611
33.8381 20.1537 8.9131 28.4241660947
28.9654 20.4096 4.10196 31.0290959688
29.2645 23.0617 8.01608 29.2983361027
25.0964 16.0137 9.32402 33.114087479
27.0636 17.4822 7.48473 27.8867218326
33.5369 15.9635 8.18424 30.229259971
31.8956 13.6951 7.74653 30.5152789556
27.118 22.2806 14.3868 28.4044679826
35.5253 23.923 15.4687 29.2255042646
30.1278 18.465 15.4127 30.430566625
28.5522 19.4012 10.925 33.5018515099
31.1227 22.9062 4.17153 26.734367642
26.2756 18.9107 12.9687 26.8436807487
32.7017 17.9487 9.92023 31.2638358303
29.807 17.553 9.5096 28.7430895975
36.9611 19.2664 15.2105 28.9840562499
31.5803 14.368 16.1762 29.9801063673
27.0813 13.3021 15.4914 31.2991729438
30.1486 21.8088 11.3019 29.0103855725
29.834 18.699 6.56102 31.8796311309
27.3766 19.6342 15.5773 28.6584379077
32.7153 20.5886 12.5612 29.6727081491
35.6016 24.2186 6.20483 33.8728262288
35.0644 23.2707 9.28125 28.2882294833
25.0672 14.2195 11.5916 33.1685273402
30.2075 21.0278 14.3573 29.7978299286
29.0244 15.599 11.5655 32.0170862623
35.6553 17.0931 6.69348 26.7039746504
31.2104 14.313 12.7081 30.2255541225
33.2966 15.3545 13.8882 27.9334310525
33.1866 21.6022 15.2665 32.8450596023
25.455 13.7416 7.17016 30.5481504476
26.6409 16.3911 13.0946 28.7455423519
28.4321 23.4081 5.31807 29.6837390274
35.8774 13.7303 7.68475 28.4964805999
27.1641 23.1039 9.83785 29.8902747178
32.9036 17.8308 15.2589 31.3047787838
33.8156 18.1356 12.3359 31.6797984738
28.4535 13.5671 9.72001 30.3569277651
28.4749 23.5727 12.336 34.6465530878
25.7498 24.5569 5.25821 33.2077187112
31.2759 12.7043 10.3519 30.2682896316
29.319 22.7926 16.8647 30.0950502127
36.6686 16.2518 9.17919 36.5336494463
25.1238 18.1388 24.0334 68.511880061
33.4255 14.6189 18.5455 29.2269436081
36.7164 12.6318 20.9293 32.2451004194
35.1727 17.9354 17.5908 27.9155632329
34.1498 20.5917 20.9814 26.4955621799
31.2012 20.6609 24.5803 102.3819782819
26.0764 19.5624 17.8439 27.9094327379
27.1567 12.779 24.2403 66.9743404407
24.99 17.8836 21.3349 27.0335208774
36.1179 19.4873 24.3737 89.6835436246
30.4969 18.7602 22.5327 27.4416636582
25.8369 24.0785 18.5955 30.8324090879
30.2181 15.7494 18.4736 29.3987343196
29.9278 22.1254 21.871 30.8826299803
35.7961 22.6891 19.661 28.892998436
29.6452 19.7114 19.984 31.1413638114
31.8666 22.9741 17.9593 31.1465281435
28.1522 21.36 24.6685 90.6979401611
29.0397 13.8175 21.6797 26.7229429585
36.8272 13.3969 17.6236 30.3179853872
27.5322 21.8352 18.8548 29.9540436771
32.6726 14.6971 24.4356 91.8192642572
34.4181 16.7676 24.2765 72.4044112896
31.6243 14.9202 21.0193 28.7759776995
34.643 16.643 19.9539 28.4424251373
36.6494 24.5588 24.3432 95.0930475344
30.8097 18.306 18.0846 30.473279101
28.0638 16.1397 22.3901 25.8105905197
30.3329 16.1237 23.9826 63.0910587764
32.8868 17.5777 21.95 29.0682141427
27.8876 18.7897 24.2214 68.8997377034
33.4595 24.2559 23.5035 39.351378562
30.4143 23.6379 24.3058 68.8042514663
32.6234 23.2221 20.8353 29.1946445041
35.7094 21.4085 16.6706 27.7869557651
26.2034 15.2706 24.2648 71.6576682132
27.4868 17.538 20.0616 30.1464518141
27.5758 15.0685 18.4256 30.1245802593
33.8554 21.4814 23.7921 48.6921991779
33.3703 20.0969 18.4737 29.4786315461
27.5661 23.809 21.1546 28.3448389187
24.7917 12.5427 21.5675 29.2779090757
36.385 19.194 21.6039 26.4606688405
36.404 12.2846 23.6752 57.1227543984
26.1166 23.4408 24.2607 77.8561394565
30.088 12.7455 24.2468 63.0142144098
33.5273 12.3597 23.3889 31.9097634485
26.7913 18.0128 38.8898 31.2013673014
33.0548 13.5498 35.9671 65.9867871672
35.6989 18.5117 38.4536 28.5277206433
35.338 14.1496 40.907 31.577916802
26.2216 15.2932 40.1174 28.0061895146
30.9648 20.4995 39.1913 27.2803167312
27.4755 17.5255 36.0896 54.4701091711
32.3383 18.1749 40.6103 29.2645504492
30.4999 14.5849 35.3711 119.9784257619
32.0052 17.7216 37.6865 29.0136885084
30.7086 21.07 36.4445 33.2608591446
35.7493 15.3016 35.7832 77.0279075113
32.7796 19.3651 35.4239 126.9837883477
31.3852 23.9143 39.0634 26.5834633787
28.2408 20.2172 40.0762 31.0405349931
27.9705 20.4577 35.7447 97.4904115303
28.5366 22.9474 38.8572 30.2956211244
35.6187 21.0731 39.5632 27.9005884952
32.9979 21.7785 40.3007 26.6580814424
34.0819 21.6911 36.894 32.0905096849
25.1565 23.3558 35.8645 65.8864469274
25.0228 13.8298 37.8982 30.4799013712
35.012 23.7899 35.7409 79.3273960319
33.952 15.9129 38.0712 28.4001964171
29.3959 23.7505 41.7133 28.0698666138
29.7599 16.3316 37.4284 30.4117976502
34.794 23.4066 42.3277 32.0052400661
29.0092 15.2866 39.6744 28.0621415193
33.3175 13.379 39.1299 27.7272136439
31.5251 23.5324 36.0651 65.0178775038
35.8996 18.1093 35.6221 76.0757557563
30.0247 16.7308 41.7479 28.8381481134
27.0419 12.6727 40.7232 29.1398441009
26.3932 16.8259 42.583 27.4101254263
27.8967 12.6828 35.8147 59.5454890274
27.9807 23.5212 35.9561 65.6252547915
26.4483 14.9241 35.5591 81.7945138086
26.2944 21.0874 42.4151 29.4786730943
28.4714 18.8466 42.5645 25.7497109249
32.6151 20.1893 42.6335 28.33975614
34.8352 16.6327 41.1114 27.8139106202
30.9132 13.386 40.4891 32.1020696046
27.2203 24.3304 43.0132 31.8866314724
24.5209 18.304 35.9414 65.8994104349
26.2208 24.1077 40.3264 29.2251456274
29.4255 12.5009 42.6112 28.4301246414
29.9351 21.116 43.0264 26.1293400952
25.1899 22.1365 45.5719 30.1537327698
25.6007 16.6325 50.9769 34.0959848057
29.1307 16.2895 55.3908 32.0555233988
30.3877 12.5522 55.743 31.7549755829
25.9007 17.2354 45.6527 27.8418305597
34.8161 17.7734 48.2563 32.3599571273
35.1641 24.459 54.6519 30.088035109
27.7435 14.0407 47.6065 30.7208799478
30.604 16.018 44.3173 29.2515616618
33.1493 14.3924 44.7963 32.0232402065
32.1486 18.877 45.1419 30.3522135624
27.8079 14.6537 43.8318 28.0714039247
25.9968 14.5521 55.5376 29.5365260068
28.6792 16.3447 46.3211 27.0838739412
28.236 22.1603 45.3081 27.720749509
31.2453 23.0835 45.1701 32.6600707629
35.9092 13.8383 43.8229 36.9882903023
28.7716 22.6736 48.0584 28.5551715538
33.924 24.4289 52.1281 28.6142495659
33.514 13.7637 49.4484 31.6123261126
34.7912 23.1709 48.711 27.9902147284
33.4089 21.6084 51.5449 25.9475382055
27.0663 14.3643 50.1944 35.1675027638
36.2517 18.2525 44.1312 35.6453386668
29.4256 13.8 51.809 34.7401768519
32.5027 19.1399 50.4298 29.2711437226
32.5453 14.486 52.0508 26.5095203694
33.1834 15.5477 47.54 32.2734732141
35.0631 21.1399 44.3476 30.4132726141
25.9877 18.2295 48.5621 34.5124316669
36.0831 18.0285 56.1398 29.0686990774
31.0674 16.7277 51.3753 31.8528689448
30.8624 16.9138 48.3453 34.3979044732
34.2167 20.3004 46.9277 30.8368351714
32.0782 22.1124 47.7492 28.6356614405
35.2631 18.2277 50.8414 28.5275320003
26.7865 20.6687 49.2782 29.6470968455
33.8732 16.8341 43.6845 28.5001086665
33.6036 22.0894 55.6229 33.1349311219
25.1876 22.6393 48.135 30.3610256011
32.6827 13.8879 54.8943 28.4679803904
30.4113 19.8678 48.3629 31.6630132731
30.906 22.4101 50.7373 29.2721214616
26.4919 19.4984 55.6779 28.6215388148
26.7266 21.0481 51.8256 30.0531825524
28.3421 13.5707 54.4042 30.0752310792
24.6632 12.8734 49.6803 33.2043798306
36.6116 20.9449 51.8897 35.634095738
36.5978 22.3755 46.6594 41.0608306599
28.1867 24.2054 54.5595 25.0885612409
30.1104 20.1646 54.412 27.6734699375
29.1122 22.0609 52.8137 30.7051191663
26.701 18.6689 52.9395 32.4416544266
25.1239 19.6463 44.7932 28.0228484
29.317 17.811 53.1522 31.9789549091
33.891 17.915 54.3244 31.2467131244
32.6671 20.3315 53.5929 27.923708591
34.7871 16.1041 52.4225 32.1432001831
25.9637 13.5887 45.4075 28.3125892457
30.3527 12.5474 47.0945 33.716586392
29.1883 19.3026 45.6276 29.9263328804
36.3949 23.4148 50.693 33.2380349758
26.1691 22.2656 55.509 27.8480608757
31.9533 16.5393 55.8711 32.9214371891
34.8253 12.9705 56.3297 27.5856997928
25.0572 36.368 4.25541 30.8367046055
26.3465 26.1148 9.53577 31.5588437975
29.561 26.191 5.03449 27.6497078396
31.024 31.8759 4.74099 30.6641330395
34.8868 35.1803 4.52686 26.7493767266
32.8665 35.2544 12.8525 32.2708509755
36.1938 28.8757 8.38335 36.5003773216
31.1062 29.3884 15.5331 27.9255619374
35.3917 27.6994 4.08901 30.7416361983
25.164 28.4131 4.92809 25.4319434941
24.9589 30.289 7.19251 28.8503427837
33.7164 31.6361 5.87079 31.5440242527
26.4143 31.7744 13.6747 27.5614108684
36.665 32.866 3.90181 28.6733561666
27.9606 31.2597 16.0597 27.6964048701
32.5876 24.9997 8.84443 33.0022587922
34.6892 32.1746 15.483 28.0297748775
32.7868 32.5576 13.3283 30.8921176014
26.7838 34.3031 14.6078 32.6102773428
30.6935 34.388 6.16898 30.6986201199
26.3553 32.3633 6.221 29.9843423202
35.3127 32.9638 8.00506 27.8765929717
36.2003 34.4054 15.4313 28.3815495263
26.1617 29.6485 9.91618 30.9705676247
26.7971 28.7609 13.676 32.2425471865
24.8089 26.8637 7.2376 31.5456585019
26.7094 32.1589 10.872 26.9042285652
30.0086 25.7192 7.66891 31.2591413998
25.1099 27.3267 11.8242 30.0701453755
