3.65407 23.7924 35.8096 79.0702452673
2.40211 29.4887 35.4338 111.0733617441
2.2569 21.4703 35.8289 71.8489855204
1.30096 17.9545 35.8744 68.6696750122
6.21717 31.9319 36.0335 76.4481995192
6.37446 19.3769 35.4536 105.8568647798
8.70412 21.1167 35.8466 64.9808031346
5.1189 29.4779 35.8299 66.6634030997
2.57762 26.6409 36.1726 47.1376727604
0.0596044 26.0297 35.6341 87.331663734
6.21037 23.9137 38.3347 30.7665101964
8.95754 32.5643 36.5652 40.7449677548
8.09971 25.2153 35.2086 125.0662982138
7.01466 26.6275 38.26 30.7669173478
2.28179 32.0901 36.712 33.0452730586
2.50356 21.3074 38.6276 28.9062176538
3.48646 29.22 44.6189 27.5261354836
2.73346 19.016 44.3366 32.3713265275
7.07984 21.8996 39.8574 33.7321839276
3.46918 32.4588 44.3591 28.4825647076
5.09825 25.5876 46.7817 30.2123592334
0.0651017 18.3456 39.2295 29.9973960503
9.40695 21.6279 41.5756 28.2768436395
4.50312 19.4594 39.5386 26.7448115377
6.16483 26.2405 43.9365 30.8346915525
5.43741 16.5636 43.014 29.670988857
4.57511 28.0774 42.2176 31.5375966803
8.94856 26.6892 39.9759 29.5165417089
5.83083 30.9901 38.8895 28.9934088348
2.25075 26.651 42.2759 34.7029080411
1.35682 30.4767 42.7019 27.9144495851
0.939085 30.3927 45.9378 26.1304165159
3.41947 23.5868 47.3913 29.941694828
2.3896 26.4739 39.3131 26.2489830177
0.508895 24.3602 44.9399 32.8725675375
6.51744 30.0634 41.3552 30.027401492
6.19175 29.4991 45.6533 30.1621126052
6.02854 32.2675 43.027 28.8314473991
0.274153 27.8939 44.1476 28.0466998159
9.01818 18.7814 40.8072 27.7016606853
0.232983 26.6051 46.9196 30.9774592159
8.18038 19.6256 43.5445 27.0674327269
5.35566 20.7249 41.8919 29.8475660777
2.34885 20.567 46.4961 27.5996548441
3.42865 31.9495 39.2475 27.7179858956
5.65842 23.4295 44.0605 37.1689591095
1.97261 29.6199 40.1328 29.5651832328
5.56426 18.9158 44.1821 26.6748660113
6.50162 16.8068 39.249 26.0023934443
2.91404 22.5537 44.6752 30.0078502064
2.58435 21.3798 41.9199 30.7872013299
8.47753 25.5342 42.5938 33.3527720284
7.86085 27.2166 46.0262 28.969065237
9.05716 29.1306 41.6979 29.3729553552
8.21636 31.0044 44.291 27.4010475602
2.82112 27.6307 47.3807 31.6715443902
0.740804 18.7666 42.269 31.9368257805
7.6298 21.8937 45.6509 30.5452814655
0.161866 24.6185 42.183 30.8545954146
5.55777 18.6599 47.0262 32.3038528396
9.69358 31.7567 46.3814 28.419168926
8.19361 19.6948 47.2816 30.8954747562
2.73875 17.4051 38.8162 33.2203599019
3.60135 24.1157 38.9291 35.4345108006
9.71287 30.2109 53.6402 31.2440158522
5.44748 32.4438 49.6686 26.8297851402
7.68277 28.6847 51.8939 29.6636081209
5.95482 19.737 51.6496 34.599956949
8.50832 20.0058 50.1061 32.0064284772
5.17456 22.4823 49.6456 31.1730760845
4.15656 23.3007 56.2993 29.38787577
2.14955 21.0556 55.4105 29.6860325135
3.0794 24.0558 50.9538 29.64118419
3.88624 20.0813 48.7075 30.9147834608
9.56665 17.3178 50.3855 35.0249333819
1.34391 18.2081 49.6356 30.3994287169
4.92087 26.3995 51.0524 30.9699345686
1.77256 18.649 53.8002 31.3758100873
5.2624 30.1749 51.3952 28.4529561049
7.57526 17.4461 55.5088 32.3623730424
0.952637 23.9584 49.0109 29.9041362416
9.30265 26.2396 55.0592 31.3776059365
2.256 31.5137 50.4707 29.5467554676
5.93589 29.2978 48.4086 26.9558713457
7.56716 23.6383 47.9663 30.835213278
8.03561 32.3841 53.1077 31.5542257193
2.80594 32.3809 53.2529 27.0397910946
5.05898 22.0887 52.7871 32.1920260651
3.58911 18.2275 51.3907 30.5533212869
3.02998 28.5136 50.2448 29.0763325523
1.93162 22.2611 52.8113 28.9065617837
0.549685 19.7443 52.0285 27.4030333774
9.65947 28.7724 56.028 32.2374374938
5.28164 25.8128 55.5639 29.0875535442
7.00959 26.6827 48.8461 28.4753799961
9.74847 27.2603 50.1485 31.4475467524
8.08655 23.7957 53.0466 32.4601909791
7.73343 19.8987 54.1777 36.4900821891
8.5147 30.378 49.55 29.4719936653
1.96378 28.0253 53.0193 29.2440289624
2.75614 25.6866 53.8697 29.6754905609
3.21742 30.6232 47.7437 27.7508104223
5.51899 31.425 54.1549 31.2356032209
2.34264 30.0513 54.7063 29.4132168144
6.63817 26.2085 53.1774 30.7883539833
8.94072 22.7331 50.807 33.7408577677
0.00385401 26.3754 55.5104 29.2924541217
6.58096 22.1483 55.4259 31.1003287265
4.91334 29.7684 56.2487 31.8954248997
4.72258 34.6498 7.51555 31.1750052697
3.11335 42.4549 10.3485 28.3555995414
6.96342 35.9503 6.15843 31.0679578508
0.866666 41.7764 8.59412 29.5636627992
8.91762 43.3696 10.4843 29.5324343395
4.6924 38.8083 7.52122 29.3199930883
0.880954 38.3664 10.9623 30.6672294707
5.53765 37.6886 4.68074 28.373128972
2.62022 37.674 4.33268 33.002831528
7.06686 40.1205 4.99438 29.3953216655
3.01001 42.0567 6.58985 30.0528624453
0.0499134 47.6285 3.98561 30.3909745575
6.31103 43.4507 7.247 30.151415398
1.37579 44.5805 6.74697 28.3698569947
1.7524 39.0834 8.3691 30.924184172
2.33165 36.2921 10.653 31.3801613564
0.0840316 47.2465 10.2646 27.54608209
2.59829 46.6324 8.65641 29.5573452087
3.21421 33.7835 5.28786 33.3923849067
5.34864 46.2347 7.2904 31.0135108303
8.71328 46.769 7.65802 29.9057605806
5.32637 42.4838 4.88261 31.8836279767
8.09201 46.7944 4.8088 33.9984050813
4.61079 36.8181 9.18573 28.3851871214
5.98041 46.024 11.8838 29.8911115971
3.59964 45.0941 10.8849 28.4390379234
6.78222 36.1921 10.5368 33.0334876924
7.34496 33.4665 10.6171 33.4226729317
2.89509 39.8577 12.1626 33.9237003763
5.39407 41.5403 8.68632 26.4299251303
1.57817 35.2344 8.20733 32.0172993271
7.41644 39.7691 7.77103 26.1475686424
0.701717 35.601 5.24482 32.8822405061
8.43951 37.3583 8.57041 28.9464026426
9.0442 43.6365 7.5596 28.2915576237
6.42988 47.6075 9.39879 29.9054445743
7.2296 34.1726 3.99493 34.4745589335
7.10184 41.4329 10.9232 30.3959870325
5.00296 47.4331 4.67587 29.311857838
2.04888 42.2405 3.98478 28.8477336506
8.48164 47.9748 11.9215 27.5682370762
8.83961 39.5943 12.2149 29.942979531
2.33791 46.1138 4.71019 29.6301958075
2.66553 48.641 6.56783 28.5262176376
9.74984 45.5679 12.2244 29.7323373565
9.73912 39.6963 4.02125 32.142868902
4.80851 34.7522 17.5438 30.8618172994
1.57017 36.984 20.857 31.4421489844
0.33301 33.909 18.4722 28.8049275359
2.05414 34.4383 12.7831 35.5227137538
7.69267 36.7005 20.5521 29.7167921204
6.42535 45.1088 19.2758 28.5518634567
3.01098 36.4843 15.6904 33.4225367622
9.08268 44.7802 21.2524 30.5404180635
5.81627 40.8365 15.2962 32.2811366639
1.04402 43.6663 18.1773 31.123232821
3.23991 39.5023 18.885 29.0957997825
4.04019 47.4289 13.6637 29.3070302841
5.54283 42.1666 18.1064 31.3061026369
8.781 33.5645 14.3504 28.7387522918
7.83947 43.8996 13.8043 27.5798673197
4.72123 38.685 14.1786 31.9382338141
9.33539 46.2164 15.5446 29.3311832863
0.616091 38.5094 17.4803 31.8043433288
0.063456 47.0857 19.0564 24.9825970936
3.36879 42.8747 14.4331 28.848700765
7.03195 37.6197 13.0395 32.11662332
2.46281 46.0288 17.3055 29.8438145846
7.85992 39.8528 17.2482 32.1306733295
8.11272 48.7108 15.0719 29.5064880615
7.89073 39.6299 20.2024 27.8686685385
4.33923 45.2714 15.3291 30.1076889248
1.89014 39.6319 15.2462 31.5936757857
6.10803 42.16 20.9246 25.1906596643
2.86895 34.607 19.5946 31.8419632453
6.86819 44.5617 16.5118 33.236535002
1.18448 42.8136 12.5935 26.3392009149
0.945154 39.9242 20.7318 26.89207297
8.44675 36.1394 14.7888 27.7709485721
7.62345 37.0938 17.1279 27.1827610471
5.25298 37.3497 18.3237 29.0906958529
3.66016 46.0383 19.6046 28.2025789868
2.88873 41.7647 17.1276 29.0437354852
0.709412 34.5323 15.5545 28.4570624044
6.5123 48.09 19.098 28.7002161495
4.37694 34.0933 14.4235 33.1206180211
9.73577 41.5862 13.9486 33.2828164303
2.10639 43.9337 20.8045 27.6165091036
2.0634 48.4098 20.6302 25.8577080096
1.55687 46.1967 12.4103 29.9858492624
8.90473 34.913 18.0834 29.2805822929
5.61492 43.1526 12.647 26.5899076678
3.32464 41.8441 24.2451 71.2135019975
0.524849 48.1631 23.1573 28.2209080324
7.67487 38.2811 24.0674 65.1928594735
4.30614 46.8376 23.7599 56.9649251557
3.80817 35.9352 24.5456 87.7426348896
4.55346 39.0026 24.1155 66.5638035226
6.54011 35.6368 24.255 73.9669873349
0.916512 40.3072 23.7138 59.0531394615
6.91688 41.0634 23.6874 34.0637639271
8.84099 44.9587 24.1594 67.8916665425
1.8678 37.6171 23.4771 30.3150437564
2.65502 44.5032 23.8062 43.7996888748
5.71282 43.2225 24.5512 105.1447505459
4.83395 48.6784 21.2622 25.8552883778
6.11902 44.6093 22.3906 26.5415287277
5.32735 35.8064 21.5586 29.3859109154
5.30033 38.7506 21.3981 26.5830200546
2.51994 33.6058 24.2502 58.3462903811
7.12063 47.3936 23.6798 44.8429074336
6.82652 32.7072 24.26 68.3633573684
3.65015 41.4582 21.599 26.2584163944
9.27643 41.8041 21.504 31.3890858241
1.21963 38.3062 35.9732 78.8628332727
8.16663 48.6935 36.4709 36.8032818621
4.90795 40.7305 35.7789 84.5419978184
4.39316 34.1901 36.1851 40.8499351689
7.59099 41.078 36.6345 31.7756441249
0.208977 36.695 38.1517 31.1971389657
6.08996 45.8399 35.6603 86.0988962091
4.08981 38.2386 36.4913 32.5509719709
1.30991 46.9702 35.7434 73.439596662
0.144657 42.5632 35.9106 73.1896750588
3.49208 42.1616 38.4697 31.0590240656
5.94245 36.4412 35.5885 89.2458010602
4.87935 48.5943 38.5336 29.2176957085
8.62994 43.8026 35.8741 75.5589062217
2.79718 42.4476 35.6735 70.7555259804
3.35728 45.1386 35.4564 87.5198186159
9.04184 35.1101 36.0341 71.7309180424
8.22625 38.7359 35.527 97.1304734886
2.13876 35.347 35.5301 105.7884712833
6.92124 36.0441 37.8902 25.3360340019
9.57782 37.686 38.1519 27.4469140876
5.38765 48.7664 35.8659 70.2106083758
4.65335 44.6063 38.1856 27.5402487243
0.317364 42.2017 38.7705 29.9628170019
7.33538 43.9343 38.3809 29.315913889
0.836504 47.3281 38.7071 31.1539033524
4.6829 33.4155 46.6675 30.0147906024
8.72302 33.9999 44.2788 25.8561308791
0.204479 40.0512 45.7345 36.1449771094
1.51237 34.5626 44.6154 31.7640619128
5.71211 34.504 41.5381 28.7436880922
2.66215 34.1878 41.6521 28.4865000014
1.37918 48.4026 46.3061 30.1491930277
0.493888 32.8156 40.8395 27.4502649701
6.67381 36.936 42.6012 28.3634793085
3.00687 39.2372 41.3332 29.5818220091
8.2996 41.1968 43.7331 27.4871057638
3.32734 46.7526 44.5866 31.0154138052
4.95758 41.0301 45.5758 29.1613827205
4.84678 39.0911 43.5196 30.0463143665
3.82058 44.9136 46.9483 28.2231139294
5.8888 41.0665 42.1018 29.1377772689
9.17563 36.8115 43.4446 27.6913905254
8.85809 34.2577 41.2817 25.0173018598
5.14378 43.6913 41.2239 30.0135334035
7.23247 38.0605 40.1197 30.2828570057
4.88314 39.4581 39.2694 28.2641452146
6.66568 45.3986 42.943 31.4828066134
9.03638 45.8586 39.6592 30.1865620359
9.35655 45.2451 42.3458 29.4411364433
2.64111 43.5178 42.4937 30.7428028613
1.55487 36.8095 42.5022 35.9037635234
2.84345 36.1199 46.7082 34.5895314608
1.67475 46.1537 42.4056 27.8867050857
2.7799 37.0318 39.0768 30.27791964
7.78093 38.7883 45.2489 29.4782935981
7.81375 41.0473 39.4791 29.924676444
4.77797 47.1568 42.0403 28.0160824982
5.52241 37.1062 45.8645 28.3352156663
1.64944 41.4921 41.1101 29.8759710757
0.774537 42.4578 46.8751 30.1908204206
6.25008 45.5479 45.7004 30.1679701994
2.99368 42.9932 45.2021 31.0327403571
6.9307 34.8143 46.1967 30.3312920389
3.36758 46.6033 39.594 28.7071238044
6.85597 42.8176 46.0958 27.0643380155
9.80308 42.5812 45.945 28.9212364801
4.24588 34.8084 39.0428 26.4528210465
7.90173 48.4741 39.1564 31.9897992305
0.359037 48.372 41.5958 30.1437497894
7.50932 33.5804 39.072 25.969654033
3.29256 44.6276 55.1097 31.543777427
3.10245 37.3657 50.4495 30.2883522902
2.71283 34.2559 48.784 26.8866414198
2.26282 39.4055 52.6879 33.3617597916
7.71682 37.0609 52.9934 35.0306287438
7.86122 45.4964 52.4458 31.3071202235
3.89689 40.4736 48.4173 30.911848641
3.35602 42.601 50.6263 31.8354798376
0.544462 35.6657 50.4769 28.3934725877
5.57052 38.3105 48.3148 28.3842611942
6.21976 36.4684 50.6497 31.7414470022
2.24903 46.9843 48.2689 29.8435880519
7.57019 40.1224 49.394 32.4203950131
7.8958 41.2121 51.9462 31.6926278212
7.52364 47.1324 47.6685 33.7199842819
0.941704 43.6457 49.4339 26.5928580845
5.68919 46.0472 54.4555 29.8627334386
6.54425 42.5275 48.6285 27.9012857953
9.31903 43.4125 53.2368 30.0579431432
7.74903 44.8312 49.7725 29.0509277306
7.62196 48.6986 50.5599 32.8224173075
6.6726 43.3228 55.213 30.2020335798
9.76708 39.2157 52.3017 30.4328328993
-0.0577107 38.7394 50.0943 28.257872422
6.08349 38.4131 54.7521 34.5351714422
3.92368 46.6797 52.0648 31.2244358055
8.09994 35.4076 48.8223 29.0040997056
4.55485 44.9338 49.8105 31.2754649506
0.408503 43.5554 52.9387 31.8741149674
3.60345 36.407 54.5932 31.3083252571
1.877 35.0829 52.9601 26.9768616237
1.96542 38.6483 48.0421 31.4216104006
8.71375 34.6662 54.2384 33.3639544398
9.25607 42.5257 55.8047 32.8344886707
0.266624 46.0687 50.1306 31.2949729783
4.1761 34.4269 51.0787 28.3946329759
1.32204 46.2651 52.4899 29.8803293197
2.88864 42.1535 53.2408 27.3296763679
5.57302 41.0576 53.5238 35.9278396575
1.32504 39.7048 55.7529 32.6223811397
4.55782 34.159 55.6611 31.2004857564
9.32365 47.9091 52.7261 28.7860164978
7.94174 32.989 50.3688 32.6746812509
9.59326 37.8524 49.5593 27.4432858188
9.84572 44.1009 48.3856 28.7967277493
12.3794 3.23273 5.153 31.4021966792
19.3612 1.14897 6.94347 30.2379777372
11.4057 0.54316 5.39924 30.0582126777
10.2317 12.9764 12.1112 25.9932976677
18.6176 0.928776 11.9894 34.5970656719
10.6677 4.95895 6.72178 30.1984062991
14.766 3.29452 6.82761 29.8983880671
12.3587 7.00022 6.80983 32.2219118242
15.1441 6.09607 7.13802 33.0244535344
18.0623 4.71821 4.90305 30.1748015136
16.4325 7.64908 4.9753 30.1449577653
13.7454 10.1431 5.61695 31.1287640965
9.89458 4.00262 9.08143 32.4617552463
15.4938 10.212 8.05043 30.0558553491
13.3133 7.85502 4.21448 24.7246214475
14.0478 14.5861 4.54525 31.9467198861
11.1058 11.6885 9.96248 30.3770065498
13.687 14.1968 8.94358 30.2319102606
14.1471 11.1789 10.4893 29.78128437
17.1811 2.31612 5.9352 28.0257413495
14.1858 14.9109 11.8828 28.7270168246
16.0559 12.9696 8.03143 30.6263388796
17.6394 9.2438 6.56089 29.6764816781
11.8956 3.41601 10.9271 31.2130168126
16.6491 13.1912 5.22343 29.2565190572
14.1113 2.55953 9.3528 32.1572200006
18.415 14.5375 8.92198 30.7156454305
16.6835 2.6495 10.7972 34.3460391121
11.8267 12.172 5.33972 34.1639675921
18.9094 11.4345 5.09042 30.3276083463
10.9159 8.19545 9.03056 32.7744495904
15.7917 6.77664 9.83976 32.4920801287
17.8796 5.06551 10.626 29.4874069789
13.3691 7.67671 10.887 31.0651040685
16.2894 13.0886 11.1057 29.4556741993
11.1371 13.7011 7.73872 32.7703499068
19.7024 3.6731 8.574 27.992384382
17.5219 8.92318 10.0805 34.0070327269
19.3208 13.4296 11.5121 28.6951400865
11.0286 1.03122 11.8681 28.7538875177
15.1709 0.0692212 6.44163 34.6384347505
17.3735 15.8064 3.76761 35.3498478188
13.8118 0.0378211 8.70452 33.3835584665
15.4894 11.2801 3.71367 30.3381955272
14.4828 3.50713 13.357 28.5030049595
10.1385 8.2456 14.9323 27.9895619114
10.6307 2.83833 21.2121 27.8110811744
19.6876 1.69165 14.4692 31.8976202561
9.9114 6.24668 13.24 29.7499453109
17.4131 1.48445 16.3005 29.0962349732
14.1207 9.6936 17.5266 32.46518893
12.952 3.19954 19.782 30.4537671791
16.4212 4.37422 15.0663 27.1611992436
12.2384 12.2615 20.4781 29.1783002132
14.3499 13.226 15.4041 29.666520786
18.1096 5.93165 13.3667 28.967015856
11.2557 10.4286 13.5301 27.1560505014
16.5564 7.97587 14.8829 27.8986367104
11.842 14.9289 13.321 29.0692294982
15.2003 10.3898 14.9644 28.5831166002
14.1251 5.42934 21.1225 26.4596408699
10.6885 8.24655 19.3548 27.6889467616
17.5356 11.5731 13.7956 27.7858036901
11.4857 12.4966 15.1035 28.9126806607
16.3428 14.2521 13.8774 26.8935350585
15.5928 11.7823 18.769 29.4636146694
14.6304 5.91455 18.0682 30.3425174352
13.3422 3.41813 15.8087 26.9726260635
11.6571 1.1609 16.5081 31.103463668
15.2099 2.95559 17.8498 32.7838350593
18.0866 12.899 18.0039 34.6469829449
10.27 14.4985 20.2586 29.4854697084
11.2191 4.96883 16.5197 28.9689419456
18.1201 4.13283 17.8406 27.306016379
14.1598 6.48537 15.0303 28.3632204308
19.0219 3.47312 20.4004 30.0261991402
12.6014 5.70831 12.5131 29.2940373318
11.8896 7.67 16.6566 27.2601551068
17.3736 7.52951 20.1091 28.7737279969
17.0799 6.77334 17.4321 24.2789888538
13.9672 14.004 17.9375 29.3607894156
18.9488 15.0524 19.8068 33.8151720429
12.0465 11.5775 17.7821 27.4189206055
15.3314 0.984606 12.9449 30.9285702754
18.5641 0.173811 18.544 33.4368356797
9.86474 4.99142 19.1213 29.5146515251
10.0144 15.9237 17.4305 29.35004987
17.8641 16.3244 15.1062 27.5346809856
10.0085 1.42568 14.1993 27.9093425702
13.7659 9.75529 12.5553 29.9012055405
19.2823 8.06623 17.0689 28.8073551699
18.4451 9.26833 12.7869 28.1327798672
16.469 10.1812 21.1115 27.2600334025
19.636 12.0228 15.8374 28.9146929485
15.9661 16.3139 17.0262 33.2076619865
11.0671 -0.0377586 21.1396 28.9170829924
11.1101 3.1193 24.0217 53.3313121869
14.897 15.463 21.8009 29.4691214315
19.6832 13.4055 21.9702 31.0074782572
17.1213 6.71152 24.1172 65.3521564833
13.4516 4.6054 24.0679 64.9647802104
12.0798 16.124 24.4504 81.2823427292
12.8298 7.44762 24.4559 92.5514772964
15.3734 8.84876 24.7917 104.4589401102
16.4844 11.0448 23.8977 34.8758367037
19.2466 10.5696 24.5758 90.2493043492
18.5697 14.8366 24.1387 65.5866330516
14.6664 12.8659 24.2988 56.0943425241
15.8494 15.2925 24.6092 88.3664225802
14.6036 1.18936 21.4691 31.8929676091
12.3664 0.723799 24.2965 82.8122200319
17.4909 1.35614 21.4289 28.3212290686
16.0771 3.09593 24.0486 75.368404146
10.4316 14.0081 23.2527 35.2684567634
11.9904 12.0665 24.5775 115.2438585137
18.8151 1.73869 23.9406 68.4368197548
12.2192 9.49085 21.3628 30.6652278467
17.0517 5.11968 21.7868 30.2697586725
11.5243 5.86232 21.4643 30.112767807
14.7031 8.19554 21.8901 27.9202151415
14.607 12.8254 21.4621 28.9290112859
11.0187 9.61234 23.8979 58.2224053274
19.4739 7.79974 23.8928 35.3936282012
14.9807 0.181898 24.0434 67.9514193736
19.15 10.6486 21.5213 27.6625404179
12.2782 1.11729 35.9331 71.3771023052
10.5366 13.1666 36.2253 68.2678813881
19.1265 2.22526 38.3961 32.0390408807
15.1198 8.76352 38.5654 29.9525463027
18.2417 1.1565 35.8792 60.6055841745
13.2978 13.8756 37.2024 34.4295634702
13.8058 3.2367 35.8942 57.8370595884
10.3917 11.0511 38.0279 30.3186678145
12.0984 5.55713 35.6372 81.1784711691
16.8068 3.2678 35.5268 92.716300159
15.6892 13.4162 35.6354 112.2711649639
12.9293 8.43653 35.6865 91.8449384187
14.6294 5.66281 38.1472 27.9167501591
15.1348 2.43071 38.0934 31.3738667941
11.6734 5.57963 38.4269 27.8487599208
15.5646 10.1927 36.3291 47.219070118
17.885 14.1678 37.2454 29.6090817444
18.5655 5.36415 36.0363 51.1326676969
15.2639 6.82809 35.6274 78.228402136
18.2223 11.3905 35.8208 80.3972884032
17.7106 8.10087 36.0829 51.6200194898
18.1081 8.49998 38.5663 27.748866327
10.1346 8.11145 38.4284 28.828086015
10.2802 1.30972 38.6013 31.0273019956
17.3364 4.67531 38.4973 26.6812483704
19.3954 10.8404 38.4205 28.5793056304
14.76 1.14399 41.5934 28.7327771269
11.3726 3.94871 45.2704 32.7335566161
17.4174 2.18471 47.2828 29.2731749359
12.1352 15.4626 45.0904 32.1620597743
16.2293 15.5176 43.5786 32.4072354339
16.4652 3.67416 43.3414 30.1287245786
10.4848 7.80419 41.4432 33.5857015805
12.3272 4.49829 41.0289 34.5493699063
15.1499 4.18379 40.9461 31.0736136716
18.1794 5.90299 44.008 31.6464170546
12.3313 13.8947 42.2927 28.966652594
16.2563 8.31961 41.4519 31.9470165957
10.326 13.9283 46.9668 28.826982042
16.9884 7.58979 45.8173 29.0053528714
11.4007 10.3018 42.0289 31.3770252025
17.3025 15.5425 40.9835 28.4826922625
12.0311 6.14056 43.7267 29.3533776398
16.0062 10.9534 42.0621 32.6312359512
13.1019 0.813651 39.5306 29.2118353843
18.8394 6.30944 40.0272 31.478922947
13.9377 11.5844 43.4952 29.8437295925
16.9727 13.1442 39.7914 31.4344985553
13.1413 10.5522 39.6788 34.6404089804
14.2342 9.46334 45.3168 28.1153283398
15.3377 3.63044 45.7897 28.2140612639
13.4044 1.86289 45.7849 29.476560927
10.5848 2.0473 41.4672 29.3844313495
18.5104 1.39748 42.718 35.3525421222
14.5166 14.7412 47.4395 28.3380993176
12.1886 8.00987 47.4425 31.5705037762
15.7888 0.288341 45.0409 26.0618341767
9.90279 11.0004 46.4515 32.4250139315
17.4408 11.6617 46.7846 28.3294125042
17.4807 9.97342 44.3552 27.6478074278
19.1171 8.07245 42.6023 30.2660462886
15.6443 13.2844 45.1915 31.144574329
19.3397 0.193807 45.681 27.61175791
14.7435 6.87016 43.5523 32.0298347668
19.5569 13.7397 46.1064 33.889809397
12.8483 0.402439 43.3352 29.625101033
11.307 8.9267 44.7366 28.7803583869
19.6555 3.65481 46.1444 29.1898493953
14.6627 6.02986 46.8929 32.6126394438
14.0913 13.3551 40.2183 29.9791049828
11.5505 14.6108 39.3568 28.7999465718
18.1524 9.99482 53.6316 32.6802766826
14.6285 11.0906 47.6874 28.6077869017
12.7327 12.9452 48.5003 31.0724795364
18.343 12.6906 52.8171 33.9234917036
14.7945 6.30197 51.0664 29.2937998937
11.7444 8.94779 55.0826 29.3070769
16.9902 2.26947 50.0296 29.120930951
13.5441 7.32119 53.3377 29.2225920525
11.0593 6.00562 49.4554 27.0598429567
13.3135 10.9954 53.9146 27.4106699547
14.8847 8.99376 49.6173 32.1947289706
19.0784 6.95689 50.4673 29.5589719001
17.4679 9.2357 51.1684 34.8024270411
10.0057 1.44772 50.0732 30.5653691669
12.5705 9.32193 51.0997 28.8440274665
13.7448 0.412618 48.2253 31.4961218396
10.2562 13.2434 52.549 28.7066391858
11.5906 15.9499 52.3238 35.5919955683
17.4177 11.8106 49.7877 30.6881332329
15.0521 12.9731 50.5973 28.7310753072
17.0796 4.77217 51.2708 30.4012281983
12.3823 12.0097 51.3454 25.6635145018
9.92599 9.17466 50.6712 32.9761793517
17.616 2.02011 55.7184 30.8123705917
17.0431 5.90992 55.0961 30.9663696903
15.2051 4.29263 53.9904 28.8327679886
19.3548 1.51793 51.3655 32.4075113071
12.8362 3.98624 52.2407 27.695163735
11.046 4.66457 54.3689 27.058860658
11.5199 1.61369 52.1836 27.3142649546
12.1564 13.2698 55.0694 30.6063786191
19.3963 4.2427 48.9606 29.3585778048
15.3728 13.0273 53.2307 30.0874124758
19.4947 14.9047 54.4553 35.1482482535
10.8694 1.76724 54.9483 28.3436004302
13.4348 4.58655 49.0535 28.4537190524
15.0335 15.2709 54.5628 28.8096307406
13.2708 5.23993 56.1383 30.3126859737
16.4341 15.1437 49.2184 31.3866671941
15.3624 1.31111 54.2985 33.881582768
15.755 8.74778 54.7444 29.3883494778
14.2867 1.77714 50.2275 26.9655902317
10.819 3.51901 48.1602 33.0225077052
19.2554 5.32689 53.3041 28.2928394971
19.1287 7.74042 47.695 33.856702333
16.973 17.5122 6.71922 30.3919139
14.786 20.6336 8.87568 34.2826299173
15.9277 20.5387 11.5806 29.1890094464
19.0499 22.0671 8.18122 25.9074778951
10.4845 27.8424 11.3187 31.0072480355
10.9841 22.0747 8.08838 29.7703348895
16.2074 18.0034 9.35931 29.3354790817
18.6585 29.5153 5.26775 29.2575980551
13.7138 27.2478 10.3807 27.2898325893
14.061 17.0959 6.26807 36.5686291361
12.8057 22.3161 5.86675 30.7526217706
16.737 21.82 7.07343 28.0709765673
13.2537 19.5592 4.86162 31.474754435
13.4264 22.8827 10.8308 31.8859861601
12.5318 31.6237 4.54631 28.9063846709
13.576 16.8683 9.23522 27.2122593724
11.7565 20.581 10.5342 31.9536127478
17.9573 25.0441 6.11251 29.2841079465
16.0132 32.2027 6.8775 27.10275024
18.8666 17.0152 10.274 31.6577411315
13.7444 25.833 5.30305 28.311407342
11.0273 25.8654 6.96734 29.2856663712
15.7538 30.1114 5.07841 28.3578901764
11.7237 30.3635 11.5887 32.3452754757
17.5497 19.767 5.54911 30.4656461106
11.189 17.8015 9.8862 34.8670273878
13.128 29.451 8.75422 32.6343059889
15.532 23.5497 5.35536 26.7915556457
11.5528 28.8705 5.45866 32.3955946106
15.723 27.979 11.9218 26.313473471
16.7145 24.1768 10.6288 31.1284243899
15.4422 25.5101 8.02707 28.0760735542
18.8704 24.8292 8.93144 26.79312838
17.2672 31.8957 9.36384 32.9603841748
10.0956 29.5466 7.81869 33.39617265
17.3164 27.7755 7.69101 29.6499348299
13.1092 32.1555 7.45892 34.0846253966
18.577 27.0981 3.98643 29.9148603052
14.5334 28.1245 6.65911 27.5570970457
17.5517 29.134 10.2989 30.0140525352
12.6499 24.8018 9.02236 30.1860947188
18.7078 21.5096 10.8021 28.4196571641
10.7478 19.6638 4.19842 28.9470541388
14.6001 17.7328 12.1158 29.9317459347
9.83504 17.0101 4.02107 32.0303819668
19.6999 16.4754 5.895 30.7661010699
11.6558 23.8035 3.72002 29.8425690432
10.5308 20.6467 13.1164 34.4571804618
18.6694 24.4926 17.5906 30.256969394
13.8188 29.5622 13.4362 28.3705563312
14.8546 27.1963 20.6112 31.0876777724
17.0497 28.3485 14.984 27.8341812203
15.7641 31.6442 13.7872 30.3760337923
18.5761 20.0228 17.7488 31.6321129343
16.582 23.8155 15.3238 27.0762148669
12.6919 23.2646 17.5204 29.893288672
17.3089 29.5888 17.4535 30.8151882645
14.0838 20.301 16.0711 26.4597721527
16.7595 25.2279 19.7734 29.6309140005
11.9505 28.2022 20.2245 29.9467257426
15.3076 23.8382 17.7386 28.2597064505
18.757 21.0957 14.8063 29.484287508
10.1912 21.09 20.1553 27.8024014908
19.1682 26.6507 14.5818 29.2791967182
16.0149 21.0363 18.4631 32.1809816435
17.2337 17.4791 12.5826 29.2964924507
10.3905 30.4664 14.2342 28.2254780804
19.526 23.8935 14.4703 25.1092621488
14.8525 30.563 18.4931 30.1235668882
14.5588 27.0041 15.1488 30.1742531004
18.0029 28.0699 19.6464 28.0268827641
11.542 16.9164 15.2841 31.2823622688
14.4709 17.8289 15.0064 31.3672791509
11.5172 28.3514 15.2391 27.4953630643
16.5781 25.5718 12.8653 27.4933823522
18.2835 32.0062 17.9031 29.6769334542
11.0998 25.503 18.682 27.5860864931
14.0986 23.898 13.4507 29.1432813571
13.0052 21.2272 19.4498 29.9077020956
12.5101 21.9067 14.6235 35.416757621
12.5837 26.4861 12.8984 34.9349461729
16.1262 21.1628 14.231 29.1696256166
17.7387 18.8887 20.5237 31.1629488739
12.362 29.8257 17.6451 30.8185425073
13.423 26.5055 17.809 30.7300899865
18.1986 30.3073 13.1924 32.2451827441
12.2334 19.0496 17.7983 29.1912732751
16.823 16.4464 19.8208 32.137102839
11.9748 32.6581 17.377 28.3789255181
12.6828 32.6395 14.4719 31.6081904309
12.5171 16.5682 18.8765 30.6246485778
16.0301 21.3642 21.368 31.4597603635
13.5567 31.9589 24.1434 75.7536430894
19.4974 17.2945 24.3412 78.2167141772
14.7872 17.8199 24.2475 52.8775831061
13.5896 21.973 22.4486 32.4197459524
10.5741 18.4343 24.5711 96.1337940302
13.2718 24.6071 23.9527 101.1900985249
17.8445 21.1824 24.7874 114.4885826384
17.0355 18.7672 23.382 31.0514341196
17.3917 24.0458 24.4302 87.6296972351
11.1511 25.1466 21.618 31.7366379877
15.7974 25.7692 23.2675 30.7416774489
12.0352 27.2498 23.5931 44.1084926636
13.7943 29.3217 24.1182 68.5849754986
16.1174 28.2073 24.2438 88.5165679864
13.1994 20.034 24.6621 113.5794685862
18.6669 29.2457 23.8775 49.7579511351
15.4859 29.9552 21.2497 27.1483006576
10.4482 22.4502 22.4355 34.2850978787
18.5399 30.2683 21.3723 27.0358010173
17.705 23.5571 21.6049 29.7582220971
18.2752 31.91 24.3462 104.2208296825
12.8568 31.3511 21.3797 28.4906055431
10.0354 30.158 21.6009 29.5040119183
12.4686 16.5531 21.5389 28.0260997295
11.5869 19.1184 22.0474 30.3751564851
9.92233 28.7245 24.1637 79.9382477416
13.9243 18.6604 38.56 27.3659528962
14.1584 23.5619 36.8796 39.4229993566
17.4656 29.2853 36.1183 46.0707273688
19.0497 20.1728 35.7316 82.214784718
10.6986 25.0794 36.3214 34.9336931888
19.7549 29.4133 38.62 33.7931243565
13.0253 19.2709 35.5771 102.3911342261
14.3895 26.1808 36.6447 32.1127786016
18.802 32.0544 35.621 74.6849794891
16.7725 21.9371 36.1849 74.9822090202
18.0423 24.3348 36.4047 42.3377275772
13.8176 29.6625 36.3709 37.4030123971
10.1104 28.9746 36.1063 53.7274349033
14.0252 16.5593 36.3307 49.3161745871
11.8883 31.5369 36.0003 74.4145823792
12.1457 27.0932 35.3051 127.9116237105
16.3924 20.5505 38.7219 28.0551171198
18.4417 31.9948 38.4213 28.6211974596
12.29 20.8591 38.1877 27.0860281738
16.8159 26.7053 35.5538 120.4126127894
17.1404 17.6255 38.386 29.8660041511
15.6159 31.6568 35.6592 87.9937246019
11.5439 22.2221 35.8321 84.762620403
10.7285 17.5427 35.5149 98.637846476
19.6807 17.4536 35.5845 82.615486888
9.85539 19.4209 37.8381 30.8795893613
17.0093 16.5001 35.8331 78.1458611506
11.9421 32.307 44.7656 34.7077463087
17.2965 17.6406 45.0018 32.3860309647
10.7907 28.8231 38.8282 31.7707910412
14.0343 23.4344 45.6605 28.387415187
17.0902 19.6289 42.8681 30.9056084281
19.0004 21.7803 42.3059 28.1775188702
18.3709 24.5516 39.2751 32.3193840367
17.5177 30.3772 47.4926 31.4873536822
10.1042 17.4458 44.1478 30.8587046677
11.5889 22.6213 40.5923 29.2051829634
14.1655 30.876 41.4306 30.1480465783
13.6159 29.0416 39.2504 36.399822502
15.5944 22.2732 42.5311 28.4732872786
14.4228 27.5408 44.1279 32.3743516732
12.6591 26.5082 42.4281 30.971711953
12.6026 23.7293 42.9808 28.8290299551
10.2656 27.4229 43.6238 30.9711588719
17.422 23.3396 46.3534 31.3268765104
18.9129 21.6712 39.387 29.4344964709
10.3062 31.8153 42.0811 29.4980390093
11.0427 27.2599 46.2484 31.8368555997
17.3212 29.7497 43.152 29.6776517861
18.3461 27.8575 47.0481 36.348857865
15.86 17.9874 40.922 29.3928565985
11.2069 20.695 45.0921 27.5707780576
11.2244 25.0628 39.2834 32.3611405993
16.8539 32.0356 41.1318 31.4956835977
18.1079 31.6247 44.8593 29.7127570455
13.7365 26.3924 39.6736 29.9338550435
10.859 18.3322 46.5357 29.0073092004
13.5009 17.3932 47.2621 30.3230546969
14.9661 18.9326 45.7198 29.9139421197
15.953 24.7191 40.7229 29.1197589258
11.5603 18.9826 42.2065 29.4677779484
10.1865 24.6071 46.8869 27.6285924183
12.206 17.2275 40.0387 30.5490485829
17.6703 23.9059 43.7466 28.7968551737
13.7961 20.5806 43.7831 29.3536408321
16.6365 26.5184 42.7283 32.9409092158
14.6327 30.2525 43.9285 31.6973893678
14.6833 22.469 39.4782 28.2282417249
13.7591 25.9235 46.4281 37.0268655857
10.1911 31.8351 39.0717 28.4010983383
11.8967 22.4153 47.2597 32.0737013463
19.0678 16.5327 46.936 34.5371879587
15.4003 21.2589 47.3753 30.5538785492
19.2248 26.9404 42.8181 27.3280891836
9.94405 23.3141 43.9637 28.3531866546
15.4837 32.5498 45.1944 29.9316877584
13.758 16.4326 42.445 29.3001854678
13.7751 22.16 49.6419 28.8440648616
13.0252 17.6133 50.2942 32.1740512876
10.381 29.5446 47.7033 30.295803659
13.3257 18.8387 54.7239 28.6128036394
19.51 22.2378 48.6734 31.60701922
18.0014 29.9268 51.9393 29.7229559923
15.1772 17.4606 53.0642 31.3676989277
18.0021 24.1194 53.8221 30.818206379
15.8834 20.5161 56.0285 30.1145863283
14.3539 28.9891 53.0911 30.2645850512
15.8055 25.1452 50.3427 32.3769491159
13.1017 24.5788 51.0666 33.1867998055
17.4257 20.0768 48.8457 38.0938339519
15.1716 30.8103 55.248 29.0022147558
10.7317 24.8111 49.6122 30.3856647083
15.4133 31.4266 51.5378 27.5596105229
12.2499 31.7361 54.4178 29.1447903297
14.3305 26.7878 55.2628 36.1649084657
17.4366 32.3864 53.7468 29.8358565563
15.0095 30.4632 49.0054 37.9151449917
9.89058 21.7276 54.9081 29.1427079089
19.359 31.1093 55.6176 30.947858371
11.844 16.3944 55.0113 30.6534523483
11.974 20.7485 53.342 32.8406531555
19.5112 21.0211 56.1476 32.3268816781
15.9293 21.0047 51.1594 29.7866423289
16.6703 19.5684 53.4303 31.4693367835
15.8174 23.0679 55.2093 30.5286289781
16.4394 27.693 51.6535 36.5669673194
19.299 31.9553 48.8692 32.2550082554
15.7597 17.8265 50.279 30.1015825139
13.447 23.2681 53.7387 31.9274992876
17.4174 23.3437 51.2404 30.1464459244
11.5434 28.4955 52.0973 32.4804350403
12.2796 30.3949 49.7094 34.9766418788
16.4554 25.6353 47.6758 36.047197435
11.9729 20.181 50.6633 33.6297568096
12.0108 25.8851 53.721 31.9895453767
17.3293 26.7694 54.3528 30.8350632511
18.817 16.5234 49.7438 30.126707449
19.5136 19.211 53.8713 30.4324767364
10.3021 32.8484 10.493 35.9549801847
14.8999 34.8329 6.17892 27.3684696677
12.3314 42.3868 10.4446 30.1413990994
11.3769 48.1631 7.53908 27.7906479133
17.2078 35.6055 7.53895 32.1704614054
10.8044 37.8246 9.63489 32.0509865207
14.7896 33.4118 3.62488 27.5223705556
12.6363 38.2525 7.23158 27.1242798702
14.4136 37.4261 4.76349 26.3511451424
19.6573 43.7162 10.9608 30.4065536568
17.7811 37.9633 5.91949 33.7911194653
16.3949 40.594 5.96756 28.9367803224
17.8255 45.2887 9.29004 34.8227343037
14.1937 43.6296 7.55015 31.0292047402
16.9403 43.4123 7.37185 28.0090136832
11.6131 45.377 7.07935 31.9361823627
10.3592 37.4345 5.59851 32.9264385453
14.8749 41.8701 9.68093 31.3485711086
10.0613 44.6522 4.60056 31.719909996
14.2386 46.7135 10.691 35.8269449865
16.3878 45.6607 11.8132 31.0648357214
11.6824 45.1259 9.99075 31.6596870672
14.0938 40.0036 4.31968 28.4655889587
17.4983 47.5731 5.2994 28.9648366308
13.2194 35.645 8.29856 28.297174826
12.882 41.1126 6.53033 30.231080064
18.702 41.2146 10.9789 29.0803141135
18.3622 35.8143 3.74332 33.5701045594
16.1539 37.1458 9.72662 29.7582418682
16.0068 33.2072 11.5288 34.0818384364
10.769 34.2686 7.92077 34.1540431275
17.6263 33.1621 4.46814 26.4618013444
19.0907 47.184 7.67985 32.0196483123
14.2556 35.319 10.804 32.9202696958
15.295 39.3602 8.41173 30.9294106411
18.5503 39.492 8.76538 28.4732436973
19.2233 41.6394 7.36518 27.1140934321
17.0007 44.7557 4.82351 31.9974876785
9.95006 40.9155 6.92683 28.4038750189
9.99585 33.4039 5.08938 33.6330494511
17.6835 37.5155 12.0603 28.8437689628
16.513 42.7311 12.0085 30.7568055256
10.3083 40.6577 9.79109 28.2943186097
13.9634 48.9092 3.8239 28.7893001576
10.776 36.9221 12.4596 30.2321897161
18.9406 33.5893 6.92044 29.6901169715
14.4526 43.3876 4.80041 30.0466763661
18.0715 34.7918 12.4438 28.3906501722
13.0169 33.7014 19.7805 27.277996943
9.83585 45.6244 18.2931 31.1237502478
13.8244 46.3824 18.41 29.6185729465
10.6802 48.1178 18.4992 28.2419305204
18.8825 40.6547 18.7617 26.9954938807
16.8533 38.2916 17.9543 27.9458865465
14.2628 38.7785 18.1972 27.8974748077
14.0181 36.242 15.8082 31.5043354174
16.5156 39.9637 13.5285 31.5535846489
13.5061 36.9153 13.02 32.050594119
16.1747 48.3202 14.9076 30.2605260888
13.8791 39.6442 13.6215 32.5689583754
19.4039 38.7443 15.5788 25.5728203503
18.2401 47.6661 21.225 28.8659373955
19.2866 41.6996 16.0056 29.9747177397
11.71 35.9295 17.5704 30.3135803536
17.8707 35.6235 18.4009 29.5007444102
18.5828 47.1449 13.452 35.5803286663
12.1601 37.8541 19.8464 29.276244294
11.8586 46.4793 14.5496 29.5643898362
13.3567 48.1102 16.2402 30.8844440821
12.3055 42.0218 13.2644 31.5337589822
13.5324 40.6015 16.1303 31.8466270993
16.1943 45.1891 17.3821 31.427935003
10.9266 37.5987 15.4096 29.4249251855
15.7569 33.512 18.6277 26.9346163484
17.0606 37.4718 15.3172 26.9301034002
17.6135 34.7978 15.437 29.2047361604
15.4034 45.3566 14.8341 27.2861755744
14.4816 40.8513 20.1964 30.3512245219
13.8968 47.5315 21.0947 29.762106096
12.2344 42.7402 20.0436 30.8188940798
17.3062 37.7157 20.8849 26.3595194875
17.2563 42.9522 15.0374 34.0226661126
15.0219 33.5373 15.9767 27.6525616438
12.2838 44.4007 17.8344 30.2210663661
10.6249 40.1446 19.072 32.3410973331
13.301 43.924 15.2315 30.8717023236
16.2811 42.3443 18.0446 32.7868738617
10.9031 34.0056 12.6948 29.3911975277
10.719 40.1024 16.3189 29.3686611687
19.0558 46.3381 18.0488 35.2929346625
17.3515 43.0451 20.7284 28.0417223029
11.8855 45.685 21.172 26.6808741405
13.0456 48.2313 12.5416 30.1930814518
12.3066 36.4625 24.1422 69.7946695247
14.673 37.8886 21.5528 27.7085434014
10.932 33.5833 24.2548 82.9271214075
10.4655 36.7711 21.6777 30.1597659806
14.5408 38.248 24.3893 74.3863825239
16.5293 36.2155 24.2632 86.5727798522
18.1696 35.277 21.924 25.6218740052
12.2615 42.5573 24.3686 69.684336325
9.93225 41.4533 24.2682 70.2829084428
14.0586 43.6422 22.085 30.2785150065
14.6665 41.1289 24.6858 119.7875941709
18.7382 47.9414 24.2581 94.1850668912
11.5832 45.1972 24.1972 78.2366137899
19.1064 39.7125 21.5514 24.4339026206
17.4703 43.5866 23.841 62.8941616827
16.3325 46.4465 24.0155 78.3295792366
16.066 45.6571 21.4312 27.6058707623
10.7403 34.119 21.6189 27.6412790433
18.9677 37.6202 23.9447 62.0497486366
15.9116 33.1932 23.8338 44.4086160134
10.6121 38.7444 24.262 80.2702231258
16.6725 32.9475 21.3291 25.0977925507
14.4951 35.1061 21.9572 29.5250412215
16.3541 40.9055 22.2955 28.6955740786
10.0075 48.1155 24.3071 86.5116221266
16.4021 43.3179 36.2094 47.9613890391
16.5873 46.7445 38.5224 29.6700329273
13.4773 33.8883 35.9086 71.4127390272
19.2948 37.7421 35.2664 89.8093686103
11.6503 36.4143 35.9586 75.2163806611
19.1247 34.9539 35.55 80.1746726947
16.0482 35.2544 36.2105 47.0024396552
16.56 38.0367 35.7446 76.2852128535
10.8648 42.3873 36.035 54.4919390068
11.3528 39.5419 35.673 84.2653596464
13.8276 40.3234 36.1323 59.853546012
16.3134 48.0489 35.8224 74.9948122276
13.6309 47.8741 36.3098 36.0863445928
17.9201 40.8585 35.7403 71.8831964492
13.7063 43.1235 36.3245 40.1783892844
17.9848 45.5863 35.4063 104.107103943
18.4088 41.7922 38.6246 29.6089824759
12.5604 45.503 35.5566 110.9840997425
18.9864 45.1408 37.8246 25.002356226
15.2383 32.6839 38.3007 29.6145450301
13.644 36.1829 38.3198 30.373843084
16.2719 38.1981 38.4558 27.1543795645
11.6305 45.583 38.6854 30.3182538972
10.006 46.304 36.1647 56.6836151427
10.187 47.8649 42.6171 32.2902033648
11.9864 37.0177 41.6738 27.3230585848
15.1204 34.8713 41.8295 23.7675123943
10.6781 42.0673 38.9747 28.8209360452
13.1445 43.565 42.3114 27.7480853794
10.5431 35.6182 39.8566 26.0899061039
16.5432 48.1462 47.555 29.4146264089
12.0157 36.067 46.3812 29.762046256
16.5168 45.4288 45.8811 25.3692196835
18.3346 48.7585 39.7771 29.617086817
12.5904 40.1508 44.381 31.5360173792
17.7 36.7422 44.0987 25.9979926216
14.0224 43.9151 46.3561 28.0797534362
17.1718 44.8974 41.6825 29.2953861375
13.7485 47.1805 39.0181 27.5171082022
14.6072 37.2529 41.2645 24.4652306565
14.178 46.1667 41.9121 30.9112366219
15.5146 41.0926 40.7765 29.0505107527
19.0505 35.578 41.0627 27.2809606738
10.2957 42.6889 41.8741 29.7702828502
11.1432 39.476 40.0674 30.4578619509
14.7094 35.4682 44.6533 24.794826073
16.6426 48.0492 41.9848 25.3161266706
18.252 47.0681 44.1641 26.2681651893
16.5637 39.7118 45.6489 25.7726755385
17.3893 34.0642 42.8895 25.6569429029
17.0516 43.4509 44.052 26.3164188468
11.8106 34.9063 43.9706 25.3198946955
10.3687 39.6222 42.9272 27.7845083851
13.9516 39.73 38.9102 28.8800094007
14.7714 41.8543 43.3918 25.9651789508
11.3334 47.0545 45.1078 34.5580997161
14.2929 46.9811 44.6795 27.9319649841
11.5647 40.8237 47.1389 31.0539565353
18.1099 40.5843 43.6156 27.1271313902
11.6368 44.2027 44.6793 27.9936085165
18.9397 38.7704 39.5955 26.7450607255
16.773 38.9751 41.8481 24.4068926041
14.7475 38.3535 44.0602 27.4605430095
17.2631 37.2209 46.7753 30.9414652147
14.8192 41.3729 47.207 31.6863421473
13.1192 33.1273 41.64 24.8348401134
18.0168 41.8664 46.9593 26.4000516178
10.267 38.2676 46.9516 31.8017160751
16.8333 35.0795 39.0672 27.2114676833
16.5163 43.606 39.2325 25.9029996373
13.508 43.3347 39.3042 28.2637064383
14.7625 35.9288 47.2363 28.4637344632
12.1327 33.5391 39.086 26.4241925959
14.3133 37.5057 49.7795 33.5696503162
16.6377 39.3867 53.5819 29.2243439775
19.3786 37.594 50.7626 32.9187476725
16.4788 46.4965 53.6082 29.375513704
17.3545 33.8169 49.4182 29.1133665064
11.303 40.5924 50.2099 29.5935873885
14.4999 41.8631 50.0396 26.1579107812
13.6098 39.7923 51.4022 27.4236193577
19.0209 44.0343 55.6639 30.4848159337
16.9634 40.2685 50.8296 31.6855981718
18.589 39.7677 56.1138 30.1766008157
14.5394 48.7018 52.1842 30.0351343466
18.0636 42.0216 54.0148 30.8095977089
12.0509 43.2208 50.1218 26.9574092474
19.401 35.5747 48.4128 31.7667421078
11.5284 47.8762 49.368 30.3244074583
12.5081 44.9284 55.9839 29.4936562204
19.1534 40.5783 49.2319 26.5181031615
17.6033 34.5225 51.9099 26.8847321643
16.1501 43.8944 52.8517 30.2489318888
11.9622 36.5781 56.177 29.271242492
12.5716 36.4755 53.1147 32.2695102421
11.6533 39.0069 54.5776 30.3016274248
12.6055 33.041 49.4237 30.2024210678
13.1918 45.2584 48.562 30.9717768308
16.4373 37.0912 51.3462 30.2639930884
10.5355 34.1457 47.7055 29.0930564066
16.2518 37.2691 55.4002 28.924455112
15.0872 33.1368 48.0649 28.0122912971
19.4714 47.7137 50.5 27.991763724
12.0083 36.1455 50.2722 33.7211956051
11.8699 48.192 54.8531 30.2929672329
15.3129 35.0186 53.7645 28.7486732431
14.0187 40.5888 54.1726 28.904367662
11.875 44.4144 52.7466 29.2992347105
11.9823 47.0677 52.1849 28.7134903559
13.8984 43.2269 54.0053 28.6832678372
15.4484 44.4996 50.2079 28.2099482259
17.5714 44.2516 48.333 28.6157046852
16.7558 47.1518 50.662 31.8190576145
19.3137 46.3044 53.783 28.6853742621
11.2356 34.3264 55.0163 27.0598193176
14.7388 46.3199 55.9654 29.6188263694
19.3788 46.989 47.6005 28.1055153544
18.5632 48.3931 55.7746 29.2134851276
13.2366 33.2496 52.2876 32.5167414196
10.203 46.5761 47.5811 28.5487296176
29.2996 1.6684 10.4458 26.9306364163
22.3854 4.0474 6.0221 33.4686788678
20.0692 13.7117 6.93099 35.6324407479
26.039 16.01 11.0598 32.4517522454
27.4441 8.65403 5.09443 32.6826693321
26.2826 3.41151 4.67074 28.6564295925
26.3666 3.91115 11.8884 25.6267886179
20.6513 9.21998 5.92067 29.3170024775
25.0019 5.67179 8.76059 30.2575523892
24.6958 5.12738 6.24594 31.3138595158
26.0219 10.8561 9.02928 32.4249263751
22.7647 14.1048 7.95971 29.5211294753
28.2816 13.6895 4.94743 29.6241283717
25.0158 9.86235 6.36646 31.7037552653
22.0716 2.14793 8.88924 28.2801910937
25.7018 13.9176 8.87596 33.4864370631
21.9368 14.386 10.6025 32.4770696317
23.6737 11.9258 10.4431 29.4990207827
29.444 5.26188 8.28452 25.7668226335
28.9657 3.60223 6.0418 29.7912329374
25.6716 14.2296 5.84385 30.7822968637
20.8902 5.56542 10.5229 32.6130599477
29.0967 6.2256 4.45232 29.3957499397
24.0841 3.6962 10.1852 25.9350033984
28.8993 14.8215 9.38927 35.7372037815
27.2941 6.25662 10.3987 27.6374863909
27.1979 1.33234 6.70531 29.4875889366
22.5163 11.0057 6.85741 31.7325668305
23.1687 7.41769 10.0146 33.6361322948
21.6092 7.78736 4.17154 29.9420081575
19.7734 7.73725 8.60659 29.3517897074
24.3629 7.6624 4.66819 30.1783103256
26.6951 8.74999 11.0079 30.0632465228
22.9569 0.988204 6.28612 28.6490768938
21.5996 9.87343 9.29033 32.0052190822
28.9765 10.2429 8.89185 33.280716923
20.7308 10.9433 11.8095 31.8567007732
27.2814 2.71678 8.96294 27.5439514602
25.4538 1.01022 10.2644 28.5967707753
24.3249 1.65749 3.70377 28.970821908
19.8993 5.38136 6.82551 30.017637077
28.9481 7.8054 7.51982 28.8016210647
24.9267 11.9576 4.38211 34.6091639493
24.8958 16.2322 4.39021 34.0640377083
20.0802 4.60082 14.4261 28.2235646771
28.7243 2.51492 12.8767 27.3422554512
21.9691 10.2788 14.6283 27.6948504769
19.905 10.4437 18.7045 29.6377995632
20.3322 8.14079 14.5199 28.3332390807
22.5166 4.14345 12.6168 30.5357116148
23.9392 9.07215 16.1482 28.5760366849
24.6229 5.83208 17.269 34.4679608705
21.9579 0.238575 14.8424 28.9550382325
29.0085 5.38328 13.3707 29.2316539611
24.4088 13.1872 14.9982 31.6164663279
21.7468 4.28231 21.0036 26.7930667265
27.7116 1.21266 20.5927 28.1583139229
24.1561 11.0799 13.0212 27.9543213916
24.7042 10.9649 18.2501 26.6092984356
21.2533 0.793726 18.7892 31.9655662607
27.2163 11.1356 12.6945 32.880267384
26.6859 0.997187 13.5114 26.0638139147
25.1131 4.29994 14.5906 31.1287449212
25.0807 15.9587 14.1467 29.3352410648
20.6536 4.70679 17.1025 29.2049949609
22.9774 6.17728 14.7194 26.2450619281
26.2706 12.9926 16.9261 27.3878887732
26.8646 9.52832 15.3643 31.9385964726
22.5049 3.17013 18.4714 29.0845224006
25.6833 1.4503 16.3248 28.3763179504
26.5447 6.8862 13.6345 29.8864807701
28.2609 3.90246 19.1833 28.927806933
22.5525 8.25541 19.9885 29.4111263568
22.0056 7.31965 17.5295 25.9604534204
28.4157 15.6733 13.1846 27.4826886734
25.4954 3.41956 18.0435 30.040404209
24.1314 14.6322 20.0332 29.6089284768
22.1325 12.1302 18.4916 29.1767856595
27.7092 7.37196 19.5304 30.8089254672
26.8006 15.3559 18.4366 27.1912320318
27.8575 13.3234 14.6205 28.6387545446
27.1312 9.75716 18.3627 27.2929832714
19.7783 14.4652 14.0857 31.1130943462
22.0353 13.8751 16.5412 30.2385525034
21.369 16.3049 18.2293 29.3662373472
23.997 8.05946 12.5689 30.1842666283
29.0644 14.6252 20.1058 26.8404424179
25.7779 11.4581 21.0991 29.1294453217
23.7792 1.47352 13.3052 29.0205629081
29.0995 11.9528 18.0324 29.8000488162
28.9986 7.52598 16.2316 30.1755908712
19.9016 7.685 21.068 30.7479860136
21.0893 3.40074 23.7724 41.3255884218
21.1432 6.00303 24.6489 119.9361271663
28.2629 4.65818 24.6229 102.0156923084
26.3195 2.31977 24.3846 64.895094579
23.3528 14.5507 24.3972 79.8872957859
26.0694 5.60922 21.3667 30.6612457547
23.6727 7.20922 24.0953 59.618336386
25.9012 2.88222 21.7831 27.117172892
26.529 6.71334 24.1874 67.4322254485
27.7228 9.22578 24.0462 57.2764074199
29.2004 12.6632 23.7408 42.4980062418
21.9275 11.6646 24.7455 99.9797662787
23.5017 9.89691 24.085 49.4570630272
26.1308 11.4369 24.3263 80.3187491722
23.4854 1.63445 24.6545 123.6754326158
28.9303 15.4975 23.8026 44.8833889239
26.2121 14.5273 24.3288 70.717524781
28.1622 9.74568 21.3738 28.1443406287
26.3743 13.9665 21.4136 27.5207618455
23.0235 10.8458 21.3399 27.3273062582
23.427 2.37135 21.5261 26.9498976818
22.3986 13.3063 21.9756 26.8456512458
23.4101 6.41574 21.45 29.2081866714
22.5827 7.51904 38.4587 29.7575360392
29.1888 5.27296 35.8773 67.1670897085
27.4954 13.9006 35.7126 84.8020862273
26.4039 5.64648 36.5984 35.8862109374
20.4781 13.5862 36.2727 45.880855898
20.6801 9.05893 36.1061 54.861757961
22.8089 1.99391 36.2104 47.8466877018
25.0441 10.8103 38.4505 27.5674295157
25.4725 3.15153 35.863 82.3959017112
28.2744 2.08238 38.4776 26.5585353375
20.927 4.53314 35.9239 72.9363863092
22.4734 11.5478 35.6868 85.6709633355
24.8882 7.64541 35.6251 91.739885546
24.4654 13.5718 36.263 40.0526825461
22.3718 6.81334 35.794 72.0457181393
25.3462 10.1956 35.794 60.9065105365
25.4587 2.03215 38.4445 27.6329830613
28.0419 2.38114 35.7373 68.0797092067
28.1096 10.438 35.6909 68.2167457403
22.5609 15.4121 35.6752 86.8224381944
23.94 16.2979 38.3727 29.6561919697
29.391 13.2674 38.4089 28.1936847486
28.0812 10.3507 38.5527 34.4965943491
21.7408 2.79316 38.5382 27.5898389105
29.3751 0.692653 45.11 31.8513810234
29.4056 9.9336 44.889 29.6198501328
21.4005 6.51298 42.7774 30.8185461087
26.9847 9.98268 46.382 30.1237054715
21.5694 1.57494 43.3114 32.5311887913
24.2498 4.10526 40.208 29.2382924161
28.2535 2.77495 41.4266 31.1165914314
29.3914 13.7302 42.2842 29.4866673953
22.8383 0.195274 39.6862 27.1714874885
22.2287 10.9037 41.5795 26.9403181857
23.8829 14.0895 44.2117 32.1802121577
23.3816 8.55404 41.9967 32.3864864463
25.8683 8.85023 40.4791 27.3619722713
22.0978 4.39101 44.5255 30.7074805532
24.3682 1.63081 41.8759 30.0820874875
28.2262 14.4716 44.569 32.7189660603
21.3291 5.10884 40.2247 32.9621050397
27.8056 8.82682 42.9145 31.5116601879
23.9733 13.0501 41.4927 26.9035561152
20.2059 10.1678 46.6925 29.8000862683
27.2822 6.52978 44.1473 28.8218341907
27.52 14.3311 39.9663 25.9696927383
24.8214 11.4481 44.9021 30.9934097737
21.4577 6.21063 46.6089 29.0965741022
24.9065 0.29552 45.0893 29.6749423451
25.9731 11.3906 42.2569 33.1965405783
26.3111 15.3754 42.4856 31.7213863729
23.0084 9.22447 44.9314 29.4037273008
25.0754 13.6601 38.9831 24.739970139
22.2594 0.420464 45.7474 26.9743860149
20.9688 13.7306 43.5109 34.7139094267
20.0269 12.9895 40.5125 30.3312320052
20.4721 10.6399 43.9265 30.2128141945
28.5904 12.5951 46.7004 31.0321817709
25.3064 7.21854 46.0618 26.60063778
26.4407 4.75109 41.8919 30.0122653892
26.0669 3.05395 44.3907 28.774626768
28.4836 3.02758 45.521 28.8642763065
22.0465 13.5823 38.9458 26.5744256185
28.5252 6.61627 40.6241 29.0068015971
24.5333 4.80516 45.781 25.6719022394
24.9837 6.55639 39.1067 29.510269783
19.8939 15.7859 41.6675 28.59091537
23.8491 13.2419 47.3611 31.0154896564
22.1274 10.2172 38.7969 26.4675733892
22.8132 2.3987 54.411 28.1484024897
20.8841 5.17978 55.9597 31.4073748342
24.1313 3.85752 48.0505 30.227788209
28.7447 1.60102 51.0323 29.7675422973
22.6932 6.20513 49.4069 26.7045074369
22.6544 1.44253 51.658 30.1248079549
22.7589 12.9232 54.9704 33.7083109451
23.712 15.7328 48.6077 32.2526351889
22.6924 5.34678 53.5759 25.6303952446
28.2599 13.281 51.2748 28.4180180667
28.6958 9.73731 55.2248 33.1238895578
23.1108 10.4352 49.6388 35.5068104355
25.1591 12.5533 49.6652 26.699424562
27.7799 3.87223 48.0267 31.3925964497
25.2547 6.54348 50.197 27.9759399481
21.5142 7.31876 52.0851 28.9153274042
29.3097 15.8175 52.4029 28.9647297209
20.0038 2.6806 54.0342 28.2011937356
23.1502 15.6961 55.0997 32.8915403152
29.2883 7.99723 49.0678 28.4616480374
21.745 2.10433 47.748 30.3830192447
24.5877 4.28499 51.9342 28.0250568642
21.3207 3.8993 51.066 25.8908443954
26.5438 16.3452 53.1568 30.0460696413
27.0365 6.67778 48.1968 28.5210369641
21.0137 9.35108 54.4307 34.1247938369
29.1878 10.5752 50.7078 29.2902411795
23.4226 9.55926 52.4096 31.1516095665
24.1662 7.57283 54.52 30.8142244444
26.6421 10.0975 49.2531 30.6023236267
28.9987 1.64591 53.8359 30.1242724261
21.1905 12.5567 47.8864 30.5152052844
26.4596 2.83555 54.2504 28.6123003776
26.0052 8.26465 52.1701 30.4758270293
28.8379 8.45229 52.4731 28.8333723556
20.3552 11.9426 55.4305 31.195109138
26.3927 13.5721 52.9889 29.7814122139
