24.2624 26.1123 39.2184 32.2706921144
15.1497 24.3627 38.6653 33.8480723524
23.5671 22.8568 42.5297 26.0819748646
16.8839 21.3352 38.5957 30.7129575898
12.7947 23.5311 40.257 29.0858000853
18.3792 22.4905 42.8386 29.3606298711
16.7146 25.4035 42.5538 27.077569395
20.8416 23.4025 42.8184 26.5737115582
13.1975 22.3198 44.1927 30.1571791629
12.9569 27.7562 40.2029 30.608175785
15.0295 27.3422 38.4495 29.4816672339
21.8267 30.3936 43.6038 28.3827022796
16.5408 27.8113 40.9574 29.6596039253
21.629 23.0174 40.1007 30.8247760892
23.0054 32.6235 40.4865 29.255936828
21.7837 21.2967 44.7803 25.508446055
17.1002 31.8672 41.5996 26.3531786189
15.5903 29.9032 42.6353 30.0203160733
22.5648 29.8454 37.7417 30.1724923855
17.8077 16.3554 38.4934 28.1792458561
15.9254 18.8564 44.3013 31.1894301285
13.5523 30.5861 40.0222 27.8112894093
17.1041 23.3539 45.3287 34.5566307635
23.9319 19.1049 43.7712 29.5770584768
24.0833 22.1164 38.4987 27.8090085335
19.2133 26.9774 42.7466 28.9891884085
16.4541 29.2442 45.2433 30.9534479294
14.0359 24.6518 42.8112 30.0960980048
22.0055 17.5777 39.8162 26.9197273969
22.5066 27.869 35.7559 88.0368287607
13.6098 19.5585 35.6048 83.3078921767
14.2851 17.348 38.4796 27.8917779384
15.7935 17.6324 35.8427 63.1118781028
13.4753 26.3296 45.1267 31.4804548373
19.37 30.347 41.0779 28.0584472724
23.3446 28.002 43.2115 27.9759053667
19.7427 27.0152 35.1937 127.1262546191
19.5287 31.6292 45.3659 26.611004721
14.1862 20.3753 45.9457 30.6471863767
14.2418 27.9309 54.0189 29.8036825381
13.359 24.5167 50.4273 29.5931800747
22.6626 16.826 53.7937 30.8484469875
12.8712 25.7461 55.9272 26.3471151243
23.7793 18.6225 52.161 28.6060275682
20.647 30.729 53.5205 25.7226418808
19.55 22.476 46.425 31.4713090397
17.9273 29.9103 52.2135 28.6240906776
13.3111 19.5208 51.3831 27.5370326504
16.6966 27.1024 55.638 28.8958491249
12.386 18.4628 46.8512 29.1680225081
23.1078 17.9436 49.6175 30.5324522441
14.6675 27.4378 48.2371 29.2604404449
17.39 31.9353 54.0252 28.1907402179
15.7453 29.3914 50.3723 26.9292684001
20.571 25.2133 46.9204 27.9947655518
18.2164 27.4859 49.5983 28.6081052356
20.2044 28.3031 47.3225 27.7208681269
20.3607 23.7243 55.9847 32.684144859
15.2589 30.3687 47.5012 31.3656135663
19.8609 16.7884 54.1192 30.358376073
19.2975 30.2224 49.6462 28.5663246674
18.0292 25.6886 47.3824 25.2438637467
24.5094 29.7926 48.4618 28.6590031666
15.5251 21.5072 48.3096 32.7005723826
18.1002 18.5468 48.4276 29.7816438489
23.2996 24.709 47.9282 30.4318857031
12.6423 22.0811 48.8022 29.8531775955
20.0548 20.7529 48.5984 30.4551090492
15.8173 19.294 50.352 29.3081479228
23.5883 17.4786 56.3519 29.8923352496
14.972 24.522 48.332 26.5364554775
22.3324 20.0028 47.5684 28.70181596
23.6759 21.7342 54.1852 29.6448621663
16.6013 24.7016 51.514 31.5679541401
22.518 21.3354 51.5698 34.4140409183
14.8188 27.1896 51.3837 26.2518544424
17.8486 23.5152 49.2939 27.8253700787
19.6241 25.1816 51.7722 26.2482366605
21.5507 24.8565 53.6858 28.8876163312
23.161 29.0916 53.1489 25.5605845835
13.0223 30.3732 50.762 26.1879059231
18.1452 27.2836 53.1965 30.0184984669
19.9674 28.658 55.0771 28.8793937042
22.8583 31.6472 55.4833 30.1899093696
22.3597 17.6713 45.818 28.7800495824
13.9614 17.589 52.8502 29.6244953997
16.9144 19.3289 56.088 29.7276121853
17.8143 31.5678 47.7205 30.4888434402
19.0906 19.548 54.6254 35.53432915
22.2311 27.1173 55.1776 28.5477824583
13.3123 22.0837 52.3694 31.6212019326
17.9293 16.3112 56.2919 33.0505986661
18.0419 20.2962 51.932 34.3860710834
23.2945 24.0232 50.7447 27.7583351192
22.6488 28.6442 50.1277 28.3527645354
15.9552 22.1518 55.5874 30.1272144204
21.5874 31.3015 50.9229 30.4800564195
16.0476 22.0818 52.9054 32.380788135
19.8071 22.4202 51.1068 30.6396800161
17.5386 24.5323 56.2024 32.7789354658
22.7418 28.8044 46.2527 29.5915744056
21.9563 31.9063 47.2296 28.7148534509
14.407 30.8485 53.2439 28.2350963232
21.1388 26.2936 49.9234 28.509963112
20.3062 17.1666 49.5451 33.3722632203
12.6084 23.8263 46.2621 28.1450307674
14.1273 18.2043 55.6691 31.9936120823
24.144 26.5166 52.2534 27.734451436
13.4674 23.1466 55.3323 31.9047568234
15.5411 31.6425 56.3117 28.7576160625
23.8777 22.8258 45.9416 28.9263369419
13.6641 35.8187 5.36996 29.5291609597
19.3648 41.9819 13.3631 30.8627965549
20.5532 48.6457 3.71054 28.5929053744
15.704 40.1834 4.39829 33.1178375712
12.2278 40.7764 6.76847 27.7764050327
20.549 44.5333 12.5695 27.4564092109
24.4649 42.869 5.96004 28.0062195158
19.8338 38.1789 6.06412 31.7232480804
16.0691 48.2541 4.98686 29.5981543896
14.8355 40.9702 6.85191 33.6003110582
24.496 42.5434 13.44 29.570149136
19.4361 42.9591 5.91063 34.6154581556
21.7302 39.8283 7.37871 31.3101572637
23.4556 37.8526 4.66725 30.5716914361
16.8606 34.4115 4.30492 32.199538719
20.9252 43.6441 9.14534 32.8256147476
14.027 33.3639 12.2925 28.6388385993
16.8771 44.1394 5.54965 27.8844683468
23.6244 47.4683 8.48724 30.2013386329
20.471 47.9406 7.76304 27.8914194021
18.5633 33.2109 8.64356 28.2259864845
16.5465 34.8259 7.05462 29.2804407147
21.6682 34.9101 9.09741 29.7618679633
18.7034 34.249 11.1731 25.6582632336
14.9341 45.4098 3.94189 24.8648169854
14.1612 36.8735 10.1259 29.1858387916
13.9833 34.8696 8.31413 28.263317753
15.5785 38.6503 8.49693 33.1506406907
19.4878 36.8448 9.59823 30.4644646381
16.0477 35.4366 11.7667 29.675179715
24.413 38.7597 7.47904 30.1069116787
19.7023 34.0683 4.55808 28.9057130644
13.1842 33.4087 4.07377 31.626554657
17.7352 45.0764 12.7463 26.5226103344
15.19 44.0632 7.65607 33.2819413116
23.2488 43.7 11.3872 29.6958401889
18.559 45.0875 9.80526 30.5224175701
13.3919 46.3586 8.11574 30.2985168057
24.0741 46.6209 11.0808 27.3524002211
20.5935 36.7015 13.4456 29.3032313427
21.3658 45.3838 6.65699 30.7072582547
19.2796 47.5596 10.344 28.6445196716
22.6168 34.8601 6.35371 33.252019572
12.9952 37.7867 13.9024 31.8505726671
12.6099 33.0793 9.97464 27.8403068284
12.9689 46.0027 5.51937 26.1315953891
18.3886 37.3329 12.2853 26.0644799284
23.3588 39.8766 13.5054 28.644729352
23.7166 37.1454 10.1481 32.1430543281
21.038 33.8189 12.8648 25.9774776229
21.8411 38.5175 11.7473 27.9059220029
15.0762 39.8403 12.9921 31.2166502968
14.5241 44.7348 12.9609 32.9921160691
16.213 40.3711 10.5233 31.6689507193
17.8415 37.1754 7.61173 32.2923362534
16.0849 43.2164 10.6255 34.2504080557
18.8912 39.9969 11.1914 32.0253207419
21.23 40.9718 9.82162 31.0562081386
12.9232 42.5721 10.6126 30.231705489
17.5232 46.5114 7.17363 28.0154151669
17.0801 47.8934 13.1513 28.6081110013
22.3386 41.5121 4.93322 30.6860630643
21.5989 47.9035 11.8413 28.5038396983
21.1689 36.4917 4.26144 27.1653593328
24.0133 35.3372 12.0572 30.1202183163
15.6536 48.0859 8.97323 35.5132989832
24.0978 45.8926 5.89808 28.0154071165
18.4931 46.2322 3.93913 28.6315625827
22.9014 32.845 10.3803 25.6792272417
18.6143 40.1949 4.79012 35.4756906291
24.0024 42.0743 8.95053 30.3332390075
18.7858 49.1622 5.98491 29.6722899391
23.4509 33.4344 19.3266 26.6824365531
16.5959 35.3029 19.2199 27.4989343499
23.6027 42.0909 20.4673 30.3555198099
21.8991 40.1283 18.0572 32.7799068584
17.0069 38.4875 14.6321 32.0089337019
14.6389 36.8468 17.0919 29.6150728035
21.8028 33.4555 16.8177 30.7041627848
20.895 36.2255 16.3014 28.3199380144
24.2908 44.4858 16.9182 32.5134583667
13.716 42.4343 16.9689 32.3369021566
13.2575 34.705 24.2262 74.0818598803
14.5781 42.1897 14.3654 28.0791223578
19.1172 33.1924 24.6595 115.2766337628
12.9613 36.1854 21.6186 31.8595634241
17.2434 42.7651 14.8903 27.8667079178
14.0034 45.0134 17.9974 31.4145088011
18.9232 48.7363 15.0297 25.9803971645
21.5765 34.429 21.1655 27.4786187315
22.9837 37.5907 17.6128 29.7034973591
13.0233 34.1248 17.3165 30.3360828717
19.2064 44.1527 23.9148 49.002735641
21.7223 36.9123 20.3288 27.3948535361
23.4895 46.6585 24.1963 71.7176251183
21.3248 40.929 14.9445 31.0291591826
20.0776 44.652 17.1721 30.0217705239
20.4942 47.4758 21.3736 25.3985947184
24.5756 48.5535 17.6136 28.3130354889
13.2551 41.2095 21.2758 29.7958595519
15.7665 36.6504 21.4702 28.0028642619
19.2953 36.5444 18.3618 27.72286371
18.6945 33.4991 17.3834 29.1260069684
13.6682 41.0569 24.0614 58.1925694142
17.8043 48.6955 17.9824 28.0081747445
13.2203 47.1745 21.6143 26.4600736174
15.2789 41.0559 18.6959 27.7933558519
16.8381 38.2905 18.1445 26.3712138982
21.9786 43.7384 15.2447 29.5413851724
17.5698 41.381 17.2487 29.5275103245
15.5753 36.2167 24.1763 87.5171610942
20.8143 41.5872 21.018 30.520561742
14.5381 47.1401 14.1937 31.1369593107
17.7506 45.4639 15.7554 30.8832816945
16.2472 46.1918 21.7776 27.8487913458
17.8523 48.0419 24.355 88.4187724201
19.1102 42.8378 19.1598 31.3283347941
13.4108 43.8312 24.3274 77.363322146
20.5905 46.6202 24.2692 74.7141937995
18.9963 44.9131 21.2169 31.8154989387
15.4422 32.9809 18.2282 29.5563489454
20.2034 46.9938 18.4893 27.3547471279
13.9081 38.8027 19.9175 27.278125914
24.3495 41.8115 17.8459 34.5991238448
23.3194 46.7276 20.8907 29.5460993734
21.6883 34.8269 23.9095 41.6178576559
19.1524 39.098 16.6457 28.5991547222
19.723 38.0182 23.2498 33.1913840707
17.8266 48.5605 20.8857 27.1975000127
22.9363 46.3337 18.391 29.239671486
18.6055 40.2888 24.5298 106.7642931127
15.6423 47.0221 16.9787 29.9362933904
16.23 39.2827 24.006 57.5654455958
17.0232 39.2833 21.184 26.5224831245
12.8066 44.5242 21.4077 27.1797621106
21.2816 42.1029 23.8032 43.2020098365
18.5787 34.1926 21.1508 31.6532915163
19.7265 38.8188 20.7956 28.1320366477
18.259 35.5896 23.5934 39.726815201
22.6475 37.6448 24.2027 73.8907505323
17.3236 42.1457 21.843 27.5331526365
23.503 43.8707 24.2652 72.3133367455
17.085 42.8731 24.3247 67.4740960026
15.248 43.7284 20.4216 29.4808382615
23.5306 40.5001 24.3847 93.2934925557
15.6867 45.1961 24.1493 59.0221786129
24.1821 37.7442 21.772 29.5276309156
15.8764 35.8746 14.7325 30.4236645675
20.9055 46.7571 14.3507 28.0603876626
12.8004 35.0773 14.3346 29.4791199435
23.6113 33.168 14.5397 31.7061265411
24.2822 33.876 24.7424 110.1284655989
18.5383 34.2258 14.5876 28.3402987511
24.5846 44.4059 21.7632 29.5521300513
22.6787 48.6892 15.247 26.4892385118
14.3157 48.5141 19.2816 30.6017859262
14.6951 48.4948 24.0336 58.5684748298
15.1922 34.3177 42.1121 28.5946884158
16.1912 35.6463 35.9721 67.3562982676
13.0435 33.4277 38.5545 29.7737362098
19.1926 35.59 35.8213 58.7275679132
19.0016 41.9475 35.7199 71.7951767162
23.2548 37.5613 37.4848 30.6247791534
23.5954 34.9478 38.7131 27.074067358
14.3944 42.9594 45.0759 32.0523270971
17.2333 36.5745 41.3815 31.2566153945
23.4423 46.1625 41.7037 28.8394948797
18.8271 43.0711 44.4635 30.8075491232
15.3352 40.2566 35.5372 74.4624696032
22.4149 43.0221 41.4328 27.211204082
20.2974 34.4066 38.0856 26.9032073873
17.7061 47.8443 36.3389 41.6354273571
19.5386 39.2416 38.5087 27.9156364704
17.9037 47.9195 39.1757 30.8030748924
24.182 34.061 42.5532 28.1085377766
18.9227 39.4177 43.8959 30.0322594225
18.6091 43.9802 39.5955 33.7167833275
17.8166 32.89 35.68 65.7449163164
13.6392 48.3058 35.6052 91.456868922
23.6713 32.9332 45.2301 31.0538803981
20.4955 47.2514 40.0688 29.6022198893
17.9273 41.6053 38.3448 27.2427459118
22.806 39.9484 38.5964 27.6664345541
13.5405 38.2945 38.3879 30.1016978426
16.3796 45.7071 39.9254 29.7331021004
24.0095 43.9588 35.3475 94.6828083751
22.049 33.7705 36.0255 67.7417534705
21.2562 44.0625 36.5847 31.2242532353
15.0053 44.8291 37.7455 31.4491700308
12.0925 36.1067 39.3033 25.5175131235
17.9658 45.8293 44.0703 29.917029273
13.1657 48.301 39.8303 30.2105187852
12.3846 46.1048 38.49 30.3604654106
16.4227 38.005 38.5965 27.9948007199
21.4608 48.2853 36.135 52.1446927116
12.5778 35.4188 42.1079 33.9765344175
14.3874 47.7841 42.5002 28.6668730248
21.667 35.3709 43.6999 25.5210457963
16.1966 43.0108 35.1939 104.5313339518
22.3133 41.337 36.2256 46.0453368579
15.8248 40.2276 40.2977 28.6592835084
22.1145 46.295 44.4383 29.9871479851
14.9246 42.0051 38.0465 28.0579989982
19.6525 36.6599 39.6475 31.7019650755
13.9331 43.362 42.3524 34.5589926413
21.7549 39.3846 43.0022 28.8693369201
24.5156 36.6751 41.0194 28.1599623935
20.9117 40.8703 40.6977 28.577769274
15.7408 45.4242 42.3982 29.2467318849
18.5959 35.9376 43.7954 30.36016899
20.0212 47.019 42.9865 29.0020640817
21.3584 44.4636 39.3193 28.6527988667
19.7612 46.2451 35.4667 105.8777491548
12.5466 39.0682 35.6989 82.3493066263
18.2183 41.6877 41.6016 33.1238079833
15.3574 35.0165 38.5884 29.128051921
16.1211 38.6396 42.9893 33.7679384543
17.2596 38.2783 35.7086 67.5552579622
21.5168 43.6911 43.6861 29.5335167404
21.7276 36.6994 41.5236 29.1784999357
19.847 39.3251 35.8218 52.4888371787
14.4017 36.8377 44.1377 29.0993249858
23.9933 46.4794 38.7445 28.6580825669
13.0007 40.6356 40.5789 29.1836979408
23.433 40.9746 44.51 33.1511834463
12.627 45.4965 44.9053 27.4494616174
16.995 40.914 45.247 32.3766469068
24.0335 37.8088 43.8363 32.5845882949
23.3546 46.5415 35.6621 68.9536824014
15.5852 46.3409 35.3527 96.7551033938
21.6598 37.1353 35.3989 117.4889556071
15.7451 34.5079 45.1543 27.4261247628
18.0195 33.2508 43.9077 27.6967750458
17.4665 33.0002 38.9493 30.1120097459
13.1485 33.2098 35.8565 67.9303269696
14.9554 48.8505 44.9991 29.5007659294
20.7529 32.8131 42.5062 30.0526850659
21.929 40.478 47.6691 28.5274851533
17.9946 34.1086 48.9603 31.731263851
20.6161 34.4688 47.8384 28.6364857483
22.021 37.8683 49.4514 27.8218370511
17.2497 47.5533 46.2787 28.9751258995
15.0446 34.4229 50.2702 37.8781499996
12.8716 45.8634 54.1876 30.0440086588
17.3605 36.0637 46.7966 30.123399448
19.1755 38.6345 51.0323 27.9592387452
14.0207 37.3522 50.1735 34.997209214
20.9703 41.085 50.3214 28.4905749298
22.2581 38.5559 52.2375 28.1819642161
16.3715 39.6421 47.48 29.2360855961
16.2768 44.55 46.96 29.2085162208
14.9905 42.7925 55.6848 30.3233424052
19.505 44.2622 47.1547 30.0153237564
20.0881 46.7865 49.7921 29.0294085642
22.8711 43.0883 50.6368 28.0830403141
23.8638 45.4841 51.2166 27.5077740007
23.9624 40.1059 55.835 31.589566083
13.9228 46.4412 47.2299 29.3866985423
13.2108 38.7199 53.6262 32.8440733558
16.5763 45.2895 51.2628 30.4743351857
12.3058 32.8034 48.8934 31.8723822627
16.1367 36.1172 54.374 32.5212302213
22.0692 46.4416 55.7351 28.481372644
22.2456 42.974 46.5651 29.231183083
15.6758 33.7483 53.0525 30.5844066073
15.3972 38.3248 52.4184 31.0428136115
20.4057 38.0642 54.2701 34.1187338162
24.1304 35.2486 47.6787 28.0909715518
18.4737 38.1806 48.2936 30.7828034556
17.1268 40.5299 52.0721 29.8673803878
21.1635 35.4553 50.5456 27.6659235631
18.8531 34.3012 51.8675 29.6390801204
20.7411 42.655 53.9508 29.196428628
24.0196 46.6058 48.7499 25.2591419375
23.0162 33.4622 49.5704 27.5717037292
14.4662 46.7448 51.9439 27.4662089273
15.3458 43.5334 49.4589 28.3399664194
16.3979 41.2469 49.6403 31.3705890931
18.9496 42.7874 49.4735 32.6723108024
17.3743 46.8382 48.8548 27.3032138534
18.4484 45.355 53.8188 27.006086613
23.7694 48.914 52.6453 30.556088867
20.4959 44.388 51.7495 26.8586808952
16.1235 47.0914 54.6334 29.5131715074
21.8291 46.7239 53.1049 27.2495355809
19.3635 48.0612 52.4806 30.7155250306
18.9544 40.5157 54.5652 31.3530420723
23.3193 41.7064 53.3005 29.9324346498
22.4757 34.3492 54.8908 27.8559659983
23.285 35.7886 52.6055 31.8261509769
12.7305 41.3269 54.588 35.6729508142
17.0317 42.7203 53.9109 33.6762087051
14.6438 37.7856 56.1613 32.5033041994
14.7135 37.5496 47.3419 33.178675867
18.2623 36.7247 52.8451 29.1644486912
21.6678 46.3692 47.4245 27.7077295101
20.3113 38.5903 46.3077 29.5808702556
12.4102 33.2991 51.7026 31.0109820475
12.577 41.2358 46.2415 33.6210842983
21.8461 36.2217 46.2368 27.4875793708
19.9374 33.3923 54.3319 28.5409429389
12.8194 43.4928 50.0792 31.3257393805
24.7369 35.7049 55.7026 27.6623858068
24.4185 43.6784 48.0502 31.1964176331
14.0475 32.9757 46.6514 32.5442141149
20.8634 43.9029 56.4321 28.6339971622
28.2168 1.64671 3.91299 33.2158591222
27.6913 1.99316 6.90494 30.1367567551
29.0943 15.548 8.12341 30.5138975806
30.2316 15.909 12.8065 28.4534354162
29.729 8.69567 12.5586 32.5788379773
35.8762 1.57183 6.42836 28.5544104346
25.8848 11.3235 10.5433 26.3041357469
31.5104 8.03482 5.88608 30.5403922402
32.8287 4.38008 8.71821 30.2649617724
25.1697 1.32489 9.19872 28.2285691256
33.3422 2.72973 5.00625 31.5955570095
28.3034 12.6444 7.05424 33.368812059
27.037 6.44492 6.2556 29.088034053
33.143 10.7504 5.63418 28.8893566189
25.7273 3.85376 6.00175 32.116251427
28.2425 12.6364 14.1244 26.998046996
28.5019 5.05074 14.1101 34.2323869303
35.252 14.2361 12.791 31.8275363452
35.2994 5.36574 12.1011 32.911172378
34.7186 14.3831 5.84555 27.6923699096
35.14 16.0885 10.0063 29.5179207678
35.1509 2.72449 14.0193 28.4036767801
35.8773 7.85405 7.85709 33.0060418797
26.0364 3.37375 10.5509 26.932523625
33.7865 7.71147 11.8418 27.5059805204
30.0298 3.58662 7.99236 31.1935138834
32.017 1.7966 7.32915 27.0264220695
29.0037 3.02527 10.5884 29.8866308513
36.9142 2.1376 11.7731 28.614859847
32.5508 1.86189 13.2108 29.593493254
29.6392 10.8797 3.97468 29.8782385118
29.6106 6.44594 7.32729 30.0180253079
29.0795 10.0408 6.63649 25.2368551342
33.2518 1.72782 10.4462 30.222373481
33.1597 10.2058 9.89444 29.9141513355
32.5387 13.0043 12.1807 26.4584884916
34.9955 13.3956 8.50921 34.1806254643
26.6412 9.08737 6.9309 31.7892921757
29.7753 7.07374 9.77532 25.7857983917
31.2827 12.4586 6.84142 27.0289528131
29.9661 11.3247 12.4591 29.4363716311
30.4132 9.64768 9.10167 27.6608471795
25.875 8.6008 9.8551 29.581030862
29.9523 14.2032 10.3699 28.140967088
27.6086 7.20253 12.7164 28.5199181247
32.4243 12.9911 9.27346 28.3191742413
27.2624 14.3004 11.4518 28.9197917134
28.6033 11.4271 10.0446 27.0217206604
34.7394 10.4948 7.67388 28.48151172
30.9205 15.2289 5.68963 29.9204224147
25.7888 14.0716 7.32644 31.3680674284
32.6404 15.9451 13.4562 29.735621791
25.7557 11.5656 13.3171 27.6109939578
30.7531 3.96679 12.7005 29.1054331212
31.8109 5.88337 10.9195 28.3047639544
35.1053 4.85745 4.77936 29.5797696695
35.6633 2.25483 9.04173 27.8591815682
28.2225 0.705454 11.2924 29.1456852912
27.0169 6.34574 10.3362 28.7797304555
26.8696 0.421255 13.8095 29.1339582912
36.4918 8.09361 10.8414 30.4915986678
33.6734 6.21032 6.79785 33.0821352193
34.1962 10.6329 12.4966 28.6185531445
26.5486 3.15977 13.434 31.236580023
30.4265 0.0989287 5.69951 29.0674728936
25.5729 8.48528 14.0299 38.2893285425
25.3137 16.0306 14.1831 26.7768566886
32.0174 7.4866 13.9439 30.6093453272
37.0608 10.5812 12.0846 31.3320646145
24.921 5.25685 8.33092 30.3684717383
30.7904 12.452 24.4965 87.3826605965
27.4743 4.79773 18.747 34.2421274152
34.593 4.314 16.4643 30.0226043493
29.5755 5.3148 16.7294 31.938853584
34.4867 0.509182 24.3283 74.0339064417
35.8024 9.36052 24.0155 76.3534158271
33.4604 9.49786 15.5312 29.8150713678
30.4771 13.9899 19.7821 27.5031941317
24.688 5.17059 24.745 83.56162365
29.6043 15.0392 24.0757 74.286364653
28.9838 14.9917 14.99 27.6446530327
30.8134 10.0111 16.7229 30.3633000564
35.907 12.0282 23.5392 33.4647320168
35.6862 10.1215 17.4632 27.6157574666
36.5969 5.60121 24.6869 113.0599887965
26.6782 14.3783 23.678 50.6701657123
28.7617 9.24006 23.9893 50.9530410432
26.1249 2.58097 24.3327 62.0371485021
27.063 2.10298 17.7602 28.8212971857
25.3013 6.55049 19.1919 28.787469821
25.2559 14.7711 18.1676 29.6205688314
29.6674 1.59405 18.884 28.5040151015
28.7605 3.87225 21.558 30.4782228393
33.9238 1.53855 19.6258 28.7755137435
25.0061 2.11462 15.9508 31.0336903964
36.0198 3.04855 18.7777 28.9239153418
26.8792 10.4694 19.7452 31.5853489164
32.1104 7.41141 19.4666 34.4772211848
32.3016 15.8773 20.697 30.6225882717
31.5594 3.01823 18.0028 29.3982358257
31.9335 11.7089 18.9576 31.1486864982
35.324 5.87544 20.1042 28.4279749377
34.5126 7.42033 17.5999 33.0789066848
28.5323 11.6864 16.5757 29.3889361638
32.8638 12.4174 15.001 27.4282464831
36.1504 5.97311 14.741 31.3718740595
27.7047 13.2379 18.837 28.641345265
25.5573 2.09408 19.9055 29.772332231
29.3693 15.8861 18.2378 30.6729743057
28.9588 1.39035 24.4778 76.8088595153
31.1356 14.0978 16.4401 31.7980034456
31.3292 8.04983 24.5447 111.3791180037
34.5196 12.5885 18.0835 28.3910268566
32.1127 0.60091 22.6021 28.8627347022
25.6682 4.4961 21.8688 29.5167961322
35.2096 13.707 15.7556 26.509746583
31.89 2.5289 24.4762 86.6100457532
31.3432 4.74312 20.6636 31.0166576455
35.2864 0.18322 21.5821 28.4566779586
33.9795 4.09566 21.517 28.5044983904
29.5587 1.16191 21.5943 27.2091154387
34.1804 6.36653 23.4557 34.2192241303
34.2669 15.8642 18.3272 31.9237215215
29.2554 9.57121 21.267 36.4077448947
26.8247 7.11631 24.3095 68.8802002823
32.3012 9.97072 21.2176 28.8341832541
24.5541 7.53813 21.7444 29.8869512158
34.8815 8.44853 21.5854 27.7033515805
26.8017 8.33165 17.8178 32.6210373778
26.9348 15.2894 20.8926 30.4184210347
31.3481 0.913284 15.6377 31.3200073539
33.4807 13.7093 24.3884 84.5377079259
34.9198 14.9682 21.8227 29.0537345601
35.3408 11.7757 20.9873 31.5042276393
31.2275 5.34565 23.4361 33.3876840704
27.0434 11.6479 24.0775 81.1556417602
29.8303 12.1165 22.1119 30.1204286148
32.0729 4.94716 15.2504 30.4201299826
32.6846 10.3749 24.1043 54.4041718506
34.6419 3.18983 24.2978 62.0027167131
29.6535 8.02702 17.7949 32.4093703099
25.8427 10.5289 16.3174 29.0963461248
35.5109 0.62085 15.9642 29.8127340758
28.4807 4.78128 24.3608 73.009760884
36.8323 11.2787 14.8931 29.885389479
35.2097 6.31665 36.2979 51.7219792728
26.1782 3.26358 42.2566 27.2047167289
30.9632 3.96889 38.557 28.8983130385
25.6861 5.2751 36.2176 49.6645625138
32.1173 1.49372 35.875 63.7252381044
27.3823 8.83808 36.2637 39.0579838741
28.3981 4.76311 35.6699 85.0179506515
27.8845 1.83901 36.4761 31.6985387337
35.0542 11.0429 36.5041 38.1840445201
36.3438 4.04689 35.8802 80.1509992911
35.1105 1.72518 36.3208 37.1080290473
30.4265 11.3997 38.5273 31.4568862716
29.9238 14.422 40.9819 28.6203808438
25.0364 6.28625 41.9729 29.8537108873
30.6474 11.108 35.7657 79.7284946404
32.8392 9.64996 36.1173 66.0623936887
27.3212 11.4634 35.5958 103.9232146042
35.3201 12.1054 39.5097 28.672232068
28.2809 13.6648 36.5864 33.6106790944
25.4329 -0.0870411 45.2399 31.2048695496
35.6587 6.04346 39.2754 30.0737983367
34.3627 14.3365 38.2845 27.16827003
34.4025 13.6751 35.7111 94.8251007944
28.7586 1.66753 42.1403 32.4468834014
36.178 9.63718 42.6121 32.6771875483
32.7803 15.8658 43.2848 31.0958637791
30.2976 10.5824 43.4178 27.2364657827
31.4238 2.21313 42.3823 29.6736430003
24.9148 8.06581 35.6734 101.4219390153
28.8358 2.29894 39.0154 28.1550747517
36.6376 7.88383 44.6007 32.7325781621
32.6087 1.78764 38.8037 29.2803078866
35.9128 2.16358 38.838 29.9770985133
26.2835 0.153899 42.612 27.9526186712
29.6706 7.37621 35.9303 65.8785284971
27.1036 8.32726 39.3557 30.9670525239
29.5492 6.6826 38.7825 33.6129565024
29.6355 -0.017781 35.5403 89.6463891507
32.735 6.91757 38.7952 28.2070575342
36.5274 8.55163 40.0929 28.1209859293
26.9087 11.243 40.9005 27.0636091163
34.6694 5.85024 44.202 30.4251155346
28.0586 13.092 39.3692 27.6587042296
32.1696 10.2149 40.3798 30.1323548119
34.2082 9.29269 38.9099 25.9124133886
31.6071 13.6969 38.9569 28.3883232453
25.765 15.0417 39.966 30.3030628713
35.232 14.7489 41.7786 32.2090659877
35.091 4.55691 42.0731 28.6830175501
34.6369 12.0553 42.2744 27.9997742828
29.95 15.0881 43.5886 25.9771853258
32.4829 6.68213 35.968 61.9582227011
30.1714 5.04758 44.778 33.346282053
34.489 1.29859 44.7804 28.9177291927
35.6256 1.77343 41.6496 29.2017861536
26.5533 15.5508 43.1897 27.5906435686
27.1364 8.00107 43.7241 28.1003333218
31.4647 14.0977 35.8943 74.9476454539
31.7596 2.65692 45.0875 27.3785124554
26.5662 4.05711 39.7191 32.1916807406
32.2467 6.39531 43.4176 29.5146656095
32.5844 4.75411 41.3476 30.0947724216
28.5246 9.18871 41.7587 26.4161485561
27.4655 5.18683 44.1105 34.0069462538
31.94 12.5488 42.5112 27.6376669192
30.8408 7.8534 41.208 30.76601434
31.2993 4.13414 35.5743 89.4987925938
34.2824 12.6891 45.6204 31.6956122185
26.4086 12.6418 43.1346 28.9479441484
25.0997 8.97904 45.2171 28.1547681001
28.5287 12.3234 44.6671 26.7162069594
24.9794 6.6314 38.7855 26.7041971717
25.3038 1.47902 35.686 101.2643190787
31.5801 8.86252 45.3906 33.2481139593
27.0856 16.0074 35.9144 83.099270706
31.4433 13.161 45.5562 29.8673044258
28.6559 14.995 46.4537 28.4696827624
30.8945 13.506 56.0515 30.8833757381
33.8407 10.8875 53.0908 29.1685842327
28.1092 3.64288 48.9596 30.9078158077
26.0506 5.25497 46.6997 29.6350397149
25.4054 14.221 47.2406 29.198131954
27.0708 11.8374 47.1082 26.490613186
27.071 7.21717 56.0808 29.7921525408
36.82 15.4404 48.9968 29.9514150838
27.5483 1.59021 47.1537 32.5802700545
31.2733 2.73508 49.304 28.3738384799
28.1873 6.51423 47.903 26.1899836302
28.527 9.00924 45.8248 29.5024653721
30.8188 9.47289 50.0355 28.6289684149
36.055 2.19829 52.7922 30.4389969543
24.805 2.55643 46.4324 31.5314450269
26.5555 14.8768 56.0319 33.7407045434
26.1487 11.1483 51.0097 30.4875379604
28.6596 12.376 49.4167 29.2602062763
34.5887 6.76054 55.3705 35.4280803923
35.0163 9.0493 48.8557 28.731013083
34.3181 14.6153 47.6366 28.7860385162
27.1149 14.8239 53.2926 28.3423831492
26.3918 5.81287 50.4181 30.3165579139
32.3809 13.2823 52.6738 29.2111034382
31.2691 2.29705 52.1271 28.3422414395
34.4847 14.5251 53.7941 28.4704956787
31.8661 7.16288 55.9621 30.912626888
32.6298 6.46094 51.968 31.2089953532
32.6264 4.99267 48.0833 28.1446330493
30.4156 5.77952 50.6219 26.843846292
35.473 5.702 52.9013 31.6960335124
33.8878 3.44555 51.4237 29.3291568628
27.5269 9.39117 48.7424 29.9334383395
29.0644 15.1026 49.4383 31.355932079
34.4143 6.07685 49.6162 28.1135606344
35.5051 13.2764 50.6444 29.238111214
33.2232 8.9219 51.0931 30.3327174877
30.9747 2.46345 56.1998 32.2489938712
34.9366 1.95215 49.0254 30.0602828493
27.1683 4.47306 55.9908 28.5564393172
27.5483 0.366129 51.0635 30.0387967747
36.9419 7.54993 47.5558 29.7736803134
24.72 13.5399 51.523 28.9614862655
32.7705 13.6129 49.6832 29.3385627556
36.6141 11.5477 53.3337 27.8578149736
33.3947 10.1665 47.0178 34.3385056047
34.4389 3.83324 46.2156 27.9074433241
29.4787 4.26677 52.9069 31.3242747157
31.9403 0.326146 54.4858 29.5250282343
31.3015 11.7153 48.3389 29.382073551
29.7982 15.1335 54.2103 27.3985964174
30.4105 1.25379 47.0705 27.7613981129
28.7029 8.15875 53.9324 32.6089941594
27.4315 10.5827 54.938 32.9073872545
36.6325 11.4581 56.0309 26.8782199227
31.1972 9.50204 54.8518 28.0527575016
26.9954 3.1912 51.7565 31.4672653119
36.6565 3.8827 55.0909 34.4245402065
30.7722 6.71031 47.0279 29.0738600114
30.3213 11.0084 52.4626 29.0344331405
28.0098 12.2316 52.9524 28.0101372029
28.7695 7.8224 50.9534 27.4589662536
24.7306 9.0266 51.9506 29.795167057
25.5773 3.85198 53.7121 33.5243707662
29.7935 5.01077 55.5033 32.0680854396
34.4526 9.57748 55.727 33.0362736934
24.7021 9.87494 54.4942 30.7667708168
33.8678 13.0509 56.1379 28.7033940915
25.4074 21.66 10.6375 28.1364432005
35.2167 32.5841 11.5949 30.0697673422
35.7223 21.6679 11.1436 35.001334452
31.1327 17.6022 8.11531 34.3218417568
33.7915 31.7794 4.87348 30.7336444846
33.3615 16.7271 6.22097 26.9639502258
32.2411 30.2457 12.7176 28.808597583
34.0276 20.348 7.09762 32.4773938475
26.3701 16.4955 9.10764 28.8716425319
32.7325 31.2637 8.61799 35.3421103974
31.6285 27.5272 13.2488 30.654114015
26.3494 17.2582 12.0637 26.9993261698
29.8532 31.9323 7.69626 27.4021834254
25.4362 23.6812 6.70223 31.8008271432
30.489 30.9615 10.6415 26.0799985777
31.7734 25.323 6.66427 30.1468946934
24.8789 27.4949 5.18442 31.3891312769
28.2505 31.8253 12.3123 30.915227161
34.5697 29.1593 5.39418 37.0382095905
27.39 28.156 6.38404 28.4536306752
34.0424 25.0668 9.38579 29.495032654
33.6508 28.8349 9.6366 31.8941286361
34.1005 26.2652 5.70724 31.0870225501
36.8165 18.1744 3.975 28.3408522823
27.8587 21.1414 9.25955 29.0648922471
27.2178 19.4015 5.5519 32.6533180721
35.3964 27.0536 8.27933 30.6818596072
31.9342 19.1687 10.4792 31.2259756212
29.2302 26.6055 4.595 29.54186361
26.8931 29.9145 10.2631 29.3084059973
29.7201 22.4868 7.60534 31.9479516655
31.1912 20.1999 6.0735 31.1649013571
29.7011 22.7046 12.141 29.9748073272
27.4274 24.1519 11.7089 30.0335455995
31.4733 23.3098 9.85997 32.1837566818
30.8013 27.6422 7.90493 29.4894212518
25.5456 24.9103 9.24844 28.4240448918
24.796 27.7538 9.95729 25.8610873443
28.1089 24.4828 6.28917 28.5453362715
28.572 26.7077 12.9012 31.8305350197
31.9139 26.4672 10.4923 30.8452082106
31.6375 28.1902 4.97116 29.392128502
26.4295 30.6126 7.54128 29.5564053682
27.9423 26.4275 8.54909 31.3176888268
29.2782 28.4002 10.7568 28.4060004901
35.1929 24.3957 11.7139 29.6205611195
33.8328 17.8576 11.7422 31.7100597417
27.94 18.768 8.31995 32.1931913243
25.7245 26.7491 12.3476 28.3250369444
35.4117 17.6199 7.62459 33.0361622299
28.8267 18.1163 13.1478 27.9215827241
24.9987 31.2906 12.8243 27.9208653152
35.0537 19.907 13.4351 32.0448289191
35.0192 29.8326 12.1361 28.7444521533
29.3165 16.866 3.70369 32.9630429571
29.677 30.0872 5.9981 28.4805077536
33.3831 21.2781 9.72879 30.5331578431
29.4608 20.221 11.3698 28.7129793879
31.4747 22.8743 4.78609 28.881954943
34.005 21.9341 4.85315 32.3960406889
24.9119 20.8267 6.30881 32.433252875
33.896 18.4341 4.16069 31.7509943802
36.6638 28.8478 3.51213 31.5572014707
25.1573 19.5594 12.5041 29.633341271
33.7725 25.967 14.2774 35.334083284
33.8719 22.9779 13.8754 29.5992331792
25.6261 31.689 3.74415 30.8283735397
25.7529 22.9972 13.8677 31.017622281
26.1354 17.3396 3.82906 27.9820058103
28.6462 31.8598 4.03493 32.39292778
35.1497 24.5159 3.81228 30.6726226768
30.6741 20.4595 14.439 32.6135230947
35.8455 19.3561 23.7849 36.4859866696
33.0299 30.0357 17.0913 33.8148772021
36.0635 27.3334 15.7667 28.3462308505
32.2436 19.285 23.9256 45.7877323207
32.5 30.6416 21.6746 30.2333463958
29.8105 20.4015 17.2289 31.1341859597
29.0692 22.1156 24.3812 74.721843916
34.54 16.694 24.5783 106.0131898906
32.2705 23.5735 17.4816 29.8278134972
29.0063 24.5286 16.3314 34.2939470799
30.8208 31.1619 16.0962 31.3268145888
26.0043 24.3996 16.2355 32.3292281808
25.496 20.4433 15.2496 31.9682768555
29.7677 22.8212 18.2995 28.817461664
27.4484 30.9546 19.413 28.1287181104
37.0328 17.8478 14.6852 32.4092792584
30.7629 23.0946 21.2362 30.9203548425
29.6392 26.933 15.6228 31.1005177497
35.4245 22.4279 16.0864 26.9760230852
33.4471 25.9037 18.5309 29.6490255209
30.727 31.7689 24.5599 94.3871921021
36.0833 26.0888 21.8222 27.9029087801
26.0976 19.8108 18.4335 29.8308437925
31.6276 27.589 17.724 31.9668709221
28.2465 29.2077 17.6756 29.4842115303
27.0314 18.0249 21.1986 31.8351972478
27.8708 21.6654 19.8389 25.4609773674
34.0903 21.4503 24.588 101.2138561881
30.6474 18.1706 19.1817 32.4401911933
29.1516 19.857 21.1876 29.1366837234
33.041 27.7353 24.2957 75.3308171084
35.9704 20.9214 19.1601 29.4067138886
31.1357 23.4713 14.4314 30.4397528118
27.941 23.9008 22.0758 28.2863004213
25.0556 22.63 18.4023 27.9617818989
33.3643 18.7181 19.5113 27.8866349013
32.2772 20.5785 21.5338 28.4751213312
33.4489 21.2465 17.7421 26.9615384959
34.5733 22.466 21.8016 26.9197998301
27.6459 27.9649 24.2627 91.3625018134
33.9606 31.5661 19.4569 28.5843481337
33.3342 24.7895 21.3806 29.3172726329
35.3542 28.4995 19.8267 31.2093857574
31.9032 16.4764 23.547 36.5855320648
30.2064 28.4007 20.2753 33.7449038088
29.6075 31.185 21.6696 30.9645515102
26.4045 27.4043 20.2248 31.6111196881
25.2433 31.6768 17.8338 30.1384580088
36.1844 24.8527 17.3919 30.4027563892
32.9181 28.1535 21.2888 27.9957182028
26.3655 23.288 24.664 117.6195318483
34.3851 16.8572 15.6605 32.7678208146
25.9083 27.3877 17.3175 31.8276985227
25.5779 31.2962 21.7882 28.1990803316
35.5917 26.2483 24.5419 88.5430664922
27.3853 17.556 24.1698 71.9141111327
33.1426 19.7051 15.5503 31.7794154814
33.0922 30.5732 24.535 84.5042245709
27.6911 30.6407 24.035 61.6400114887
36.7291 31.7523 19.8112 30.7188865003
31.831 23.496 24.1412 65.0870745204
35.7451 18.7411 21.0076 30.862229211
36.3105 23.58 24.25 70.0206564322
34.8191 29.4523 14.8312 29.6960586777
29.5525 19.6383 24.2407 74.3510350346
27.9244 19.0006 15.5371 29.993650179
30.9066 25.9525 23.8889 60.8653822748
25.9235 24.5614 20.5691 33.0427387633
28.5919 26.8444 21.9703 30.3880271128
28.0107 30.9574 15.1704 30.8868637035
26.8077 16.4689 16.3912 27.9531774033
24.8063 28.0055 24.1868 80.0910107667
24.7117 25.4625 23.3807 33.9714455875
24.8451 21.3108 21.3066 27.1507686025
25.8178 28.897 14.3547 30.825274323
24.8055 18.7249 24.5055 98.6351093194
36.4895 23.611 20.1259 28.3259345014
36.8981 16.8246 19.5788 31.2659684333
27.8526 19.7992 39.1504 28.7899010916
29.3275 24.6502 45.0376 27.0572861616
27.049 22.4965 45.3383 26.8317985165
29.2029 18.0644 35.9517 73.0636151034
28.3834 31.001 42.383 31.1383150924
24.8591 23.0642 36.1742 62.3548312444
34.7253 19.8552 38.399 28.2864667561
32.6355 18.2879 39.1258 27.2685800111
34.6298 21.0808 35.7243 79.0197960356
26.609 30.3082 35.531 105.6508749991
27.6484 23.4158 36.1812 44.0287704692
29.8131 21.4685 35.416 102.1696248846
31.2634 23.9772 35.8829 58.6944818325
30.8692 22.9679 38.8706 30.4659652212
34.0476 23.9687 36.1457 46.7967248078
32.7072 31.6513 42.4767 32.8488108848
28.9007 26.0361 35.3055 120.9044403282
31.0171 27.197 38.7867 33.3156076864
28.1212 23.8352 38.8224 28.8680828579
34.4429 25.4063 45.4578 31.7056237
33.6902 23.5702 39.0978 29.7519291518
36.0555 25.4328 38.1601 29.1645675069
24.5262 20.0429 35.8064 104.7457997531
25.724 17.2011 37.9689 28.5878206316
26.5658 27.5191 36.0158 53.0621940275
29.0254 28.3938 45.6763 26.7744448557
29.0144 31.4687 39.6573 33.0562228455
33.0855 31.4401 39.7402 32.0689757795
31.1254 29.795 38.5435 33.0827158044
35.057 19.3498 42.6658 26.0579146501
31.1383 16.7055 37.9547 27.1301897486
26.4377 30.7775 38.6203 27.4198662277
31.6113 29.8015 35.8347 66.6932154604
30.662 20.1331 38.1442 28.5620310437
31.822 27.063 35.9926 52.3905461795
24.9384 30.4985 44.511 27.4241313239
35.4514 29.311 36.4297 36.2423690899
28.4156 21.6746 41.2296 27.5598287097
32.5047 18.4186 41.8351 32.8438366021
26.7735 24.2813 42.9862 25.0945559147
34.9156 21.642 40.5134 26.0650711683
33.0455 22.2401 42.6012 32.559429352
33.3771 16.6099 35.8205 75.7412979336
28.455 26.4135 40.2288 30.8836677641
27.7511 26.8239 43.1789 28.4106629808
29.6812 24.1756 41.7312 27.1148777623
35.1857 29.6022 39.4317 42.0073868587
34.1452 31.3909 35.728 84.8247388247
26.2464 29.2334 42.4358 27.9207099019
26.5557 27.7615 38.808 31.3742442853
35.9662 16.5459 38.7154 27.6537726227
35.0067 32.0453 43.7998 34.0654355774
29.1084 17.235 40.1231 32.9544096749
25.6395 21.0241 41.8674 26.306253009
34.6292 20.8311 44.9592 28.3318308886
32.158 19.4543 35.7724 66.4742643585
34.69 26.7992 35.9259 66.3959172385
30.7646 29.9692 43.6729 30.2009936208
27.1385 20.1016 36.3998 37.8626716308
27.1531 19.8773 44.2718 29.9254622679
35.2706 26.6976 40.8593 29.9506608459
30.8057 20.6708 42.7446 32.6041373567
24.7551 19.5093 39.7345 26.7269329467
32.5134 25.8538 40.6711 29.2800143449
31.7801 27.4949 42.9808 32.1829034728
31.7995 24.8559 43.8952 24.6696062241
28.6425 17.4826 42.9053 34.0663744367
35.9887 29.5447 44.0563 32.9334319488
34.6765 27.3548 43.3641 30.2539994284
29.9551 21.5256 45.2677 29.4854118902
25.8088 27.5057 45.3747 26.871947124
25.5111 23.7955 40.1785 27.2116455235
29.2997 31.4908 35.557 96.1364449066
24.5985 25.1221 44.2062 27.4430028417
35.5849 17.0096 44.3613 28.3164937231
36.4483 17.0287 36.1515 57.8530981504
36.7601 18.8679 40.5628 31.3110471941
26.8778 32.7637 43.505 26.254189128
26.3318 16.3543 45.7187 30.110135506
28.8565 21.2455 49.6783 27.2527926477
33.5947 17.0894 54.1028 31.9392978269
30.1369 19.7649 47.5769 29.9640162381
25.0147 31.3826 52.4822 30.9265510825
31.1703 16.8422 52.6777 27.1074439743
34.0114 19.1014 47.0304 29.8005905546
34.0786 17.7713 49.842 29.0662324659
25.8214 25.6211 47.4639 27.3191185377
32.7123 22.6163 45.8234 30.3054935923
32.1389 22.7981 48.7838 31.6495355011
32.3724 19.9564 49.5289 27.9740403714
30.7905 17.0782 47.4078 34.2702444817
33.4573 31.9351 54.9106 34.2018679645
33.1724 24.8975 50.7166 31.8861451326
25.7755 23.2748 50.2597 27.5741178392
29.4793 31.503 53.9942 32.5479474643
27.7591 23.1485 48.047 26.8048962878
36.0321 22.2714 54.7395 30.6023127186
27.3808 30.0067 47.2039 26.4553257273
33.9388 32.1162 46.5006 29.3256713468
31.3082 26.7616 46.3062 29.0125327495
25.6501 27.2966 49.8237 24.811998705
33.0382 31.2863 49.0442 26.8467572258
24.9718 28.8646 55.1896 29.2603401684
34.1704 27.2097 47.2844 33.3390872965
32.6153 29.0613 50.8411 30.2533383917
35.5741 29.6425 46.8362 30.85740347
35.3559 18.4445 52.3243 27.9113841726
27.9637 17.8054 51.9017 32.3796559791
30.4832 19.5416 51.8501 28.7935966944
31.6742 16.337 50.1079 27.107889293
31.0982 23.3418 54.7237 30.7873254456
35.7119 30.1373 50.089 28.9789690368
34.8035 22.257 50.6436 29.8302978625
29.2821 22.6055 52.2048 32.8142584963
31.9215 20.4327 53.8332 29.4987393504
36.4673 18.5416 48.1735 26.8021329326
34.4709 20.8688 52.8299 29.4671146415
30.2633 24.942 50.9446 28.325476443
26.7421 16.7204 49.346 31.6308341445
29.7763 27.8931 50.7773 27.1007691781
32.2682 25.4548 53.6473 31.429555548
26.794 29.4128 51.4611 28.0105321405
34.7941 27.1013 49.9172 27.6771481772
33.3685 29.6436 53.4263 28.9630296853
24.5998 24.3226 54.4221 29.1986034632
25.7932 32.1919 49.792 30.9117492615
27.133 24.9354 54.0956 28.4098693635
28.281 27.1934 48.5003 26.6281537092
27.1434 18.9606 47.1276 30.6945044792
31.427 28.0803 54.6783 32.2719945417
30.7785 29.7415 47.9218 28.4369617143
29.1181 28.6973 53.255 27.7358912889
26.1576 20.6351 50.8531 28.6649058388
30.4924 32.0428 50.7793 29.3643783675
25.9183 18.1507 53.6366 26.5324239241
30.9855 31.5549 46.0536 28.2792207002
28.2625 20.9129 55.9381 33.1082922828
26.0989 20.7116 53.8727 30.1800919746
30.2406 24.6803 47.9253 27.0106190531
27.2111 25.5133 51.3466 27.3432787191
27.3989 27.4926 55.1068 31.161788559
28.4033 30.5397 49.7761 26.283592099
35.5453 28.3325 53.9168 28.6464279153
25.2673 20.6585 47.9668 30.9489258791
34.8195 25.7109 53.6616 30.6896296606
33.5762 16.5645 46.0345 27.3506115793
36.5213 23.8077 52.0781 29.2529197163
28.4695 23.6554 56.0542 29.160538032
27.748 32.642 46.0785 29.4970525961
30.6418 19.2293 55.9508 29.1805071259
35.5748 35.9167 4.80263 30.6618335913
31.9691 47.8082 13.6654 30.9405364806
27.4915 36.2919 4.69554 27.861653174
27.1985 33.491 7.81146 29.7210959214
34.8087 35.6719 11.1082 28.9685617014
32.6086 44.1655 11.1635 32.196751162
34.7085 45.4329 9.80623 29.7888422153
29.5274 34.5772 4.09817 33.0846834921
26.0413 43.931 3.69498 31.6758529126
33.7377 41.9119 9.85709 30.1691408337
33.716 48.8812 4.38714 30.2895962538
32.5755 35.0382 7.86866 28.3778553239
31.8793 37.907 7.64035 30.9579316706
25.6126 48.7923 4.90949 33.2065851773
24.8886 47.6984 13.6457 29.1921485905
28.4384 38.9058 4.59741 28.627499429
30.1392 47.7129 11.536 33.7716927029
34.8351 40.7661 6.15759 31.3937952235
31.6681 33.2889 6.03178 31.8924232294
27.7103 48.2427 7.19805 28.3915607836
34.3654 44.8813 6.40458 26.9360639155
32.6565 38.9811 5.15072 29.7217966038
26.7098 40.9704 12.6421 31.1999212539
33.8065 41.9088 3.92299 29.1953273468
25.3243 34.0638 5.50963 31.2211431697
31.1975 48.3022 8.98732 31.4818941943
35.0283 47.5341 6.92491 28.8717148
26.4434 40.7043 6.73761 28.0879362788
29.1552 38.7418 7.26912 28.8742177826
27.1735 36.6524 7.5145 29.8224043516
33.2176 39.024 9.71593 29.7369281999
26.6567 47.7218 9.82386 30.3508200948
26.192 44.4009 9.78589 32.6271680866
35.6641 37.8278 9.2125 28.1222070492
27.4213 37.9289 10.1471 28.968336296
30.7052 42.9738 13.3896 29.4409215955
27.9197 43.3123 6.2755 28.0964262944
28.7341 40.7701 9.28406 28.3354192133
30.1517 42.8886 8.11407 32.5397241559
33.0142 42.6869 7.37437 31.9814805572
26.5428 45.5008 7.28709 27.555409702
29.4873 43.3048 3.92699 32.6782292082
28.1946 43.0378 11.124 29.2613951184
29.8908 46.0795 7.44907 30.4916187884
30.0833 45.1279 10.3362 30.0095141716
32.8537 39.5646 12.6512 29.6004139915
30.3788 36.4095 12.8989 29.8113130018
26.1428 35.8665 14.1823 33.0524319033
35.7327 40.5455 12.9653 31.6585372032
31.8789 32.8508 13.9464 30.3206437923
27.3709 35.1972 11.2024 29.6114337905
32.6438 33.5703 10.133 27.9168594997
29.4521 35.1767 8.86703 29.9736368886
36.5942 42.157 9.34598 29.1658883221
30.6649 40.3951 4.06406 31.419697755
30.3096 33.8077 11.9155 26.5607194495
30.3813 37.6519 10.6348 26.8100578609
35.9819 33.1792 4.48336 30.287453467
34.498 46.45 12.62 32.2376417778
32.0402 46.736 5.86691 27.1557102904
34.2153 48.3264 9.74097 27.9535771924
35.2207 35.5696 7.47034 32.2179057739
33.2022 36.5737 13.118 32.7524227039
30.1098 40.1 11.9345 29.5521165793
25.4599 39.7339 10.2121 29.0475079071
25.9049 32.9821 10.4236 28.263334939
36.0209 33.6851 14.0178 28.3294090761
26.5625 40.671 3.85331 26.6214664878
28.3239 40.0494 14.7829 31.5989417048
29.9929 38.6158 24.238 59.9808020858
34.7877 44.2772 14.5578 33.6671027609
26.1794 39.7017 16.6577 33.9941987739
35.1421 46.5791 21.4264 28.2430724859
28.3918 36.4898 24.6664 107.5995190445
33.174 35.882 23.7774 40.6241676119
29.4586 42.6029 16.5608 33.1621397056
28.7431 44.3935 14.7284 31.5472337748
32.2706 43.9433 15.7889 26.7115702282
30.6787 46.3074 15.5599 29.7470199692
26.0168 44.8919 14.4465 34.209159701
25.074 40.4125 21.7177 27.6012961658
25.0338 35.9482 19.1566 27.7678294798
28.5235 48.8401 16.0003 30.5970550144
34.4382 46.1398 16.8782 27.6182022633
25.8599 42.5303 24.1272 58.1671398989
27.6807 40.5219 21.3888 27.4670077295
26.5655 38.362 19.2938 30.4917996357
30.8701 36.5404 17.1771 33.6849097007
28.9918 36.9599 19.3278 30.1864251261
29.8435 38.6599 21.5392 29.0589016544
34.1815 43.6227 24.2288 79.5042667793
33.3587 34.0037 18.4622 27.263018531
36.0738 36.3373 21.7516 27.9621094804
28.3723 42.4074 19.3314 32.3136667732
28.7806 47.4995 24.4172 98.2758400233
31.5182 40.6065 15.0166 33.069903205
33.5264 37.9568 20.4214 27.7780898705
35.5004 35.4332 17.7082 29.5912051634
26.5362 46.8503 16.6746 28.1686999982
27.8147 46.0435 19.0648 33.9839037078
27.3815 44.1792 21.0999 27.6033046097
30.3251 47.5042 18.376 29.470863391
33.698 34.5679 15.1753 30.6771457354
36.0757 42.3847 20.3386 33.0830957424
32.6839 43.6188 18.6256 28.0077295432
28.5868 33.6757 18.8534 31.4292321151
33.0059 46.4259 19.5135 28.9236798976
33.3598 40.3815 17.3197 30.6355960484
25.3444 48.8319 21.4736 32.7298895153
35.6299 39.3822 15.453 30.2554142092
33.2387 48.82 17.5155 27.5820363286
34.2368 33.0837 24.16 63.3419774189
30.5722 43.6789 21.494 28.1107813068
27.5977 35.8977 21.9336 30.251632138
32.5327 35.3284 20.9443 29.8333355741
36.0598 38.6796 23.7004 33.9023922488
33.489 38.3606 24.5049 98.6125921624
28.2059 40.781 24.1068 67.3430941574
36.1058 39.575 20.9657 29.9865746004
32.3046 40.0495 21.6947 27.7759562578
32.3883 41.3677 24.4051 78.3587017705
26.4713 33.059 15.8128 30.2144851893
29.8215 34.0196 21.4841 30.3661285989
30.0662 42.7634 24.1944 74.6344668054
34.8627 33.6312 21.603 27.8350166442
35.2663 42.8949 17.7004 29.3984221816
31.0404 41.1752 19.3749 32.4890033315
31.0229 33.7638 17.1012 30.6072399956
30.5593 46.3704 21.2458 26.8352691503
33.5554 37.7759 17.7501 28.415195765
33.3737 43.0948 21.5787 29.2026126854
27.9933 47.7353 21.4687 29.1341471127
25.2342 33.9665 21.867 31.019875646
31.4631 46.9567 23.8129 57.5422399918
34.1079 46.448 23.8617 59.5090681734
27.5661 44.7616 23.9994 63.8285565187
26.9492 35.5399 17.2642 28.4153587504
28.7692 37.1508 15.2107 33.0612098954
25.3795 36.5345 24.146 57.3776609276
24.4826 38.0487 15.0724 32.5492582358
30.4394 34.6757 24.2775 68.0056652071
36.6127 37.957 18.6602 27.9658231217
36.4528 47.3392 14.425 28.9169940509
29.1436 34.2774 36.0304 55.4938616624
27.8798 47.8764 40.5385 34.1304353
31.851 35.0882 38.4608 29.8790875029
36.3577 44.8105 40.319 32.7454834
36.1224 35.1506 39.3987 34.5070390273
33.9237 35.9116 35.7491 102.9219524076
27.1754 45.252 44.8039 35.9926303011
26.265 39.259 44.9149 29.5866931607
29.8335 38.0421 38.9644 27.3515960351
26.6069 37.9703 36.2184 59.5828302817
25.6282 47.9561 36.1632 43.4212662408
31.5886 41.1455 35.7627 100.3292768095
27.2432 39.7097 42.2152 30.4322212635
34.6036 41.5944 35.9912 77.0277705373
36.3778 47.6765 40.6361 31.7359618883
30.3163 44.7349 35.5311 93.880871658
31.9842 43.9359 42.5072 31.4007156154
27.6613 44.1256 39.1908 25.9988708166
28.255 41.1762 36.0763 57.6429656245
28.15 41.7261 38.7039 26.2468082071
31.8208 46.8864 35.8494 63.7567311497
27.362 36.7654 45.1998 31.4953789365
33.7967 43.7876 38.1487 28.0988789702
32.9173 35.5578 45.0845 31.5139696521
25.2506 40.8463 35.6261 92.5108495549
35.0831 44.534 45.2944 29.5556867602
26.9443 43.9754 35.7239 68.7128289084
31.5488 45.1243 40.0248 32.958584451
36.8581 34.0715 43.9628 30.3827759325
33.6216 41.6236 42.6977 32.1014105675
29.5585 38.689 36.5003 44.1331504236
25.0446 41.6202 41.737 33.5663557782
36.8291 48.451 45.6528 29.6583441163
26.6517 34.4431 40.7663 27.9250757182
35.4089 33.676 35.5431 83.7310694248
29.2058 34.2454 38.6998 31.5267326018
32.3974 37.449 39.622 29.6390959719
26.005 38.3632 38.9119 28.9659639352
27.7948 37.3262 40.7431 29.6489762665
36.2383 39.5325 37.5797 29.7420984744
26.0389 46.1359 42.2187 30.9290342565
35.3991 44.3384 35.4502 114.3083457713
32.7153 48.4904 43.5688 31.8581254323
27.258 43.5431 41.6951 31.2593144671
30.3889 40.6432 39.9112 29.2012118196
34.5943 42.146 40.3154 28.3046348553
32.2301 39.2673 43.0447 35.3543923562
32.9259 40.5919 38.5537 29.9708469284
30.8613 43.2366 37.6588 26.2487549686
29.5948 43.1922 43.506 29.010865943
29.3824 46.1886 38.6857 25.3276131917
26.0088 49.0737 38.9016 28.4879064056
32.3984 45.9096 44.4251 31.2063561262
34.3801 46.5683 36.3933 34.061155046
33.702 46.6426 39.4708 30.2041121891
26.7571 35.2367 35.8579 98.200756275
28.3636 35.2804 43.043 32.3412568831
25.1188 43.9923 38.0399 28.4258487009
31.217 34.2498 42.703 36.807224285
33.2419 36.6255 42.2598 32.6510417013
33.2856 48.9795 40.8312 28.9723215611
36.1652 48.6136 35.6057 106.7485932553
35.8236 35.9708 41.9418 33.0102644873
34.8468 37.3901 37.9544 32.5922354374
29.7077 40.6945 42.6211 28.3138556839
31.145 36.2827 36.0617 73.4465964982
29.8982 46.1751 45.309 30.7966152738
34.1428 33.4319 38.2687 31.7687175819
25.0458 41.1668 38.7823 25.6883946058
25.859 33.8052 38.0888 27.0233176746
34.53 41.939 45.187 30.5731532553
28.1737 46.6701 36.0512 45.2413019652
36.6517 40.4164 39.996 32.0078317969
30.5906 48.7693 38.2232 29.3898056737
30.0047 48.9948 44.487 33.632777968
32.3384 38.3277 45.7058 37.7613595907
33.4583 35.5779 49.2643 29.4868733218
28.2334 47.8896 48.5834 25.9374624432
25.9798 41.3636 49.5595 32.5479982538
26.1848 47.6475 52.8443 28.5475681606
36.2181 39.761 52.7895 29.2888591569
33.5267 46.2682 47.5936 28.213223168
26.8245 34.834 47.2775 28.3806165201
29.0421 40.375 45.9015 31.1634247127
25.8828 42.8634 53.6789 29.0807005713
29.6982 37.6716 46.5951 28.5087769592
35.6042 47.2524 55.3257 26.3491725792
29.9984 43.0093 46.3212 28.2178597981
33.4904 48.8791 50.4849 28.1323505189
27.4094 43.7457 47.4252 30.3636956879
30.8551 45.3661 48.1945 26.4317800055
35.7482 37.7113 49.697 32.0475054461
32.7957 41.7529 47.3874 32.4027757009
25.0182 37.6407 48.7984 28.3406431516
33.8898 44.8031 55.9515 29.6517709395
26.356 33.1043 54.1936 30.4878957777
27.1015 35.0929 50.1265 29.5637258732
31.1549 48.079 48.8866 27.3481218142
30.2691 47.2081 53.8569 30.9421821356
26.2438 46.9568 46.8811 28.0702150541
34.533 34.6708 46.9465 28.9324740187
31.8671 33.2765 53.2042 27.6151705648
30.1879 49.0475 51.4104 28.6152660772
30.7956 35.2836 48.3353 30.8064386055
24.7088 48.9578 49.4837 29.1872794103
28.1198 38.0208 49.069 30.8277374022
25.0331 46.5456 55.6179 30.5955915056
30.6816 41.0144 50.4257 30.8845153472
28.6005 40.9523 48.6182 28.4252942187
26.3725 45.1153 51.9831 28.3615651117
32.0352 39.4178 48.7831 29.0446854925
30.9505 40.7419 53.627 35.4788735931
31.2025 43.6686 50.1926 31.0436561308
30.3211 34.02 45.7083 27.652438647
35.082 42.7377 48.8464 27.4338851901
35.5997 37.0372 53.8125 26.9365745783
29.5626 44.9035 52.277 36.3704425881
34.0898 39.504 50.795 31.0496723781
25.0878 39.6033 51.7147 28.7917877927
34.0433 44.392 50.5224 33.6437027978
33.6327 37.2583 56.047 29.8725859729
33.1542 36.7866 52.0211 30.9960684502
29.5905 34.5593 50.7367 27.4214617542
27.0772 36.6944 54.4119 27.531642763
28.6748 34.459 53.7832 26.9272495412
30.3708 37.496 50.7739 27.6460221222
35.1464 46.9712 49.9733 27.7886587355
27.8359 45.5011 49.5539 29.3709383099
