22.8751 19.8745 19.9211 32.4059961212
16.1492 23.5166 23.8854 51.1767396268
20.1733 20.4948 19.8224 26.0274517362
13.9191 13.8009 21.6326 27.6001182899
20.4073 22.1686 24.1272 67.2809145528
14.692 16.6553 24.5951 107.0913220532
19.4801 16.1329 23.8781 46.7476421206
19.6419 15.9734 19.7883 34.0113621898
17.6374 18.4086 24.3486 89.2919479212
22.7095 15.8016 24.5068 94.5838108474
23.0722 22.5592 24.1266 70.3874529577
13.2799 19.5141 23.961 56.6446197794
13.7383 16.9031 21.5327 28.4043578898
22.4056 18.5279 22.5561 30.0552684423
15.7506 20.77 23.675 49.9380282717
20.2711 19.3703 24.0568 64.7681591301
21.7833 15.7331 21.4477 28.3642618409
12.4558 22.3768 24.2549 80.401926549
12.4701 14.8134 24.107 56.6667034824
23.7354 12.6315 19.2642 27.6485894532
21.9645 20.8195 16.9722 29.1792382529
19.869 13.4635 22.096 28.7731900017
12.9566 15.9319 18.699 29.2685473544
19.9311 14.7323 17.2374 29.4843188311
19.7423 22.7279 17.1865 28.7431039071
24.4541 23.6456 21.9471 32.6320355576
23.8262 16.8528 17.1733 32.6308989956
18.1485 20.6456 18.0697 30.6393613492
16.4649 22.5022 18.9963 28.5354623641
14.0832 23.4657 18.2186 29.0038752827
22.7362 12.7457 21.7825 27.338683088
18.9668 12.6423 19.3235 30.5998239336
24.1421 15.2573 19.5459 31.1530149629
21.1022 24.2315 19.2771 29.0863265567
24.3546 18.0926 24.5196 91.405915508
16.0672 12.3915 19.8589 29.7040796336
16.7345 15.005 16.7671 32.4800769711
17.6526 14.5263 36.5789 42.2953317697
20.0489 21.4384 42.6032 29.4946654699
19.8225 13.1295 35.6023 113.0860675462
17.4061 23.854 42.6701 29.9523657692
20.6299 19.4303 40.6164 28.3661862923
22.0105 14.254 37.0079 37.4050694478
15.2553 18.2771 35.9342 71.8886485237
22.9488 23.4526 38.7239 28.7783304225
16.912 21.2241 35.8332 73.8747839721
18.3591 17.1407 37.461 30.8118380503
20.9495 16.9167 38.1177 35.4851688757
22.7645 19.0797 37.7513 29.4284992947
24.4434 13.2549 41.3509 29.0939398447
13.5663 15.8539 35.8664 69.8037069662
18.8165 19.1335 35.6411 117.8835286511
21.3583 20.4233 36.122 70.2755782839
17.2583 24.2035 39.6036 27.7581674927
23.4077 20.9486 40.0558 30.9795833902
14.1292 19.0354 38.432 27.5421293799
22.1912 23.0115 36.089 56.0511914436
18.021 16.6466 42.1459 30.0125949327
17.4286 13.3624 39.653 30.179092873
23.0107 18.0159 41.9464 30.2065459556
14.207 15.9081 38.6497 30.8770969597
22.3533 12.7394 39.4018 31.34589464
15.2328 13.3366 35.3397 110.7419956454
14.3165 21.9348 35.7382 75.6394886572
13.1009 18.5808 42.8797 34.8335664718
16.6269 18.3536 39.4199 30.0528796997
14.7931 22.7227 38.3498 26.7140309465
15.7294 15.2451 40.8587 31.3506619745
20.1459 13.663 40.6897 30.1417773628
20.0154 21.3051 38.6082 28.8934581256
17.2003 20.9225 38.6845 24.8256764638
20.4822 16.3397 41.1531 28.5978521965
20.0 24.1327 38.707 26.6132206437
17.0968 24.13 36.5971 36.8386743279
14.2926 21.6596 40.9516 27.2520391359
12.5967 12.6482 40.7603 27.6906570023
16.982 20.9282 41.5241 27.50505555
13.9874 13.9207 42.8503 25.8091955503
14.2351 12.9509 38.2608 28.2692989254
24.0058 14.1851 35.1117 155.1331366128
20.3078 24.245 42.6035 27.5449522658
12.3773 19.7812 35.8265 83.2978894827
12.7426 24.3102 35.8153 84.6395353413
24.2215 15.5458 43.0865 28.8743974554
17.9848 15.5763 44.6015 29.5329326608
17.5718 14.5674 48.4341 28.3025191473
14.8201 13.9538 47.2768 29.3959815006
23.175 15.6819 45.9508 28.290517876
16.3683 13.3211 44.8281 30.1456416182
22.3429 20.7205 48.0932 31.1292949587
16.058 17.7106 45.7961 33.3103539446
19.0112 18.0873 46.9639 26.4499729091
19.9237 14.7729 46.9296 28.3377694198
19.2418 15.3624 53.621 27.7874709057
21.6636 18.0723 47.0274 28.93841704
23.6314 20.8426 45.2516 33.182569347
17.2733 12.4864 49.9833 26.8014643931
15.7409 19.3336 49.0941 29.23914773
17.3963 21.9639 44.8051 24.8354715612
17.5944 20.3439 47.3263 27.7762623181
15.3594 19.9383 44.0197 30.0620799441
14.1739 13.0103 54.7957 28.9934694864
20.9813 24.3636 53.9019 30.3546092884
19.6168 23.2789 46.0751 30.5996070333
15.3851 23.1983 46.2948 30.2492477995
13.0843 21.7632 46.1293 27.4842536658
19.1202 17.1289 49.5598 28.7178482621
23.6769 18.0763 52.0635 27.7371363901
21.0646 15.0088 43.9882 31.2014893422
21.6189 13.0278 49.1222 27.6470380195
13.6614 16.2534 50.0614 29.7841182208
18.3804 20.2579 52.4936 29.5916153935
16.3163 16.8414 50.3343 27.6051112148
21.6387 19.5657 53.1958 28.2946765811
20.1934 19.6742 50.4078 30.1947479297
13.0611 19.8396 48.5192 29.4217270537
16.3406 21.1978 51.1574 27.4660842901
24.372 23.4909 50.9965 30.2726018754
19.5393 21.8473 48.4211 31.2219596196
17.9719 23.455 50.2935 33.634874857
22.8923 21.1027 50.7486 30.9705269626
15.2836 23.475 52.7225 30.7746409377
20.1143 14.6644 50.8354 28.2585620917
13.9532 24.0514 50.156 28.9482666973
24.3833 17.8359 49.0603 29.1629780337
13.1399 14.7516 52.4446 29.591140799
22.0416 23.259 44.6515 31.1728897026
23.3419 14.3092 54.2779 25.755766529
22.7723 15.5303 51.8593 28.3150203013
21.1504 17.2898 54.8629 29.520015761
23.942 14.5893 49.577 27.3185637274
16.1882 24.4619 48.5673 29.8813321161
14.0633 19.9121 52.5844 30.7514487681
15.8769 14.1144 52.0023 29.6437485101
16.5488 17.1379 55.3224 29.2113683785
17.6006 17.6318 52.803 29.8411513774
21.5869 19.2512 44.5217 30.9390471677
21.3756 22.1064 55.276 29.5140048044
17.5167 23.2817 54.9428 29.2923916797
12.9879 22.5986 43.2168 27.2086956043
24.355 13.1543 45.8879 28.4268138015
18.8587 20.7437 55.3564 27.9063816659
18.6617 19.0478 43.6565 28.5396703857
16.7039 14.4438 54.7663 31.984270221
12.7266 22.2735 53.0563 33.2927710152
13.7209 15.9803 46.1724 27.4587267421
23.9241 20.7915 54.9673 34.3074816014
14.0534 18.1373 54.7043 28.6468611062
23.1886 12.1076 51.8589 25.6986401588
12.3142 21.1024 55.6849 31.3944202212
17.1971 25.9109 10.7353 30.9737440268
16.4768 36.0588 11.1235 29.2654057857
15.0129 25.8461 7.48861 25.8299783855
16.1769 28.6004 7.1302 29.9258551533
23.3832 30.8428 7.8756 27.9371204827
19.0279 29.2151 6.17059 27.3694257741
13.0225 27.6661 14.6713 31.818133445
24.1508 31.5966 11.488 34.4808401114
18.4857 36.618 5.32527 26.5234750019
19.0409 35.5708 9.2171 30.618025552
18.5596 32.0435 6.45587 28.3806890526
15.9122 33.2109 7.00087 28.306050857
20.044 24.756 7.14358 25.4128847422
12.594 35.8109 8.03105 30.6596734835
20.7549 26.9808 15.4658 28.9422171392
22.6268 34.118 6.47814 31.8341054702
13.1434 35.2212 13.2666 26.7882204883
21.7305 34.799 12.5709 30.463765262
20.6549 31.3668 8.07595 28.6293137215
21.7005 34.3033 9.32798 30.2833265922
21.0741 27.4203 11.5098 30.9209343478
15.4948 30.6228 9.14846 26.9223462448
14.1556 28.756 10.6062 27.9644141788
13.2276 27.5928 6.06349 27.536989756
22.6889 25.3322 8.16462 27.4986206175
15.9992 35.5738 5.6356 31.8857195824
18.2349 26.7082 8.54461 26.4363889984
21.8455 34.8557 15.5532 29.778993636
14.0629 31.9752 5.38785 26.8455178524
14.3508 26.128 10.1576 27.8108650868
23.1353 28.1831 8.45218 28.7405575377
16.4057 29.4518 4.34406 27.3937046468
17.562 29.1947 13.0475 31.9922425776
19.2193 33.6588 13.2777 32.6297804593
19.8998 28.9063 9.38406 29.6784915883
17.9463 30.5364 10.5379 28.9180679736
23.6602 30.6182 13.9352 33.3742034017
22.5621 27.8021 13.6763 29.1110343743
17.8889 36.1015 13.5271 25.3692838704
24.1068 27.293 10.9065 28.0685623004
15.1841 33.2409 13.0036 30.6367853463
16.3335 34.7384 15.4438 28.3422635402
19.0621 32.6853 10.3873 29.6783629116
13.4335 34.9748 16.0025 28.5331458272
24.3664 35.8609 16.1214 28.2066514811
19.9536 34.6989 6.74705 27.5051341968
14.7244 29.0832 13.3231 33.2545312053
20.445 26.915 5.59469 31.7679956877
18.974 26.7427 13.4464 30.3169560334
19.5778 36.287 16.0254 28.036416311
23.9459 31.5956 5.33345 32.6897518785
16.1625 33.3765 10.5478 26.549524622
13.0821 31.4244 13.6397 28.0427818315
13.8577 33.4442 8.7912 28.9237686404
12.7988 32.2336 16.3121 29.0050324422
18.7054 30.7959 14.7681 33.5854938478
24.4769 25.9274 14.6141 29.2002029257
21.631 31.8286 15.787 30.6794090589
12.9384 30.4921 7.49442 27.9014074195
20.209 24.7691 10.6785 27.5550492912
24.4474 34.4091 11.9367 28.7864598185
24.0411 36.6434 6.03513 29.1150965356
16.8565 32.0436 16.3368 32.5155909928
16.1045 28.345 17.7484 39.203543268
14.9714 26.94 19.8509 29.5367298724
17.7978 29.0636 19.7398 27.393712339
17.5518 26.6499 21.4149 31.1216139701
20.3868 29.2745 17.0881 27.6161607859
20.422 26.2344 21.4265 31.7152223646
14.1675 34.5215 19.292 35.3859146852
15.9323 34.1737 21.9715 27.6877019956
14.7558 30.8983 17.7598 32.848227576
18.9844 31.5979 18.2798 30.6295260704
20.969 26.7296 24.192 64.3679806305
21.9747 30.1657 21.6351 29.7019614142
23.6225 25.7792 24.1366 85.6918622498
18.4589 35.9331 18.7701 33.5499873181
13.9853 24.7735 24.3172 75.5612026716
12.8879 31.9651 23.8116 65.8836787841
24.3646 31.7852 18.7118 28.6050712276
14.6503 31.7648 20.3626 27.2700143776
14.8028 27.539 24.4952 116.3064251099
18.3229 30.2473 24.3696 88.6114638397
17.7345 27.6011 24.1307 52.8063758454
20.4212 28.4774 19.88 27.7095382021
14.6129 29.8576 23.1756 31.8490375989
20.8809 32.663 21.626 29.993106813
17.0256 30.5804 22.0648 26.1838832901
18.6313 33.1867 24.1012 51.738743062
20.8357 34.741 24.212 70.1243860755
21.4721 35.4626 18.6143 26.5569677618
21.1436 29.4578 24.1041 63.0841475146
23.6946 31.0295 24.3317 82.8492776206
13.2754 28.7627 21.2088 30.9037036881
21.5939 32.6828 18.7109 28.2441577338
16.3297 34.7402 24.7956 129.6461731342
18.0644 32.8041 21.0848 29.1741229691
23.2974 29.6204 17.0912 29.6132647455
21.9921 35.4045 21.388 29.177287163
21.9755 26.697 18.3193 28.6070123967
23.4611 33.6943 24.6385 103.1031047408
13.4037 26.4767 17.4723 31.6108724844
13.3882 34.7167 24.0755 62.3648810863
13.5542 24.4855 21.0202 32.070411664
22.2472 32.349 42.3206 33.8504414414
12.6148 34.0644 35.5905 101.8598959169
13.584 24.7134 40.2936 28.6538113928
16.1852 26.8087 35.767 86.1366771455
16.658 32.2841 40.1279 31.7988727836
16.526 26.787 39.1373 28.6031163038
20.5255 27.6193 35.7234 64.5692704376
13.9105 31.8015 39.3042 30.1398166224
14.1336 31.7122 36.5216 37.643910483
13.7037 27.0248 38.9379 26.7689026722
18.1234 32.184 37.7039 28.9347499597
17.8378 28.9212 35.6106 69.948892306
20.6786 30.5311 35.6171 77.2506453318
17.7607 35.4262 35.7922 76.1316471844
23.5834 30.8729 35.7772 57.4695818522
15.8537 26.8118 41.9408 27.6246066768
23.8628 28.467 38.4859 29.4714927959
20.4312 35.7937 35.8337 50.4460447333
16.9032 35.1217 38.4107 33.6961858223
16.699 31.5479 35.5808 104.3245052655
14.6135 34.5795 42.4624 32.2972052172
22.1913 33.6903 35.4525 87.9039918636
18.3538 32.4675 42.8502 29.6300325717
12.2559 29.7343 36.1987 55.9532565337
19.1339 35.2129 42.3005 33.5010901937
23.6661 31.3363 38.8865 30.3086005583
22.2387 25.376 40.7618 28.5090598879
19.9426 24.7926 35.8808 84.7433480498
18.0946 29.4316 38.6536 32.0838435447
21.12 32.4286 37.8617 32.4318906176
13.195 35.3658 40.3763 31.2883787004
21.5887 28.0829 40.3933 26.6356884102
13.6492 27.2549 36.2041 54.2377712651
23.9789 30.1749 41.4491 26.6130933329
21.0694 35.361 38.5367 31.5238466221
13.9866 29.0229 41.1339 29.6965446949
19.8845 27.1618 38.4809 30.6730246207
23.3931 27.829 35.7576 77.7111605364
19.6129 29.9516 41.2295 30.8320799603
17.9756 28.0683 42.7977 31.2292019814
19.0245 36.6039 39.4872 29.024416262
23.8753 34.5047 42.1498 28.9428217133
22.9688 36.5053 40.321 28.6837554044
15.1706 31.3695 42.6403 27.3247732078
14.7273 24.9586 43.7611 26.052128988
23.9241 27.6251 52.5207 30.1056464523
20.5943 34.8917 55.3205 32.1642032729
17.249 27.0311 47.6933 36.3813476254
19.4508 26.077 46.1329 31.9577971558
22.2868 30.4312 55.4497 34.432718824
20.4489 31.0843 44.0222 27.9989330714
21.4075 27.0382 47.6948 33.7052385156
13.076 30.2713 47.6524 37.7606702299
14.2783 29.4767 45.3809 30.3912212148
16.9183 30.0892 44.4883 31.3255951246
18.059 31.8784 46.7939 33.3697309614
21.31 33.3347 45.4312 27.4657770289
13.9925 32.9095 44.859 30.0017438316
20.7623 32.7504 48.1979 30.6315367373
23.0661 31.3685 48.125 26.968846875
15.2032 34.6454 55.5502 29.7223573947
15.5142 33.0755 47.3028 34.1084457515
21.5229 36.1439 43.4392 28.4599194387
20.4472 35.6406 48.7214 34.569228788
16.0561 32.0472 55.4186 28.2809405335
16.2807 36.5275 53.9269 30.3622725563
22.4309 28.9938 46.3731 32.8059092946
22.1348 28.7875 43.2959 27.3221713703
18.5543 24.8019 52.6762 26.4047933222
23.0602 36.4876 49.4277 31.4966696731
17.0442 28.6327 50.131 32.4078860167
18.6652 27.2724 51.6746 28.6890566794
21.148 27.5944 50.3644 30.971317728
13.6275 30.1739 51.9934 37.3581622301
14.6269 27.5709 51.0763 33.4696961972
17.0425 33.0714 51.1562 34.1866845209
21.0443 30.4358 50.6045 27.4752177632
18.6167 31.1603 49.5355 31.6367977065
23.7756 29.3144 50.3462 28.3990360892
23.1481 25.1592 46.3462 32.5932714152
14.7005 34.3207 49.96 34.07687437
14.9552 26.7226 46.0034 31.6662092763
20.7227 34.1774 52.7708 31.2545097503
17.8889 35.1538 52.4738 28.4933780245
23.955 33.5039 46.1385 29.0920825385
19.0095 25.7089 56.064 30.5431835834
22.889 35.7909 52.3525 29.2281744173
22.5675 26.1291 55.8416 33.5396883538
17.5988 27.6185 54.9779 26.9383370473
22.467 25.1425 51.7699 36.7724697956
13.8677 26.5169 56.0377 31.0470840603
19.7914 30.0023 55.9568 27.9859739837
18.6795 29.6804 53.2556 29.952901737
20.1586 26.7858 43.6292 28.3771316022
24.4595 26.6854 44.4857 30.0658401628
23.9343 28.3418 54.8988 27.4242329943
15.8731 26.3588 53.389 30.7413769453
16.1652 30.9784 52.8374 31.1303666666
21.3078 31.5262 53.0119 28.6087307745
12.6986 32.5453 50.4207 32.7608654511
24.1145 31.7138 52.1633 33.1230801633
18.3752 34.5137 45.4897 29.6505259072
12.5444 26.1725 49.7068 34.0660409685
12.6932 35.1547 55.0945 32.11809506
15.8546 35.819 46.1195 29.8020265128
20.1226 36.5809 46.0173 32.1354663999
22.7977 36.2769 55.2259 29.9412060467
18.6982 32.4587 56.1135 32.6814934385
13.8307 29.6387 56.2408 27.6159995008
17.7588 38.8968 6.6637 28.3577641423
20.73 46.7001 15.6559 31.8682734588
19.8769 47.4264 11.9847 31.1724853565
24.0999 45.198 4.95986 25.7484972645
20.9957 39.8 7.08847 27.0586352534
23.5478 41.0263 8.59097 26.3976671356
24.2993 47.6176 13.6224 33.5184847663
21.2751 43.2712 12.3555 29.331561015
17.989 49.1078 16.4572 29.2843474997
16.1105 42.3943 7.80917 28.7545858867
15.2104 40.3977 9.39562 30.811289533
15.4803 42.5871 15.0589 28.4492380096
18.4842 41.5836 6.9535 29.347687168
12.9587 39.1555 8.35624 33.0710989472
21.6253 45.2923 8.54996 29.6830650208
23.5475 43.7509 7.34073 27.0655359689
21.362 37.8493 5.08041 29.3028211314
13.1791 47.8492 5.99175 31.4287516293
13.9632 37.5235 6.08582 28.9649743466
24.2731 38.0071 8.56963 28.0818269956
13.0627 47.3732 13.1338 27.1031529937
19.3436 46.0308 4.48162 30.2063170707
20.4311 47.0514 6.80091 26.6462757179
15.2127 47.2449 15.1475 30.5478724156
17.2641 38.413 9.45411 32.1006236969
20.5104 37.2831 12.3131 27.5499913481
21.3795 37.7152 9.08056 31.9330651595
24.5315 39.6257 4.6706 31.8006201585
13.5311 48.8523 8.47183 28.4313059949
13.3313 44.449 13.9164 29.6829614402
23.4398 42.9736 14.6095 30.809365615
14.6903 44.1857 6.15805 27.9885541567
17.4001 46.0814 11.9399 29.9215590217
14.7631 41.0447 12.1975 30.7252309878
20.4518 42.6974 8.75085 31.485594184
21.7749 41.043 10.7347 25.0502393338
16.0215 44.8432 9.31166 31.6394150202
19.2843 39.6941 11.018 29.2944144936
15.1021 47.4704 10.8812 28.2300182264
22.2714 48.6643 5.556 29.3308861239
13.9881 37.1036 11.6572 29.2423989522
23.6864 47.8928 10.7355 28.493407291
16.1046 46.5462 6.24129 28.0482321099
22.4849 41.4731 5.40295 30.4679896696
17.8838 47.4645 8.11726 30.7677883509
17.2076 39.0112 14.3379 26.616982617
22.0171 45.8853 11.1528 29.9615662844
17.8006 41.3262 12.648 26.4060442143
14.4123 38.9203 13.8205 30.5740792845
15.1198 40.0376 5.46737 30.5514209597
18.5075 43.5115 11.1825 32.4633242619
13.2791 44.524 9.34179 29.4374232568
22.4634 39.0 12.8717 30.2951559258
12.6896 42.8568 11.6988 32.5451229893
16.6149 44.8274 14.2581 28.6698932565
23.3555 45.5919 15.5326 31.5405208776
12.7057 41.5821 16.4303 26.2206468763
19.8314 42.2219 14.5427 30.1832915057
21.9942 48.9307 8.69245 27.1202670423
22.5015 40.6164 15.579 27.9896749162
19.9316 39.0987 15.0851 26.8010289074
24.7247 47.3835 5.66228 27.343288215
12.7687 40.9365 3.80297 31.539604175
18.2477 42.3265 4.25985 30.2623664942
15.7342 48.9594 4.73332 29.1209079137
18.4982 43.0252 16.6734 25.1567392897
16.5794 37.2141 16.8255 27.2789739192
18.1395 45.7507 16.5012 28.3861392465
12.8895 44.2082 3.9294 26.5732843809
13.0068 47.6524 24.5895 100.1221239071
23.1001 37.6509 18.2351 26.8762574515
16.3317 42.2734 21.2746 28.9920872846
13.9234 37.8703 17.4265 27.2612749323
22.2871 41.1968 18.6098 26.9865706654
23.0449 39.4316 21.1933 26.5979341718
20.7418 37.9907 21.0977 27.8276751856
20.8855 37.7419 23.9015 55.0231165088
14.9332 40.7443 17.8474 27.0868958485
13.5757 44.0703 18.7134 27.9629165389
14.0542 40.7718 20.9863 31.2676080632
16.0272 43.3384 18.2922 28.0854088633
23.2798 42.401 21.3234 26.4788417572
22.7573 47.6832 24.5925 102.1651255148
20.4472 43.24 18.6608 32.6426931517
16.3848 36.8746 21.3455 30.8891403119
16.9229 46.6111 19.2291 26.7913459273
12.8547 48.622 19.2188 28.1422409468
16.2869 37.612 23.9324 48.718907895
15.2949 44.5341 24.2734 75.6203499886
22.5855 46.2822 21.4474 25.818369359
14.2243 39.5506 23.6919 61.6591451657
19.0057 41.589 24.2649 55.813195765
18.7306 40.8277 21.2229 31.0267222024
18.5189 39.0344 24.511 94.2300920623
23.1871 39.2955 23.8441 67.7928596273
22.1162 45.5777 18.6813 31.0284612174
16.0454 47.3103 23.9292 47.8903032025
16.0777 41.6878 24.0687 69.78471538
22.231 41.8663 24.1585 70.1681665492
18.5896 44.4904 24.5881 90.4389344335
18.0613 45.1283 21.9272 26.6845012405
22.1036 44.6271 23.6256 33.6239960817
13.9411 37.565 20.1862 31.7006446608
20.3748 42.9921 21.5799 27.0340803162
18.1196 38.4945 19.7014 26.8257292477
13.5463 47.7982 21.7045 25.3386676227
23.6105 48.7828 21.8717 31.9779928555
15.423 45.5887 21.2891 27.4971250475
19.587 47.2948 21.4668 29.0890774782
20.2442 47.8297 18.471 29.5433704286
20.1673 46.7085 24.3396 57.9976142015
20.5545 39.0402 18.0595 27.1161591466
14.3572 46.832 17.781 30.3839767013
12.3088 45.1205 24.1255 68.4580549435
17.4676 40.2079 17.0292 27.5021335928
23.4652 41.2974 38.6876 28.5681332065
20.0419 47.0784 41.5094 29.958098342
17.5534 38.2247 35.3817 97.7805234436
15.0223 38.6247 35.7837 62.2245215304
16.8522 47.6312 38.6345 30.7414446004
22.2504 37.6788 35.6242 74.1349033687
12.7421 37.4351 42.91 35.3556938466
15.5217 37.5416 38.6213 32.1853293693
16.8612 42.8025 39.4624 30.182704145
15.0108 41.4936 36.0762 47.6659584321
17.3493 43.1134 35.8034 72.5458407203
21.6046 40.973 35.2604 99.5113080322
21.5349 48.8847 42.6007 27.383203685
18.7361 40.5926 36.0469 42.8846775191
18.5771 45.2407 38.146 28.4921488922
20.8371 42.9274 42.1552 28.6587181142
19.8435 42.3876 39.6174 28.5190422153
21.7918 43.8315 35.5906 69.0116609595
15.5221 45.3845 36.5602 35.5100735805
18.0348 38.0987 42.6727 30.264663069
16.2416 44.2043 42.2175 34.0847741718
23.6544 38.704 42.8364 26.7139678209
19.405 45.4855 35.4399 89.0233561343
13.4637 43.8486 35.6415 87.1266242831
24.2965 45.0371 39.1571 27.0327619573
22.0456 38.7896 37.9946 27.9745179307
16.8808 39.2938 40.4836 29.5466508509
21.1723 46.4569 39.045 31.4097649629
20.1431 48.93 35.6145 87.3145337591
21.1197 38.455 41.3864 28.0857432046
21.7258 43.5165 38.4215 26.5898514873
17.4957 47.7317 35.9226 65.0383668148
24.027 49.112 41.3009 29.5767048524
12.2368 44.7813 38.373 27.8851924427
23.7014 46.1951 35.9357 69.8870672403
19.4513 39.8337 38.9167 29.0276440348
15.3934 45.2753 39.4903 32.7335337652
13.3072 47.9175 42.3851 33.6994635
24.499 41.4698 35.7072 83.6580847736
14.8469 40.7804 38.6396 31.7687470505
22.7818 45.2841 42.8769 31.3450304957
15.499 41.1056 42.4229 35.5261355254
22.1379 48.1911 37.3637 30.7858607629
23.63 41.3518 41.7014 29.4082281664
17.6971 48.7896 41.329 29.2588807288
13.862 47.6746 37.354 30.9663603944
18.7884 44.6498 42.9029 27.9117303553
12.6355 36.9586 35.5428 85.337573708
13.614 39.6235 46.2334 29.2615348878
15.8775 41.6777 47.3662 26.5796823647
12.7725 44.2251 49.3167 28.5471590039
15.0038 46.2481 43.9036 32.314709506
19.4327 43.3382 52.7519 33.8998399493
19.1921 39.2048 46.0542 28.360945877
14.7893 43.3922 54.5116 31.0724574711
24.0648 40.0135 53.4417 30.1395204501
14.8243 45.8713 47.953 27.9310359078
23.1933 39.0056 48.0683 34.2050570044
17.1759 44.2196 47.0719 30.1484857413
18.9271 43.1158 45.0251 25.9931918614
16.5515 38.6291 47.1714 27.8889570525
17.2086 47.3063 51.8926 34.588253305
13.0555 42.4655 47.1171 29.49771421
20.6108 40.3225 48.2243 33.5520303453
21.7319 44.8104 56.1344 34.7239199518
21.1328 42.4287 46.5215 29.491380099
23.4402 42.056 51.566 38.2763537458
20.1088 46.0317 47.8173 29.5012934613
12.9106 40.518 43.6744 34.0317060689
17.0549 44.9343 53.3178 31.5801866694
21.2589 49.1154 47.4005 28.7735338688
13.2061 45.4526 45.6596 30.1606453114
18.3166 41.0155 49.1974 28.2728996281
14.8779 40.9103 50.6276 29.0214834955
16.6125 38.3377 49.6616 30.3656798476
20.6648 42.1519 55.7738 32.7847917162
12.8079 37.9356 56.1855 28.2293658586
18.7875 46.446 45.2961 29.6810507716
18.6134 37.4689 55.1137 26.7949625432
15.7001 40.4657 53.0709 31.143783797
16.973 44.8204 56.2669 27.1919297211
18.4158 43.9204 49.6923 30.4345053536
18.9745 36.9137 50.7311 31.2113978257
12.9426 44.3568 52.4678 28.1848147328
18.5595 40.8071 52.2306 33.7278513029
21.3735 44.0787 50.9556 29.1373527405
22.3038 46.5378 51.8482 35.2303316731
17.006 41.1285 44.9332 30.5103893316
22.4989 47.0829 54.4999 32.7294761838
12.2823 37.5858 51.92 28.7952814782
14.6757 47.705 50.4429 29.5064167351
20.4778 40.5515 43.6888 30.0433644113
18.8769 48.1034 49.6388 32.0187511024
14.1554 37.1268 49.6185 29.6015615128
17.2275 48.5307 44.3033 26.7271973913
15.4784 43.7481 50.5819 30.3689439876
22.3108 47.1982 45.152 29.9618133458
14.2673 38.3208 53.7696 29.5797257173
24.4777 45.3334 48.8133 30.8115673945
18.6985 48.2944 55.8402 30.9554855962
19.8889 38.2864 52.7199 34.2915090764
14.3623 46.8457 55.4817 28.8183713537
21.9665 39.3656 55.0421 30.1449835413
15.6523 48.3215 46.8596 32.8254614433
23.0186 41.4457 44.7445 27.9699743135
13.3052 47.3352 52.6138 26.8467809556
21.9601 44.2928 48.3796 28.1147331387
15.6927 36.9518 43.4597 32.480805349
17.3283 39.8412 55.9071 32.4672963089
24.6015 38.898 45.3971 31.1537503687
16.5099 49.1349 53.9701 30.6449479407
13.4078 36.7693 47.0079 26.7713393702
27.7437 0.656505 11.68 34.0901038186
31.1929 4.63897 6.6724 32.2395291505
32.0169 4.06507 13.7265 30.3923617135
34.7556 0.641927 11.2022 29.0555002857
34.4968 4.43414 5.88707 30.7693947524
32.6651 2.33592 7.20231 28.0609665261
36.1892 1.84847 13.1098 29.7624854974
27.8099 9.20547 14.6582 33.1004254176
28.7542 7.78763 7.14322 27.8748638952
27.0054 2.32089 7.37643 34.0080611038
27.7128 5.18034 6.33662 30.6820098503
35.4257 9.33344 4.26765 24.467225161
28.8307 4.56903 10.6473 26.7375521111
35.433 0.344706 7.58638 27.4636333029
33.1493 9.33064 8.26408 31.4052262187
31.5633 11.315 14.9941 35.7092745199
32.51 1.59714 16.6294 31.398229605
27.0819 9.4322 5.71235 28.5782224044
32.9693 11.2289 10.3706 27.1157133395
35.5631 9.53655 6.82608 31.0312696697
25.2271 8.47364 13.4175 31.249069886
31.0903 8.94346 6.36959 29.089061106
30.8194 1.09916 9.01777 33.1272395431
28.0696 11.9957 6.46202 30.4785804141
25.0907 1.53425 11.2594 29.4512610305
32.4593 4.43166 11.02 32.5810810152
30.1388 2.42855 11.2603 27.8276552109
34.252 2.88646 9.39025 30.0132253632
31.9302 6.66805 4.75585 29.4828652335
28.1411 0.281196 8.88732 31.7210765872
26.3289 7.33366 11.0594 31.2593384011
26.7308 3.50644 9.63157 25.5149534362
30.6713 5.92258 9.11001 28.7655120756
35.055 7.24833 11.9893 37.524170549
36.4832 4.23333 8.40432 32.3478975161
32.9713 7.68547 10.2131 31.4472190849
35.9181 9.4126 13.4591 32.0359850982
28.3781 8.54259 9.75344 30.8574870029
28.6929 11.4816 9.39008 28.9050560958
30.5448 8.25735 11.5687 31.0758307081
29.6166 7.25928 13.987 32.7109841616
35.3413 11.3372 11.4616 30.196817681
31.1094 1.45875 14.0341 29.8681114958
24.8793 1.87771 5.22839 30.2088432739
31.0713 5.69277 15.7816 30.7950374045
36.3288 0.571573 4.76736 28.5102432874
31.3049 10.8684 12.3033 30.7819535708
31.2361 10.791 4.12172 31.9455358764
35.7604 9.76579 16.1143 31.7530659056
24.9862 5.98942 6.52544 31.3553172295
26.5616 11.2629 12.764 30.35106577
26.0773 3.59495 14.6015 31.5131559064
33.1083 -0.0671712 4.40089 31.4247725888
27.7133 5.34302 12.9888 34.1332017195
34.5455 3.3246 14.8156 26.0360634649
35.4083 5.57836 14.6077 30.176728438
27.8777 2.26246 15.9409 30.5716671369
25.0577 5.2876 16.8177 31.0780736681
36.5619 3.49133 4.58314 25.8355021001
31.9082 2.82471 4.15106 32.3497721479
25.037 5.52221 9.29436 30.9037799505
31.03 11.9102 7.51259 29.2134598223
35.2843 12.2611 16.8369 38.6024728879
34.7945 6.83505 4.04079 26.3879315006
26.4838 2.02569 20.9997 30.2312629818
30.805 9.9824 17.4832 33.9634148463
31.8104 7.47667 17.9493 32.3666367779
33.5806 11.8855 21.0366 30.4106766684
25.3711 10.3337 21.2177 27.8135495042
34.0882 0.802676 20.9498 28.8170509643
34.6647 7.73454 24.4408 102.2903904121
35.402 2.69296 17.2719 27.4563967014
36.1258 2.68346 20.7293 28.7709987951
30.561 3.98074 19.4485 28.0792604218
31.3925 1.4856 19.5686 28.11672677
33.8452 9.34801 22.2165 28.0746101789
33.1669 4.58105 18.1765 28.3566349749
33.5636 4.43161 21.1138 27.0701359409
27.9137 9.2424 20.5919 28.2033115043
27.007 6.81934 20.5818 30.8348185928
31.1945 10.2755 23.9484 66.2556010475
35.0301 8.048 19.8557 30.3929005961
32.34 7.1182 20.9004 26.0000235908
31.6894 0.771725 24.3839 127.232586501
34.5117 0.791439 24.0017 66.7608339423
34.6924 7.24538 17.0834 30.5007190259
36.45 2.81224 23.8291 55.8110756117
26.2011 1.76587 24.3011 91.6016823982
30.9798 11.162 20.0163 30.209721236
25.9246 11.4561 17.2555 29.7123925945
24.9422 6.30661 24.2973 90.8111622123
36.5599 5.4773 24.0462 77.9600381399
32.2431 2.61429 22.3785 27.4771642917
29.0973 3.00754 21.9285 34.1499786761
26.0417 8.64494 23.5407 33.4373901985
32.3232 5.7486 23.8255 64.7061099959
29.4992 5.72596 21.7179 27.9569232574
30.408 9.12221 21.5452 25.4481984299
27.3453 4.44836 24.2288 73.2856777482
36.5607 5.74558 20.4805 29.991689938
29.5849 6.37141 24.5035 101.5186056543
28.4989 8.81851 24.3071 88.4318484398
36.6213 9.72271 24.2102 81.305559137
26.4309 1.23694 18.2558 34.8367088303
27.7406 9.36674 17.3822 30.049643034
27.1492 6.54018 17.7368 32.9373914783
28.9829 4.50336 17.1094 31.6603119392
29.6741 2.78965 35.4509 102.7963793595
25.6742 12.0474 36.4163 47.4111518795
32.4061 11.1744 38.9953 25.8417055561
30.1475 0.879511 39.8987 25.9276286362
34.0275 10.2148 41.2006 27.3581592912
26.7572 1.71097 38.7279 29.8757600519
28.0447 10.8724 39.0434 28.1471104437
31.6587 3.07192 38.7822 27.0495993786
26.8837 4.34967 39.6543 27.9604067634
31.8007 5.88257 42.7774 26.1694087317
29.5297 5.18817 36.3229 35.4258515367
36.0595 11.4459 38.8839 28.3736133102
29.5792 5.32343 39.1241 28.2105006111
32.342 2.67495 35.9788 48.7474055145
33.5163 5.05674 35.5368 115.9197967208
32.4811 6.88397 39.0809 27.2981537402
34.3779 4.93829 38.5717 29.8878137249
36.0565 1.82501 38.9701 28.9419852798
26.3962 8.89943 39.9505 30.958415182
26.6765 4.53379 35.7978 71.3393145909
36.4037 11.3152 42.1683 29.066025364
30.4231 9.53083 39.8831 29.4639661419
28.5338 10.8768 36.0309 86.2323574708
31.7745 7.24156 36.1777 50.3641528945
28.6265 8.10938 35.831 85.5158298511
33.546 0.46914 38.753 27.1260180524
30.1058 10.9481 42.4702 29.2116144586
25.4003 7.31495 35.7277 93.3646830094
34.6181 9.05314 38.1948 27.3692518948
29.2881 0.844236 37.2498 26.9729658099
35.6063 3.65588 41.2985 29.5836177161
27.1926 7.77173 42.6536 30.3523770829
33.8129 7.47105 41.5268 27.0087591553
32.8118 3.56958 41.4304 28.3004900972
33.5784 0.110287 35.9675 64.8221434808
28.5853 2.78439 41.4467 27.9653637824
29.6672 7.20709 41.1415 28.0780553165
24.9184 4.19653 41.8726 28.7322847499
27.3196 0.671905 42.6842 27.7768655089
33.3364 9.8071 35.7658 89.3407279064
26.7416 7.16226 38.1484 29.4503706216
25.6311 1.76199 35.9398 52.3052512916
36.1743 6.20519 41.0447 27.0750092253
36.5513 6.27264 36.6351 30.0399788248
36.3343 8.6434 35.4546 83.1038923698
24.8656 1.81191 43.1329 29.1447067249
31.0754 11.7143 36.4752 40.4246167288
36.6914 10.8091 47.9044 30.4616574173
26.8033 5.3113 44.0357 35.137357308
34.4193 8.42578 44.3611 31.3738366199
33.4725 0.876602 46.3295 28.5118268158
29.0421 0.567542 55.0584 32.7653039262
36.5553 9.77622 53.2593 31.6232387576
34.7971 0.832432 54.7146 26.8898503185
31.4733 2.32296 47.1983 30.0159945599
27.8809 9.37203 44.8817 29.9917216373
32.4863 9.18948 52.4336 33.0131172769
25.1061 10.1174 51.0824 27.5333088614
32.0832 4.59291 45.3207 28.4980284926
27.6098 4.92613 48.0326 33.0977780246
31.1619 0.812248 49.7803 29.7738632537
27.4225 11.903 43.6285 29.9063044903
26.2334 2.57161 55.2536 29.0094443437
27.1804 9.25624 47.5777 30.7834989602
33.2565 10.7528 45.8024 29.9678956319
25.6107 5.94624 54.5063 28.7211445655
34.5927 6.45134 46.4854 31.5990206498
29.4208 5.99269 46.1565 30.6961897341
34.9696 2.42063 44.1965 30.0559477223
25.49 6.97041 47.8269 32.2641435915
25.4971 5.50345 51.917 27.7929608532
33.2922 0.665069 52.1955 29.2736228846
25.416 1.07395 52.8316 29.9120224644
32.3081 12.1007 52.6216 29.2470049205
36.0439 1.35045 47.8949 34.292175486
32.7455 4.94401 54.9208 27.3435910391
33.4952 10.7361 55.2578 29.7968510859
28.7631 9.76865 49.7629 29.7286244196
28.445 0.855311 49.3295 30.4484269017
27.3499 2.2757 46.9927 33.1423628491
30.7785 3.96579 49.6294 29.9911846883
27.5916 5.50986 56.1705 27.2637287527
28.7948 11.0073 54.7479 27.9974053354
29.4362 3.23279 55.534 29.5846826803
27.9605 7.82399 51.7095 31.0829446627
34.8503 7.55849 53.7074 28.2196531605
31.2161 9.68715 48.9953 28.5214919731
28.1973 5.02058 50.8833 27.2184832998
32.3306 3.44421 51.7959 32.0500065794
35.357 8.22287 48.4188 32.379273963
33.0167 7.88511 49.7955 29.5994069806
27.8267 2.39218 51.6677 31.0802874385
25.2118 11.0331 48.253 29.0730531404
29.5296 4.16636 43.5662 25.4794384233
31.8328 6.11566 48.0042 33.972924825
30.0608 4.4694 53.2642 27.4494996842
35.1248 3.48908 54.5858 25.3703921246
36.1034 3.11347 52.0812 30.3551086188
34.5829 5.52045 51.6459 32.0357412647
32.2295 1.90129 43.4509 27.4693090531
27.5864 8.81996 55.7813 27.2058571357
25.9452 8.97696 53.6227 27.6767700233
29.3824 -0.0668236 52.354 27.4887249267
29.8747 7.11206 55.4109 28.8245768774
29.3806 1.99792 45.3301 26.7294426437
30.4396 7.31285 52.8164 31.0382902214
30.5076 8.178 44.3738 31.4327795208
36.2721 4.60223 45.4848 32.558291978
30.4522 10.5341 46.4603 29.358522928
25.3001 0.337876 47.0611 28.4869098366
35.5516 0.516562 50.9632 29.3212998528
36.9074 9.48194 43.9731 28.9499162462
36.7356 5.58751 49.4732 31.6873065128
32.8806 11.9989 49.1151 29.6081098687
32.4854 11.7022 43.1473 29.1396984976
24.5784 11.3179 43.4907 31.8869883949
27.7043 15.021 5.9888 24.4663566853
29.0076 12.3051 12.1381 27.0781910611
34.7452 16.1427 15.0308 30.7445985846
29.8227 16.5997 5.87455 27.3105153991
25.1015 13.8817 11.7575 28.5250751679
26.1904 15.436 16.4874 27.8782256532
34.4225 15.8311 8.61414 30.3722638412
25.1022 19.5824 6.62212 28.801347667
25.3585 16.8838 7.48406 27.2627664642
25.617 12.9993 15.0288 28.5616416336
32.4513 18.037 5.9315 29.9807943234
27.1514 22.7363 10.3405 25.3162851077
24.9627 13.837 7.6237 30.4706900154
27.5908 22.3594 4.43594 28.3457563337
34.226 19.4848 4.17731 26.5216953973
32.4615 22.021 9.87315 30.7701777702
33.5995 13.5611 14.7947 31.4439505832
27.503 19.6722 5.59206 26.9351771817
36.3932 22.3486 4.46734 30.8164729013
35.1796 22.6852 6.83306 27.8552024851
32.9488 22.1266 4.84857 30.4056417722
26.6408 22.593 7.15438 26.5779888077
35.099 13.8373 12.5259 29.0451789838
26.2102 16.8941 4.83591 26.2534093276
30.0957 14.5935 10.3525 33.0570904381
35.6122 12.5696 3.78658 28.917229132
34.2509 14.3675 6.35734 27.4939828664
29.2138 13.255 3.95456 24.1994572088
31.1092 15.9042 12.5361 29.5159459644
26.5239 21.6632 14.6302 28.2774759397
27.9613 15.925 8.73074 29.2173258129
26.5666 15.9776 11.1707 31.4809848371
28.9073 18.5224 7.84845 26.7106911884
31.1202 19.3168 9.60406 28.6101805786
33.285 18.4502 8.27782 30.1885090137
34.2285 21.9899 12.0162 31.3484932043
35.2934 20.2489 7.9126 27.958150119
24.8092 13.3319 4.86376 27.2092461661
27.5812 19.9945 10.1992 29.6335571281
33.8316 15.9269 11.4137 29.2857305947
29.6763 21.7814 8.05929 28.0041814827
36.283 21.1775 10.3446 28.7145264123
31.3621 14.1604 5.69524 29.6171100811
30.7085 20.5401 5.79237 30.0595784103
28.71 14.2675 14.0951 27.7323618405
31.4151 15.7553 15.5046 29.6110564273
32.5144 13.6471 9.15269 29.836148183
27.3874 16.6166 14.1658 26.7909185954
30.142 13.2365 16.2012 31.7938648179
34.8383 16.2651 4.82414 28.9360818855
30.5547 18.5368 12.1513 28.1035859555
34.7365 18.0161 12.8823 35.2878101486
26.0349 12.2915 9.72503 28.9669750275
28.0441 19.5776 13.141 28.9701992169
29.4526 17.829 15.4883 29.9642520388
32.7053 19.9202 13.3306 30.7052682788
32.2904 23.0371 14.8271 28.6857769929
29.8621 21.8676 11.7612 26.4835054762
25.2986 23.74 12.7864 28.2449237979
29.585 22.0873 14.6881 25.3871450917
32.7103 20.3924 16.2846 30.2026091604
31.1807 24.2401 8.35985 27.7533988324
31.7314 24.4863 12.1532 27.8733307267
28.128 24.6196 13.1692 29.2255043852
36.4567 12.6255 6.69035 30.5253535502
29.9076 20.6251 16.9199 28.6654265189
35.585 19.2136 17.6469 30.1983778495
26.2646 13.1695 21.7995 30.2520863368
32.7204 23.9092 24.175 73.19144335
32.5971 14.6605 21.5195 31.1551524238
32.6957 22.2933 18.404 27.5975486307
29.7972 23.1528 24.2847 98.0442240732
35.8971 19.0162 20.3479 28.8942629026
27.8584 13.3891 17.8859 28.7835956668
28.47 16.5377 17.9054 30.8727259591
27.1526 13.9281 24.6561 119.2278889929
27.0315 18.4475 19.5108 29.4134348467
31.215 15.0423 24.188 64.4749179458
30.2693 15.1793 19.9198 34.9219710529
33.6816 16.8634 20.2112 34.8095752891
36.0051 16.4635 22.2788 30.1508675179
28.238 20.0919 21.3473 27.0223295132
27.1937 21.4138 17.4744 32.4143429136
30.5845 20.6934 19.8076 30.7050894454
35.8969 12.3244 19.7193 31.3257159326
32.8521 23.4738 21.2514 26.6339877223
28.8998 12.6474 20.4818 28.1692739918
29.8582 22.7992 21.6029 30.7566998571
33.0497 12.4898 24.0811 70.6907780933
32.635 17.73 24.1375 59.6037765359
34.3244 15.3517 24.6258 105.3687514687
35.5962 22.4123 19.101 26.9111600096
29.4351 12.7049 23.7385 45.7855213167
26.494 16.2495 20.9343 31.441367653
26.7591 16.6966 23.64 35.2896592403
35.0178 19.2119 24.5202 90.0823442128
29.3446 17.7746 24.3622 85.7688649164
29.6971 17.4646 21.794 27.9641781185
32.1742 18.7019 21.5207 29.2856749966
36.3431 12.6647 23.8365 57.606075597
25.5064 20.9072 21.7362 33.6973493652
28.0917 20.4209 24.2574 73.6588196226
33.9204 20.9452 21.4671 28.4893762145
27.5019 24.2 18.3818 31.5094538
34.6931 21.8364 24.1139 61.9463515799
33.1796 17.6034 17.168 36.0095496848
25.2916 20.8435 24.3759 82.7770482529
24.7744 19.4479 17.6552 28.5791465978
24.8294 20.6152 42.5608 30.8323836339
31.0738 14.4463 35.8279 79.2076545804
33.7324 15.3803 35.6552 78.3706581055
35.3692 18.6457 41.0619 27.1320733969
34.0028 18.4498 35.3184 110.1764398508
26.9334 15.2866 38.499 31.6339387677
36.4463 20.1008 35.9249 45.3750637413
34.3714 14.3519 38.6288 30.1499696732
35.0402 21.9756 43.2997 25.5956020488
28.7464 19.2105 38.5101 30.5188054835
28.955 16.4642 35.5791 90.2391097454
35.7526 15.9024 40.624 28.905048804
31.7975 19.4762 38.9678 29.7183384709
29.1875 19.1369 35.7387 68.5688842013
31.6566 20.1334 36.2865 43.3893957056
33.6011 17.4154 38.117 29.6563164527
31.6092 24.3673 39.0287 25.4342389447
25.9144 20.0988 38.6073 29.5593547634
26.691 18.3126 41.9081 27.0923255746
35.3701 14.2079 42.7599 30.4755198464
26.9689 20.854 35.4723 91.3509155005
26.2 23.2348 42.7227 29.9061683689
29.7783 22.1019 37.9431 26.4722536415
29.1117 12.9779 40.7768 29.4849695677
25.0663 23.321 35.4793 105.9702619116
25.3549 17.147 39.8144 33.9821732028
33.227 18.5796 42.9683 28.3808839292
26.8708 22.6846 37.819 25.6384186949
28.865 16.687 40.5481 28.686903394
27.1418 14.4202 41.7917 27.2634986422
30.5807 16.1185 38.4406 31.632047698
29.2565 24.1576 36.1119 70.0900983172
31.7793 13.7288 39.9159 29.3239948638
25.9688 16.1297 35.7334 62.1913668885
30.7819 16.9934 42.9752 36.8517429067
34.6449 12.3889 36.266 45.190479218
29.577 22.2924 41.0885 29.0547023247
33.3167 21.9083 38.7416 25.0545627102
32.6476 21.1402 41.8649 29.9214733024
33.4456 22.4196 36.1476 52.8159384153
36.197 22.817 35.4516 112.2632617508
35.4525 24.3389 39.3073 29.4017243904
35.2637 19.9197 38.7446 25.7652222723
36.698 16.6386 35.9154 64.2936018012
26.0169 12.7611 38.8272 28.4546718244
27.5692 23.8704 40.4977 27.8568506346
32.6214 14.4805 42.7113 31.060903079
33.1449 24.1867 41.684 29.7799886939
25.1123 18.7048 35.9449 72.0725018514
27.9562 20.6317 42.7294 32.5621808817
29.9826 13.3583 46.5776 31.2660475367
27.3215 13.8476 45.585 28.5645848692
36.4066 14.0313 53.2887 31.954849022
31.9787 14.9001 45.632 30.9547190331
26.4141 13.4548 48.3238 26.6075524753
28.745 15.0878 54.2295 27.342227111
33.6661 13.3289 46.9594 26.9003120831
35.0191 22.9841 51.672 28.2106136676
25.9774 19.8361 49.543 29.273144277
35.8537 23.5878 49.0026 27.9025858952
28.4289 17.2483 46.4849 32.5908419419
36.365 19.0691 53.9132 29.9470143348
29.8899 20.8422 51.1534 31.3461769234
29.8698 19.3486 44.5813 28.2467439574
34.1914 17.8589 46.9457 27.5050596505
32.3734 19.9468 45.2966 26.4518320077
35.4878 17.8462 44.4533 28.7948737359
29.631 12.4619 52.7381 29.0768873449
34.3571 18.7296 51.513 26.1979354202
35.0226 23.2878 54.8864 32.0456912482
28.6597 21.3772 46.3787 29.3026214021
34.2588 21.8781 47.3961 26.4049215582
26.3975 17.4205 52.9967 28.0787883373
31.6499 23.5549 47.8584 28.251362197
31.1884 17.296 47.3004 25.8849228628
31.4877 22.5135 45.2075 26.3202559687
28.0733 12.366 50.4362 26.5186742984
30.4574 13.7659 49.3731 31.7317302436
28.8854 23.9196 47.2349 26.5834401327
34.4292 13.2592 51.1639 29.9668707162
36.7006 20.2177 47.5995 27.7492599939
27.8484 24.4547 44.5335 30.7410557777
25.9491 13.1885 52.258 27.2684531025
35.0064 15.5609 48.4593 28.7569498487
33.0082 19.1697 54.2355 32.9001884179
28.2235 18.3714 49.3062 26.5896627335
32.3563 24.054 50.6203 28.6336792881
25.4992 23.084 55.2969 30.3192057614
33.5976 16.186 51.2454 27.2764635994
31.3574 16.2986 49.6821 27.8990735841
25.8311 21.5024 47.3224 35.2546905205
24.9905 24.1806 48.2131 37.8524869135
25.486 20.5473 52.4357 28.0108112236
29.9737 19.9572 48.5035 27.7507447339
28.3597 19.6141 53.062 30.1000239471
36.5321 20.6885 50.9636 27.1717018983
34.4417 14.9903 54.9168 29.6711921679
33.1276 19.5949 48.8722 29.1057240694
25.8476 15.4884 54.7777 25.8083721036
29.3059 16.9398 51.7069 28.903998717
32.6463 21.212 51.7205 28.4119131053
31.8764 13.943 55.0718 28.4937060391
25.6481 16.3732 47.1045 29.163590601
29.2169 23.6594 51.6334 32.2182324511
26.7244 16.4619 44.1136 31.1566055938
29.4643 20.6112 55.454 29.889256949
26.4485 23.6394 52.8754 30.2656055497
36.2643 12.4347 45.5913 28.5195165711
26.2227 12.4323 55.0832 25.734140552
26.5734 15.6777 50.6589 29.1470895906
31.8342 16.3638 53.3079 32.2075399965
31.8007 21.8657 54.7764 27.3755952726
28.7774 17.5538 55.9545 31.4811511531
34.464 23.3406 45.1911 24.7645686457
30.4477 24.1134 43.3654 29.6264061144
28.2492 29.7797 12.4516 26.9388113008
35.8087 27.5911 6.57706 35.7648523758
25.0427 24.8918 10.1981 26.7109075145
34.1151 25.209 7.68791 30.1968957622
32.3221 26.3372 5.80906 31.068011684
33.9114 28.4803 4.88691 29.1770288504
26.4455 30.1226 14.8172 29.4197768789
35.8506 25.2124 10.5615 28.5876963648
26.4539 32.9743 5.81989 29.0274949907
27.8245 28.6728 7.99656 28.7742411405
29.6243 28.0876 5.75233 29.8468580246
27.2534 31.2343 8.39605 31.2847727801
27.2137 25.2596 8.23933 26.2740896756
31.5219 28.4719 10.6511 30.8011167772
31.0868 27.933 15.3179 30.5617401986
25.4149 27.2583 7.17243 28.9247259094
26.2371 34.8776 14.1249 27.6378751397
26.1286 27.7744 16.3486 26.2631945711
30.5827 34.6049 7.22413 31.6366321162
24.9253 33.1076 8.88132 27.6465743856
33.1936 35.1718 7.06594 26.8229345148
36.6144 32.6823 13.3899 30.9718404363
25.5906 29.852 10.3214 27.5825023645
28.5187 36.4339 15.5567 26.743532761
30.6754 32.2868 4.99885 33.7504655935
29.3788 24.6541 10.4847 24.716132779
32.8205 26.0837 10.4183 28.7154339434
34.7669 27.7691 16.7305 29.9822937172
33.2283 26.3743 14.1323 27.124776117
28.6177 34.2141 12.8344 28.7712432315
31.2984 35.3557 15.6038 27.1338106156
26.8174 27.1681 12.6752 28.091567425
32.3731 30.1109 12.5333 29.2223480219
28.8955 27.7394 10.4143 30.2843176551
30.1425 30.431 14.369 26.550951163
34.7237 31.193 9.08493 27.8363626583
34.7839 32.9132 6.7329 31.6223794583
34.4187 32.2195 11.6176 26.9286900926
27.2712 34.8279 8.17762 32.054293027
28.4559 32.1421 11.0177 31.7897649959
28.1164 31.904 3.80892 30.4363724345
32.5676 34.3868 11.3838 27.5813078503
30.7784 32.9226 9.61242 31.4192753135
34.6359 35.09 9.6334 29.4422701835
30.3116 36.3328 12.0458 28.8071976996
32.6743 32.9647 14.1989 27.7409042888
26.413 35.6001 4.95316 29.4714829098
35.2693 34.921 14.2609 27.8309930557
37.1441 33.2662 10.0771 28.2620638194
25.3511 29.1232 4.7893 32.0086352723
24.6269 25.3773 4.6312 28.944624003
28.4655 27.0184 15.1493 26.8376062622
31.519 29.8322 6.2034 30.9006971534
34.8986 32.5318 3.7929 28.7073883631
29.3156 25.517 6.5037 29.7735523088
29.7488 33.1037 14.8886 27.1553769044
35.6262 29.776 14.462 29.587532906
28.6091 30.0521 16.7702 31.0066569821
34.017 31.5584 16.3171 31.8896738814
34.6141 28.2361 12.2666 28.9751167329
34.1822 35.1602 4.22076 29.7102763486
29.3738 24.6566 16.523 29.440900708
31.9597 30.6586 8.87733 31.3615034289
25.7435 36.2248 10.2643 28.4972319713
25.7681 32.7326 16.3287 30.6380400835
35.1302 24.3542 13.3698 30.9256113667
32.8618 25.0943 16.6225 26.9731619546
36.2759 29.1624 8.87114 32.7919549164
28.566 25.469 21.0575 28.7485712181
24.5218 27.5934 19.3942 28.9168213342
24.7751 30.0146 20.9702 32.3390285506
30.9394 24.6807 19.1742 28.2901779762
27.4438 27.924 19.0969 30.581759059
34.7655 25.452 20.678 30.1360436053
36.0892 32.1511 24.3822 74.5830655268
27.7847 30.9919 19.8046 30.7117929672
31.842 32.2328 20.688 33.1095112202
25.9274 29.7327 23.8191 49.4068587894
25.0372 25.0977 17.5502 27.9510774106
26.5884 35.6768 18.0211 26.9562099291
33.0719 35.7159 18.0303 28.694355874
32.4903 35.6197 23.8201 61.4486074295
35.3667 30.1564 21.8438 32.3531155713
24.7844 35.5261 21.5559 29.4057996277
36.638 31.1338 19.3434 29.8452758317
30.7624 34.3298 18.9763 30.4312738839
25.8302 25.9153 21.5223 29.7532207922
26.2659 27.0236 24.0396 75.0767227893
28.9148 25.9586 24.1666 76.7547413281
29.8625 30.4162 21.47 29.7452558532
25.8419 33.9538 19.9341 29.5039739398
36.1864 35.5384 21.6105 32.8038131521
30.3246 28.2312 24.1394 70.6540440517
34.5331 26.2358 24.4937 100.5896152738
30.799 27.6889 21.1785 29.6917087271
28.505 30.6359 24.0858 86.0136931961
28.7214 33.3566 23.623 57.1556739022
31.5631 32.9572 23.3443 37.2730077167
33.3926 31.1696 24.3957 100.3764904839
33.61 27.834 21.4534 28.5350112233
32.997 28.3874 24.0558 49.1600524953
32.9958 28.8213 18.5661 31.7846405227
28.566 33.7281 20.9338 29.7397790401
33.9733 31.2852 19.1719 29.4522860178
26.0269 35.0567 24.282 97.4829745548
35.2994 34.7629 24.4035 86.980070819
35.4536 24.9897 17.8041 32.7642311634
30.4108 27.6021 18.1297 27.6714999299
33.4213 36.3386 20.9546 29.1966726173
28.31 33.2099 17.4442 27.4236116276
30.4806 36.6349 21.1861 29.9679963866
35.0147 34.135 16.9554 31.155113282
26.3471 29.3963 36.0581 53.0919513919
29.4539 27.7457 42.6278 29.9041159409
35.3248 29.257 35.5013 101.4146455226
30.4533 28.593 38.4833 26.9572329579
31.0966 27.8542 35.6348 85.1694683306
32.106 31.091 38.873 28.7298937241
27.929 35.5715 40.842 25.5387671351
28.0327 35.9913 35.6717 83.0521886635
36.2713 28.6846 38.7103 30.198639281
28.4852 30.7575 37.8622 26.0021026889
29.4488 26.0903 40.1071 30.1274680509
30.6522 30.6272 35.7285 87.3873059878
33.6432 31.5531 36.2841 41.9075733648
33.79 27.136 36.5597 32.8539397597
25.3503 24.9561 38.636 26.8290419933
32.7951 35.3646 42.5311 28.3186405718
24.6398 25.4432 41.9619 27.7987241676
25.3575 25.9913 36.0855 45.1575990122
29.2965 33.4628 36.0996 47.3798987096
24.8406 34.3298 35.8974 46.3267773406
31.8325 34.6727 37.9772 28.2146657358
34.4007 34.1505 35.6579 76.685354939
34.0226 33.7919 39.6354 29.6952375318
30.3084 34.0202 41.9617 27.3873182626
26.8371 35.5262 38.1901 25.4035644216
36.0433 35.0229 38.0807 29.8100148722
28.4646 26.8756 35.7016 84.2020186986
26.7826 32.3423 35.366 103.0518727673
30.6583 31.2268 41.2701 29.2768663916
32.8114 26.9165 39.0533 27.8426322223
26.2019 33.3473 41.3437 28.8656275608
28.3366 29.6293 40.8694 28.0979178253
25.537 27.7064 40.8069 29.4276432766
26.4549 30.9331 42.6461 31.338046142
32.4372 26.7189 42.9891 29.4780216198
35.9839 25.2754 36.5807 33.5813601182
32.3598 36.2488 35.3604 114.8676954863
26.1174 32.5865 38.5281 29.3014389424
34.7539 31.3279 39.8931 29.5901657547
27.3835 27.575 38.3511 26.9236334061
34.7015 29.537 42.918 29.1502303067
29.5634 33.4392 38.9498 26.4444563542
34.6887 27.4921 40.9214 28.0415427414
31.4455 36.4634 40.1273 25.2276241647
34.5721 33.029 42.8195 29.3583253352
32.2565 24.6745 36.206 59.4564957181
27.3582 27.2137 44.3673 31.5863953522
26.52 26.6766 52.3719 31.1003430221
36.3537 36.7555 54.9716 26.9723761767
25.7714 29.0555 48.4326 30.8299683674
31.1716 35.9412 55.9229 31.4525272383
35.7659 27.9863 45.0395 30.1702051477
35.6734 33.2002 49.9038 28.8866791384
26.0904 31.7867 45.4435 30.8567272118
27.909 27.437 49.1173 30.7762221751
34.5238 27.263 55.119 29.5792627255
29.491 27.014 46.5386 32.5697780772
36.215 30.047 46.7104 30.3176007828
25.0795 34.5949 52.0989 30.6131371999
31.7603 34.0949 45.0656 29.4097162961
25.2837 29.221 45.8071 29.3369396202
25.5523 35.2045 55.0475 33.1880214834
28.8967 31.9921 46.3386 33.0584373537
33.2351 25.0709 55.97 28.6801947492
33.0058 31.708 44.9974 27.7948507151
28.4081 33.6765 44.0201 28.7084148706
29.2728 34.7122 46.9295 27.3237029577
34.4146 36.0412 52.5986 27.3945255069
31.0557 25.9363 52.2707 29.6913292273
27.4404 36.1392 44.7806 28.6645685752
25.3977 32.3419 49.5243 27.6021345412
31.6383 30.8223 53.6072 30.3515626336
28.7631 24.749 56.1604 31.9506591743
32.1856 26.2194 47.4321 30.433068449
28.0363 29.1374 56.3111 31.586252974
27.8201 30.9894 48.9932 30.2624126011
28.9148 32.3257 52.6863 29.9386300621
30.2506 30.3164 50.5438 27.626625942
29.2356 28.043 51.5436 27.844875312
30.9262 29.6868 45.893 33.4242260838
27.755 24.7915 49.3009 30.6063304349
34.2911 25.8268 49.5231 29.9474508326
31.6181 33.4625 50.2411 31.3799987303
35.5115 36.156 49.7367 27.9210040821
26.6659 26.5366 55.1914 29.8874138496
34.1549 34.1822 47.3004 31.0525776908
36.5699 35.4636 46.3992 31.4371648604
33.9986 31.3344 47.4992 29.9092058957
31.9953 35.8838 48.6746 27.6309084337
36.6024 27.3966 50.2973 28.7030597777
33.8591 28.7096 50.7586 32.1343901667
33.9132 26.1342 45.3932 29.7048555264
31.8258 35.5107 52.4153 31.1320275106
26.4737 32.3058 53.9706 32.5852390201
35.1131 33.1891 53.0718 29.9713708107
27.9497 29.4202 53.2921 33.6775688495
32.9804 30.7438 55.9178 30.5242440521
32.0708 29.3642 48.5894 32.1644621513
33.5349 31.7664 51.6404 29.2484365746
32.7947 27.816 53.1923 34.6896654378
30.8808 33.5417 54.6812 32.0407211616
27.4858 36.0785 48.6758 30.040638597
28.735 33.6839 50.2308 31.8412471938
24.6166 35.9538 44.586 31.2220018718
31.7593 29.703 43.0406 28.2379185887
36.6683 34.3138 43.8169 28.3975136789
25.0183 34.7111 48.5274 30.1650187015
30.8371 24.5022 54.6126 30.3945220701
25.0743 37.4942 13.2633 28.2108166731
24.6584 42.1631 12.1472 28.7245458862
25.0673 39.5513 11.1833 27.0587563724
33.162 39.4622 5.12056 34.2305474784
25.0534 46.5018 8.39141 31.3470957486
26.4569 42.2851 7.91595 26.91113349
36.4347 42.5838 15.3826 31.7801619427
27.5642 43.9543 6.12346 29.7414507604
31.0039 45.361 9.20495 30.2971745547
29.064 41.8459 9.55105 30.9359134596
32.0717 42.0672 5.66217 33.9082112572
32.3952 42.9483 8.42967 34.4647589251
27.0192 47.7604 13.4609 35.4483756268
28.408 47.0729 5.43792 32.9130186405
33.1635 48.3022 8.99146 27.6186458749
31.0585 47.0669 7.30548 30.4301483386
29.5931 37.1381 7.74887 29.8901791592
35.3563 46.3893 7.84172 28.0633056013
28.2986 37.4207 10.2934 30.3746531618
32.5333 44.2635 4.06003 27.1436669605
