32.5237 23.4373 42.2857 33.8651240263
36.3711 14.7879 38.6473 32.2903406932
26.1208 13.4458 42.3893 30.7122910813
29.2636 21.3319 39.9508 34.3633842168
30.3091 12.5067 39.914 27.779015505
31.462 18.6715 42.7934 32.2844435493
35.2252 18.7843 40.0157 30.7124962803
27.7955 15.6321 41.956 28.6802312434
25.1462 23.3866 43.1034 29.7067586576
35.7683 17.7437 35.7178 65.4118158307
35.8753 23.6266 38.4416 28.0604274573
29.5713 12.3601 35.3842 107.1324869765
36.8492 14.9397 35.7874 81.507815828
27.694 23.8178 40.0559 29.3619831725
35.3833 12.3738 36.377 35.315831313
34.4802 18.5801 43.0644 32.9930712393
26.4244 18.1299 45.2372 34.1356634624
34.6097 21.8313 49.6088 30.0741550908
26.7935 23.0655 54.1525 28.1427359187
30.9199 14.0516 46.7323 30.3888603799
32.8595 19.1809 45.6309 29.317662705
25.9288 22.7948 47.3316 30.6460209756
33.312 15.1975 46.2205 33.9026415377
26.2453 21.4209 44.7768 33.9229469038
34.8843 22.6924 44.0753 36.7012174183
29.2523 21.7889 44.4677 32.6443709427
34.4515 18.2086 52.4571 27.2283286886
29.5834 19.59 48.9101 31.1602980269
34.8938 15.9782 43.9502 39.3347727837
34.1813 21.4292 46.5437 30.7728653486
36.863 12.3363 47.5582 28.3934067469
31.656 12.967 52.6054 30.5743632093
28.0848 24.0339 51.0776 27.871356673
27.7466 17.9099 55.2934 27.8074377636
31.5712 23.3579 47.6755 33.3871581234
28.9271 17.939 46.3238 33.100715569
35.4882 13.4118 54.483 32.6441228231
32.8678 19.6528 50.7458 28.7126627902
31.1501 17.3371 49.7576 26.8780905493
27.9995 12.5732 47.3258 28.5761837279
28.0664 14.3963 50.094 26.5361357174
34.6368 13.7994 48.262 31.7390756333
25.4468 13.7623 49.393 30.0767998866
35.1597 15.3557 50.4734 27.7984935698
33.2804 22.2537 54.165 27.0573223868
31.5104 15.1042 54.732 30.8492985342
34.4775 24.2336 56.3777 27.4251400918
28.5239 19.7705 52.3863 27.5047894397
30.6195 20.8824 46.3663 30.725407742
27.0664 19.061 50.1204 31.5609536855
35.9807 17.3504 48.6487 30.5510461959
29.3899 15.71 48.206 31.519487682
26.8632 22.0335 49.8007 29.014909172
36.4267 19.93 47.3091 30.4092176546
31.2816 22.4307 50.1563 30.1891563692
36.3137 20.6507 43.5303 28.8404796329
31.1248 23.0407 55.8576 28.6819979468
34.397 23.7692 51.671 31.9937958719
29.2588 12.5572 44.6656 30.4473266048
27.6009 15.4094 52.6476 32.4539559532
29.3483 12.4302 51.022 28.8740019081
27.1207 13.2823 54.657 34.431171557
34.2103 16.0903 54.4661 30.778597319
25.0443 24.9952 53.1213 27.9534028844
32.7474 15.9388 51.5431 29.356303895
25.7615 20.3702 53.6792 28.3077193171
31.3708 18.758 54.9106 27.3608874268
33.0402 17.6544 47.7597 30.2670491592
29.4515 22.3599 53.4131 25.5493857998
29.9899 17.2377 52.9539 28.4910372131
31.7052 20.4637 53.0067 23.950837749
25.2303 13.6567 46.5532 33.4806674243
35.14 20.2112 54.434 33.070852324
36.6119 24.5494 49.0854 28.6642525074
25.8634 17.5389 52.9856 29.8478466693
29.1378 20.2258 55.9967 28.369520886
25.2144 16.6261 49.8691 31.5092097024
28.2595 24.3269 44.3949 30.5065333556
29.956 16.5384 43.9898 33.9728431831
27.6686 26.2084 15.6074 27.2818296219
28.1785 33.6187 4.75127 29.9501564913
25.5308 26.8268 9.73958 25.9446288122
26.1541 30.6037 13.2666 26.52214297
25.6608 30.8697 16.0762 31.1602800593
25.2066 28.4577 4.48239 32.7677640863
33.0727 24.9534 12.4784 30.1097428201
35.9688 34.6007 13.8075 30.3566814954
32.1169 36.0776 8.18513 34.8711644372
34.8448 26.3742 7.866 28.8896045468
30.7343 28.5287 5.56479 30.5788720647
28.6965 26.9363 7.62007 30.659990534
30.1011 24.1283 6.93324 29.3802728982
30.3617 34.2143 8.87289 33.7509573238
35.3002 30.8583 9.14717 28.9566802209
32.5858 29.8583 7.92131 29.1929489912
29.6015 30.8911 4.47794 26.719720694
27.7513 35.1866 9.02021 30.3799164961
30.9892 32.4357 6.93463 32.9466230206
26.2152 33.9743 10.7708 31.5927362611
29.5004 33.9181 16.6825 27.078127607
33.8107 29.2552 5.10519 30.9596315432
35.6755 26.1789 15.8141 30.5347658067
29.0185 34.6578 14.2192 32.0049109492
30.6112 33.1523 11.5945 30.2019831212
28.296 25.7963 10.2628 29.4942568842
35.838 35.1092 9.61254 28.9863595585
31.9326 25.3156 15.1225 33.1614116867
34.0937 34.0244 11.6717 30.9178548407
26.9934 29.1233 8.95548 31.2162882561
28.7925 29.9361 11.1988 30.874723636
24.8601 26.4209 12.472 28.4733572475
32.1667 27.1853 8.28521 32.7455973225
29.2366 27.5709 11.8781 25.5776461929
32.6503 28.9462 13.5794 30.1241004061
32.3091 27.4478 11.3995 32.0142464466
34.0301 32.7625 6.92068 30.9199722332
27.8319 32.4978 12.3783 30.0243328489
33.8365 28.148 16.1166 27.5700160542
24.6179 36.4855 5.71301 32.6390430006
31.409 30.5474 10.6567 30.7712182318
35.4538 35.1981 6.78855 28.2017941536
35.8472 25.0223 13.1313 28.3744611277
33.9358 31.1843 12.0831 25.5213768835
30.7434 31.3112 16.326 30.8632139227
26.6815 34.4329 6.5468 31.8402742553
32.2795 32.3298 13.9206 28.7312400645
30.2157 27.8631 14.5594 28.4936270815
36.194 31.7681 5.2678 28.0119488365
27.5541 30.5544 6.30909 39.1245788668
32.819 35.985 16.3444 34.1275463938
35.2561 30.2011 16.616 29.3979636965
31.6644 35.3434 13.8012 37.2974736751
30.9679 26.0904 4.412 28.539979061
24.8969 34.8149 13.0968 33.1800684234
30.5155 34.521 3.63808 32.5266590226
27.0533 28.1 13.4786 25.6521546552
36.229 27.4874 5.33289 28.1877477908
36.3596 26.8141 10.4311 31.1824177939
26.299 26.6234 6.28804 29.026127067
36.8019 29.417 11.2926 29.8403681566
36.161 30.8907 13.9595 30.3245023633
26.9945 36.3583 14.0585 31.3524422583
32.5259 32.0295 4.22522 29.2048044309
34.4604 33.368 16.0827 28.4739601491
33.1664 24.6739 6.03415 28.7417132802
28.1177 29.7089 15.9956 30.1783560485
26.543 27.0567 19.4527 29.8977786813
35.633 29.2593 20.8788 30.1002915256
36.3143 26.6979 20.6256 26.3259554629
34.2531 29.359 23.2762 36.8498911459
27.408 34.0917 18.2514 26.9723114461
27.4079 35.2289 20.6686 27.8213578297
27.3764 29.8041 20.8313 26.2156548583
31.9376 25.4507 20.7582 30.3968194266
32.9085 31.5659 17.948 29.1847020854
31.2792 29.309 21.5126 28.8536119822
32.7128 36.2717 21.6967 26.2104696766
32.2377 26.708 18.1036 25.6814676672
31.675 34.9343 24.2351 79.7902177773
28.8735 31.2959 18.7282 29.4177624811
35.6284 26.748 24.1096 72.8097375734
32.1461 33.3523 20.2111 31.9168973385
33.2592 29.0588 19.3293 30.6711721628
27.3748 33.2231 24.2765 77.4290967839
26.7047 36.7455 16.7848 29.3130864984
31.0533 24.815 23.5915 44.9539630806
29.4208 24.3146 20.7123 27.9555398891
30.9297 35.3286 18.4911 29.4454254067
34.9379 25.1556 18.5003 29.6883257729
26.8701 25.3063 24.0669 56.1710090244
29.1781 27.6753 20.9807 27.2853150385
27.4451 32.7538 21.5904 24.8694746909
31.4236 29.0195 24.2799 96.5646499061
30.0833 31.8161 21.2361 27.0239005327
31.7588 32.0138 24.0985 70.6113110142
35.2419 31.9287 23.911 68.7595417921
33.841 24.5405 23.9755 56.5081447754
35.5498 34.6539 23.2653 36.8891400747
25.2814 36.6157 21.4598 29.6652687179
29.0064 30.6117 24.3612 88.8305897037
29.1386 26.7454 23.8834 65.1295417617
25.5752 32.3719 18.5574 26.4329470003
28.7318 35.6548 24.3696 80.4150470119
34.9796 34.2463 20.4393 31.2870085783
29.4171 27.4988 17.8407 29.5472897817
25.2204 25.8339 17.3824 30.5124267843
36.2665 33.5514 18.0925 29.4799555436
26.1001 24.7082 21.2728 31.5555839599
26.2309 29.8387 23.5619 40.4820444528
29.5857 36.4946 21.6625 26.7523181015
34.5583 24.2004 21.4246 25.5930811561
33.7387 35.5206 41.7519 34.4645364951
36.1742 27.3059 42.7065 34.3516367542
27.3967 36.6243 35.8169 79.0905444189
27.1397 29.4713 35.7894 75.3696289477
29.1319 27.4897 36.1413 76.7865698482
26.1058 30.0017 42.1222 30.7403585643
33.6873 27.535 35.9745 57.1182531735
30.0744 25.9603 40.9421 30.9632960411
25.4146 24.4169 36.0393 66.2803520679
27.4088 33.4959 36.0014 67.4713467416
25.7883 33.1052 38.2987 27.6836488881
31.4719 29.2109 35.9884 69.8612139688
28.8267 31.431 35.773 78.4394897748
31.4729 29.8487 38.713 27.4495655521
24.8797 33.0059 42.0978 28.8974585556
32.2897 32.8056 39.1837 29.6285856588
31.5925 32.5122 36.1956 53.6903654196
25.6464 35.8619 39.0811 30.3664591805
36.0976 29.1972 35.5842 101.5354576911
27.5248 32.0567 40.2779 31.3667821836
36.6094 31.2567 41.1044 27.0801110377
32.2129 35.2895 35.8531 82.5544528135
28.3826 36.7734 38.6915 30.8192296016
34.3837 31.4328 36.0043 67.9594652044
34.9364 34.5826 38.9712 29.9786117842
34.9141 27.822 38.7184 31.2701900428
35.1423 36.2595 35.622 82.6361844243
30.6741 31.7752 42.1248 30.6505587281
26.8432 28.1124 38.1689 29.84007512
32.4896 27.6722 39.8215 27.4395670578
33.436 30.7789 41.635 29.0754379418
33.6518 28.2728 42.4428 30.6112133881
31.9756 25.3653 38.1616 26.6334402422
35.8349 33.8143 36.2477 48.5892940368
30.7938 35.1143 42.3897 30.4117909875
24.9711 35.9234 41.6933 30.2215392894
28.8386 29.6925 39.6306 30.3203891381
28.5224 28.1773 42.0863 29.5086953983
29.408 34.2984 40.167 32.4351597804
34.7579 30.7259 38.8116 28.9722720566
25.8512 25.5303 38.7771 29.6940323975
26.8566 25.7846 42.4499 27.6548124198
29.3348 24.8794 37.7955 29.1433061625
31.3144 35.6883 38.5596 28.3328870814
25.5775 30.1282 47.6782 28.7764008985
27.6735 29.7497 45.7649 30.3871776403
30.1326 36.3006 49.8354 33.9924151408
32.7293 26.2614 50.5276 30.1731966619
34.9883 27.5391 47.2563 28.3294741263
35.7237 36.0523 45.468 28.9391908127
30.7753 27.4792 48.6746 31.6994683154
34.2294 31.8126 44.4811 27.7582808906
35.4958 34.3607 52.8055 28.1417267131
31.5648 27.8332 44.2496 32.5325161806
29.0497 31.1315 47.931 30.5911408287
27.7781 33.9258 48.2711 31.179288627
31.794 31.0394 46.6192 27.4011478452
26.4946 31.9269 44.7442 30.5812515177
32.2974 28.3224 46.7987 29.1860566892
35.177 35.4181 48.0866 31.0511197211
34.632 31.0094 47.3905 28.6720587987
33.6841 35.8885 51.2256 31.7089186575
26.6297 36.6814 44.1045 31.2179353677
35.9185 29.3448 45.0881 28.046056487
30.8798 33.2794 44.8502 28.1262502397
28.8822 36.1805 47.1228 26.7555524321
32.4671 34.7205 48.9248 29.0329916225
36.0618 32.8134 48.7511 29.7180518578
24.8005 27.3283 43.5362 29.491133531
25.8165 27.31 52.9943 27.5022329621
25.4964 26.7972 49.0278 28.680986939
27.7877 26.9709 51.0357 27.1253390382
34.522 28.4587 51.4806 30.1532312484
28.5748 25.5321 55.5319 28.8250495816
34.2684 33.7961 55.0869 30.6394275549
27.0946 27.9358 55.2203 29.3673255662
27.9106 32.3746 53.6464 27.3297705221
26.8877 29.6124 50.1715 28.4764374587
30.0807 29.5241 50.3886 30.6187546032
31.9825 32.008 49.4686 30.4651551502
33.5649 30.9619 51.9679 30.0650963179
31.5858 35.877 46.4131 30.7590172632
36.2417 29.0325 49.269 28.8709668111
29.8928 29.9576 43.8547 28.1656726956
29.9631 33.73 53.4515 24.4463630772
27.2841 32.305 50.9937 28.9368968422
29.8658 33.7358 50.8347 29.3475428323
24.9742 33.8072 51.6337 31.448039404
36.609 25.4769 51.9034 28.4993153406
27.2632 24.9132 46.9837 27.0190063369
32.8643 28.5076 55.1694 32.7953655872
26.0087 35.9772 53.4465 29.1405516287
35.4005 27.8388 53.8592 28.0349381202
36.7724 32.1215 55.3789 29.3318902522
29.2761 25.05 48.492 30.708045695
29.6011 26.8675 53.4308 29.4619501942
28.5478 30.067 54.8085 31.4469380727
30.9699 29.7935 53.1536 29.0757991812
25.46 33.4822 46.9212 25.8955386671
32.0388 32.4691 54.1193 27.8321445749
33.8948 25.1839 48.1511 32.5292080855
26.5102 33.9489 55.1884 27.989533981
26.0603 27.3171 46.1101 30.4035300624
29.1851 36.3429 54.539 33.9637337964
36.6317 25.6135 55.6424 31.5723923824
33.6377 34.2999 44.2765 28.9119306092
28.2229 34.4418 45.0232 30.1842264514
32.6814 25.6335 54.7332 28.7654976425
35.9222 32.1501 51.5075 29.06652046
31.054 24.6823 52.1174 26.645084304
24.5694 36.2159 46.5008 30.5298418635
36.7222 24.9887 44.2751 34.297572828
33.486 36.6019 55.2526 32.4071415639
30.8194 25.3076 43.423 33.6755113326
29.435 45.67 6.62296 26.6845533395
27.3118 37.588 9.55378 30.4810467657
36.4944 38.7317 8.4257 30.9967705146
28.9061 48.4548 9.50188 30.2993676109
30.269 37.5889 6.29183 32.1593216064
32.2477 39.5731 8.69291 27.4520073273
28.3948 41.36 6.81417 28.0708978053
33.3664 37.094 5.47366 31.4729522546
36.1047 38.1154 14.6787 30.5921028845
36.0328 38.0535 5.80974 29.7070656684
34.788 40.6748 5.52174 32.4569926972
26.4665 43.1748 8.05387 32.8821772713
27.8812 45.4178 9.0015 27.885933348
29.0793 39.0853 8.20164 30.2492615739
30.9979 48.069 11.5593 30.52368026
30.2494 43.3463 7.55063 27.539149692
26.2174 47.9966 13.952 31.0715639518
33.2724 44.2626 6.39056 30.0193089568
26.3984 45.2081 13.78 31.0397178378
33.9151 37.0349 12.7713 33.2276198206
32.8131 46.4572 8.05639 30.7630982241
31.0328 45.7093 9.98164 26.4329707689
30.4864 47.2636 14.5717 30.696825253
35.7492 41.4922 8.78135 30.3815104843
32.1064 44.6284 4.0901 32.7272550332
26.6862 38.3131 11.9251 32.4548468095
25.6393 43.4958 16.1408 28.8120588062
36.0555 45.2745 6.43348 33.0427073009
34.5883 47.3231 14.6934 26.3597372932
32.6993 39.7706 12.5225 31.881114666
29.3987 42.6021 4.36024 30.89772516
34.063 37.8664 9.7476 32.1640066721
36.742 44.9541 12.1526 30.8553363196
25.1034 48.4518 6.93316 32.6602300492
30.3387 42.8258 10.5568 27.5220900872
32.3643 44.5682 12.4662 27.3822004533
33.1663 42.2195 8.80239 29.4362753496
33.7784 42.2987 11.6772 27.5896534202
34.4708 46.2956 12.1891 29.3995403986
28.6016 48.9148 15.267 30.3317584734
35.5566 45.0257 15.8577 29.7788418183
31.668 47.4325 5.6042 28.4132171645
34.767 47.6675 9.46542 30.3718697413
28.5875 44.6642 12.0867 29.3277577148
25.8278 40.3642 6.19271 33.7709628246
26.6894 39.4835 15.0078 34.2130441916
25.9666 47.412 9.45257 29.3708562004
32.05 40.5546 15.2145 35.0614814992
26.6499 42.5582 11.0991 34.5429996415
35.717 40.6278 13.9094 31.1810155029
29.6811 41.8144 14.814 30.0929931187
30.4326 40.1512 10.8612 33.2480928013
28.3258 40.8804 12.6683 30.8521611359
32.0192 39.8125 5.7286 28.9206262162
36.4913 45.9663 3.80082 32.4048267615
25.1225 38.0769 7.85854 34.9444823242
33.8554 42.6137 14.8901 27.2182064078
30.3156 44.3986 14.3275 24.8375341184
36.5936 42.265 11.3972 30.1226248557
29.7549 49.1245 6.79993 30.3557053282
27.8593 45.313 4.56174 32.0131304001
29.2324 44.852 16.9773 31.0843211227
29.6783 38.6392 20.2511 30.3041237391
26.0832 44.0331 21.1551 32.1584479491
27.8787 42.343 16.9155 31.737800082
33.9065 41.4827 22.3949 31.7488153883
28.1807 42.4665 19.9035 33.5018313968
35.8981 44.3502 20.9455 27.656529088
30.7089 43.1645 20.9969 31.2931065707
32.0225 43.9948 17.1667 31.0273986552
25.2244 40.4171 23.9728 53.8178919529
34.5062 41.9457 17.8512 29.7433884511
26.3489 37.4859 24.3789 90.2545894751
25.2184 45.2297 18.4603 33.4806952727
30.5737 48.3098 19.1688 28.9886160859
29.296 37.4542 17.8218 38.930161256
34.4748 47.5987 19.3614 25.2964868411
25.5453 39.1968 20.9379 28.5540529722
32.2832 41.0466 24.4352 120.5781939724
27.9127 40.4344 21.6815 26.2842017767
31.6062 38.3768 23.7755 42.1074111304
32.3541 39.1498 20.8965 29.4822596192
28.698 38.9284 23.7181 40.1095647023
35.2819 39.0968 22.4752 35.4489295986
30.8725 45.6179 23.9769 53.7618472247
27.4861 46.5493 21.5103 27.4283721908
27.9021 41.7511 24.515 100.2964957465
30.3238 42.9963 23.6268 37.1310315402
33.1247 46.2821 21.1501 27.3530121662
33.303 43.6377 19.7277 28.230747697
35.0912 43.9419 23.6499 38.3250752585
33.8081 46.2269 24.4391 96.6755956105
29.2817 47.6283 24.6237 112.1669878336
25.1346 48.2686 18.6044 27.5872444044
30.2648 45.9538 21.0573 28.6072762724
27.9236 46.9771 18.4871 29.4534112261
25.5993 48.8949 21.3631 27.1355878603
35.0807 37.2476 20.1492 28.4606913353
25.6511 39.468 18.0324 32.0519076959
26.7991 46.8234 24.166 56.8968611947
32.7623 39.8624 17.9772 34.9810248699
26.2688 44.134 24.2934 68.6850947688
34.7091 37.8067 17.4267 30.6406770362
24.8637 48.9222 24.0356 50.9599549624
34.988 48.7388 24.3959 67.2108868398
34.0856 37.2105 24.3849 107.1261504812
32.4608 46.8688 16.9783 29.9807768566
28.0754 44.4922 42.728 30.1169108877
35.5466 44.1511 35.7519 76.5115079895
30.5342 42.8362 43.2917 30.200067252
24.8173 47.9098 35.7004 77.7866323847
30.8241 39.9403 36.0983 49.2834990787
32.3905 42.932 38.7597 27.9851289256
33.3301 38.953 35.7268 70.7377093089
33.3144 39.9782 40.3548 31.1368174163
25.9537 42.1612 37.2976 28.8246759009
34.4034 37.3047 38.2217 26.8648008942
26.2958 44.7668 38.3559 29.575408076
32.1893 42.5869 36.0602 58.0889620464
32.0469 45.2498 35.8132 71.3386309752
29.0412 43.1016 38.7282 31.8882255105
34.7864 41.4649 36.3505 31.0900551357
34.9662 44.529 38.6487 25.1810249466
28.1191 40.6355 35.8069 82.1283684003
26.6019 45.3868 35.3281 92.3765162587
30.6266 45.3464 39.7201 29.6404929949
28.687 43.5583 35.8029 64.1519413163
29.7722 46.6242 35.7845 61.1577886745
27.3921 47.0642 41.2603 30.6586375414
34.9914 46.7753 36.1279 39.1739121789
33.8945 46.4072 42.5987 34.4971398637
34.1577 48.8312 40.901 31.4906709584
28.6074 47.0484 38.4157 30.2321357364
30.7316 41.4292 40.8506 32.0660014705
25.0914 47.9361 38.431 35.8028512855
31.1738 45.6577 42.3415 29.3558808105
28.9513 38.8728 40.7701 34.8814917711
25.8323 38.833 36.1707 54.6942805063
35.3271 41.348 38.964 26.3104591104
30.0073 48.2018 42.6349 31.4760211647
33.1435 46.3302 38.2207 25.6845503527
31.522 38.6904 38.6997 29.8738271068
34.7722 43.7316 41.6801 28.3267433161
36.1488 47.8231 38.9823 30.492525734
26.6907 40.4444 41.4208 35.3649894456
35.1033 38.0592 41.9594 30.5713955479
26.357 42.966 40.6788 28.1913073051
29.8356 37.2977 36.0563 57.7066706123
36.7179 38.6008 38.6005 28.063147728
36.3838 39.4406 35.1642 118.0824409974
30.523 49.3456 35.6017 85.791690859
33.2898 42.0883 43.4299 30.2782769744
29.1794 37.2737 43.097 32.8677407791
35.6908 38.2863 54.5342 31.5406074116
36.6177 44.0742 49.5479 33.0111194011
28.5462 38.724 48.7492 30.5703567548
24.9245 37.2996 55.8762 30.9248441046
32.0114 38.4895 45.4923 33.4673775394
28.5423 43.0714 47.4012 29.3695481442
27.103 48.7696 43.5975 30.1390536433
28.6057 45.6494 46.6747 32.8094329647
32.7025 44.0074 49.1811 29.5184621916
29.2524 41.6258 45.479 29.0758854954
32.7691 40.5509 47.25 29.2277846622
32.5117 49.025 50.338 30.2771730576
33.133 42.904 46.1201 32.4138070075
28.5783 47.7173 55.9778 29.1096929476
32.4281 46.4169 47.4692 32.8756048771
30.3794 47.3251 45.4889 31.4961002594
25.0681 47.6093 47.6541 31.7130620527
35.676 48.7099 46.3437 32.4990082738
26.6559 37.8591 51.0607 39.7081956355
26.5783 42.3988 49.5253 33.6075396267
25.7089 39.403 45.3118 29.6896603324
30.9646 40.2355 49.3011 33.1203621972
32.0227 39.5425 51.9135 35.3458580059
36.5751 38.6263 45.1785 29.2778066789
26.2029 40.0518 47.9703 30.0238841913
35.6502 37.5797 49.967 30.3862484601
34.9312 46.5535 52.7271 29.5686825911
25.7396 44.9629 52.133 26.9565410137
30.3412 42.913 49.538 30.4593872511
34.6903 42.3952 50.6243 31.8652054419
26.9376 39.8957 55.9071 28.4914198084
35.2371 40.1555 48.7321 33.8340536536
26.5681 45.5218 44.8426 27.5903141843
27.7017 47.6523 48.8941 35.4433587227
30.3226 45.8652 52.6659 32.4148521393
32.3969 46.2133 51.1989 33.8794997141
27.8916 46.5665 51.5125 33.8262688403
36.0271 40.8208 55.82 31.955801989
26.8014 41.6949 44.0412 30.0980686411
27.0129 42.9293 55.4485 32.7164268376
31.2332 47.0232 55.1577 30.6696437976
31.7989 41.5671 53.5459 33.4742568474
25.143 46.1527 56.3514 27.8485683304
34.3835 46.3582 45.5552 30.3891549955
24.8117 47.0127 53.7159 27.3752284496
26.6836 40.0595 53.1878 34.4067176775
29.3217 38.8455 45.6135 28.6103787495
24.3544 43.7463 55.5533 27.5580711817
34.1315 39.5126 44.1819 30.1582986773
29.8626 43.2553 52.2386 32.8026315173
27.0614 42.5177 52.2854 27.7657124874
34.7198 42.5747 53.8181 30.4352610945
34.106 45.022 54.9482 31.8018812859
27.2185 48.6896 53.5656 33.6187163199
35.7565 44.0544 46.5438 31.0499046047
35.2554 39.663 52.1579 32.9224722288
31.9058 37.033 53.1227 31.4624905125
29.1908 38.4451 56.4802 34.4518627702
31.129 40.5604 55.9769 34.6865431776
24.8532 43.4422 45.3786 29.0079601933
37.2825 4.86083 3.98371 36.5307348336
40.4351 0.497738 6.56112 30.3180486994
42.4356 4.32352 7.89982 29.0173727717
36.5749 0.148385 14.7491 32.1611665038
48.1796 0.984266 8.55586 31.0648771823
46.9257 5.45311 6.33899 29.1812521627
41.7181 10.1122 5.46451 38.4133326484
45.2648 0.851582 8.74711 30.8640315346
39.944 5.15326 4.43876 32.94687985
40.4325 6.6116 6.89594 33.4537512394
43.3244 7.58214 6.2826 30.282669251
45.2228 9.20145 7.81164 27.2838672046
37.1813 9.6669 8.17827 33.0626497933
42.3512 1.75939 11.3297 32.0666514456
38.1851 3.12295 11.8709 28.0416237089
47.2063 10.8411 6.58108 29.5409595817
40.9827 2.62699 14.9798 29.5816170626
42.6277 1.44973 16.7766 27.0635540049
40.7266 11.6247 13.874 31.0010811755
47.9852 2.6793 10.8255 32.5269684862
48.8215 6.73299 10.0487 33.9326097539
38.8774 7.37916 12.2642 28.6748416467
39.9994 4.90057 11.0479 29.4582868156
42.4188 1.71614 8.18408 30.2369077803
44.9599 1.97725 5.86247 30.0525790625
44.0335 5.57075 9.58971 27.777735258
45.1742 3.29522 10.5126 30.3022240048
47.3858 9.47589 15.0871 28.0007995551
48.908 4.0971 15.7284 34.0894231106
39.036 4.73108 8.46325 28.2533828754
41.6392 8.08694 8.94874 28.8738821608
44.5902 8.63269 12.5763 29.6526574017
42.583 6.9309 11.6105 29.059195094
48.0442 8.47229 11.9056 28.3114672403
46.3822 6.82128 8.79544 31.2934528419
46.215 6.59806 13.6618 30.5432522939
45.7834 10.3638 10.7617 32.0115906152
48.686 9.57479 4.66919 28.0282681933
42.9955 10.6319 8.19481 27.6475583063
39.4511 9.25039 10.1361 32.2668555587
45.4606 2.05677 15.5996 33.27862686
47.6877 2.78783 6.19357 26.1903809946
44.1353 4.62831 5.55746 27.451864954
37.2572 10.4481 12.7143 30.9751877063
37.5492 1.00024 10.3035 28.1241990268
39.4651 4.90282 15.8941 29.3975407036
42.4577 4.02869 12.9679 29.2484565571
45.2734 3.87892 13.169 34.2074495583
39.8588 0.0572899 11.4474 30.4586454122
45.2112 9.37504 4.49591 28.3585427729
38.7494 1.97722 8.07339 28.7405851108
41.177 6.73401 14.2786 29.3188285493
39.3358 9.1039 14.6201 27.1996448411
43.135 10.2703 14.4353 29.9684480476
40.8359 11.5275 11.0761 30.9376268185
43.1833 7.56535 16.2671 30.509818947
39.0287 1.06815 13.6771 28.138444472
45.8309 7.03874 16.3593 27.9705540343
45.4584 12.0454 15.0156 28.9553626322
48.805 11.5157 11.0167 31.7038242399
41.6599 0.920178 3.82601 31.93580927
48.5436 0.522765 12.3317 32.8278469716
37.5335 7.52508 16.3577 28.9838250115
49.0099 6.85284 14.8191 30.4400315768
48.9802 12.0573 8.14074 31.2232820409
46.4944 6.88809 3.85829 27.2015500871
45.1852 11.2273 24.064 54.4739843815
48.2495 0.172113 23.4192 38.5867054555
44.7269 4.82854 21.3796 30.4436796986
47.9091 10.1113 24.3458 70.0915097298
46.4686 3.57349 19.5061 28.7012051077
38.7796 5.04516 20.2338 28.5256377018
40.105 0.578589 17.9061 25.2666610118
39.7559 7.16973 18.2711 28.0604732499
46.3485 9.26436 18.22 30.038929265
42.3562 6.37713 18.5789 27.6499784744
41.7485 10.2653 21.4434 28.9805730816
38.0748 9.65683 20.0514 28.0263518564
48.5597 6.16283 18.7185 27.2212941267
39.3595 12.1736 21.4487 31.2875356945
43.8636 1.49756 24.3068 53.0380804902
43.3777 10.1343 19.2717 26.6039273274
43.3165 7.13035 21.0725 26.2495858237
42.3387 0.606866 20.292 26.7429848663
41.7883 11.0473 24.6834 105.7348199948
42.2948 3.87498 18.7947 29.5307203577
39.7582 2.54648 21.9427 25.9415181079
39.4835 2.94039 24.556 86.4178516417
47.4533 4.58362 23.6854 39.0190313046
44.7388 5.31767 24.2059 67.7281344246
42.3544 3.08514 21.3078 24.695246781
46.6156 1.95368 24.5899 114.4753038698
38.7178 10.2272 17.2367 27.9027307623
40.8128 6.05408 21.7448 25.3069186373
42.325 3.73371 24.471 67.7886028216
45.9981 8.55687 21.1069 29.6831755902
39.7347 3.25508 18.1649 24.1718041744
45.5284 8.05877 24.0986 59.9548533583
38.9719 8.49612 24.3395 65.88296788
39.7976 8.37806 21.5647 26.0809618265
40.9352 6.47882 24.4781 83.9653224278
42.7056 8.76989 23.9498 39.1927063364
45.95 11.3988 21.224 29.7792901513
49.2533 8.58045 17.5278 27.4275745844
41.6682 10.0458 17.1874 27.0063927161
39.4607 0.0708398 24.5652 68.986870917
44.7632 0.173503 21.9079 28.3056039047
46.7004 0.968505 20.2345 28.6424387224
39.0842 11.3477 24.0676 43.801430181
48.7792 7.60264 21.5062 27.4887345292
48.7162 7.46956 24.2718 73.2566759282
46.9034 12.0113 17.3991 26.9570744642
48.6546 4.31894 21.1756 25.6537450998
46.5848 4.37295 17.155 28.9022388661
38.1572 1.51769 35.9319 59.6483678191
48.116 12.3415 41.8008 28.6513978247
37.1822 4.33991 35.7262 86.0121630076
40.8966 1.27999 35.8967 68.5530191216
44.0884 0.198952 35.9855 58.709889357
45.6571 2.69919 35.7733 73.7380414132
39.0984 9.94427 39.0141 29.9235364585
37.6134 2.82313 40.0872 31.126930323
48.5532 8.74303 36.0733 56.5666207896
41.4125 4.19729 36.418 42.7384353218
39.761 6.07389 35.9973 63.6317509721
45.6037 2.73456 42.7935 33.942242096
45.988 10.5661 41.4989 28.7567576982
44.1581 4.99495 35.8814 74.7497994459
46.464 6.51527 35.8947 61.5849107642
45.4832 3.17263 38.7469 31.7944903834
43.9641 0.38028 39.2714 30.0913396627
38.1806 0.681871 38.58 28.1896408415
40.9985 7.24961 39.3106 28.1356456116
41.4788 8.20938 35.8955 79.0639407996
41.1479 9.99923 41.1461 30.1875173767
44.8741 8.83106 35.6854 79.8959574686
45.7611 6.03803 38.5976 30.7351612682
36.9424 10.2746 35.4453 106.2028385864
48.1841 3.48041 35.6965 75.1237226969
45.805 11.8302 38.3756 27.46523958
41.0187 1.38944 38.5483 29.846300758
47.5262 9.61466 38.7189 28.0194612319
47.6149 7.54253 40.15 34.4581793041
39.6099 10.4488 36.3396 39.8586166475
46.2697 11.3303 35.4214 87.3720298868
38.3116 6.92076 38.2161 30.9230964893
47.5506 1.94459 40.4787 35.2325183057
41.6737 4.42938 39.2068 29.1498927109
39.7142 3.89325 41.1617 30.4814226133
43.589 10.3497 39.6742 28.6732188825
44.0315 4.6471 40.8428 32.2972808592
41.5963 7.60345 42.3088 29.3496488738
44.1407 6.58436 42.8259 34.5166260639
43.3926 7.9954 38.2211 29.7060216048
49.1173 11.8766 35.6417 77.3106454319
42.4738 0.454284 41.823 29.0309587862
46.3692 8.17547 42.8032 35.3945084804
48.6529 2.85935 43.3984 32.2063881029
39.7183 5.78422 43.3408 34.2494818863
41.0913 12.6023 42.7899 30.8017074398
48.9282 9.10209 44.432 32.7757031709
48.3709 2.51102 48.9566 27.3808025382
48.2583 5.01897 46.5415 27.9434717901
44.7923 11.3764 50.6011 28.6953818908
39.7433 2.7113 48.6478 30.3910647818
46.7126 2.92218 45.7818 28.168536868
37.5436 3.46949 47.3496 28.8281152016
47.408 0.284996 47.3999 29.5510568107
40.8008 6.51085 47.0459 28.5990433359
41.8645 8.97975 46.8161 31.8696946086
38.6329 1.52905 51.1066 29.760032486
46.463 7.11651 45.6754 32.8145423642
46.5456 4.90607 49.313 27.6473049325
39.7162 1.02679 46.3937 28.7235996872
38.568 9.32557 55.8498 32.8753184967
44.317 8.11427 47.8336 28.7768290714
47.2488 9.08824 54.514 28.9383196609
37.4089 6.1954 44.7936 32.7339550525
48.0464 10.6897 48.3896 27.4609190375
37.3741 4.13713 53.8728 32.9245600415
45.2245 10.7973 48.0745 30.9389158842
36.9699 8.11071 53.4252 29.8143464828
41.549 4.56741 45.1973 31.1294933848
44.9217 2.29572 47.9318 28.1794483908
48.4554 11.6919 55.2086 28.6789480803
44.4839 4.80478 45.478 27.7699225827
43.6979 5.11993 48.0094 26.7500779761
44.6187 3.15337 51.088 27.7460650096
47.318 1.1297 51.1896 29.3289464759
44.4757 5.29801 55.237 28.6026565639
39.2289 6.79522 50.2484 26.311851108
40.9201 9.53057 44.252 35.74307662
41.1206 4.96689 49.4868 28.171334121
43.2054 8.06192 50.6481 27.5533046825
45.2016 9.25395 52.3481 28.0347622976
47.766 5.01008 52.6761 27.5102289906
46.8454 7.30917 51.0926 29.7045486514
40.5969 10.473 48.7978 28.2913695159
40.6688 11.1135 52.643 32.7943562006
42.6922 1.70241 45.8771 30.8579008884
47.0666 2.41896 56.1854 28.7296668436
37.9001 1.43466 53.9043 32.0523537433
43.6201 0.756154 51.3631 29.636280871
38.0583 9.55788 47.9959 28.5005029948
41.1245 1.5912 52.9757 31.2390861401
40.7038 9.01668 50.8879 28.6010314331
38.5437 1.01501 43.8201 31.2097622501
38.4599 12.6898 49.8222 30.0965043242
45.7674 3.54085 53.8504 29.3000455385
47.4722 7.93854 48.317 26.6563952735
39.4346 5.86161 53.0388 29.1676911052
40.4695 7.01964 55.3417 30.1499984926
37.8719 8.92039 45.0627 31.9690379518
41.4432 10.2734 55.3074 25.1430819751
41.8197 4.16196 53.5383 27.1648360446
42.9682 5.49926 51.4315 25.7566959223
42.9313 7.26227 53.8478 28.0189407016
43.8443 9.74076 54.8661 25.4400188439
48.7623 6.34055 55.1245 26.6679964007
37.9083 6.55734 47.6081 25.1595739216
42.1287 3.62731 56.2678 29.7218243876
40.8507 2.35608 42.9823 30.1972156433
44.033 0.163687 43.8462 28.1243446651
38.3546 12.3069 55.4374 34.1789930236
49.3842 8.20673 52.5561 27.5396160037
44.1238 0.217432 56.4536 31.3718349573
45.1243 14.7098 16.7424 29.0633833604
44.809 23.8029 14.6351 33.5675299852
39.3556 14.2164 7.57143 35.7194029037
45.5265 15.094 5.03565 31.2667345195
38.3779 16.8046 6.41443 29.597163689
39.279 20.4921 5.65701 28.3551544863
44.8808 20.456 15.0001 31.4087588236
48.9539 20.0213 15.9094 27.1122599697
37.7491 14.9717 14.1586 32.5212356892
37.2496 12.4496 8.29562 31.0507567813
41.6832 21.7169 5.24586 32.2566892454
39.2081 23.7593 13.5303 28.0039542848
45.5369 21.1705 5.4453 34.1191354354
47.7268 22.5373 11.3193 29.6786488092
43.3395 20.5589 6.98071 33.1614351482
41.8897 12.932 3.71517 32.8711026809
44.0746 12.4028 5.75193 31.5507864521
39.6494 14.4057 4.5744 32.5877952632
44.1032 14.6736 11.5086 28.3686983645
46.8381 13.0375 12.6962 30.4771858657
37.5645 20.0894 15.303 29.5525418594
43.7717 15.5198 14.1076 33.9967516521
41.544 15.3 10.3847 31.4249210608
42.0286 13.6612 7.99946 29.9176017342
47.5424 23.6525 16.2726 29.1045821542
48.8727 19.365 6.48681 32.1493442592
43.9783 15.5126 7.35063 32.8727751616
45.3165 16.3561 9.86191 35.8976247537
39.5045 18.8751 8.09503 28.1786619696
48.7409 13.6636 14.6808 30.1744953835
42.4902 17.6308 6.87602 34.1666848403
40.2277 21.644 9.31721 27.8021159387
42.959 19.8064 10.8941 31.8373557383
41.748 17.8643 9.36117 26.6266756323
39.2702 21.6482 11.8295 27.3196371272
38.814 23.9068 8.57885 25.6159454214
38.0017 22.5658 6.4819 27.8528477391
47.6069 21.6715 7.42409 26.4789990709
43.027 22.067 9.18145 30.7133575344
41.5215 23.5431 14.9452 28.7929441269
37.8486 16.6327 11.9836 30.6128617002
45.8401 23.0235 9.28499 32.9703207104
38.2763 12.9456 11.5518 29.4976316492
48.0575 20.0061 10.2009 28.7822648893
40.4627 17.2857 4.65136 30.0747364613
49.252 14.6855 8.56948 34.9546164953
45.5453 23.717 4.1366 31.6511033587
47.7253 15.3073 10.8291 32.4527119192
47.427 12.9684 4.87748 30.4974163824
39.5798 18.7009 11.7157 30.97561491
40.4634 14.7694 13.209 30.7603183228
42.2242 21.03 13.6374 33.6879119418
41.3778 15.1088 15.934 29.5435676797
45.2469 18.0284 13.7288 31.2450365615
47.7669 17.8789 14.6799 28.7792930818
45.5946 18.9463 11.1795 33.4816439982
47.7195 16.9902 5.03631 36.5438266589
40.1009 19.3515 14.4924 32.1058472677
48.3866 23.9304 5.95247 28.2503202716
47.7826 15.8488 16.6214 29.0646115173
49.0547 17.2853 12.5663 29.4870717078
37.0102 23.4705 10.6401 25.5962172137
47.4757 24.5 13.3928 29.131048603
43.5603 12.0848 10.6272 31.6789190191
42.6677 12.5822 16.5033 27.0987376984
37.1621 19.1871 17.9048 34.2812655865
48.5934 13.4483 24.42 85.3817450346
41.4186 13.0422 19.4218 29.5782696316
39.2559 14.4986 17.8788 34.3214349155
47.3208 14.1682 19.6032 27.6091447861
41.9449 21.9678 17.2498 29.2099292739
40.9078 16.7371 21.7354 30.7811621687
43.1046 18.9196 21.5112 29.7103827238
37.331 24.3532 24.097 66.5657899461
43.3812 19.4114 17.0595 28.8895275777
45.2652 17.4888 17.8785 33.0512111743
39.9573 18.3302 18.8819 34.0243839222
43.6425 22.6602 21.3205 27.1163645678
37.5376 23.7875 21.2508 26.9369473806
46.9813 22.9594 20.7037 27.9782780296
45.746 19.9336 19.9148 30.4662846992
44.4445 12.696 19.143 25.7729715134
45.8827 14.3842 24.4453 91.8147126099
37.8602 14.6597 24.4711 78.4542808571
39.4246 21.8876 18.7452 32.5519486015
44.2917 22.6074 18.6747 26.7897386403
42.9617 14.8162 21.0744 33.3970862906
40.6765 15.4389 24.4172 76.9297015196
38.2613 19.3328 24.0283 62.5042375566
42.9825 13.8739 23.8478 44.1588517636
48.5726 12.4337 21.4838 29.2551098671
41.2172 17.8479 16.4543 32.2680370394
40.8629 18.2015 24.6047 95.3701227437
38.872 15.7588 20.1394 29.4488465364
45.0262 16.9161 20.665 28.7023235761
43.3791 19.228 24.3026 74.709652929
47.4309 16.0144 22.016 27.9061343443
45.4951 17.2469 23.9872 56.6190007049
46.7472 22.7452 23.8669 65.6847245955
47.1074 19.6264 24.2494 90.105700611
46.8576 21.0474 17.0994 30.159977706
41.0046 20.6208 20.6199 29.5810628064
40.9925 22.9179 24.163 90.8937089887
39.3143 21.6563 22.5064 29.7951678895
48.3281 20.1515 21.3405 30.5837420645
44.0024 21.8779 23.8005 55.6147712393
37.458 12.4383 17.3782 31.4134399905
41.2892 24.4672 21.6388 26.1702076318
41.6431 12.4338 35.5913 94.8623387167
48.3269 22.059 36.0716 45.5961548342
39.7309 14.753 35.9277 60.3320133884
43.0456 23.766 42.1506 27.7211853591
46.0104 23.4336 35.554 113.1224350321
44.3124 13.3031 35.7031 70.2928202638
48.2284 23.1088 38.6737 27.9311140738
41.4803 21.2173 42.9605 32.2558961516
40.6579 17.3228 35.6815 73.7011022029
42.6595 12.6383 38.4838 32.0160210742
38.4262 19.2754 35.6416 87.2289766595
45.5951 15.7077 36.5688 34.9740069148
47.3875 13.9304 39.5374 28.3167615626
43.5721 17.468 35.4523 106.73811001
43.9116 19.7732 38.9284 26.460286799
47.9697 16.4653 35.5251 98.0573067441
46.9376 19.4809 38.817 27.7417393419
38.5214 22.0953 35.956 58.0508556848
39.1567 18.9632 38.5454 29.7671184196
42.3802 21.831 39.8997 29.4010736474
44.5362 19.7635 36.181 42.7796582217
43.6806 22.3541 36.2315 41.9786207705
40.0149 18.8966 41.9935 30.7515054286
41.2078 23.1204 35.7473 99.232880818
40.1529 14.3023 38.7333 32.6359994606
47.135 19.536 35.7939 63.9093434605
42.7133 15.819 41.8386 28.8492257176
48.3337 20.6191 41.6999 28.0207166649
44.1338 13.7994 40.7543 28.569946104
46.3268 15.2294 42.3516 33.5161394212
38.1557 12.7964 42.5385 32.4682315389
45.4921 22.164 42.4883 27.883786111
41.7165 17.8431 38.1676 32.7485345532
44.1129 23.7658 38.6823 28.6903770464
44.3359 17.8044 40.9093 28.0372659368
46.4453 16.6675 39.2822 28.7489174447
48.8889 17.9508 40.4244 29.8570467227
38.7381 24.3166 42.0367 31.7235925561
46.8949 18.0071 43.1169 28.6617173492
37.6518 22.6206 40.1211 30.0626095356
45.9281 22.151 39.8553 26.7368834892
40.4809 16.5735 40.3933 31.5438653636
39.9572 22.3032 38.5597 29.3123403513
38.1038 12.7034 39.9664 30.3064848556
36.7701 17.3873 38.4482 30.0874021087
44.0951 12.3356 43.0856 34.4564148775
37.712 20.0788 41.0879 29.183818901
44.2545 19.6413 43.1012 30.9210336623
48.0125 17.4265 54.9037 27.0619223348
47.963 20.3968 46.9393 34.5990387267
46.9835 20.7774 53.6991 28.7235311971
41.8825 15.9534 44.632 31.7608325797
45.3703 15.5808 46.7379 29.6761941641
37.0405 14.4582 52.3195 28.7861614415
43.3869 19.4692 54.3256 31.6305706612
38.2758 19.9949 45.5292 31.939506066
39.7251 17.2551 44.16 29.1861358615
49.2775 19.5892 44.2116 28.2383717237
39.9177 17.9459 47.028 32.7849862838
42.7636 16.9227 47.3564 31.9932557178
44.0338 19.0532 45.7962 33.4515047956
46.6498 17.8687 45.8464 27.9549599645
39.995 23.9407 46.0623 30.9537724816
47.1446 21.1 49.6447 32.4339966585
43.153 24.6384 55.5926 27.4962427359
42.4957 12.6363 48.0067 30.7207809434
47.8629 22.1851 44.2675 31.0960277612
41.2646 20.4187 48.259 32.5288688969
43.7368 21.4895 47.1848 32.8619181159
41.9803 22.0092 52.4172 24.944291585
47.5185 12.7045 44.6528 31.6514906362
38.039 11.8629 52.6462 26.4789994993
47.4441 13.0167 50.6777 29.5701246025
37.6187 20.4987 56.1771 27.6869204503
38.7532 20.6468 51.6653 33.0087139104
43.0791 12.9116 51.9136 32.0545342719
38.395 16.8569 52.8436 29.7539474242
39.9378 22.6647 48.4648 27.7211813946
45.8362 15.3515 49.5128 31.3748495482
39.182 22.3738 44.0599 28.2725578608
44.7387 12.541 54.3217 29.8151175107
47.4512 23.6344 54.7635 32.9004553859
39.6805 14.9813 50.2956 29.5395510808
43.9926 14.9527 55.5026 28.1817048964
43.9413 15.5774 51.7157 27.2628705628
42.3947 14.9947 49.3464 27.940368113
44.7832 22.6544 49.3729 28.3399857449
46.8349 19.1523 51.4904 31.0658066327
44.0157 18.9997 51.6151 31.5594764169
41.6181 23.6429 50.1855 28.4421115731
41.4873 19.6612 51.1085 28.9110021065
44.7227 22.041 52.0517 29.4873359109
38.4068 17.9202 55.3906 33.0169642567
38.4718 14.1608 46.3801 29.6341551741
42.1222 17.0225 54.971 34.1944790507
48.4793 16.5469 48.3865 31.4858660113
48.4709 15.3331 45.4694 29.6514087848
43.0416 23.418 45.0979 28.54218051
47.1344 13.7566 53.4447 30.3890899919
45.8241 19.4443 55.8883 34.3823907442
45.5732 16.6581 53.8448 26.7486839432
38.1855 24.2435 53.4414 33.9550269783
47.7741 16.6138 51.3434 30.5756859286
41.0031 13.2701 45.4808 32.4809705323
38.3448 15.8255 48.1897 28.0680785816
39.1143 21.7462 54.2597 32.9722232928
41.9947 22.2129 55.1666 31.0514451046
41.0937 16.9612 52.1937 31.9744926716
44.8878 12.9101 45.8673 33.0331318943
37.4732 21.774 49.2464 29.8351039076
37.1668 18.4063 51.1976 31.6807765015
37.8068 15.2646 43.8772 36.9153813404
37.5838 32.8271 12.2748 27.5158645103
48.781 36.2272 14.8134 28.8125894026
42.6512 26.1272 6.98903 27.4916875364
42.5019 29.3859 5.79129 29.0895464384
46.8799 35.1047 8.10666 26.8492214285
47.7981 27.9326 6.33394 28.2686433721
45.8281 35.1747 12.3847 32.1676685382
38.328 36.8654 10.1443 34.2368641002
40.7667 36.2166 4.15951 27.560109886
40.2336 31.0788 4.78187 27.8407440819
46.4729 31.4375 5.20789 32.1776957482
43.6348 27.4972 3.92431 26.0713318214
41.7055 32.6821 7.28467 28.1401379104
41.4455 28.9106 10.2328 25.9258283569
43.9075 29.6011 16.6481 31.3580676621
44.22 34.5285 14.998 34.7149134951
42.8184 26.0017 13.9009 31.1307795905
37.6138 34.0761 6.18104 28.3323541743
40.8391 32.5669 10.6092 27.3191222153
44.5222 30.7432 7.17509 30.2191878316
48.161 31.4223 9.5762 27.8508938837
38.6874 29.4553 14.1575 29.4398654008
37.317 32.7768 9.60817 26.1391049894
38.6103 25.3184 5.39623 30.6769266078
38.244 26.6467 7.95348 28.8190709326
41.2939 33.1739 15.523 33.7443656874
45.4525 29.4413 12.0208 32.6036768161
43.4942 28.2583 8.68901 25.7001943428
45.9686 25.508 8.43186 28.6427624455
44.2066 26.3229 10.7376 28.875391891
40.0701 33.9235 13.1507 30.3960186224
40.153 28.617 7.4868 30.6154584525
45.326 26.212 5.66646 28.4859454908
43.7377 32.453 9.63286 26.985527099
38.9482 31.6674 7.19136 26.2454487842
42.9505 30.4789 12.0829 32.9363467888
46.3095 29.3767 9.15501 25.423422582
38.6361 28.6933 3.98459 29.8327578032
42.1139 36.03 9.67779 31.6705507816
39.7515 34.8486 8.73285 27.092320033
42.3749 33.9593 4.8851 28.677397869
38.3474 26.8839 14.8714 28.3880840834
39.2577 30.1556 11.3505 28.3536084393
46.2707 33.3278 9.9652 31.6200046264
36.7917 29.5492 7.15123 27.8169197091
44.7221 27.3376 15.7631 29.6367619562
40.8878 26.3363 16.1833 29.5897792972
41.4152 26.4438 11.1736 28.4506886288
47.5449 27.5166 10.3383 28.0767340284
41.2405 24.6012 5.28898 29.6385039043
47.2849 29.099 16.1938 31.5904006285
43.0457 34.4914 11.8398 31.7967290358
38.8991 26.095 12.2263 28.949960302
41.7078 30.5333 14.7102 34.0447532834
48.5381 28.3375 3.96329 27.0703738628
38.0858 36.0862 14.8521 27.7867891993
47.513 31.021 13.9071 32.4281095215
46.9867 33.9747 5.62709 30.6991350591
47.1884 33.779 15.022 30.6122042654
45.6405 26.5957 12.8829 27.7953008355
44.8801 35.5376 4.68424 30.9255356376
43.888 35.0837 7.67175 27.5174545755
41.7253 24.6263 9.09156 30.2636281445
39.2983 30.4412 16.8451 29.6843079654
42.9546 28.9396 19.0323 28.2561087826
45.3678 25.0618 17.2167 27.934618354
39.0506 34.0792 20.8873 27.2969175387
48.5579 28.6615 18.9813 25.868720154
40.3298 28.3116 18.0722 26.7038018644
45.7032 25.3435 21.8178 27.0932544788
38.4212 35.3762 17.4734 29.2649329363
43.7513 31.6904 21.8946 28.4860966265
41.8123 31.1775 19.9891 31.3191184349
47.2983 32.3664 21.7682 29.0782215191
44.6843 36.0213 23.6437 33.9485092485
38.856 26.9333 21.6117 27.0280836198
39.6867 29.5814 21.1747 29.1753531578
41.531 34.3766 21.2448 26.4517322926
49.0919 25.6615 24.2333 104.6046365534
48.0768 35.5534 18.5097 28.6476467215
38.57 34.4798 23.8246 60.7688265673
45.1727 34.3984 18.1703 29.3013533443
47.1759 36.0223 24.5238 87.0247110163
43.1469 26.5038 20.9173 31.8678752608
46.2495 25.7533 24.3596 86.1630455481
46.9199 27.9751 21.2332 27.6474750593
39.6445 24.9619 19.0884 28.5848956372
42.897 26.2986 23.9627 60.6811487428
40.8553 28.6665 23.7523 47.393576893
45.4318 30.3024 20.0821 32.3580664545
46.6525 28.8832 24.1134 58.6422199112
43.9416 29.0068 24.5364 89.1658381587
48.1684 31.3627 24.2954 74.9663178763
42.0169 34.5652 24.1833 72.4780851176
37.9768 28.5671 24.468 95.1382979211
37.121 31.0538 18.7912 28.4080732535
43.1201 31.9122 24.5956 92.8497818138
37.8727 31.6163 24.4817 105.9027665833
45.8394 33.0606 24.4459 74.4445343672
47.5603 25.7253 19.1869 34.1241584161
39.8145 25.6306 24.1617 66.8653787356
42.4801 34.8276 18.5949 29.6624712953
44.7161 34.2778 21.2588 26.3110362916
37.9862 26.7743 18.107 30.5788644877
46.0074 31.7122 16.9259 30.4701752196
37.9189 31.4818 21.5869 28.2723736037
48.0215 35.2381 21.6231 29.9624433108
42.5086 25.007 18.5039 28.097645403
39.8215 32.9258 18.0505 27.1527028909
37.5269 36.6001 21.2962 26.4927252178
48.6364 32.9478 17.9379 28.056547664
48.3898 33.6458 35.4032 99.7482026689
49.6173 31.17 41.3966 25.874607113
47.7473 26.9533 35.4358 105.609376087
43.4231 29.2159 35.456 114.7896924998
40.2385 25.7587 35.962 73.5219249673
46.7721 29.4779 35.7042 68.4091401993
44.4646 27.6611 37.7193 31.7272779939
44.6845 36.349 35.7713 73.878029508
46.974 28.4924 40.3098 27.7726122034
40.6676 28.4672 36.0719 57.6224469022
41.6928 28.9899 38.7014 28.1816977439
41.5109 31.9837 38.5941 26.7068478638
42.5205 35.0554 38.9621 26.2993480429
43.1645 31.9855 36.1749 38.5985372409
44.9763 30.7413 38.2917 27.7941602704
47.9681 25.762 39.9023 28.4959392504
38.2946 34.5001 36.3496 42.5072481903
43.4634 31.0404 42.4137 32.9326540709
40.6715 26.3878 42.1803 30.4230732123
40.4573 32.7619 35.4525 121.1582628189
38.4551 30.4904 36.2793 44.027441013
38.6153 30.9376 38.981 31.3226137182
45.3686 33.5785 35.9207 62.9137058454
46.0949 33.3764 38.9491 28.2571472204
41.7692 35.5889 36.2275 45.9706627097
44.4525 34.2158 41.5895 31.1673239892
44.9675 35.8729 38.4359 29.1749002877
47.104 25.9924 42.8193 32.9528657564
40.0014 25.3291 38.5571 28.6265983983
40.2872 34.8331 42.7566 34.7168781919
42.6406 26.3268 39.8011 27.3060994392
44.184 26.3629 42.3011 28.7435888537
47.8146 33.4674 41.3001 32.9994892957
39.2354 28.1268 40.0412 30.9939789266
38.0644 29.3303 42.5142 30.0020126651
46.2765 25.5305 37.6494 27.9651479856
42.0078 33.0861 41.0389 30.4126967554
37.6139 26.5594 36.1964 47.4032663324
44.281 29.0589 40.6648 28.600462366
40.5675 36.9074 40.6067 28.0286652916
39.4527 34.1893 38.7465 28.6144060999
44.006 37.0515 42.7613 30.8249439833
47.9151 30.5354 38.5253 29.7895533435
48.1077 28.9979 42.5694 30.6494004041
37.236 26.0743 38.8741 28.3290963672
37.236 33.76 40.4096 29.9163272695
37.3108 35.098 43.0671 29.6917267205
41.7247 36.4551 50.3105 34.7110828115
42.5318 25.8033 46.7339 29.398248189
39.9706 27.3834 47.2702 28.8739651107
48.0639 28.9588 51.0331 29.5157540317
39.6067 32.4834 55.1671 28.3318493382
45.2843 31.2466 48.2679 28.1388587075
42.8191 33.2098 52.7219 31.6250408198
45.9916 36.2377 52.807 29.9516030102
39.9752 28.1021 44.1661 30.354269693
44.2256 30.1084 54.9511 28.0140900133
49.2638 37.166 47.6235 28.3897522017
45.7302 24.7059 47.716 31.9874972567
46.7839 30.51 44.3966 29.3718595395
45.8158 32.6724 43.3552 32.127525207
38.5781 33.3108 47.8659 31.1662509311
40.805 36.2537 45.1991 31.1031934084
47.3231 32.1413 51.2983 29.1451044227
41.2596 33.6565 46.5148 34.1436265261
48.2151 26.2072 47.8626 30.0875575051
48.919 31.6512 45.55 29.7407209992
37.924 29.8238 46.8802 31.9986906937
38.3369 27.0497 49.8059 28.5966842743
39.9946 25.4787 51.7998 30.7274848641
42.1709 28.4471 48.6917 32.6324990911
43.7972 25.8626 49.4459 27.5944488329
46.0494 28.1068 48.3504 28.6900713647
43.0161 27.6763 44.4739 29.4981848266
44.952 29.1192 45.8904 31.8743553154
39.1274 31.9172 45.4609 28.7449870322
44.8794 34.2628 55.0613 31.6180664981
47.0961 34.1618 47.3729 28.1189723908
40.4323 28.6132 51.1464 34.82487211
44.6828 31.5163 50.8239 34.0611599403
42.6401 30.822 47.0778 33.6516055283
44.3594 33.8907 46.3108 32.0596694836
38.1562 34.9829 53.0415 31.1774892688
39.4278 34.5564 50.2346 33.2220152718
37.3189 29.5165 54.4754 31.4503572396
46.7322 34.6387 50.3911 27.8438861892
42.7937 35.8653 52.7863 33.6525063955
43.5022 29.3174 52.5042 31.6298413472
48.2552 30.8404 48.1122 27.0848776209
45.6172 24.2972 44.8842 30.3367872944
48.5267 36.3515 53.7911 31.4006152046
42.5446 32.2663 55.5797 28.9475117524
40.157 32.5876 52.3505 32.924979877
45.3427 27.6781 51.2156 29.457896456
41.631 30.6388 44.5906 31.4467711699
41.7457 26.9312 53.471 29.8495922322
36.9197 32.376 43.7366 29.7376924467
46.1011 25.8759 53.5457 27.7563705866
40.7871 26.9504 55.8485 33.3643186037
43.9425 36.6543 45.5815 27.940333985
38.4191 30.45 52.1039 33.3274366632
46.1275 27.9738 55.4066 30.8476792299
38.3145 36.1112 46.7571 29.1500935869
48.8563 31.8336 54.2836 29.7327684797
44.2706 35.4071 49.0224 32.8575796247
46.3109 31.7826 54.9137 30.5886395368
48.5465 26.1385 52.5121 29.3646375954
37.5184 25.7965 46.6995 28.9781250221
43.697 24.8216 52.4808 27.5223145193
49.2176 34.7234 45.3021 30.3350761019
48.8502 37.072 43.8597 32.7960224764
49.2021 25.4124 56.4347 29.6144250819
38.4971 34.7526 56.3834 30.4649647356
38.332 46.599 10.4059 33.6480705372
45.2482 45.5443 13.8408 27.986646627
40.5942 37.1055 6.88627 31.2163629724
47.6495 42.6018 10.5085 32.7821360351
44.7377 46.86 5.32811 31.6872603387
38.4448 38.2718 4.19576 30.8714390745
42.6394 44.8554 13.0209 32.4467614575
45.1979 45.9284 16.5152 29.1952497405
38.426 41.3993 4.34319 30.8115107496
40.4575 45.3998 5.78262 33.6690293229
47.5872 41.8685 7.73387 29.6665675467
45.2377 42.4613 5.7174 28.6814301642
44.1412 45.7911 8.79177 34.0096619308
44.1471 41.8408 16.6577 31.1608588963
38.9408 47.4736 5.78152 26.5577497331
42.5423 47.3191 6.88421 35.4558014266
41.3992 39.0841 11.2738 33.9957250454
48.7984 44.7766 11.4585 31.1954224489
37.0837 42.8217 6.5609 29.6090111781
39.5219 39.3116 8.90445 28.9426045854
37.0139 47.636 7.98792 26.6225656233
40.4751 46.4704 13.0487 30.0748859331
46.3965 37.9052 8.51407 33.8591749942
40.6501 48.0182 15.6 29.1513257494
46.7025 37.6515 11.2687 31.8031899015
44.8846 47.6624 10.3841 31.429132214
42.8554 41.0852 5.44726 29.0064269685
46.8728 48.8567 14.7554 32.1535465632
46.9017 46.7502 11.8907 34.00450542
48.0724 38.5452 16.0503 29.007527633
43.4729 37.6987 6.93732 29.5314772472
40.3306 40.6769 6.59017 30.479262094
46.0639 44.7388 7.16136 33.2539346792
38.942 39.2026 15.3666 29.9079100198
46.0816 39.5849 12.9047 29.0811431124
43.0586 48.1379 12.6038 31.0010606956
48.6348 46.3453 7.00856 34.5155087773
44.3582 37.5773 14.3719 32.1152230416
42.4265 43.9404 10.2949 33.0829723316
41.6119 37.9629 14.8089 30.9050350001
45.3656 41.849 11.7314 29.537898318
41.1229 42.2597 12.924 31.655533293
38.2865 44.7709 14.4888 30.5455425177
39.2109 41.5896 10.7601 32.1292736921
39.7198 43.1569 7.17414 29.8077181689
44.6806 40.3808 8.01469 34.2589106502
43.5698 48.0809 15.0977 27.858876321
42.9664 40.4217 14.0763 27.6389487331
45.5453 43.008 14.4142 28.6826239762
48.4452 42.8518 15.0086 34.8579424702
40.9364 41.3 15.9963 29.0169076779
39.7846 36.9547 12.6991 30.8390550964
39.6232 44.1824 9.87831 32.1139565806
43.1043 41.2393 10.3103 31.19562251
47.8359 47.6966 3.96318 35.9029744038
37.551 42.0344 15.4295 29.1492867736
48.766 40.2658 13.7068 31.4162815462
43.5998 38.4347 4.13369 29.295941966
48.8634 39.5076 7.86665 29.8418577837
41.8205 43.4263 3.7445 33.7878122786
46.9798 41.5792 3.73667 30.7318815541
41.7061 37.3878 21.7072 25.675815536
37.6768 47.2291 24.2242 59.0465673835
36.7183 46.2627 18.0047 30.1540767569
45.7527 37.3847 17.0781 30.3128576717
46.963 37.8623 21.7124 26.9411721606
38.4174 43.0636 20.634 28.4446471304
39.5418 43.0055 17.7141 27.532229319
43.4948 38.9115 24.5412 97.4752914538
40.9555 37.109 17.894 30.3140524323
36.9079 46.727 21.3285 30.7010361159
37.711 37.6915 23.9366 68.0473523318
44.3353 46.4478 21.9308 31.8263973756
37.6376 48.8873 17.466 29.9607991727
44.9868 39.6041 18.5233 26.9731180463
44.8311 43.8429 18.7358 27.3342315001
42.0465 48.4334 24.7204 107.3875496244
42.0175 39.861 18.4611 29.8649137742
45.693 40.3292 24.0102 41.5610547141
40.9717 37.3034 24.1114 66.1565850261
45.9772 43.0789 24.1451 57.5004997793
45.2437 40.3695 21.2918 29.4513194455
47.1264 41.2722 17.4896 27.7000720852
39.485 38.1563 20.1642 26.4663379574
47.7955 38.866 24.4283 91.2258854133
42.3643 40.2566 21.5704 26.2836050483
37.4149 42.9843 24.442 101.091989064
40.269 44.9773 21.2523 29.4586132755
48.0589 45.0737 24.4255 115.7003904984
