11.8644 41.481 23.2192 31.314143644
9.08655 42.2422 23.6832 43.2831531424
8.7193 44.9285 24.4374 108.9919015118
3.11051 47.2216 21.4248 29.3245458974
2.61126 47.4916 24.5042 96.1123404085
6.90255 46.763 23.4422 33.5774422424
11.8147 48.3535 24.1201 73.7571982907
11.2931 45.6301 23.5413 31.3144199731
8.79194 48.7932 23.9466 60.9433945462
0.950625 37.6588 35.8538 65.549853048
2.53988 38.9426 38.4424 32.8904455418
3.36874 39.567 35.6727 98.521675408
6.29337 40.171 36.1212 59.2757075721
5.37231 37.0654 36.2981 53.7832858744
8.14819 38.1093 38.7048 31.1310977431
8.43739 38.0337 35.7563 87.6234764554
10.8708 39.9181 36.1174 53.9667863359
2.62706 42.1509 36.2903 57.32274483
4.81583 43.987 35.7451 98.0279015075
7.58412 43.2012 36.0242 64.5534774707
6.5808 42.2603 38.4494 28.0131445363
10.3762 42.5816 36.2488 43.3301972135
3.5255 45.8313 38.7979 27.8039043252
0.388105 46.6473 35.603 108.5020659919
2.94837 46.1863 36.1264 52.2688243125
6.88356 48.0594 35.7255 92.3285521565
4.22784 48.5768 36.6959 28.6167637279
8.71144 45.866 35.8607 66.7513066888
11.5943 45.914 35.6222 70.6735033841
8.64248 46.7627 38.4426 29.0675338975
4.52063 40.4084 41.7766 32.7564205903
5.5137 39.4406 38.9778 27.865756605
7.77277 39.1837 42.6077 28.329984433
10.8554 39.7496 39.0041 28.9918333362
11.8043 37.1862 40.1173 30.0541804974
10.1786 38.022 42.7141 33.0586641305
8.60855 40.7321 40.4624 29.7383539058
3.85453 43.0325 38.8594 30.7474053381
0.674687 40.9472 39.0992 28.8154064846
2.36604 41.9578 41.3743 30.0900970716
2.23591 44.3888 42.8869 28.2481946525
10.8288 42.1862 42.6391 29.7578538145
9.20818 44.0262 41.236 26.2486947476
10.4013 43.2128 38.924 28.8420817078
0.616066 46.0558 39.3107 29.6277997445
2.61542 47.0239 41.6619 29.4711855175
3.58082 48.8681 39.2516 27.7936707593
6.70775 44.9359 39.7063 32.6029455637
5.36614 46.3584 41.7515 31.0156819865
6.59436 48.7593 42.6171 31.4356179329
9.24054 48.1904 42.4342 28.3737366608
10.4059 46.5116 40.6811 27.7898941371
1.16273 38.5495 44.7494 28.7844531126
0.470978 39.1114 47.4437 29.5064720085
3.657 37.8923 43.5116 29.1510583141
7.59669 37.9334 46.9355 29.7052284185
5.40754 40.8029 44.3369 29.5558552105
5.08533 37.5971 45.6878 30.8454440487
11.6983 37.9007 46.8275 39.4427352839
11.488 40.2231 45.1641 30.4939287484
9.59648 37.0895 45.4791 30.1444869325
3.31367 41.2297 45.9709 29.8593275094
1.18313 41.499 44.0735 28.6622142061
0.294594 44.5146 45.1163 29.4962540251
1.17835 42.9229 47.2223 33.5477756727
7.9098 43.9415 43.9755 29.233085003
5.12629 44.1558 43.7369 30.824876653
8.18505 43.698 46.8152 28.9101887898
8.53777 40.9743 44.7786 28.6909353326
1.69951 47.0985 46.0822 30.9559374775
4.40328 45.7504 45.7544 28.7190285712
5.8664 47.7745 46.3317 27.5402126076
9.71654 45.9482 44.093 27.3896954332
8.54998 46.9703 46.3458 29.3022990877
12.0548 45.2494 45.6538 29.7703712144
3.28266 37.5051 48.1945 27.9974623011
0.987436 37.6557 51.2668 31.9660677158
2.12842 40.037 49.7986 28.8722346001
5.51292 37.6855 50.0202 32.0468108279
7.57472 40.6403 47.6483 29.4385471544
9.69252 37.2283 51.3499 33.2171100183
11.5037 38.2717 49.6025 32.6762988964
9.24983 40.3931 49.8474 30.2145130965
3.15272 44.0452 49.2402 30.2493025943
0.618564 41.853 51.9399 30.3834653152
4.84674 41.0651 48.5751 30.8078783486
5.29015 44.1993 47.6432 28.1537790253
4.63336 42.5382 51.1468 28.8149528015
6.64866 44.1404 51.7037 35.1484421197
10.7401 43.8281 51.5413 29.9136354793
10.4508 42.7959 48.1074 28.4638513989
12.0062 41.5524 50.3263 30.4907091449
3.06529 46.9896 49.6316 31.4319532703
1.10055 48.5563 48.3165 32.3479198591
7.27337 45.7993 49.2255 28.8627305364
5.62954 47.9762 49.1893 25.5046520497
10.5012 45.4574 49.4698 30.999844292
9.12145 48.1696 49.4669 29.987854779
11.8648 48.9684 50.6517 33.6798503649
1.2528 38.8236 53.7852 25.899154378
3.54606 40.3427 52.753 27.4648634869
2.60104 37.112 55.1905 27.6877284761
5.51377 38.4045 52.5804 29.6795995693
8.18503 39.3164 52.4859 30.7215338214
6.92437 40.7717 56.1174 27.7539347969
9.28344 39.4943 55.0224 30.855175255
11.5383 37.9372 55.597 32.35720444
0.663424 44.1817 56.0557 30.4620784913
3.59575 43.9996 55.1476 29.7247908445
2.37515 44.0822 52.3693 30.770192434
0.191061 41.4148 55.0693 28.5291403099
4.6703 41.5686 55.0361 30.8443082051
7.86815 43.3546 56.3645 36.394319806
8.85583 42.2865 52.2299 28.9928633084
9.93109 41.9129 54.5505 26.8197978765
11.966 43.3519 55.9959 27.7966460317
2.22625 46.6927 52.1367 31.1036107531
7.45699 46.1326 55.5982 33.7924231406
4.81682 47.9236 52.4368 31.1340222957
5.58254 45.6524 53.7971 31.0526065087
9.80755 47.4673 54.7032 36.4437348695
15.5419 3.52083 4.79148 28.5345646038
13.1638 2.3446 5.61691 32.8748942495
17.8053 0.304357 7.20108 29.2741596166
17.6327 3.36067 6.61036 29.9387172931
16.4192 0.335662 4.56697 29.2915244682
20.8969 3.42027 6.97064 34.0743062139
21.5034 1.9937 4.55348 28.7128322899
24.0882 1.514 3.83854 33.5323080779
13.0123 6.56163 3.86258 31.6754628824
14.4409 5.65628 7.69305 30.790591937
15.6943 6.18277 3.91753 30.4581460152
19.4844 5.84204 5.49078 28.7989708737
17.3252 6.1447 7.67361 28.5614526252
17.7163 8.09122 4.65814 28.6938465027
21.3895 7.56314 7.13732 31.8456889397
13.9406 8.34937 7.41956 30.305595957
15.2534 11.2676 5.48826 30.9923743242
12.5023 11.7698 6.43737 30.3606540758
16.6072 9.07841 7.09227 28.5766768255
20.3075 8.47141 3.95605 29.3537016341
20.0238 11.5658 7.58826 30.9129345528
19.9701 12.1221 4.69772 28.9459214806
21.723 9.73855 5.95261 27.2639388479
23.3526 11.0203 4.15844 28.0531077378
13.1134 0.353788 8.1035 34.2153055593
15.1092 0.442768 10.2165 28.6348250073
14.4914 3.13243 11.6716 30.6271551396
19.4613 2.09009 10.8418 29.5136406633
17.0862 2.4722 9.20471 32.1610902461
21.3909 1.47855 8.95415 28.7520144661
23.1912 2.87283 10.3566 29.547940864
13.1784 5.04004 10.095 31.7979280089
19.5575 7.91196 9.2372 30.4598146347
18.1206 5.45085 10.3483 32.7948226754
23.2059 5.52353 8.42553 32.5279130364
24.0303 7.45557 10.2499 33.1347817199
21.0476 4.97485 10.5341 28.4315081993
13.7403 9.35094 10.073 34.4108708767
16.1126 11.4138 11.2875 28.0638106117
17.9355 10.4871 9.00002 30.1134363616
18.7054 11.3284 12.3051 29.4157180958
22.8804 11.8601 8.24299 31.9223169747
20.5677 9.48388 11.4275 30.4136687365
23.0252 10.2243 10.5113 33.2236747509
13.8646 0.61448 15.1375 29.4136836132
16.3767 0.653183 16.6988 24.4575685736
12.4471 2.42772 13.2892 30.7819187697
17.4531 2.42445 14.2631 25.6746280692
19.9234 2.65789 13.4833 28.529511219
16.5947 0.112016 13.0578 27.8978517509
21.3405 0.0816832 13.9749 27.727178063
23.8809 1.42992 12.857 32.8013526766
23.4647 2.41029 15.3478 28.028601959
14.3104 4.73737 15.4921 29.4733174334
12.9406 8.07989 13.9063 32.0588410176
16.0362 4.59612 13.4191 29.0686687818
16.9964 6.9703 12.6499 34.412767555
18.1652 7.27676 15.0952 31.9111425936
24.0848 6.61159 13.0172 32.3605488532
21.1808 4.21085 15.2315 28.2782568484
20.7614 7.07447 16.3668 32.118801358
21.3805 6.01317 12.955 29.8311729959
15.4107 9.27686 12.975 29.7251681309
19.0173 10.2583 14.9615 28.2440382799
16.4209 10.6817 14.9791 25.9413053122
24.0069 9.68674 14.5729 33.2526122456
23.9116 11.7913 12.5864 32.9869662739
21.3479 8.72004 14.0046 28.1084682493
15.8426 4.05128 19.8958 27.5245921377
14.7849 2.83391 17.3056 27.8178613628
12.4981 1.9985 18.7563 31.0188451444
18.1915 3.42303 16.9047 29.6769262742
17.8675 1.52699 19.2933 30.8598634232
20.8984 2.96231 18.1857 28.4250232516
20.6578 2.79379 21.1235 27.7247973085
23.4263 3.39407 20.7956 25.8739928858
23.7672 1.82382 18.4149 28.8127166932
14.2063 6.47145 20.3477 32.5673742386
14.3394 6.92255 17.4369 29.2124886857
17.3515 6.18633 17.607 32.0275078061
18.5657 6.66226 20.2646 32.728105975
18.203 4.09918 21.1799 27.3138690691
24.0056 7.85311 18.8159 29.3095105803
22.6537 5.15546 18.1442 30.3546817558
12.6702 10.8623 17.3091 32.9444464088
15.1315 9.44871 17.2093 29.7842647184
16.0443 10.2783 19.611 31.7060612047
18.4549 11.6959 19.6126 30.9378377508
20.2402 9.69926 20.8823 28.4268043034
19.7603 11.6776 17.0707 30.0200765964
21.4013 9.49247 18.1655 31.5345639952
23.7763 10.588 17.3094 28.0407173638
14.3001 2.65005 21.7947 29.7465501258
15.3911 2.51389 24.3468 83.8788792555
20.1126 3.25506 24.1245 52.5725928708
18.0897 0.921483 24.3119 80.8253148749
20.9125 0.188091 23.9969 61.5011365539
23.54 1.19543 22.7084 31.4027315399
22.9174 3.62854 24.6261 98.4343341823
14.9965 6.77899 24.071 64.6210598356
12.9986 4.71566 24.1306 74.560147353
16.4156 8.11443 21.6021 29.9463579962
17.4112 4.67323 23.8464 43.0053245743
19.4769 6.4933 24.6406 101.3870009961
23.9935 6.34006 24.236 58.7336660636
20.8357 7.04626 22.0671 29.4431538523
23.3311 6.39318 21.6644 29.3326587992
13.7649 9.41605 24.336 79.7583036729
12.862 9.46589 21.4576 29.3461529
14.5164 11.8972 21.6606 29.8413784774
17.743 8.71704 24.0897 69.7752505536
19.5996 10.4131 23.7222 38.7927316761
24.3235 9.07176 21.538 28.0178564938
22.3669 11.0019 22.0388 26.9917916895
21.8944 8.88651 24.4158 83.8728058893
24.4065 12.1259 23.6889 33.4834305256
13.3967 3.31595 36.0949 54.7138599131
12.7852 2.7479 38.7138 31.7065974457
16.1995 4.06355 35.649 78.9148602235
17.0647 1.79919 36.858 27.5562600196
19.2743 3.89648 35.6959 79.0877267868
19.7029 0.551203 35.8413 66.3910320447
22.8964 1.00043 35.6722 89.6130448813
23.5553 3.93182 36.1003 59.8685358069
21.0425 0.0055195 38.2937 28.6250576573
21.0771 3.26121 37.5233 27.5729217597
14.8663 7.14421 35.5598 88.9372433924
13.4757 6.31737 38.5679 25.7285457338
16.0699 5.30442 38.1754 30.3532091867
18.5638 6.6092 38.4304 28.5249660263
18.7866 7.03994 35.7318 73.156149578
21.56 6.2159 35.888 62.2826847006
21.5827 7.03923 38.7042 31.0062569116
14.1141 9.8316 35.4865 87.9064131173
16.3795 11.468 36.1089 47.5274633751
13.268 9.08083 37.9857 30.0630114515
15.5856 10.437 38.7868 32.0667360429
19.0209 9.93962 35.828 74.7569686865
19.4387 10.9252 38.4659 27.6623588485
21.6958 10.7922 35.7851 62.2618593232
22.3815 9.67206 38.4079 25.4633309037
23.5438 8.44818 35.6565 86.5921862478
14.8641 2.43097 42.0411 32.1561231177
15.7411 2.78201 39.1125 30.7095399228
12.9149 0.755241 42.7052 30.8964624753
18.7344 2.28161 39.6723 30.3521053298
18.1563 3.10115 42.5909 26.261884091
24.3117 1.91859 41.3746 26.179701935
22.0022 3.50386 40.3188 28.1009296543
22.1479 0.571383 42.2445 26.0518413188
21.8062 3.87426 43.1816 28.2488719474
14.0272 6.70794 41.545 38.2365021051
19.5073 4.94341 40.9615 31.1425374353
22.2482 7.89733 42.8526 34.1275069058
23.2943 6.09049 40.6853 33.3977328828
12.3898 11.316 41.3955 31.1834131042
12.7155 8.7414 42.8761 31.6807510043
17.9895 8.97661 39.7011 31.0416053935
18.9259 8.79274 42.3016 31.5274377041
16.4781 11.6351 41.3566 28.0842832741
19.4239 12.212 41.5784 29.7610454226
21.6768 10.0687 41.0705 29.5872796439
12.8798 3.89529 45.5129 28.6398402317
15.2087 2.03564 47.0334 30.1663358119
12.3649 0.846217 45.5668 28.6756553296
17.7253 3.12307 46.7289 26.4370092778
20.2942 1.88559 46.7438 27.1261636002
16.5504 1.30455 44.1633 31.8459784566
20.018 1.89839 44.0356 27.2168652514
23.1847 1.94243 47.0273 28.3148559221
24.1467 3.77699 44.8201 27.5268202447
15.467 7.2048 47.4133 28.0078303693
14.5861 4.71304 43.5476 31.3595685772
16.8739 7.86894 44.5456 30.4909669823
20.3427 7.24559 46.2632 28.3025428949
17.3351 4.90043 44.5509 29.3173385546
20.0236 6.51188 43.5055 26.2055200006
22.1215 5.02484 46.73 31.0664911011
24.4516 7.96139 47.4783 32.4306573522
15.2802 9.93565 43.238 28.26551415
14.1263 12.0976 44.5199 27.7637550191
13.1873 10.8158 46.9641 29.6672310673
13.4077 8.1991 45.7309 29.6734367449
18.1368 11.6728 44.2364 27.3078560916
17.9839 9.78194 46.5988 30.1422142189
22.4748 9.01962 45.4092 30.4711589792
24.1243 11.2629 43.9941 35.9169800254
20.8849 11.4536 45.3604 32.0477081427
16.1007 0.7965 49.6378 34.0929350723
12.6115 2.0593 48.49 28.9890293584
18.68 2.14937 49.4675 33.8720923287
20.7576 0.675762 50.4371 33.6240575403
14.0861 4.83824 47.9229 31.5100371562
12.3514 4.7841 49.8816 32.933292205
12.4428 7.89032 50.5152 31.3963970457
17.7888 5.54338 47.9807 32.1229927124
19.6024 5.03134 50.2441 32.346946707
18.7708 7.82482 51.916 27.6794329168
22.0756 5.03682 49.2869 29.5956091868
22.7989 7.58955 49.744 28.5455487207
15.1387 8.79644 50.1547 31.3239835115
15.6253 10.7375 47.9432 27.1887725657
18.2234 8.22959 49.2413 27.9821992988
18.8229 11.6971 51.1843 33.0276621233
20.8193 8.99644 48.4297 28.2715261442
23.6452 12.1015 50.9575 27.7035595101
21.1458 11.4758 49.7846 33.451806289
24.3676 9.47099 51.3924 29.5570210326
14.5693 1.70182 52.0214 32.3289836391
12.6367 0.310405 53.5713 28.6803260368
16.9997 2.8481 55.0231 33.3606746577
16.8996 0.751167 53.1504 31.57781321
19.9408 2.24783 54.7694 26.7431331697
21.4425 2.70931 52.6355 32.0337730912
22.6567 0.267432 53.9492 29.6033904658
15.6492 5.98993 53.7965 30.4166714709
13.8321 4.36532 52.4474 36.0681985419
18.2814 5.36968 53.1665 34.3788213827
20.2787 5.37792 55.4038 28.9893113185
23.1345 7.50105 53.099 30.5818602365
20.7593 7.99519 53.7839 28.1274549384
23.3175 4.69778 53.4162 28.5615213916
22.8578 4.60377 56.1055 31.1096042844
14.2465 11.4697 55.4505 28.4691733924
16.1406 8.47409 52.8053 29.9347497936
12.4318 9.45609 55.4986 29.6939793207
14.1555 10.9471 52.2936 33.1532988962
16.7987 9.96241 55.2501 31.8800096259
19.4895 10.4064 53.6779 29.478085803
21.3661 12.0317 54.8167 30.5239361525
24.5436 8.93896 55.2725 31.3980008221
13.2348 16.0638 4.51857 32.2492600858
20.1834 15.7375 6.46201 26.0950145029
17.3075 14.8041 5.99251 32.1764720291
17.4035 12.6729 4.07554 28.3749371763
20.8782 14.7169 3.83966 28.4024548931
16.0114 19.7532 4.79104 30.7106441221
15.43 17.1846 5.67583 29.4683161621
18.3854 19.2814 7.21107 26.2181516253
19.1183 17.5389 4.8086 25.7298933427
22.1492 17.9792 3.86402 30.4463675554
22.5497 16.7683 7.13247 30.706135629
16.3528 23.4673 7.16087 28.0680783063
14.4507 21.3371 6.77185 32.7741139443
18.7416 21.0103 4.86827 28.3096474713
17.2102 23.3401 3.9325 32.2802630581
22.5037 22.206 3.97089 30.0432759029
21.8884 20.7146 7.70406 30.6146175624
20.6825 22.8571 5.94304 30.5599035993
14.3832 16.0356 10.8357 28.5142799984
13.6791 13.3099 11.4614 30.0911244911
15.3343 12.3089 8.41828 32.1267188696
20.1111 14.2445 8.85142 30.9941062588
16.4782 14.9945 8.73314 31.6164903992
18.5435 15.4412 10.9393 31.7783750887
22.6396 14.3892 8.92717 32.9425822596
23.0178 15.8719 11.3968 32.0991484488
14.0132 19.4956 9.00413 31.9883944207
16.1466 18.0006 8.35591 28.0690897658
13.1408 20.2637 11.8873 29.157994415
18.3031 19.782 10.5469 30.0658483701
16.6116 17.5732 11.8729 30.7873328114
23.4556 19.4794 11.4123 30.3635192755
20.7049 17.7372 11.595 32.4029683431
20.7649 18.3951 8.62521 29.7259809528
14.8085 24.2683 9.56346 29.9781581311
15.9557 21.5363 10.1002 28.7128878284
18.45 21.9474 8.29847 27.1411633089
20.1665 22.1137 10.991 31.9212833907
23.0439 21.8885 9.95884 28.6008752209
15.481 13.2056 14.0931 30.2140005543
13.1746 13.4491 16.0362 33.5427525289
12.4903 15.9708 14.6795 30.9370273543
17.7424 14.7077 15.136 31.2822775322
19.2987 13.8157 13.0194 31.8224348989
23.8034 14.4341 15.7811 29.8798669377
22.2568 13.9997 13.4373 35.695514258
15.2356 19.5343 16.8191 28.7532572382
15.4421 16.4769 14.482 33.7080615606
17.0587 19.2629 14.416 32.9216799379
21.6717 18.17 14.3598 32.0459108268
24.0143 17.0306 15.1385 27.2898797974
20.5328 19.63 16.5097 30.9194935662
15.4171 21.2939 13.0517 30.2252688978
15.6301 24.3151 13.8914 34.1580229339
13.8438 21.8081 15.3465 32.145505778
18.7135 21.521 15.2777 35.1773816409
17.1545 23.7488 16.176 30.7311389719
22.7702 20.6115 14.0391 29.9120962106
20.7335 22.5936 13.5861 33.7815783993
14.6105 14.1753 18.5209 28.8450706941
12.4279 13.4463 20.2583 28.9081465253
16.8763 12.9703 17.2213 27.7962667373
18.6141 14.3417 19.9763 31.5497380715
18.6419 15.8854 17.5568 28.8288052891
21.3452 16.169 17.4911 31.3632037453
22.091 13.1773 17.5115 29.3592070431
22.9745 13.1135 20.1617 30.5711515382
24.0348 16.0217 21.2027 27.0564498115
15.3971 16.9482 18.5572 30.8328150143
12.579 17.4965 19.0998 29.652733507
12.3974 19.4488 16.956 27.2008622616
18.1856 18.6049 17.6965 30.0260022837
17.3809 19.176 20.3973 31.1759010757
21.6973 16.6574 20.305 26.9658814357
24.1229 18.4292 17.6006 28.2638708166
21.6317 19.4853 18.9273 29.086502459
15.7215 22.0475 17.9731 28.4003151774
13.4064 22.3746 19.6372 28.613905608
16.7748 22.253 20.6575 30.232975578
24.2329 21.404 18.3298 28.4787936181
22.2401 22.8102 19.5211 29.7344887969
16.3419 13.9202 24.1694 53.6808375898
15.8077 14.5779 21.2781 31.9452654739
13.949 12.4275 24.4307 103.2491926301
18.974 13.2112 24.5799 111.1597671012
20.886 14.384 21.4375 28.6495364734
20.7074 15.3088 24.1772 49.7607311484
23.2487 14.5063 24.6147 113.484863283
15.5813 17.5759 21.792 29.2137026387
13.7039 18.0586 24.7073 111.1419116475
16.234 16.8167 24.5771 78.2633002736
12.9331 18.3681 21.4914 28.0653859747
19.8428 18.4701 21.5295 30.6445119212
17.8407 19.0679 24.5685 82.1405392035
20.1958 17.9834 24.2443 53.4045557619
24.4759 17.0136 23.8088 41.142124772
22.6096 19.0487 24.2213 65.0185461053
13.6256 20.7211 23.9736 47.8222144035
14.797 24.4544 21.2902 25.3146845101
14.7292 23.6804 24.0098 64.2052634185
17.9237 23.1492 24.0206 67.724270191
16.4495 20.8387 23.1712 29.2022621831
19.2101 23.3466 21.4278 31.2165070803
20.4328 21.4449 24.6142 92.2537110777
23.5137 23.9139 21.5555 25.9702203635
24.0457 20.7226 21.7846 31.2829292553
21.236 21.0912 21.5601 26.6692559077
22.3718 23.4039 24.1549 65.158216224
14.7514 14.0266 35.7591 87.8138534397
15.0129 13.6428 38.6491 27.9427661777
18.4992 13.6261 36.0134 65.2379723185
22.6668 13.2329 35.5795 83.4670552753
20.7186 15.3698 35.9546 55.2607558036
23.0703 12.9927 38.7922 28.925285682
15.5306 16.5935 35.9134 57.8286049434
15.3501 17.2576 38.5854 28.9611685013
13.8161 19.03 35.8954 60.8468431887
13.2536 20.274 38.5053 29.7675823348
18.2669 17.0631 35.5317 94.0770134081
16.5164 20.2655 35.7982 70.302475647
19.302 20.0009 35.9252 57.3610498572
21.6477 18.2063 36.0584 54.8549110889
24.0479 18.0625 38.5514 27.9484599076
12.6479 21.6607 35.5207 93.8933020618
15.6016 22.8049 36.0754 55.4755927691
18.1222 23.9643 35.6752 93.7940429838
19.431 22.9273 38.0453 26.6262321429
23.2013 21.0492 38.366 28.7326301578
21.0408 22.7973 35.5947 75.7653748239
23.2999 20.8871 35.7192 61.6960992553
24.2059 24.0993 38.2206 26.236695031
14.6901 13.8019 41.4604 30.5412873996
18.9653 13.7256 38.8579 28.0572644807
16.8576 15.4022 39.839 31.1202870914
22.9067 12.5803 41.7032 30.7754689735
21.1375 15.2638 39.0808 33.4048219589
22.4592 16.0806 42.7778 30.8055358807
13.1158 18.035 40.2906 30.0850247606
12.6865 16.9894 43.074 30.9335290582
18.143 17.6169 41.3059 30.3558954282
19.3475 20.3876 38.9286 28.6551626426
16.676 19.5868 39.1314 27.1405222374
16.6655 20.3483 41.8053 30.7120582826
21.1833 18.1601 39.0991 28.8692548387
20.6389 18.1615 42.3606 28.2738282782
22.1447 20.395 41.3338 27.8843876832
23.9074 19.6997 43.1342 26.5517548701
15.4345 22.4411 38.8791 30.9398156403
15.5258 23.0786 41.9852 28.7798672309
13.1259 24.22 42.5475 31.2670981324
17.9298 24.0583 40.0349 28.4473518309
20.4336 24.2401 41.5888 28.4340179414
19.5159 21.8737 42.3619 28.211082359
23.3219 23.555 41.2107 28.8093171489
14.7365 15.2431 43.9934 27.3566078683
13.7926 15.9537 46.7061 31.4995737516
18.9172 15.0715 44.9442 29.0952906865
20.4816 13.1955 47.5518 30.2640052494
16.6735 13.5174 45.6096 29.9228525183
20.9751 13.8279 43.4669 29.4953930609
14.2911 20.3241 43.8567 31.3853908774
17.115 16.7745 43.6001 31.1207952793
16.7258 19.1915 44.9687 28.2047521398
20.4429 16.7936 46.7766 28.0977778706
19.7055 19.1511 45.0128 27.2722768669
22.7071 19.1582 45.631 26.9609136863
22.8681 16.5453 45.6076 29.9362878516
13.4814 24.4298 45.363 32.3429253804
15.2657 22.1384 45.9351 31.2592133191
18.2013 22.0854 45.3141 29.5464988496
18.8143 23.9783 47.4913 29.6491310087
17.3858 24.3962 43.3854 31.7659586673
23.7712 23.6373 44.1002 28.2415547475
21.6761 21.773 44.4869 28.2985092024
21.0496 22.1139 47.1467 27.925011674
14.2426 13.2259 50.5928 31.9859888544
16.7101 12.6008 49.3419 30.3162267269
18.1268 14.6452 48.2492 26.2046773763
19.2684 15.739 50.5862 30.7593162919
22.8561 14.8007 47.991 32.2378976192
23.5846 16.1837 51.7859 29.7035952373
15.9841 19.2514 47.6436 28.8328336523
13.0372 18.5912 47.9193 27.4916498437
15.7421 16.3509 48.586 32.1758193807
15.2127 17.0218 51.284 33.770989951
12.736 18.3188 50.9414 32.8979564141
17.9833 18.3005 51.3231 35.8708458212
18.0303 20.1447 49.2469 28.5843571229
20.2732 19.5755 48.0075 26.2738289379
24.092 19.9359 48.1568 29.7815544783
21.6378 16.4709 49.7071 26.8856388116
22.09 19.1417 50.0122 30.2866005868
12.5736 21.0826 49.559 31.2013339432
16.105 23.9765 50.4461 27.402316171
15.2577 21.7801 48.97 33.0268343168
18.4586 22.7506 50.0595 33.5478257161
20.4399 23.7674 51.8428 31.3374306998
23.3467 22.86 48.3575 28.650529073
23.1068 22.7534 51.0796 28.7278142991
13.3096 14.2405 55.1045 34.0673689044
14.8629 14.7768 52.8235 33.0952890926
19.7609 16.3087 54.5046 29.8215635429
19.53 14.1106 52.7233 27.9089927063
17.1569 14.4409 54.5539 31.5313481818
23.5399 15.0177 55.3023 28.5539001526
22.6347 13.8016 52.6874 28.6885761229
15.1388 20.3011 54.5367 40.3801354013
19.9288 19.635 55.1376 29.6719340909
17.3987 18.8432 54.0783 31.5121657463
16.9718 16.8704 55.8108 27.8738006915
22.0768 19.8986 52.7237 32.388578426
23.3384 17.7813 54.1589 26.5189152796
14.3225 24.1001 52.4278 31.7307077705
14.5476 22.892 54.867 34.3415750818
19.0339 24.3903 54.8992 33.1149458302
21.1135 22.3413 54.2981 30.9738941647
23.9331 24.3926 56.3535 26.8747677844
16.1386 25.6867 5.38388 27.2712995502
13.4158 26.2203 4.48013 31.6161905107
16.6828 28.0296 3.94314 28.5605782512
18.5437 25.9165 7.32041 29.5021581605
16.4758 27.7716 7.53444 26.7134732534
19.7452 26.3038 4.13783 31.539491291
21.5712 25.609 6.40951 26.6036948891
24.3488 25.4064 6.31261 27.8388381921
12.6341 29.5385 7.38523 28.1072710682
14.1528 29.057 4.90742 28.5627322032
16.4147 30.5011 6.09308 30.4779416121
19.8331 28.8528 8.03042 31.0444637983
18.9348 29.2739 5.19848 29.0041079126
22.5923 28.6406 6.55678 27.7950530419
20.6814 31.5096 5.16604 27.8063749378
24.0273 31.6742 6.67167 30.4083398382
20.6046 31.6484 7.94803 28.8191267784
22.8481 28.965 3.77773 28.3292144154
12.6453 34.3094 8.05974 28.2995621992
15.347 34.0587 7.87047 27.3569670586
14.5051 34.5353 4.97084 29.105798654
12.3227 33.1614 4.04389 30.8146696599
17.0387 33.0864 4.98188 28.1185972878
18.967 34.8099 6.37285 25.4386168492
21.4081 35.8575 6.80027 27.3075421145
23.5275 34.5899 5.4901 27.3270503387
14.1053 26.9386 8.67987 26.2614569582
13.4278 27.4712 11.2817 28.525747498
16.1324 27.8331 11.8818 27.6224733472
16.5804 25.1504 11.4249 29.9368387306
18.9707 24.5796 10.3077 31.2179248297
21.4932 26.2828 9.42854 28.9470595596
23.8943 28.2881 9.81582 28.0894063832
20.6021 26.5184 12.3331 30.2792852738
22.3823 28.5153 12.1064 29.9381149247
23.5359 24.6019 9.01009 30.089121493
14.9899 31.2649 8.80106 29.0059837024
12.5443 30.1561 10.2527 30.7523982966
17.4334 29.3753 9.90359 31.2022826765
16.4499 32.3941 10.6806 27.515385586
18.3489 30.8018 12.4169 28.6278951689
23.4093 31.1632 9.43002 30.7401343502
13.2318 35.513 10.6644 29.0124167285
16.1104 36.4553 9.15593 28.7491204278
18.5138 34.1636 12.3198 27.6707328739
18.5212 33.0621 8.58311 28.1017997101
18.556 35.7145 9.99364 26.6582077742
21.4194 35.4564 9.41533 28.7313151381
21.6532 32.8461 10.7214 29.3843659282
23.6876 34.8331 11.9332 29.1680415443
12.5365 27.9279 14.1004 24.2883616454
13.128 25.4012 14.9025 29.2357873202
19.3387 25.5175 16.4185 31.9432375504
18.6711 28.0564 16.2581 37.0207278269
18.7092 28.0539 13.266 31.8610619985
24.0718 25.4339 15.0265 34.6715493367
21.4323 25.068 14.5952 32.4334154902
15.0006 28.7224 14.5786 29.2011493379
15.9605 31.4292 13.9551 25.7001227364
13.0747 30.9224 12.9078 29.8965133251
17.1522 30.4127 16.5505 29.9259619544
20.8564 31.6112 13.0805 29.1342176773
22.4461 29.8803 14.5697 30.7221524332
14.4398 33.3949 15.7928 31.1814240097
12.5279 35.3407 14.7253 28.1182247566
14.1982 33.62 12.6481 28.2294542144
16.43 35.0226 13.8158 26.9654968456
20.4471 33.5338 15.1503 28.7259817986
17.7625 33.3719 15.8354 27.3625551737
20.9646 35.8009 13.5539 29.0153484964
24.3776 33.7666 16.1309 32.9042390552
13.4973 26.8071 17.4538 27.5803781195
15.6822 25.165 18.5428 34.9374508782
19.7435 25.9696 20.972 36.2301412445
16.8755 26.6213 21.1802 31.5355599982
23.3954 26.3355 17.5797 30.1139276375
21.129 25.0353 18.5014 32.0693442946
22.6358 26.5126 21.1176 29.4442584409
13.0261 31.4636 20.3723 32.1518216161
12.9066 31.5114 17.309 38.717943359
15.7359 28.9706 20.12 32.7849181837
14.5716 29.2166 17.3975 27.7446018008
18.3141 31.7159 18.7941 31.4544029139
24.0522 29.2395 17.8343 32.9188862134
21.0635 31.481 18.8947 33.6024495963
23.9245 29.256 20.8359 31.143811732
21.3582 29.4569 16.9939 34.8524339273
15.5292 35.3518 20.4212 31.5650660849
15.4907 36.6053 17.7877 28.8563450904
12.7046 36.0096 17.4045 31.9777516925
17.6575 34.5486 18.442 30.7008750721
20.0085 36.3659 17.4985 28.6409084163
22.4262 35.9981 18.8906 27.81762671
22.0023 33.6867 17.2734 29.4178184752
23.7282 34.1183 20.9779 27.3925269488
15.3237 26.5697 24.338 92.8043807119
12.5554 26.0797 21.4368 27.1373797862
20.3362 25.6212 23.9661 74.2885420927
17.8473 27.4209 23.8118 52.1407091359
22.4129 27.3466 23.5887 47.6697392616
13.8973 28.8822 23.8551 37.7498755909
13.1466 28.8151 21.5018 26.0615560896
14.7603 31.6551 24.5273 82.7844941093
17.2524 31.0529 21.2808 29.4742860649
17.4091 30.0726 24.3642 77.9189601698
19.7691 32.2001 21.8624 29.1443138051
19.8253 31.5469 24.5194 96.5178372059
22.7053 31.6835 21.567 26.9510698189
22.1214 30.135 23.8632 47.9298048921
24.2533 31.4984 24.5676 117.034525165
13.1099 36.0977 24.4619 85.8301265563
15.4084 32.6966 21.6827 29.8385389451
15.5188 34.4153 23.9813 52.1968752716
19.3736 34.9997 21.4283 29.5863379041
18.2257 35.2289 24.0087 52.3109158022
21.6407 36.445 21.8143 25.5252426114
21.3973 34.2054 24.1895 56.8081411359
23.9268 34.0684 23.6959 51.1666495148
15.1048 27.448 35.8683 89.8430321043
13.0661 24.8781 37.9634 30.1816537403
15.2628 26.8758 38.7441 28.1346742703
17.6875 26.6398 36.3113 41.0487162799
22.0149 27.2303 35.6333 89.3328299941
24.2241 28.4408 36.4014 37.5871688287
21.0569 27.2193 38.3404 26.1465907677
22.8392 24.7201 35.796 65.0004111354
15.5427 30.3991 36.0232 60.8548233951
14.6709 29.7195 38.6313 30.453955635
12.3973 29.2959 35.9438 66.1117441256
19.7111 28.9267 35.6388 89.4639252846
18.2536 31.7809 36.4494 36.174924734
23.7616 31.1277 35.8775 69.8678344578
20.5645 30.5428 38.6091 29.0564852868
20.8039 31.795 35.5378 85.6160055325
24.1669 31.2678 38.5757 29.580886311
14.0701 32.812 35.5056 107.7352721535
15.4465 32.7662 38.5716 27.0637765659
12.4978 36.2828 37.2458 31.5505392184
14.8977 35.4917 36.0005 51.5296544171
19.4888 36.3245 38.4969 30.404944548
16.553 35.5219 38.5931 26.9641959672
17.7577 34.4943 35.9588 67.8268528668
19.8905 36.2882 35.8018 61.2869171432
22.128 33.1136 38.2701 28.3443723313
21.9143 34.5035 35.7505 58.5955379051
14.0255 26.6192 41.3123 29.3312499777
17.9802 26.6267 38.9577 29.2390710226
20.741 26.8304 43.0522 33.3460472505
23.2931 28.5629 39.272 27.4060665245
21.5737 24.7653 38.9483 27.1633439241
16.3217 32.4288 42.1338 29.7221589015
16.2773 29.6921 42.9557 28.296142828
17.9431 31.7578 39.4078 26.3532097259
20.3995 28.6285 41.1133 27.6770329366
17.5309 29.2481 40.5101 31.2698536162
21.2174 30.999 42.075 30.3267149372
23.7983 29.7797 42.1248 29.8416883117
13.9828 33.758 40.6412 28.3556583523
19.5177 33.327 41.1334 26.8724349207
17.162 35.1877 41.4271 29.5419711193
21.5371 34.9082 40.15 28.5890019038
24.02 35.3548 42.1515 33.3168706101
14.8691 26.7608 46.2811 27.8736367581
15.4126 26.9876 43.7399 28.5758909121
17.437 26.4009 47.3096 28.6185064589
18.4998 26.9269 44.6285 30.3549269382
19.3325 28.4341 47.5878 30.7668778666
23.1692 26.5592 44.2207 30.5914152198
23.3587 25.6439 46.9784 30.6159007055
13.4632 29.8299 43.7666 32.5569700984
12.8223 28.9137 46.4923 31.6461588369
18.4234 29.9117 44.8726 30.8698311123
16.5036 30.9377 46.7308 30.166128094
20.7024 31.701 44.5855 29.2785903984
23.0121 30.923 46.4202 31.4647478487
13.0923 32.9669 43.331 32.225514248
14.0666 34.6052 45.7357 34.253840537
17.8926 34.9167 47.1865 29.072136297
19.3859 34.0436 43.8732 28.8560879206
16.75 33.3071 45.197 29.7110104397
19.1135 36.6351 45.0417 27.449892356
22.0201 36.4426 44.3252 27.2258191065
22.3069 33.6314 47.2679 30.23775357
22.9136 33.7366 44.3498 27.1162129176
23.8509 36.3581 46.6657 28.2511978495
12.8101 25.1686 48.4621 29.9036876989
15.3337 26.2853 49.322 28.656716831
20.9147 25.8988 47.9336 31.6011456327
23.8661 25.5364 51.0093 27.6012128696
20.8158 26.5294 50.5963 29.8758005749
14.356 30.4628 48.1313 28.9866580395
16.0101 32.0493 50.5167 27.2619188737
13.3112 31.3149 51.0942 26.795777594
16.0693 28.7729 50.3295 28.5537513902
18.0718 31.0198 49.0339 26.8154418186
18.8438 28.6031 51.0941 29.5193700278
22.4325 29.1624 50.5085 27.4463299397
21.0525 30.6631 48.5097 27.9187175725
22.0204 31.8237 51.2405 30.9256141198
15.6627 35.9299 50.8644 29.6130061976
15.5656 34.4481 48.5535 32.1057608485
12.8806 32.9437 48.0137 33.1087578434
19.7972 33.4839 48.9979 32.1149903397
19.5409 34.2888 51.7757 30.0310198463
22.5623 36.4596 50.4018 32.7719092684
24.3613 34.5229 49.0188 27.2883215664
13.1395 26.5514 52.3754 28.8012491117
17.1559 27.633 54.0142 29.5067324986
18.0418 25.5597 52.3477 32.5936459801
24.0508 27.1715 52.9381 27.1673009518
22.5334 26.323 55.3867 31.3803121812
12.963 30.6576 55.8198 31.343537659
14.9707 28.634 52.8462 29.5684323016
14.6422 31.4499 53.8052 31.0788566414
17.6485 32.3379 52.767 28.3683888473
19.097 32.4694 55.8093 27.0760502322
18.7553 29.8338 53.764 31.3861484185
21.769 29.1473 53.6136 33.2649344887
23.1427 32.0296 56.2583 27.4882564036
21.4136 32.5231 54.0519 26.9309417404
13.886 34.9452 53.1195 32.4441468359
16.1515 33.8492 54.9698 28.3836394792
20.2741 35.1426 56.3473 29.7582968562
17.5273 35.8282 53.3071 26.6665785361
23.9923 35.892 55.9216 28.8035932538
21.9636 35.2565 53.5442 29.8721109416
15.6097 40.2452 6.05703 28.091471015
15.3028 36.9829 4.85819 28.3793530945
13.1092 38.5929 5.0118 29.316987049
17.5163 37.1362 6.5508 27.8366916204
18.9335 39.4871 6.64159 29.7445932102
21.6957 38.6544 6.25935 28.7820170165
14.4456 42.8478 7.46884 29.7798167656
13.8503 44.3863 5.2526 30.300236549
13.8741 41.2197 3.79438 29.1991893052
18.2639 42.1104 6.03598 25.5682238834
20.1725 43.061 4.01765 28.2743646499
20.4173 43.6994 7.41076 28.4335654954
16.47 43.543 4.27472 30.6516365533
22.0841 41.5592 6.19628 28.2680254472
22.7649 44.3556 4.1491 25.2451622886
24.3857 44.5075 6.44292 25.3434959424
14.8456 48.0117 6.31582 27.561550306
12.5719 47.0262 5.08726 28.7203929216
17.4352 46.2556 6.86985 32.0934322968
23.2037 46.8625 6.76216 27.6123226186
20.6407 46.0185 5.34532 28.0464574929
20.6336 48.8819 6.23471 28.4865675185
14.9404 37.2869 11.8487 33.4583665791
15.0381 39.2137 8.56237 32.168875086
15.6048 40.5752 11.1098 32.0919316151
19.6063 39.7693 9.24416 30.8120558229
19.5377 37.9434 11.4806 31.7947075916
23.6374 38.6496 8.5104 29.498455721
22.6736 37.2914 10.937 27.0584130507
23.5799 39.5746 12.3927 29.3697074947
14.2934 44.8204 11.3948 29.2220770495
17.2081 43.5013 8.15138 27.6902357696
17.8623 41.8065 10.1271 30.3008404503
22.2287 41.2013 9.30185 26.9073654211
23.2702 43.9752 8.96959 29.6238385021
20.7557 44.5437 10.3139 28.9368804552
21.253 41.4604 11.9467 24.8824887972
12.9276 47.3926 10.7785 29.559344064
15.016 45.7699 8.58333 28.5708012209
16.8509 47.2323 10.0163 25.2321160596
19.0339 48.1157 12.0389 28.3952856852
16.8113 45.5387 12.2027 29.1427348702
19.6658 46.9618 9.39369 28.4880560287
22.286 47.9168 9.16866 27.5841604831
23.4418 47.6798 11.8664 31.956054128
12.8617 40.2699 14.5242 27.4827493256
15.4488 39.1516 14.2359 29.7186528707
16.8484 37.2434 15.5008 29.225250442
19.5574 37.581 14.9949 27.6583832627
19.5151 40.0528 13.5023 29.3678677785
23.4012 38.0542 14.8468 29.8857997498
14.25 42.127 12.7028 25.1969444658
15.2446 43.9986 15.1717 27.7584404704
12.4238 44.1703 15.2149 25.604128385
18.9727 43.4533 12.5443 25.8976930103
17.1198 41.7309 14.1682 27.1806808379
19.9431 44.296 14.9922 28.1531629398
19.4649 41.8543 16.0683 28.6367040098
22.4148 43.1678 13.4634 28.6566878951
22.3728 41.946 16.1568 33.7845144743
13.055 46.8801 13.8523 26.4862407246
15.9299 46.7304 14.5725 24.7147446114
18.5102 48.5497 15.7335 26.4492267215
18.2313 46.2244 16.6166 28.250648542
21.3643 46.235 13.0761 26.7296128027
23.0255 46.4466 15.2946 28.1080394689
22.8785 48.6843 16.5894 27.7512040313
16.4489 39.0544 18.9766 28.8429326119
19.2583 38.7687 19.1941 28.2076479575
22.4546 39.2061 20.0412 31.5659358976
24.1493 37.8692 17.7243 31.2842736847
21.4451 39.2261 17.1797 28.370936745
14.6264 43.7149 20.0276 27.8235536388
15.7351 41.0059 17.0443 28.4387268383
13.1871 41.4898 20.5557 29.387115145
13.0916 41.4889 17.3628 29.3874712574
18.4702 41.6281 18.9161 27.3739713626
16.4157 43.6478 17.7465 26.4222924485
17.2499 43.5104 21.1154 29.6560321447
20.8863 43.5512 19.4936 30.1763883948
22.6576 41.8245 21.1903 29.9180286992
22.5717 44.2645 17.3416 33.1397631895
15.6063 46.9943 17.7808 31.6175382083
12.9294 46.6721 16.935 26.7784247635
12.4026 47.8162 19.8782 26.1863843905
20.3415 48.7611 17.9845 33.4547149758
18.2447 45.5722 19.5132 28.2510862106
17.7692 47.8849 21.0474 29.531379256
21.0153 45.747 21.234 32.4251466118
20.5119 48.8783 21.0469 27.9067899577
15.1728 39.7339 21.3324 29.6156587417
13.7305 37.3412 21.8688 30.3206540308
14.6621 40.5927 24.1409 64.5488575014
16.3021 38.3498 24.3471 70.6238476301
19.5455 38.5435 22.0093 24.4872866786
18.8326 39.4838 24.7198 85.089147036
20.3612 36.9455 24.8118 105.1444825057
17.1731 37.0841 22.0076 24.9097849803
22.5253 38.4057 23.8738 49.936249761
12.8762 43.6829 24.6524 122.3507357537
16.6277 42.6472 23.8465 50.7377114593
19.614 41.3449 21.7711 28.8107707437
19.6077 42.4894 24.5046 99.5579659689
22.3187 41.0615 24.0611 62.7156048293
14.8493 48.7218 21.57 32.0610096532
13.5417 45.672 21.606 29.415104285
15.4941 45.2719 23.9097 58.2627063012
14.8423 48.5085 24.2849 78.9879937481
20.1069 45.3357 23.767 48.726362053
17.82 47.1867 23.8142 54.5110838503
23.4637 47.5464 21.5121 33.1688557749
22.6184 46.5414 24.3375 101.7575293309
15.3095 39.1565 36.5132 34.3328435728
13.2364 38.3454 35.2571 125.97253715
17.729 38.2411 35.6523 87.7712868738
19.3681 40.5841 35.8251 84.8259473409
22.9874 37.2897 35.8637 58.1339944194
21.9239 40.0916 36.1199 50.7539565241
22.9835 37.2879 38.6811 27.5195613873
15.0762 42.104 36.7158 41.5810506648
12.8967 43.4616 35.3985 116.2680805148
12.7429 44.8027 38.1626 29.9474418388
17.5289 43.3424 36.2586 66.4353051151
19.2906 42.25 38.3567 28.4896282354
20.3651 44.518 38.0487 27.0836081497
23.3538 42.4475 35.8864 65.445372804
21.6947 44.7066 35.7573 82.7574328187
13.082 48.141 35.6267 70.9953492331
15.7094 48.8381 35.4543 96.2258666791
16.1702 47.5935 38.6115 35.713229027
16.9526 46.1989 35.7968 79.0209980956
19.5243 46.9305 35.8476 66.4732261419
23.6295 46.965 35.8695 61.3349059218
23.6937 48.2851 38.446 28.9178098597
15.6209 38.1916 39.2006 32.806492829
13.5994 39.0829 43.1842 29.2514435873
14.2204 37.062 41.4691 30.5948267506
17.1348 39.9871 40.8339 29.866727071
19.7313 38.9607 39.5897 29.7248245263
17.0447 37.2871 43.0917 27.4769545165
19.3384 39.308 43.026 28.6535288338
21.7324 37.9404 41.4056 29.4076635024
21.8012 40.4388 38.9729 25.5444011084
13.9112 42.6748 39.493 30.566364389
12.7561 44.7627 42.9741 30.0215625231
15.4466 43.6061 41.257 27.6336693989
12.4174 40.9171 40.8424 29.0658862217
19.8876 42.9944 42.4581 28.1326712127
17.9708 42.655 40.842 29.444973433
23.7615 43.6365 41.9341 26.4979706525
21.8478 41.5689 41.7961 26.2481017058
23.2674 43.5504 38.8193 29.2643229428
13.5596 47.3467 41.7097 31.099052008
13.2203 47.3628 38.8304 29.017604319
16.0653 46.2004 41.1403 31.8590925705
19.6829 48.9673 41.1613 29.7140798363
19.0643 46.9162 38.9028 28.7162248
20.3542 45.4378 41.1773 31.9909035163
22.6412 46.19 42.8705 31.1336831787
24.4121 47.617 41.0116 28.9430949327
15.1002 37.2129 45.075 31.0215098834
16.4645 38.5533 46.948 28.9211925525
17.559 40.3015 45.1475 28.669395459
22.3387 39.7063 43.8866 27.0925063126
20.8867 38.5538 46.4937 27.9370790662
12.5482 42.5127 46.367 30.0230951404
14.8101 43.4856 44.4534 30.9922585467
15.6594 40.9569 43.2261 29.6732372468
19.6755 44.1077 45.052 29.5740920834
17.4953 43.2272 46.3438 30.1031545511
20.1602 41.2065 46.6097 29.5266878298
21.8265 44.1558 46.8656 27.9491052764
23.2729 41.9497 45.6592 29.2177860521
13.7002 47.2958 46.108 33.7623766721
16.216 46.0988 45.4798 32.8436134914
17.2605 47.7584 43.2994 32.4197055885
20.0761 46.903 44.0924 28.2378148203
19.997 48.1877 46.6595 31.6943461684
23.1779 48.8241 44.8923 27.625617301
22.673 46.8977 46.9641 28.2433641642
15.4742 40.0307 48.9003 28.8133996242
13.9042 38.1069 50.6104 32.7491174054
18.4863 37.7116 48.4199 29.7771722404
17.0861 40.2667 51.2237 27.1993937527
20.2131 39.8019 49.5844 28.0961987058
17.7479 37.8506 51.0885 24.6240332471
23.1375 38.7175 48.4442 27.4709115044
22.4831 39.6257 51.7434 28.6350230474
14.2581 42.2688 48.6886 30.8092678469
14.7926 44.6316 50.1953 33.4152589625
17.9526 42.2271 48.8939 30.4747714905
19.3352 43.849 50.7128 30.4408173374
21.7407 43.8965 49.4335 29.9355098005
23.3998 42.0501 50.896 26.3018846505
24.4081 41.0205 48.0209 28.4787251017
13.105 46.7122 48.9974 35.2471888592
16.5154 47.0442 50.1718 33.6947964087
17.9378 46.564 47.6904 38.6112298454
22.7769 46.1425 50.9217 32.2711119984
22.9523 48.5261 49.3639 28.9341431957
16.0851 38.3319 54.8777 29.235986231
13.6394 37.542 53.5372 30.3968908646
12.6655 40.7052 53.7099 32.1326589683
18.3261 37.0075 55.8329 28.5432863358
20.183 38.5231 54.4583 27.64151634
20.2594 37.634 52.0814 24.725489966
23.8703 40.5397 55.6276 28.9294245636
22.4515 38.414 56.3025 32.45951448
15.266 41.5108 52.9778 31.0700345973
14.9216 44.2833 52.8299 31.1698553502
12.434 44.7399 53.5952 30.5724423419
19.739 41.4903 52.0656 27.7527903347
19.4595 41.118 54.7449 31.2066234779
16.5442 40.9445 55.4613 27.5670373608
22.4682 42.3796 53.9056 27.7580273272
21.2607 44.7721 53.0722 26.9165924805
12.8899 46.9557 55.0262 26.6372876733
15.4289 47.9956 55.0254 31.8964197142
18.4147 46.2464 52.2016 30.7227443935
19.7473 48.622 53.0087 28.0614506923
16.8203 45.4355 54.7132 32.3797117576
19.6233 45.9185 55.1185 26.7392523457
19.4272 48.6044 56.2296 30.7035416966
22.8395 46.4044 54.778 31.1904597253
27.0329 3.23583 7.13432 33.5284897053
27.1126 2.50067 4.34427 29.9896800169
30.6155 1.115 5.62138 30.7458272204
29.8309 3.69326 5.06906 27.4589346107
33.919 3.62424 3.94731 29.4593400581
33.2547 0.278928 6.09126 29.7423722278
34.1532 2.91069 6.75779 31.0600544284
35.4367 1.17318 3.8196 27.6110947102
25.7806 5.98564 6.95854 32.125928744
24.6609 6.85164 4.44331 33.1479169245
31.7891 4.43206 7.40284 28.1181621946
28.7118 6.33996 5.83021 32.1109023199
30.1755 7.83388 7.72142 28.1931498465
32.6556 6.85708 6.96359 30.6734118974
33.7975 7.01939 4.11536 34.3365388705
36.0805 5.21167 3.8211 33.5255379924
26.4499 9.93907 6.69254 35.5153369182
28.2136 9.45527 4.50036 32.628538639
24.8147 12.2209 5.92678 30.9576159056
30.5569 10.0457 6.23393 29.9226638909
32.8137 11.9495 7.6362 27.9359268238
33.24 9.69379 5.2903 30.2797622245
35.6635 10.734 5.88673 30.4688377385
27.9279 2.89975 11.3178 29.8067749755
25.7801 1.83064 9.50454 34.3284435604
29.3797 3.04466 8.60269 28.1798710427
31.9639 1.18951 9.6826 30.0693823464
33.1228 3.63344 9.97009 27.9409072662
35.7535 3.34099 11.1582 35.1762498256
36.6045 3.77123 8.08432 30.1648064153
28.3469 5.89696 9.10128 31.7739164621
28.8621 5.42573 12.1614 30.5186629456
31.8059 4.34586 12.2631 33.6687602095
34.1723 6.69372 9.19113 35.3467877582
33.5406 8.16573 11.6454 33.096350433
36.8811 7.55153 9.33348 30.5146825348
26.5857 8.19909 9.24341 32.250741586
27.8154 10.4477 10.4798 32.2477116253
31.7718 11.7342 10.5649 28.7199597577
30.1173 9.4285 10.2628 31.6558673712
35.5176 11.5346 8.64192 26.8365887425
34.2256 10.7843 10.7203 29.3484242809
27.2355 1.25398 15.6092 31.7251777736
26.067 3.76297 15.3613 27.5224584622
32.0967 0.0419371 12.5851 33.0656702694
28.8072 1.32407 13.5021 29.5757487106
31.3044 2.24568 13.9881 29.8341156165
31.8515 1.02589 16.2908 30.7037559781
36.3655 3.80196 14.0299 33.1076597656
25.6919 7.50726 15.2817 28.1362635589
25.6314 4.12294 12.4765 32.2036478668
28.153 5.7271 14.8443 29.1698750798
30.6232 7.8092 12.7268 30.5340254604
32.6315 5.36587 14.8794 30.0040038085
30.3854 5.71111 16.282 30.2680219643
34.8289 4.11904 16.0151 29.7503564315
33.8321 8.15845 14.4581 28.1020301073
27.9516 8.81172 13.9387 36.9729862574
31.5976 10.0264 14.7047 30.4408756503
28.8648 10.1357 16.4486 27.6973828102
35.0206 10.9249 15.8908 25.5581012451
36.4575 8.40519 13.6948 27.8167261307
36.2321 11.8738 12.9556 29.0980264477
26.051 3.09927 20.4288 32.73316521
27.6078 0.743413 21.0659 31.3906154934
29.8189 3.95358 18.3928 33.9198662526
31.1602 3.76068 20.957 34.5275340722
29.4207 1.25745 17.6438 32.8444994634
34.4331 1.29523 17.1551 29.0766806839
35.6002 2.98201 20.514 29.3145736333
34.2761 0.45814 19.8538 27.7088345048
36.8691 2.74222 17.8163 25.6898248621
27.0372 7.93956 18.236 28.9494638623
28.0372 7.15821 21.1114 35.1648050624
27.4067 4.88309 19.2096 29.4734859423
25.3622 5.39435 17.395 26.5401409094
33.7744 5.16819 20.661 27.9567068318
34.4792 6.26372 18.0804 31.8161635328
26.7394 10.6444 20.926 30.6585006649
26.3099 10.73 18.0233 27.4284889738
30.37 8.38755 19.9754 29.7006361133
30.1319 10.9842 20.7137 27.1387497001
30.5966 8.40588 17.2118 26.9378985914
32.502 12.0803 21.2198 24.7632713451
33.3202 8.6823 17.5926 28.9023019444
34.1778 9.49607 20.363 28.2239767511
34.4788 11.9018 18.5962 27.1409851649
25.6989 2.29472 24.3979 96.4919437078
27.7208 0.525223 23.6868 43.0541687231
30.4466 1.61507 24.4293 121.2933316174
32.2141 1.16971 21.3708 28.5689365062
34.8872 0.673844 24.6424 122.5517012199
35.3636 3.18325 23.6407 36.7015738728
26.5077 5.08311 24.308 94.7507826285
32.4945 7.57683 21.5098 27.2779753769
30.8207 4.31309 23.6655 43.2858702278
28.9782 6.38266 23.6748 51.7037686656
36.2313 7.67052 24.4125 81.8055801141
33.1656 5.22778 24.1389 86.6538863088
35.7826 6.66817 21.8759 26.0703502552
24.6175 9.4011 24.2604 86.989018999
30.5253 8.64611 24.0864 89.082633813
28.8496 10.8038 23.3423 31.3878509948
36.1189 10.3907 24.1215 55.7458109237
33.2579 8.40544 24.094 64.786389189
33.6587 11.5615 23.7125 45.14978713
36.6804 10.1243 21.3801 26.7069316386
25.9004 1.41497 36.0998 53.8159780345
27.4253 3.91371 35.6952 108.2570112909
28.2691 0.0733505 36.008 63.4654350806
30.9774 0.686731 35.9092 81.0892769043
30.1314 3.61702 36.2886 53.4066392705
30.8431 1.49431 38.6381 27.0623155128
33.1034 3.0947 35.8035 83.1505068761
34.3673 1.51483 37.5077 27.5415421986
36.7339 2.33954 35.8299 70.6439014302
25.6666 6.27421 36.1699 55.4002480728
26.0552 4.3189 38.326 28.648744614
31.8558 5.81536 37.2279 26.7666153223
30.1571 7.9866 36.3703 66.8337532578
36.0222 7.53682 38.7208 28.5560512954
34.0831 5.79787 35.8119 75.8594617674
27.27 8.54887 36.3614 57.3234867702
25.3755 10.4855 36.0882 50.0909957473
30.3519 10.7595 35.7844 96.9656181158
34.9873 8.49456 35.6071 100.63382026
33.2113 10.3519 35.9361 58.1732386735
25.4452 1.72436 38.8415 26.2915525223
28.2709 0.534014 38.9188 30.8856286689
26.5288 0.0430406 42.2211 27.1541548144
27.8261 2.82236 40.9284 25.7109359836
26.32 3.97224 42.8522 28.0508441861
31.6583 2.12191 41.8787 28.3314808162
31.8271 4.05961 39.5899 29.1789275099
29.059 1.65985 43.1697 29.3390868122
34.9676 2.09064 42.4587 28.1437757836
36.1463 2.37643 39.5582 30.1538954086
26.1351 5.95859 40.5741 28.5032050118
32.4131 8.09245 42.4043 27.9958249047
29.1621 5.14213 39.9136 29.0867540502
30.0239 6.4933 42.2909 29.3982326071
29.7423 7.94583 38.9837 26.006131051
33.2071 7.4645 39.3162 28.5471388562
33.8083 5.3562 41.4156 27.2831701233
36.7585 5.09299 41.5993 27.2362702759
35.3731 8.11179 41.7679 29.1791466095
25.0392 10.4394 38.855 30.5990663996
26.9255 8.31208 39.2291 28.5586688423
27.4981 8.98342 42.0053 33.5615061503
26.5097 11.4464 42.772 30.1774064386
32.0379 10.888 41.9054 28.8041985235
29.9563 10.2316 40.106 31.0139879098
33.0515 10.5239 38.8777 29.3005084994
35.2167 10.5328 40.4941 27.7508023721
34.5785 11.9685 42.9117 34.1002937976
25.5865 1.07867 44.7665 24.9351907219
27.2546 1.77397 46.7831 29.8826345211
31.7666 2.43073 47.2544 33.3258447932
34.4611 1.80798 46.6213 28.0210762695
34.6925 3.73599 44.835 27.7703311808
27.8482 4.49273 46.9392 28.5066897183
25.6615 5.95065 45.8216 30.9429127381
27.4468 7.07863 44.1965 30.2802005607
32.4317 4.27808 43.3336 26.4655250118
30.8757 4.86497 46.2426 27.3916786287
31.941 7.47614 45.174 26.646868157
29.127 4.49679 44.2513 26.3998674696
36.4301 8.07831 44.5431 32.4737675235
34.3364 6.3909 45.8353 29.7272380247
26.8004 9.64446 47.498 30.5456101336
25.9172 11.9044 46.2839 35.5619225086
28.8144 8.86423 45.7947 32.7060115785
32.5751 10.0436 46.1749 33.3169870013
30.6792 10.8459 44.2799 29.6345167817
35.3716 10.9547 45.4165 31.3259235935
28.2532 0.580686 49.8429 31.8437776855
25.3139 0.160751 50.6193 31.9695495592
25.339 2.16092 48.815 29.5672689667
29.0699 3.04098 50.8848 31.3380954218
31.779 2.71371 50.1727 28.3343319551
35.963 2.0608 51.1104 28.1467921293
36.1206 3.02722 48.596 30.8255363929
25.0216 4.87876 49.8931 32.7775130803
27.7649 5.51116 49.4894 29.8828533744
29.8134 6.91025 51.3948 29.2577845889
30.2688 7.14619 48.2027 28.9859832304
32.0182 5.56509 49.8158 30.3518242164
36.472 8.1698 47.9575 31.1449208704
34.7665 5.51149 48.5007 30.3830787425
34.7749 7.7994 50.4442 25.7733133003
26.9004 11.499 50.0583 27.0889131396
27.0433 8.53275 50.3531 29.7863844006
29.5768 9.43665 51.386 27.1108877797
31.2016 9.82325 48.8399 30.1986327066
36.8809 11.6869 51.4047 29.3313774015
33.4442 10.0235 50.3138 30.6338894079
28.0754 3.45375 53.7443 28.6709139696
27.6301 0.385155 54.697 29.6782684204
25.4892 3.44432 52.566 30.5414958957
25.2221 0.766032 53.2914 25.4518468425
31.2312 2.78695 53.5462 28.5607577242
30.1922 0.199524 53.5356 30.4659602135
33.5974 3.47882 52.009 29.1336339946
33.854 1.15533 54.2187 30.8735222424
27.4938 7.16552 55.6205 30.1054629601
26.0437 4.45397 55.5969 28.9056969104
29.5938 6.02336 54.0099 29.7038379068
32.4523 7.38429 54.5787 32.1660324003
31.4131 4.60654 55.7394 28.5950784822
36.742 5.57709 53.267 33.4757945447
34.191 6.35137 52.613 31.1286232506
26.5445 9.358 53.3515 31.1258771058
26.4654 11.9515 52.7852 27.8818467472
32.6184 11.0647 52.6744 29.7424806572
30.7134 9.50799 54.0962 30.0341773384
29.5437 11.8052 55.7612 30.584063335
32.3146 11.6453 55.9134 29.6710347938
36.4134 12.0853 56.0955 30.1036348036
27.3462 15.2265 6.87461 31.0470442191
24.7709 15.2864 5.40965 30.9031390058
27.834 14.3747 3.71882 28.6719768524
30.4449 15.7335 5.42265 28.8063117621
32.4028 13.8248 5.47173 27.759021079
29.6286 12.8417 7.044 28.1069260294
36.6987 13.7761 6.45091 28.318236529
34.6924 14.5061 4.04765 29.2241254756
27.4936 17.7964 5.64752 27.8603067889
24.7465 18.3969 5.60876 27.5811862256
24.6246 20.2814 7.55677 26.2857133493
28.5933 20.17 6.68231 28.4190319233
32.421 17.9583 6.05964 27.9685340679
30.7742 20.2414 5.00274 26.8612775303
34.6904 16.6947 6.44622 26.761790529
36.3337 18.4952 7.79178 29.1780832055
36.3542 18.9527 3.73286 31.2187831015
25.6285 22.6201 6.95791 27.2996070385
27.2567 21.7156 4.94568 28.7217742972
27.9485 24.347 4.53278 31.2556717784
25.1219 20.6292 3.72505 28.2095038047
31.9405 23.7922 6.59056 28.5600046255
31.128 23.0352 4.14564 30.4114965454
32.9944 21.2959 6.70792 31.4358258978
35.7983 21.927 7.71405 29.3950250726
27.3874 12.313 8.35277 30.2320448831
27.0465 14.4312 10.4117 31.373844903
26.5056 12.5879 12.2407 32.2876776589
30.8134 14.1084 9.05324 27.0662649356
29.4525 15.7699 10.7385 28.8972559466
32.7139 16.3134 11.217 26.9241864449
36.195 14.3712 9.5958 28.4891275229
33.5664 14.9403 8.36094 28.7241019163
34.9249 14.2343 12.3539 28.6879975906
28.1397 17.6968 8.76511 29.4733737876
25.7609 16.7908 11.3837 30.6813290461
25.8143 19.2093 9.77963 27.9434753607
28.3875 18.9587 11.9195 30.7021063348
