25.0439 35.7667 8.19081 33.7899576051
26.4048 34.2718 10.0783 30.8453478297
28.5151 32.8692 8.40847 34.9359293956
28.8168 36.2843 10.2025 30.0696094451
23.0171 37.5968 9.0235 30.0963975948
27.0299 38.9817 9.63174 26.4068349753
24.9817 38.4134 11.3168 28.5239560241
22.2125 44.0488 11.7512 33.0275947365
22.5463 41.4611 10.1871 31.3845489178
19.9653 44.8952 8.06946 32.6023974277
28.8513 43.0493 8.04754 26.3123290464
26.4096 41.6036 9.20145 28.7656332887
24.6163 43.6006 8.53238 31.5245142865
25.9675 42.1388 12.3543 30.867397268
29.4782 44.1796 10.7523 31.8987088549
20.5731 45.879 10.5771 27.8842416452
20.3926 48.7886 10.9254 25.495670797
22.7806 47.2409 12.3311 30.8651856574
22.6106 48.8489 8.77047 27.782233519
27.3751 48.0609 11.0959 30.6487729582
25.0742 47.7926 8.92082 35.8989396931
24.7326 45.6326 10.4913 27.4243908638
26.8992 45.1544 12.1469 30.1786027847
22.8483 33.7357 12.6643 30.2988177158
23.5905 36.5023 15.9261 32.3788287299
25.0057 33.9734 14.3435 30.7945397374
28.9683 34.035 13.6089 29.1008769066
26.8205 35.7147 12.4982 28.8277609162
23.4757 40.2182 12.7196 34.4515243188
22.3623 37.7088 13.83 32.6343067317
26.3802 37.7282 16.2073 31.1329918948
27.235 38.2175 13.3017 31.8138795563
21.319 41.2742 14.782 31.6169894622
22.7998 43.5984 16.008 33.361474188
26.3411 43.2115 14.9314 28.6460394615
28.3617 40.8909 13.1279 31.2972923807
28.044 40.8711 16.2684 32.8181985708
24.0977 45.0605 13.9984 27.9580149363
21.5009 47.5601 16.5859 31.5164909429
24.0759 47.3807 15.4859 30.9921871697
20.0433 45.4029 16.4192 29.9985089523
29.1592 47.2201 13.8653 30.1718874191
28.1244 45.2014 15.3724 29.4300544857
22.6253 34.646 17.9068 29.1456104103
19.8434 34.2507 17.6227 34.7420547836
22.8172 34.9586 20.7093 27.4072555138
25.4882 35.8014 19.9107 30.3168928625
28.8902 35.3675 17.7901 32.274859356
26.2685 34.8126 17.3806 27.9997759181
28.9122 35.507 20.7459 28.8745222622
22.3527 38.8365 17.9369 31.7183090943
24.5012 38.3881 20.8385 28.1539978003
21.2303 37.206 19.977 30.1841194935
22.7394 40.3806 20.5383 27.8048798791
28.9147 38.1421 17.484 27.6978178218
25.3296 39.3586 18.1679 30.7042683194
29.2547 39.9239 19.6517 35.3476529638
20.5493 40.9031 17.3433 29.1846552265
21.0351 43.7052 18.5129 28.8402222721
23.604 42.7977 19.6004 28.382996706
29.1438 42.7357 18.5873 32.4565865732
25.2124 42.1605 17.5662 30.1374566951
26.8165 44.3003 18.8743 30.4544674358
21.7941 47.9312 19.3448 32.8656184575
20.8222 45.7354 20.6684 27.2460959046
24.0202 48.3592 21.0339 29.4008556716
26.3889 47.4915 19.6788 29.1026688003
26.3276 46.9244 17.0752 33.1463629868
21.7145 34.9339 23.6865 41.5108827901
24.2205 33.6714 24.347 79.839683957
29.0219 34.2827 24.3789 76.7191847332
26.2656 35.7419 24.4558 85.1008877588
28.9295 33.1119 21.9601 26.2956155775
26.0286 34.0083 21.9 27.7331386564
22.8644 40.5309 23.6756 49.3703239285
20.5828 39.0904 21.9489 28.7811581197
21.2541 37.6745 24.2574 85.0677399133
24.3233 37.9134 24.1677 67.2070086185
28.6041 37.1212 23.36 42.5959726358
26.7176 39.2966 24.0735 69.43590427
26.7757 40.0845 21.4935 32.2389832457
20.7348 44.5792 24.1593 76.8921774088
24.447 42.8428 24.2664 74.6400741373
19.8769 41.8577 23.6695 55.2750064969
27.2269 42.0593 24.4991 93.8746236171
25.7056 42.5887 21.657 27.8632690195
21.5976 47.1466 23.2238 27.8554945811
24.0441 45.3953 21.2268 30.827841686
23.9447 45.3027 24.2519 73.3678867174
23.9644 48.6577 23.8848 52.5517951149
19.8226 48.7328 24.557 105.4582694792
27.3834 45.1389 21.6001 31.8507231284
26.504 46.5265 24.0482 59.6813546923
29.3118 45.7716 23.8518 43.5976721557
22.8626 35.1044 38.0996 26.5653584462
22.1387 33.4145 35.8126 74.1835557898
20.7942 32.8416 38.719 27.418516374
24.8676 35.2177 36.1162 56.7904481202
27.3116 35.3204 38.2113 31.3498993258
28.7768 35.7754 35.8141 71.0403651338
26.3111 32.8064 35.9351 58.4421955553
29.4817 32.867 35.56 100.8854576228
23.6217 38.6139 35.4886 93.4644215126
23.4802 37.8857 38.2304 29.0861999193
20.7563 37.7649 35.5772 101.2526406407
20.1695 40.6948 36.4697 45.6512298967
26.5716 37.764 36.0288 58.5621008996
25.9671 39.8167 37.9826 26.0216420033
28.8996 40.1337 35.8968 66.467734037
29.2899 40.3776 38.6599 31.7716116844
20.3571 43.665 37.2562 33.9177586885
23.2719 41.4844 35.6483 104.2081763575
23.0049 44.0883 37.5843 29.1900491486
23.4867 41.3058 38.6322 29.02335701
28.9977 43.2846 35.5895 97.054383447
26.3644 42.4734 36.1079 50.5712415208
27.2067 44.1082 38.3736 28.9198282169
20.6422 47.6468 36.5588 30.9883031537
23.2663 47.0864 35.7746 85.3258563565
27.0834 47.0121 36.2734 43.8781700699
24.7694 47.3927 38.4966 31.1416434045
25.1222 45.0502 35.8471 74.5551949132
29.4193 46.1547 36.3464 46.8138566253
22.0659 33.2099 42.7035 26.2523250175
23.7045 33.7493 40.3745 28.1019174693
20.7429 35.8159 41.6273 31.980482304
20.2081 36.6679 38.9234 27.3848699873
28.4246 34.9141 41.1872 30.7025443311
25.3977 35.1186 41.7021 29.42242691
23.4046 38.5877 43.1341 30.425742968
20.9277 40.4356 41.6657 30.8249589651
20.8829 39.6002 38.954 27.4506459208
27.9083 37.6566 42.1581 29.1430764318
25.3837 39.621 41.2635 27.2006684342
26.0853 37.192 39.7039 27.8001158905
23.4481 41.7845 41.8344 29.3286207539
23.0537 44.1663 40.4675 30.0119131661
27.2629 41.8564 39.929 31.6484875488
20.1045 47.8586 39.2216 30.4582699267
21.2348 46.1394 41.3183 28.4776221609
21.8189 48.8385 42.3247 34.6715585224
27.0965 48.8575 38.9779 27.6346248673
26.3655 46.3841 42.8535 33.3846687383
25.4006 45.4381 40.318 32.6289478393
27.6279 48.4639 41.7538 30.3538686777
23.2042 36.3928 47.4125 31.9066606018
22.231 34.626 45.1173 28.8041215473
24.5294 36.3544 44.2269 31.8498270008
27.8706 34.9559 47.066 30.9518506377
20.5465 38.0284 43.3226 37.5201766506
24.5541 40.1664 45.1202 29.5638136813
28.9289 39.57 45.2408 26.3171074295
25.0764 38.3535 47.1438 29.249371138
27.2687 40.7128 43.2773 30.8512221138
27.3202 37.1632 44.7369 32.4421850813
20.0689 42.2771 45.1516 31.3891165927
22.8407 42.2648 44.4647 31.7727448387
28.6856 41.5085 46.9979 27.2622574971
26.621 42.7153 45.6982 30.6801831818
27.9402 44.8742 44.6291 28.8823139473
19.9836 45.6772 43.6525 26.015016802
24.5506 47.6623 44.4906 30.1299638722
19.7806 48.76 45.556 32.3157262731
22.444 45.2526 44.9027 31.9732036169
21.2199 47.1471 47.5246 29.1061630821
27.6047 46.6494 46.6423 29.4444442408
24.6621 46.2726 46.8516 26.9203213051
20.9947 36.437 49.2614 30.4192671369
20.5413 33.4891 48.5545 29.5626460971
24.6035 34.3502 49.1129 29.637487612
22.7498 32.76 50.3191 33.9674970552
28.7651 34.0941 49.7248 30.698190701
26.3727 36.3968 49.7634 27.6720293807
23.6881 40.5736 48.6177 34.5210456501
24.5052 40.5409 51.2256 26.1673642973
21.2156 39.3197 48.2147 35.1075587609
20.1771 38.0304 51.4999 31.1639929715
27.02 40.3984 50.5551 29.9146740187
27.819 38.6697 48.5995 28.3341303416
25.1352 37.4695 51.9946 29.8003618248
29.2169 38.5662 51.8022 32.4386971721
19.9244 43.9146 49.9497 29.1226275339
21.9427 44.4582 47.7817 28.6314271969
29.3627 43.9753 52.0189 33.2192916137
25.6428 44.7429 50.3608 27.9115682879
24.9041 43.3353 47.755 30.1818928578
27.835 43.112 49.6226 26.4826072819
22.4081 45.3144 50.5835 31.8414922194
21.6204 48.0239 50.3507 29.6162538238
24.2515 48.2072 48.7126 27.6167473249
28.9065 45.869 48.908 29.2316995152
26.0984 47.2399 50.8765 28.3743775864
28.8079 46.6401 51.6545 37.7533703591
23.6115 35.6281 56.2994 30.6176384854
22.0663 35.5442 53.9735 31.1061036909
20.4832 33.4389 54.8103 31.5086503316
24.0962 34.8313 52.2068 31.8571893124
26.3835 34.0192 53.885 31.5580322148
28.1892 35.6467 52.3214 29.6864176751
20.5816 40.5529 52.7472 26.0280838929
23.1549 39.3641 53.3891 29.7094917326
20.5101 37.8248 54.8065 26.0899793603
26.8069 38.2129 53.9482 27.7093886833
26.2514 40.8278 54.0089 28.7486443751
23.9768 41.1479 55.5211 27.4684914703
21.2578 42.4398 55.5396 27.7837426037
22.047 42.9979 52.7737 27.8896650852
28.9729 41.6065 56.4397 32.0009491875
24.7576 42.9761 52.3293 26.4161712149
27.9942 43.368 54.6091 33.1895626002
24.8293 44.3989 54.7772 32.6675783564
23.9429 46.9455 55.0766 32.0331134777
21.1459 47.3306 55.0788 28.0947732869
20.3521 45.1787 53.7929 28.8895925926
25.1715 48.675 52.857 31.7432503224
28.1985 48.5108 56.4508 36.6252186138
31.9828 2.25869 5.68105 34.054014237
31.3482 0.412256 7.68352 27.4605585341
34.5142 3.55589 7.05753 28.2251367515
38.4389 2.30751 6.14806 28.2468335785
34.6253 1.65525 3.71395 30.2331010579
31.8994 6.81527 6.82774 32.8037049203
30.015 4.4982 6.24507 28.9209615631
38.6728 4.69008 5.06693 29.7580735259
34.5944 7.13533 5.43288 30.711297934
36.0278 5.04869 5.44233 30.1238974584
39.1852 6.99186 6.63695 31.7370565585
32.9071 10.2552 6.61676 26.7102464483
30.0215 8.89224 5.87278 27.5537163071
30.2484 11.7043 6.47856 28.4812080952
32.5824 9.6546 3.68081 30.4645013743
35.4667 9.18468 6.91882 30.1857044288
38.4427 9.66075 6.94243 31.8866915032
36.3361 11.277 4.67227 34.3722476848
39.1293 10.9963 4.44927 31.7646550242
34.0077 12.7603 7.20645 26.006105248
31.973 14.1949 6.27714 30.2599143143
33.5871 15.3383 3.60912 31.7114287705
30.5589 15.1448 3.62656 31.1652740764
37.477 15.8329 5.94622 27.6767123757
35.6984 14.0796 4.99307 34.1530899717
38.4046 14.5753 7.92612 28.577254379
29.9755 2.25906 9.67685 32.4209493722
34.0937 0.799938 8.3619 27.5862493176
34.1412 2.97009 11.6625 28.9339148844
31.7068 1.51397 12.3436 29.9837727778
37.1726 3.38564 8.37692 28.3710614287
36.3293 1.61771 10.353 29.7616590978
33.9784 4.72302 9.37737 29.8742354453
34.2182 7.50505 9.26545 31.4666802138
31.2358 4.76014 9.00532 29.0442192784
29.9235 6.85099 9.77904 28.5725794645
38.7246 4.38244 11.8095 30.472158171
38.7978 6.60142 9.21043 28.1297594952
36.8854 8.14167 10.3892 30.8520775832
33.0858 8.8909 11.4106 35.4818182661
31.3098 10.1812 9.41552 31.2992386069
34.5158 11.2281 11.5536 28.9038925838
37.0057 10.8991 10.2607 27.3031708559
38.3916 12.1205 12.2764 28.7157626226
30.6857 13.4375 10.9409 28.5536463537
30.4254 15.9798 11.9752 26.6988154289
32.8284 15.8821 8.29586 28.0799600505
32.9415 12.3741 9.66669 25.8672096844
34.3044 15.6155 10.6533 27.7461716828
36.0243 13.4934 9.17872 31.2226711364
32.8448 1.25026 14.9301 30.0084418159
29.7642 2.56814 14.4939 29.1387348923
36.1415 3.89474 13.056 28.2202672641
37.3022 2.08978 14.7047 31.7907976906
35.2741 0.2205 15.8563 32.6014794781
30.8318 7.34141 12.592 28.8160403686
32.7625 4.13072 15.9195 29.3046416472
30.9922 6.50008 15.6918 31.1469718412
32.9651 5.28509 13.3089 32.4314686224
37.3798 8.13441 13.285 29.5747101601
35.5662 6.10886 14.2681 33.3294466996
30.7517 9.24665 16.4026 28.7878436962
32.4332 11.504 15.8076 28.3313091838
29.6305 9.50204 13.8109 31.9928562376
36.973 9.79784 15.4717 30.6591605636
33.9365 12.3237 13.8509 28.873275751
30.8476 15.5283 14.5557 30.1338384636
33.4422 14.7701 13.3333 27.2240061027
30.3111 13.3291 15.6954 27.6620561222
36.8022 12.4589 14.5241 28.595034099
36.3878 14.0474 16.8015 28.6296075916
35.4615 16.036 14.9689 27.5900410288
37.0296 14.9666 12.7947 28.3517804414
30.5815 2.87944 17.2923 27.1423856303
32.3313 2.75345 19.3489 28.6685744248
39.0954 0.455294 18.3067 33.1485502872
38.2113 3.65691 16.845 31.1513164883
34.8923 3.7466 18.983 27.788735756
36.4937 1.56245 18.146 28.2649836117
33.0743 7.27683 20.0231 32.4685990858
33.1891 7.97269 17.2518 32.1146461577
32.0081 4.97186 21.1324 33.0237726268
35.7679 6.83281 20.7347 30.6609791089
37.1002 7.38906 18.3242 33.0899742899
35.225 5.55539 16.9966 27.7805521346
29.5797 10.063 20.7808 32.7752366747
34.7041 10.2512 16.9693 28.2918985077
38.7137 10.2865 18.1532 27.2883115694
35.6804 10.3398 19.5816 29.4507398141
31.7944 13.0269 18.3605 30.2542234385
32.3277 15.739 18.4471 31.4086020334
38.6862 13.181 17.7583 30.048763902
34.8515 12.8729 18.6867 28.4587956245
38.9582 15.5248 19.6702 26.4341099583
35.066 14.6243 21.1362 28.1943211508
32.3972 1.75622 23.8495 49.2911936458
34.4448 0.155102 24.4783 85.4155987897
31.5391 0.84183 21.3697 29.4562015201
36.7689 1.81331 24.2841 64.5864734682
36.0473 1.14351 21.3811 29.6959927793
36.5087 4.04039 21.2928 29.1783363473
31.9882 4.45736 23.9052 46.3157741008
33.0739 6.78644 24.6461 113.1550371213
36.1439 4.43402 24.1727 76.3161113494
35.8176 7.4837 23.7541 53.4853275571
39.0554 4.39598 24.1283 57.2044227683
39.1514 4.70511 21.4247 30.5911479295
31.3103 8.89685 24.3478 64.5889148909
31.6726 11.7364 24.4976 83.7291390819
33.7878 11.7835 21.7128 28.7961243699
32.0809 9.2621 21.6974 32.861847654
37.8715 10.9479 21.269 31.4123437037
36.9875 10.1022 23.8856 53.3283204559
34.6946 11.9749 24.2752 84.3533103996
30.6036 14.0492 24.1542 52.8715484305
31.4862 13.5359 21.5369 27.6507861334
32.9881 16.2419 23.9467 52.2790598535
37.7474 13.7253 21.8544 28.2090402147
37.9377 14.7034 24.4911 92.5292523101
35.2908 14.884 24.0695 59.3723067579
33.3767 3.49605 35.9689 67.0723009289
33.2435 0.689764 35.5583 102.8923853963
38.0556 0.629252 36.0162 75.78261284
37.6216 3.36666 36.5615 49.5426374593
34.618 1.54031 38.2444 29.1406513798
30.715 5.45562 35.6178 97.4667832794
32.1533 4.6102 38.2582 27.0987127609
31.8145 7.46046 38.3036 29.1483857123
35.2227 5.25757 36.2615 63.083682683
35.2079 8.079 35.9059 78.6692272327
35.6826 8.03603 38.7636 29.119478619
30.684 8.40001 35.6797 80.2868766558
33.1107 9.79736 36.0209 48.8376345642
30.568 10.8541 38.1921 29.3539822549
37.0619 11.9307 36.3296 40.2742104883
37.7944 9.25343 35.7704 95.8767346231
30.1588 14.6204 36.1222 48.3274299958
34.4285 12.9711 35.8735 63.4761908013
31.6945 12.265 35.4198 106.9333634937
37.7258 14.4465 35.5506 83.1855672584
38.243 14.8766 38.1308 27.3521952482
34.6558 15.7282 35.8315 75.0999844487
35.7618 16.2413 38.6166 27.1635628653
32.2612 1.89227 39.3739 32.1239747676
33.3242 1.88693 42.1101 31.3781206987
29.6796 4.06224 39.8459 31.4792761137
35.6017 3.30032 42.0759 27.4405984716
38.9525 2.63018 41.6931 31.2584711246
37.1989 0.268098 39.9627 27.4658352368
36.9246 3.14649 39.2724 29.9609504209
33.5116 6.80156 41.6027 29.8580751982
36.3549 6.00241 42.9186 28.4423464608
38.173 7.69132 41.6 27.1025262588
34.8485 5.17135 39.2991 29.3661706049
31.2485 8.48998 40.8567 29.2831476476
32.8735 10.793 42.1322 29.2472510183
33.679 10.1994 39.0272 26.7401922214
35.1249 8.96305 41.7258 27.9066781143
37.9851 11.8059 39.6467 30.11282071
38.0056 9.04197 39.3189 27.2001462533
30.6699 15.0993 39.0133 31.6043981379
31.2619 12.7515 40.2393 29.869499814
33.733 14.4172 40.3541 27.9185516195
29.5985 13.6822 42.4837 28.7294281239
31.7169 15.5466 42.5059 25.962184527
35.7625 14.9161 42.9516 28.3366165216
38.6815 12.418 42.5257 30.4559220414
38.7291 15.2505 41.9772 37.3365758511
35.2148 12.3846 38.9419 31.3737579745
31.607 2.5916 44.2276 26.9062951859
34.1297 3.77985 44.6455 27.8871965945
32.3298 0.166556 45.8333 30.6902239645
37.7867 2.80397 44.3361 31.7291429555
35.2863 0.485218 45.7128 28.110561598
35.0559 2.97804 47.4407 30.2343049033
38.2073 3.48719 47.6173 26.0268345931
33.1952 6.44791 44.1888 28.283978737
30.0686 7.47719 44.8483 29.1891540884
31.0332 4.82061 45.8543 29.1287557367
35.3894 6.58038 47.6391 27.6615309966
37.4862 5.74656 45.6139 30.3442672467
34.3287 11.7471 47.5272 31.2431428343
32.8205 9.80024 46.798 28.7005540016
31.349 10.17 44.3636 30.4161594607
39.1826 11.4756 47.209 29.5180219098
36.5902 9.4346 44.0883 27.7917518103
39.1799 9.46376 45.4116 28.5931212784
34.6218 8.23519 45.544 28.3299663016
36.5809 12.0776 44.2438 30.2149625637
32.7539 13.6167 46.4463 29.140488361
30.0224 13.3405 46.7033 31.6156092039
33.4413 13.3563 43.5364 30.0894246305
34.1295 15.8356 46.8397 29.6834621963
37.0921 13.3309 46.6489 29.2864237301
38.6009 15.6471 46.1552 29.2727068935
32.3568 1.76148 48.442 28.5239535788
31.737 3.6876 50.607 28.5472365792
38.275 0.587754 48.7527 32.7368866461
38.8205 3.42295 51.758 29.547394404
37.5414 1.00543 51.3804 31.955971604
34.5785 1.24096 51.8134 32.0520554518
29.7888 7.85939 49.9858 26.3002360247
34.3132 4.20549 51.7423 31.7586324833
32.1434 7.76804 48.7892 29.2149475972
32.6426 4.93585 48.1475 28.8517385371
34.8979 7.25989 51.2839 29.4197092274
36.5235 8.0417 49.5694 31.3054034283
36.3729 4.42711 49.732 28.1780402382
38.7821 6.15927 49.1523 29.5237108029
31.2551 12.2213 50.4266 31.5145259817
34.2883 11.584 50.3939 30.7449379977
32.8442 9.18974 51.0326 29.6470121203
29.645 9.89254 51.6904 28.7385180032
36.5429 12.1595 51.6693 25.0361363401
38.0213 10.3691 49.9003 34.1353673025
33.8487 15.2266 51.4268 29.7409319591
31.2126 14.9731 50.871 32.7501834188
35.5134 14.539 49.0784 31.3314451251
37.5628 15.3436 50.8653 28.5255323501
33.6366 0.247398 54.1413 39.5484100437
31.1488 1.75994 52.6754 31.479812792
37.1963 0.749602 56.4367 30.7222789729
37.0631 3.78215 55.5488 33.4005599188
33.9911 4.23486 54.7918 32.4563240495
31.2709 4.28592 54.6232 35.0415418713
34.1791 7.17162 55.5206 31.9862659643
29.8934 6.29575 53.0917 28.3961867339
31.6356 8.12966 53.6765 33.0857601323
36.1376 7.64346 53.7182 36.0447724956
38.4901 5.69579 53.7695 33.9873803696
30.1783 10.2433 55.5429 27.6963788341
30.8383 12.0953 53.411 31.8468267567
34.79 10.8819 55.1701 30.9421671135
37.0331 10.6236 53.7023 30.9333361837
29.5853 14.8363 53.4397 31.9708520345
33.2949 13.2216 54.7256 32.2790079195
38.9354 13.7505 52.6386 30.3916100257
35.6043 14.2481 53.3748 29.2158653975
33.9413 18.139 6.94865 29.7671347524
32.5404 19.8581 5.24309 36.3662716951
30.2634 18.4858 6.61915 30.2966311578
36.6361 18.2736 6.49805 32.3782136905
31.9639 22.1227 6.88382 29.2555972078
34.2954 24.0584 6.98457 33.0638042297
33.8695 24.0022 4.25175 29.0472434413
30.8778 23.8997 4.9471 31.9307391345
37.8785 20.9838 7.11386 27.4089890226
37.0269 23.4433 5.8782 32.249882588
37.7968 20.538 4.27127 31.3048152682
31.3778 28.2776 6.45951 31.6630659349
33.9199 28.4351 4.9854 32.2949971816
30.9836 26.756 3.71141 29.151149916
38.4798 26.1045 5.3757 30.9497020627
36.3788 28.0127 5.92052 30.9765069344
30.7579 30.2608 4.58283 29.2937413101
33.3422 31.1732 5.62025 29.5175527373
36.0443 32.4382 4.8104 29.5108663613
39.1156 31.4171 7.29595 31.3711130319
37.6799 30.2185 5.23243 30.9469688797
31.2919 19.1174 10.7767 28.4249249584
33.7492 19.4985 9.21551 30.1959353232
30.5249 17.094 8.84927 27.4916710951
39.1309 18.9745 9.03323 34.0519635654
35.4273 17.9449 11.0385 30.6292789605
38.0142 16.3699 10.3557 29.4661325083
33.4556 23.1853 10.5688 33.1597672434
31.4025 21.8467 9.72042 28.4133623396
35.6594 21.8648 8.71771 32.4696591533
37.3578 22.1256 11.1241 32.44107735
33.4125 25.5252 9.26271 32.6015990836
30.9395 26.7672 9.8166 32.9372553949
38.9835 28.5317 9.75782 29.1406580702
35.2823 26.791 10.7116 31.5657427097
37.0314 24.8039 11.2659 31.3911803667
33.6324 29.7235 11.1445 27.435198619
33.0542 31.8429 8.14621 30.5979751239
31.744 29.4844 9.03306 28.8408829443
36.4703 28.6851 8.7395 33.3409639907
36.825 31.1699 12.092 31.5223122607
35.6585 31.4192 9.11559 27.9245328382
32.1742 19.3335 15.1138 28.4408759687
30.8734 17.3243 16.6839 31.5553059191
32.8208 17.8781 12.7769 28.5768686922
35.7943 18.9339 13.7402 30.1315920071
34.9093 20.3002 16.4063 28.9138318272
38.4938 16.5392 16.1053 27.7911533884
38.302 17.6422 13.3324 32.7683717279
30.8904 21.4387 14.6306 30.7194247168
32.154 23.6188 13.1552 34.6978767527
36.5986 23.2372 15.1561 29.9328077656
37.2312 21.2513 13.6438 30.994995609
33.6524 24.524 15.0727 29.9739117254
32.3825 28.4554 13.4022 28.9048041536
30.8379 26.2734 12.6578 34.4577256418
34.7661 26.9794 13.7418 29.6113814557
35.9817 26.7594 16.3844 31.9786144659
37.6196 25.4593 13.9247 32.1419451535
31.3565 29.3728 16.0589 32.1836295627
33.1275 31.2002 15.2359 30.9418731836
32.5098 31.8074 12.4814 27.6797513584
29.6091 31.6406 12.4844 30.9457787345
37.2765 29.6953 15.6487 28.7287369843
35.3502 30.0809 14.0569 28.3078602418
34.3069 17.7251 17.2032 31.0865065325
31.2453 20.3325 18.2106 33.8740786032
35.7567 17.3864 20.8553 28.2265674463
36.9424 17.9527 18.2934 27.9198536694
32.9036 22.3492 16.8271 30.1216901143
31.4789 21.1273 20.8845 28.2647094203
33.1966 23.8911 19.4048 32.9275313701
30.7224 24.0325 20.9747 32.4032134408
38.6762 23.0561 16.8192 25.8901787628
38.9526 22.9293 19.682 29.3686703917
37.0579 20.8287 18.0247 29.3931696128
35.8511 20.6957 20.8044 30.3582400123
30.8685 26.792 17.3663 31.7673352665
33.4926 26.1656 17.6701 31.2569932066
33.1305 27.91 20.2996 31.1049856527
38.1873 26.2011 20.9911 26.497833349
38.1164 25.8451 18.2868 30.2810161314
35.5809 27.0471 21.1643 26.5035007504
33.538 32.0708 17.975 31.1249083972
31.8961 30.32 19.2666 31.340074557
36.4039 29.4723 19.9841 33.0730494256
35.8066 32.2976 19.4951 29.337881178
38.4746 28.6579 18.0079 27.9647720938
37.479 31.9825 17.075 31.7721799226
32.8745 18.9566 24.3612 87.5413438498
29.6399 17.1303 24.3526 81.0624144852
33.6637 19.1487 21.6611 27.925303755
30.3171 20.1863 24.2911 78.2321378969
32.0905 16.3459 21.2847 27.2198146767
35.9435 19.2133 23.9892 58.6571005619
38.3933 17.4817 24.1754 52.6470588711
38.3 20.3993 22.3958 28.2982524772
38.5063 17.4506 21.3385 25.3502262264
30.6262 23.2307 24.0646 77.477747713
33.4122 22.2288 23.1007 31.4774434821
36.0601 21.9772 24.2486 89.5168957311
37.8402 23.7121 22.3993 27.1518403888
35.1872 23.7732 21.2248 29.5846685194
33.3516 27.9432 23.4511 34.2849064559
30.5827 27.1471 21.6794 30.3025732265
33.1718 25.3512 23.9517 60.9446361661
30.3633 26.2953 24.3758 83.9721463345
36.0467 25.2639 24.2933 104.6566985648
36.435 28.1416 23.7403 40.399631936
32.2395 31.7037 23.9248 41.5080884218
31.4956 32.2573 21.4231 29.8355936476
30.6009 29.3118 24.1495 78.2744259423
38.9219 29.036 23.9329 64.1650793375
34.7969 30.4164 24.5378 116.1054272226
38.0487 31.9517 24.3401 88.1789585638
38.7639 29.665 21.2456 26.636968552
31.8167 17.0027 35.9452 70.5214523349
31.4852 19.7869 36.0703 57.9819962255
32.7091 16.7112 38.5704 26.6116439922
36.7485 17.6359 36.221 41.6937571225
39.2413 17.7268 38.4965 28.7818880561
35.8342 19.6911 38.684 29.9918201303
32.4818 20.964 38.4483 27.575316115
33.7232 24.3761 35.9293 78.3633705557
33.5615 21.6502 35.7584 74.4288329475
33.4606 24.0281 38.7918 28.7196178893
35.9114 20.5689 35.5163 97.7583587174
37.9208 22.5091 35.7538 63.3495481627
38.5408 22.6947 38.4024 26.4314855974
31.7942 26.0385 36.4206 40.5942015304
36.7987 25.098 35.8199 72.0017335214
37.8811 27.4652 38.8113 27.9856138926
36.9331 28.0899 35.8291 84.9450742415
36.0529 24.8201 38.5531 28.4481766372
31.65 29.9751 38.6605 28.1779196421
34.382 29.0866 36.3637 42.7554628982
31.4802 28.6211 36.0001 88.0586155881
33.0302 32.3679 38.6723 25.5634509446
34.5922 31.5905 35.6841 88.3498407012
37.4107 31.1794 38.5732 28.0489097983
38.2884 30.2945 36.0415 50.1089655664
31.6299 20.2312 41.89 27.2633635338
33.3866 18.8098 40.0781 25.5612216996
34.37 17.3944 42.2226 27.9386481833
30.017 17.565 41.1815 31.3613512635
37.2087 17.8518 40.6916 28.1699738356
38.4309 20.4007 42.262 28.1061950853
33.7607 24.1919 43.1061 27.334032879
32.597 22.9149 41.1403 28.7426022352
29.8687 23.7005 41.6161 28.7218224166
29.7802 20.5044 38.9718 24.8080117404
36.9045 21.4508 40.0946 28.6957235639
35.7508 22.6951 42.9355 25.7155331606
39.1158 22.7627 43.2092 31.0234295223
29.6645 26.4269 40.1798 28.0884128256
32.2352 26.531 39.0736 30.357188726
37.9389 27.1058 42.7067 29.15426267
37.8255 24.5554 41.1733 30.129403229
35.0742 27.2471 40.1245 29.8471138055
34.5535 26.6771 43.0747 31.1428839155
30.8417 29.0083 41.3375 29.4865657867
32.7283 32.5334 42.8512 28.9727131968
37.7853 32.1988 41.4819 29.9758772778
36.6842 29.5648 41.9289 28.1450011159
34.9477 29.8864 39.0724 28.7034837723
29.599 20.3885 45.5418 31.2770750726
31.7416 16.7338 45.072 32.6403586422
32.0321 19.4795 44.5925 28.5780127399
36.0706 16.3901 45.0493 27.9586437397
37.2653 18.7565 44.6646 25.9748725538
38.5062 19.7278 46.7353 33.7753902079
35.252 20.076 43.31 28.2206141515
34.0086 21.166 45.8464 27.0949995376
29.7048 23.3407 44.7407 30.4014761038
32.4858 23.38 45.3383 29.8420326713
36.3262 23.2799 45.5542 28.0296309866
39.101 22.3726 46.1776 33.9040188224
32.8457 25.3353 47.3029 29.4484262451
30.6917 26.9938 45.0635 28.3838154969
32.4792 28.4852 43.6531 29.6601505126
32.1677 28.0383 47.5136 31.0982323954
37.3749 27.8331 45.4984 31.7477063617
35.4648 25.7989 46.343 29.703000073
30.0681 32.5988 45.967 30.9702171392
30.4979 30.9661 43.9564 28.48652551
33.7838 30.8719 46.788 30.3188226949
37.4314 31.0922 45.1733 31.5164491122
34.7042 30.4007 43.8977 30.1679693375
39.1678 29.5349 47.6254 26.7514597506
30.3591 17.0848 49.5512 30.2156392814
34.1369 17.9825 51.3381 27.7860988598
32.2898 20.1521 47.9519 31.2971770732
33.1388 17.8629 48.8397 31.9899144758
36.8874 18.1014 51.4955 30.3545543877
32.4505 22.2389 50.3114 30.9676773147
29.7006 21.8415 50.7461 29.798189269
35.0715 20.7961 50.4181 30.8097186298
36.9114 23.8612 51.7893 29.2307375439
36.8155 23.694 48.7242 30.2625522486
36.1177 21.0717 47.7378 32.4464078709
33.0787 24.8501 49.9597 29.5470726761
30.8843 26.9094 49.8332 30.0135628795
36.1972 27.0503 49.0005 27.5817325836
38.8094 27.5238 49.5747 28.2161799071
35.1472 25.827 51.2279 25.4771857163
39.3227 24.5687 47.9067 29.5778815262
31.2477 29.9807 51.5083 27.9645851841
31.5707 31.9884 48.2816 27.4777224455
30.0019 30.0266 49.2269 26.8270796695
33.9812 30.5075 51.9961 32.4524013279
36.8597 31.4827 48.3712 30.2960884045
37.5812 29.6803 51.1283 30.0305489585
34.8467 29.5357 49.165 31.0743835501
32.5093 18.7752 53.5088 31.3929235482
30.0828 17.6177 54.0258 30.3457259345
33.6225 18.3802 56.0728 34.2319960212
37.0163 16.5446 54.1083 29.5218623054
37.1664 19.9847 53.6808 34.0646548227
36.4431 18.061 56.192 30.2580863529
32.4852 21.5104 53.0394 31.453905219
31.9788 23.6683 54.7544 31.939257856
35.4348 21.8836 53.138 30.0201697766
36.1625 22.7599 56.0832 33.7820869922
38.7493 24.4009 55.9741 30.7644753269
33.0118 26.0059 53.408 30.7217239606
33.8432 26.525 56.047 28.1140350818
30.9006 27.5983 52.8877 29.5197294602
36.3614 27.6114 55.0555 32.4756665098
35.2705 28.2799 52.4932 29.3345486585
37.9707 25.6696 53.5907 30.146767805
30.0076 31.2032 53.5749 28.8693204334
29.7095 29.0516 55.1121 28.7343817656
39.218 31.8629 54.6353 26.9211532578
38.7124 28.9771 55.7514 28.959980583
34.7037 32.0677 54.6223 37.3590727605
32.0273 34.5675 7.71909 28.3884931172
31.4785 34.7432 4.72257 29.1635539415
34.5135 34.9065 5.14571 29.0437072772
37.1763 36.6049 5.67673 27.6597085633
36.9771 33.2653 7.53841 27.3242194705
31.1772 37.7619 4.15928 30.3025565773
31.077 39.763 6.4834 32.0876137638
33.1423 37.2028 6.7142 27.1827947708
34.661 38.8428 5.14242 26.709941241
37.7017 39.3055 6.56658 27.4278422699
31.0573 44.5198 3.9471 30.3426580878
31.715 41.731 4.92544 27.5036736182
31.5361 43.3149 7.25377 27.5349274271
34.0486 41.0411 3.76551 26.8771281929
36.8285 42.0551 5.28944 27.2693756787
35.1512 41.0689 7.45879 26.7727192708
35.2432 44.6047 5.74665 31.1734987089
38.7766 43.8623 6.39712 30.0203307724
34.1756 48.7174 5.86281 28.835401151
32.8415 46.3384 5.42663 34.903486998
31.987 46.0968 7.96816 28.2461218316
36.8349 48.6248 6.20029 29.6033640697
37.8036 46.1547 5.03846 28.7200928781
33.2887 35.2672 9.96802 27.5006911041
31.4131 35.311 12.0745 27.6025304883
34.7732 33.2187 11.3134 27.3354085053
38.618 34.7139 9.31595 28.9235172681
35.345 35.6074 8.09735 26.8177597805
38.924 33.5548 12.2594 31.5818203183
34.3405 40.6342 11.6481 33.3377327569
30.0985 40.6247 8.95998 29.1331752561
33.9813 38.0263 11.3113 28.3167112782
33.3305 39.4486 8.80842 29.3551563401
29.582 38.9101 11.161 28.5838021222
36.6808 36.769 10.3107 29.3546110854
36.4845 39.8785 9.64769 29.559230385
32.2101 41.952 10.5399 27.7661607444
34.1069 43.5122 8.35727 26.9205445396
34.2625 44.6238 10.9372 30.3633229155
38.8017 41.3053 10.1285 34.682909971
37.4509 43.8302 9.40958 34.9260428661
34.3675 47.3644 9.67838 30.0648282437
29.8963 46.9236 10.6083 27.9845543201
32.2754 47.9397 11.4667 30.1962635047
37.2754 47.9987 9.30244 29.4958321202
38.2244 49.0036 12.2187 32.6676559902
37.0567 46.0183 11.327 28.8733759726
32.5894 34.4426 14.2792 26.8750376404
30.3619 34.9546 15.7124 30.7903773393
34.4916 36.3239 13.9319 31.426077731
37.2183 34.2667 15.3057 31.1136857253
39.2031 36.5714 15.5365 32.7358852418
35.1921 35.8901 16.7192 29.7259399995
36.3188 35.045 12.5934 28.0441792405
31.1489 37.9182 15.8007 38.1978990324
31.4414 37.6565 12.9377 31.9794553143
34.9706 40.744 16.0629 35.4417814751
38.5305 39.5752 14.1841 40.2736145131
30.6407 42.8197 12.729 33.0584407546
30.4109 43.3192 16.2674 31.5343027626
33.088 42.8425 16.0649 34.2808521852
32.9602 44.205 13.647 28.6383035373
36.4442 41.2899 13.6818 35.298520578
36.1075 44.3297 13.7211 31.7922745793
33.1366 47.0834 14.0507 30.9436181934
31.1201 46.4308 15.6439 32.4145242655
38.9079 45.41 13.4347 31.4826363121
35.4685 46.3804 16.0381 30.7290876813
38.0607 45.5799 16.1067 30.6835312946
31.6895 34.7725 20.2337 29.2859825119
32.8832 34.5487 17.6 30.5819765027
36.3926 35.3271 19.2319 29.2902960655
39.1081 36.0882 18.2514 27.5116320956
30.9851 37.8156 20.3191 29.6983445235
33.8573 38.3291 16.9896 34.1746835287
33.7864 38.9067 19.7815 32.2306507499
36.442 40.3899 20.1899 29.1486102659
38.354 37.5977 20.8976 27.2656958108
31.6469 43.9815 19.763 33.3033747341
32.673 41.5801 20.8514 30.5852021129
34.1595 43.8813 18.4712 27.4924147031
38.586 43.2702 17.8006 28.353817956
36.2838 42.1015 18.0719 29.5199367771
33.596 48.9022 18.7025 29.9712868017
30.0123 47.8157 19.7802 34.2563933225
31.1103 48.8986 17.2313 28.8501062491
37.8931 46.851 19.0442 26.5046857961
35.2705 46.398 18.9455 29.0396456431
39.3405 44.9542 20.0788 29.0315961573
33.5431 34.832 22.2051 29.2380188169
31.4988 34.3236 24.7403 119.384920079
37.0336 35.0806 24.2207 83.8661403519
37.7728 34.6189 21.4617 25.2079134987
35.4486 32.7153 22.6223 32.371538519
32.9595 37.0668 24.0801 82.5244462923
31.1273 38.7856 22.8668 39.431352569
35.6149 37.9361 24.1801 82.3650223154
36.1699 40.5254 23.3528 31.6894641644
38.7778 37.8494 23.8005 47.1102944015
35.3905 37.234 21.4056 27.8462404585
29.7601 43.1233 24.4012 103.7275432294
31.9207 41.5926 23.3437 40.0150501622
34.3039 42.3063 24.3371 97.4771165434
38.5382 41.6081 24.0378 68.770452198
38.2542 42.9092 21.4518 30.7989423817
34.9205 42.9311 21.314 27.3365507148
30.1807 48.767 24.3765 84.4041433051
33.9907 48.5497 21.5554 24.7462631591
32.4137 46.8726 24.4558 74.8564318512
34.2912 45.7592 21.8426 27.960234737
31.3977 45.8484 21.7313 30.1138816573
37.866 48.023 21.7691 30.0529594986
34.8169 45.1927 24.6098 94.2933120135
39.0289 48.7869 24.5516 101.8796756139
37.4805 46.0747 23.9887 48.6549336365
32.2527 33.2614 36.0064 49.1757317382
32.8783 35.8592 35.6446 86.1625577603
37.0327 32.9984 35.7296 69.4030701136
37.5347 36.3612 35.7003 74.657926191
37.1462 36.4212 38.4838 29.2956835069
36.0519 34.0416 38.5071 30.177759225
30.7068 37.8104 35.7985 61.8916603819
32.091 40.5044 35.6796 75.1927451287
33.5508 40.2148 38.0205 26.8558696327
31.2819 38.0577 38.4497 31.4904496595
38.1312 40.8127 35.8323 70.7660793803
35.3686 40.3436 35.5036 89.9057590649
35.3526 37.6581 35.7331 60.0843557316
34.7508 37.7213 38.491 28.0424103409
32.1199 44.3469 38.3287 30.0472999724
32.4159 43.5401 35.6863 97.2410296138
38.1922 41.4011 38.5033 32.6442203708
35.0612 43.5791 36.447 38.4152086229
35.3415 42.1149 38.8057 30.3695188722
30.67 48.7933 35.9856 69.3405591496
30.1541 48.977 38.6323 30.5787365877
35.676 47.6899 38.4417 29.8820174611
35.6144 48.0167 35.7406 69.1170227701
36.778 45.6944 35.4708 100.8839638193
38.3998 46.192 38.25 30.2179307775
34.0284 35.7685 41.4525 29.709714951
30.953 36.2248 41.6705 26.6263855285
31.2159 33.2771 40.7488 29.6577658878
33.0194 35.4398 38.9422 28.0777597964
35.0797 33.1146 40.823 26.9990211442
30.8066 38.9374 41.2847 31.4097203312
39.2786 40.7299 43.1273 34.1361798803
35.8027 38.0458 41.5439 38.1854732101
38.4087 37.5693 40.6163 28.4749462209
29.9812 44.7663 42.6248 30.5389629215
33.1802 42.4154 42.4695 32.128040499
31.8904 42.0681 39.7407 29.9354619315
29.755 42.1844 41.973 28.8695738022
35.5072 43.7798 40.8717 35.2092193477
33.9747 45.7828 39.7254 33.223317077
33.1053 46.9093 42.3007 31.47471581
30.3099 47.5188 41.2213 28.6911621196
29.7844 45.6363 39.2944 31.3672975515
37.2728 47.7496 42.3628 27.1839778442
37.9386 45.3183 41.0019 28.1387308424
34.8343 48.7932 43.1519 28.2301979225
30.6345 35.2287 46.9189 26.3316214245
33.8447 34.5081 44.4681 30.1569250905
31.6129 36.0844 44.2668 31.3018460824
38.3185 35.808 44.7714 29.8293416409
36.511 33.6276 43.9226 31.4309657393
34.9174 33.378 46.885 29.089941865
37.0502 35.7054 47.4314 30.7497286632
34.3039 39.5805 43.4207 34.561977658
32.6541 38.3601 45.5822 27.2710630159
31.3916 40.4923 43.6231 24.9881715333
30.3522 38.0228 47.2259 27.1873012333
36.0061 39.3251 45.5516 32.2330309207
34.7112 37.3988 47.4972 28.7856576481
38.6739 38.6096 44.8792 30.6897518675
30.7521 43.9115 45.7917 30.2212741209
31.8184 41.4221 46.4349 29.0294546048
32.7461 44.8273 43.8896 28.3579399368
37.6947 42.0049 46.7691 27.2761874441
34.9495 42.0631 46.5374 32.7272350816
38.4283 43.2856 43.9708 31.026144152
38.3396 44.8023 47.4843 31.5411742518
33.2987 46.8751 47.4453 31.1923600614
30.0254 48.8536 44.0416 33.7895668959
36.93 47.8166 47.0788 30.8062813865
34.8807 45.0835 45.7549 33.4777519863
37.3575 45.7001 44.5561 29.435373924
38.6622 48.9086 44.6817 32.1729577282
33.0892 35.1546 48.4948 28.1580382933
31.3376 33.6262 50.2545 30.3595412951
33.6664 35.8009 50.8672 29.5902626942
38.7718 33.7576 48.828 29.9317518257
37.7417 32.8357 51.6442 32.8112426972
31.1428 39.3593 49.5612 32.6377251466
33.8738 39.397 49.3673 31.2003372974
35.8114 37.9146 50.9691 29.3890860711
38.2974 37.2339 49.4979 29.3785948392
30.5953 42.2623 49.2903 28.4839172228
32.8762 43.9425 50.3969 30.0491325913
37.8056 41.1853 49.5324 30.936947397
34.8873 42.0793 49.5439 32.5873965116
37.9047 43.0839 51.6901 30.3690365755
31.3643 45.095 48.2014 28.6060459512
33.5243 48.3468 49.8346 29.4426939553
30.747 48.5286 50.8174 35.3253149539
37.3495 45.5083 50.1684 34.4432559657
34.6026 46.2504 51.1016 33.572255491
32.1629 32.7671 55.8213 30.7114705323
30.4223 33.982 54.1574 31.8260532073
31.3458 36.1849 52.5204 32.3449909751
37.2598 33.5328 55.1225 31.2254101222
38.3364 36.5024 56.1286 28.875660529
34.9771 33.4937 52.2013 33.8950967235
36.3166 36.063 53.1669 29.381065709
39.1275 36.4506 52.5998 29.2688753325
33.4232 40.7172 53.7091 34.252136503
29.7473 39.2552 54.6677 35.0644425724
32.4064 38.1131 54.4474 30.1100429428
35.9962 40.4036 52.3106 32.0659757389
34.7136 37.1436 55.7489 31.693399708
37.2126 38.8288 54.8099 28.2404029777
32.6025 44.8768 54.63 35.4103226489
32.0847 42.8646 52.6841 33.7959293182
37.6232 41.4768 55.4867 28.2709137633
36.8901 43.9903 54.4817 32.2110231663
34.5225 43.7451 56.1029 27.1733651688
37.0541 47.4149 55.0388 30.5730482016
34.5466 46.6891 53.8114 30.6291110382
38.8508 48.6637 53.2108 28.1131075345
40.8609 0.805326 6.14008 27.5916846147
42.4221 2.79092 7.45131 27.8253608504
41.7659 0.729511 3.70387 29.5188461439
47.3734 1.76489 6.64854 33.9753919695
44.4759 1.08334 6.75104 29.6709984699
42.017 7.06645 6.62373 28.8022941939
43.0878 4.8134 5.45163 32.4981450475
47.6948 4.48705 5.61342 33.8513217575
48.6983 6.82758 6.58151 30.2842354778
45.4444 5.62611 4.43372 30.894852691
41.4686 8.67828 4.11769 35.3113984692
44.1183 8.51349 7.88486 35.3950044928
46.7896 11.795 7.20425 28.1309444256
46.4963 9.12215 6.29864 32.7854673707
45.7683 11.4278 4.45525 29.3005594735
42.3822 12.6802 6.77561 31.0492214185
39.6689 15.575 4.21238 31.7890882741
40.691 13.1489 4.62865 30.8091300164
44.7251 13.8701 5.21771 26.2605293476
47.4928 14.9941 4.35489 28.0931943563
49.0197 13.2043 6.02601 28.6644871795
39.6595 3.37629 9.20536 28.081184536
43.7022 3.48597 9.91887 28.5478234583
40.4268 0.636304 10.0906 30.0749368817
43.1905 0.787654 10.8133 27.0141209529
48.2008 2.31566 9.45401 31.1625421476
45.6428 0.437225 9.60528 28.8323074654
41.826 5.61901 9.26492 28.6597404728
42.0585 6.88471 11.8113 25.4126100595
47.9915 7.12551 9.48997 33.9256986052
45.3875 7.07392 10.1304 32.6378814165
46.3519 4.3199 10.0666 30.9324839098
40.5607 8.64813 10.341 28.2707952823
42.2635 10.455 8.71114 29.4186410043
39.5563 11.8849 8.67012 31.0756655521
43.7547 11.8928 10.4841 29.1473413306
49.1729 8.67494 12.0287 27.876503584
46.3912 11.3223 11.688 33.8567287292
48.3853 11.8805 9.42469 30.4232811747
43.4269 14.733 10.7616 28.1013671788
41.2859 14.7473 8.61208 29.2493588253
39.891 14.4187 11.2896 29.1606815948
48.6398 15.4503 10.6682 29.5997801819
45.9276 15.9954 9.68178 30.4836956954
45.036 13.6713 8.02554 29.7413292419
42.6945 0.516644 13.5163 27.6704341433
42.0947 2.85121 15.2579 30.7855475381
39.8605 1.96422 13.207 31.4387817268
48.3708 2.46233 13.6989 27.650037648
47.4456 2.30795 16.4167 33.0498500853
44.5696 1.99081 16.7894 30.6618148013
45.5997 2.46518 12.6497 28.6984811739
45.7681 0.281142 14.6077 27.624490697
43.5568 4.54791 12.9489 32.2443677198
39.7089 6.40749 13.3073 28.4342072118
40.1865 5.14594 15.7239 29.7209976864
44.4552 6.39422 14.8651 31.4934315748
47.3208 6.26774 14.8173 29.9086943173
48.1123 4.86463 12.6187 28.5894215373
40.2648 9.18015 15.8039 30.1398349199
43.0863 8.81143 16.0932 27.8444133998
42.3035 11.2336 12.7557 30.0470608153
43.3768 8.83672 12.9618 28.5329891104
43.6699 12.2027 15.1432 27.3849039084
39.782 9.83212 12.7441 26.4690176282
45.6541 10.7388 16.5142 29.496345116
47.7018 9.04955 15.1769 29.558847223
46.3849 8.67031 12.4882 27.6601906906
41.4311 15.1133 13.5814 30.866831746
44.2102 14.3947 13.3711 26.8371977791
40.6328 14.7546 16.3716 28.8536840066
47.0978 13.2169 13.6912 29.1473920969
48.2732 15.5897 15.9585 31.4490219313
42.9592 1.08039 19.0503 29.592085817
40.8906 2.96234 18.0386 27.7271430025
48.9226 1.07127 20.5286 31.484254579
41.3732 5.34939 19.3018 28.1682411677
40.0763 6.87415 17.6873 27.06322917
44.0478 5.64973 19.8693 26.4425873956
45.1256 4.81022 17.2596 32.6613820206
48.898 7.80416 17.5399 32.3009979345
47.7587 5.13228 17.5781 28.7591486383
46.9713 5.67415 20.4609 30.7506873872
42.964 8.23321 18.6089 27.9208983597
41.724 11.7219 17.1148 30.4050986539
40.5428 9.34172 20.2698 28.2319036845
42.1544 11.6266 19.8696 26.8365289057
47.0026 8.49934 20.3149 29.6142192822
45.0062 10.0813 18.9362 28.68980617
49.1611 12.0095 18.6271 35.1034643456
43.8029 15.0699 16.9907 29.2879647165
43.906 13.947 19.739 29.6055455957
46.4073 13.5732 16.8839 27.9969238858
46.9084 12.9875 19.7087 27.8614962238
48.5238 14.809 21.0975 28.02719397
44.0982 3.19901 24.6335 94.1440338909
43.9461 0.20907 24.0637 62.2500633676
40.8789 2.03199 24.2406 67.2344875122
41.0421 2.44153 21.3851 28.9659706449
43.4334 3.64201 21.7948 29.1920320031
47.0573 2.60818 21.7168 29.9153582156
46.6587 3.81642 24.3876 67.3830821028
48.7553 1.75066 23.943 46.9156187309
44.7546 0.935072 21.4663 31.738583445
43.1485 6.00882 24.2125 78.4560163944
44.1509 7.56621 22.1167 30.2173625447
40.5432 6.61183 24.4555 75.3179052126
39.4354 7.71791 22.032 32.7858352417
48.027 6.05766 24.536 106.6602631785
46.8045 8.1566 23.1034 31.4130971229
41.913 10.9356 24.4063 88.6505048381
43.4093 10.1657 22.1129 28.851816578
39.8764 9.4635 24.8578 117.6962325154
46.9342 10.4743 24.3069 100.1812127817
45.6747 11.639 22.1097 29.7025063529
40.6789 13.8098 21.4871 29.7139181605
40.8284 13.5649 24.1503 57.4543802509
42.4618 16.0962 21.606 26.7657201925
42.1218 16.1621 24.4958 74.6022721815
45.3825 13.7512 23.9581 73.3548026768
48.3047 14.7026 23.9509 69.8592852475
45.3321 15.6655 21.5006 26.634636395
41.9992 2.84149 35.9697 64.2694574869
42.4252 2.25922 38.7873 29.1664249747
40.9509 0.281775 35.969 64.9254387467
44.8182 3.02079 36.0668 52.0883055699
47.8686 2.94299 35.6104 97.6970037959
48.077 2.51623 38.3668 29.4558221843
44.5631 0.0540102 35.8449 84.2111875147
40.2254 7.73764 38.5492 30.919512708
43.9429 5.21478 38.514 27.5920942148
40.2882 7.67355 35.9237 55.3430675644
40.1417 4.86853 35.8018 98.5012542835
41.1598 5.12828 38.7019 30.2777032219
47.6591 5.96347 36.0664 57.576910913
44.9157 5.91069 36.0371 66.7169704345
48.648 5.05986 38.6305 27.6397176556
42.6451 9.16311 35.343 119.3852394442
42.5571 11.9648 36.0554 53.284216432
48.9871 8.39992 35.8811 79.8354749159
45.1044 8.67253 36.0221 56.8082140652
45.3327 8.39086 38.777 27.2014996034
47.2417 11.1411 36.2986 48.1991839503
48.6142 8.56144 38.8141 28.4596200493
41.3895 15.6447 38.4446 31.996435547
40.3999 13.9854 35.4824 94.619501119
40.3988 12.613 38.4502 31.5234730817
45.1987 13.0751 36.1343 69.2924609702
46.3444 15.587 36.1109 48.1242242924
41.361 1.24504 41.0445 30.6795265942
43.8067 1.66561 42.7107 31.9200726579
46.6323 0.782672 41.01 35.8966553562
45.1578 2.78174 39.4284 25.9995541569
41.9536 5.53234 42.8771 34.2819822083
42.5705 8.15709 42.2826 30.4449640194
39.8648 5.24826 41.1836 31.1763799141
49.049 6.84853 43.1092 32.7518819138
46.4467 6.12904 39.9319 32.0949186149
44.7771 4.54282 41.8731 33.0882155483
40.1149 9.01209 42.8438 30.1506000645
42.1644 11.4078 40.2058 30.2407512454
41.4558 12.1205 42.8738 28.9509355664
42.776 8.811 39.5394 31.0877322826
48.2894 9.41043 41.7921 32.6803612817
46.7311 10.994 43.2122 27.2167561859
46.4257 10.9101 39.0328 30.0982571689
43.8579 15.6338 39.7668 29.6012731844
43.454 14.1695 42.0661 30.0483777072
44.1301 12.9055 38.8903 28.0025615969
47.9191 14.5892 40.3038 33.3403166123
46.0143 12.9201 41.4065 28.8495454385
49.0341 16.0899 42.3801 34.7549634946
42.5998 1.12791 44.9572 32.1409701593
40.7008 3.02836 46.4796 30.1599663849
44.9595 0.994723 46.3976 27.3157036116
46.6703 3.51899 45.9281 35.0479679821
49.0469 1.69453 45.333 29.0248520724
43.9017 6.46766 46.9984 32.030763022
41.6526 5.40386 45.7021 32.0900970803
39.6772 7.12162 46.5434 31.6734357138
45.7511 7.51543 45.2986 30.5152365498
46.5578 5.44039 43.8825 35.0410287887
42.578 10.7027 45.4992 28.845292946
47.7537 9.35197 46.1725 29.1190881127
44.3446 9.42909 43.8686 32.3860008455
48.9839 11.4418 44.7272 29.5522985275
40.9037 13.0253 45.6244 32.5646308622
47.5725 15.0426 47.2369 33.7302552799
48.274 13.9458 44.3672 29.9381078981
44.6072 12.2849 46.6457 31.0117437943
45.3667 13.833 44.5959 28.8940622271
40.7971 3.9069 49.7109 30.8157897007
43.0756 2.55532 48.0519 29.4602532546
42.898 0.565426 49.9975 30.4207848827
47.118 1.49196 51.6067 30.4911450271
48.5537 1.81015 49.2837 31.1890038133
40.5863 6.46033 51.7392 28.8376525488
43.3321 7.73994 50.9727 28.6538961025
43.5033 4.7981 51.8801 27.4453879221
47.368 4.28545 48.3876 34.0318138055
44.6918 4.76413 49.1351 30.4231529394
46.1283 6.84207 51.4507 35.8255097247
43.7744 8.8577 48.2664 29.7638573965
40.2895 9.28143 51.3165 29.9361361342
41.3556 10.1784 48.7502 31.1584241014
45.9475 11.37 50.8852 33.2021211365
45.9596 10.4648 48.2098 29.3433105194
49.0744 10.9293 48.8383 28.421879735
42.3773 12.963 48.4577 33.1339514605
42.1228 15.7228 47.8136 32.5987769866
41.3714 13.6648 51.1679 33.7598674386
39.433 16.0678 48.7274 33.4549478104
42.5293 16.3263 51.6744 33.327195157
47.7679 15.1393 51.8223 28.9025486756
47.5932 13.2898 49.3399 32.4205384902
40.2554 2.03059 54.1562 30.4997442483
42.2303 2.20435 52.1572 30.6523416958
41.2839 4.08115 56.3033 31.9920489989
44.6847 1.43538 53.6152 31.9337648518
44.5144 1.00702 56.3764 30.4788854866
45.0201 4.02456 54.7876 30.8698424708
43.962 6.63331 54.2711 29.0038555078
41.0774 6.53054 54.8429 31.810018776
46.6468 4.08938 52.4215 29.5879588356
45.823 8.11771 56.375 28.4649870728
48.0807 7.6209 55.0564 31.4742420322
48.5269 5.06606 54.2166 33.3483632435
43.8449 9.82546 52.7903 29.9538545844
41.405 11.2258 52.8425 28.9372013626
43.491 9.84799 55.5509 28.3489918547
39.6333 10.2189 54.6891 33.6028022383
47.0426 9.18382 52.64 29.2871230638
43.0243 12.6514 55.9516 30.4355456876
39.6858 15.7188 54.3638 32.9568970999
43.6473 14.4359 53.8763 32.5517425556
48.2687 16.0261 54.4936 29.5513627219
47.3588 12.6337 55.4018 30.2165816711
45.9056 13.4293 52.9704 32.5384372735
41.3309 17.4974 7.92661 31.3016223039
41.527 17.4197 5.31801 35.3374888191
48.3593 19.197 4.39883 32.0024636233
47.9236 17.116 6.07535 29.5446621127
45.7004 17.291 7.49682 29.3267633199
44.3278 16.6953 4.83201 34.4539385017
40.5589 22.3849 7.07767 29.684985517
41.9206 20.4313 5.60301 32.6462372427
42.4744 24.3994 5.2456 29.9159325944
44.954 20.758 5.49887 31.9726611791
45.3144 23.5032 6.03431 26.5076165411
48.0562 23.6497 6.25386 26.6301934807
41.588 27.1615 5.57291 28.6688059083
44.2454 28.3343 5.16552 29.2316625681
40.2415 25.2848 7.55717 28.4315654244
45.2257 26.8593 7.45214 31.1558841773
48.023 25.0507 4.02337 27.1937803123
45.1647 25.45 3.86393 29.5552759128
47.4613 28.013 4.46937 30.0285734409
48.9031 28.2976 6.70468 27.5218153363
43.862 31.1851 5.89444 29.6985543836
40.9254 29.0647 8.0037 29.881801412
41.3724 31.7443 3.60216 31.8856360511
46.5537 30.8516 7.5066 31.8054414547
44.8673 32.652 4.05858 29.3480524928
43.1539 19.0311 9.58317 29.2068272936
45.4693 20.0021 8.10151 29.4989061808
44.5546 17.8184 11.5709 26.6554917891
45.8676 20.1742 11.797 26.5682391809
39.8652 21.3292 10.2023 28.2680384985
42.2352 21.7612 9.37058 28.7232860844
43.6649 22.0527 12.143 28.6532577814
47.7052 24.4317 12.0981 29.2847579684
47.3525 20.8744 9.69501 27.3987211151
44.3986 23.7934 8.55687 28.4132901722
47.1963 23.4951 9.32439 29.898756054
49.1825 21.7903 11.945 27.6183262692
42.6016 28.1115 10.4482 27.258346546
42.9073 26.2595 8.43065 25.9054274874
41.4216 25.7228 11.7961 34.7488750517
39.3794 25.8065 10.0256 31.314056949
48.8375 26.9439 11.0957 30.5319111301
49.0056 25.7912 8.03005 29.6318210455
44.7064 24.6598 11.8002 29.5170103514
45.1199 27.8166 11.1272 27.5789287999
47.0957 28.3385 9.1627 29.0693337431
42.0476 30.7378 11.5381 34.6051205547
39.5894 30.2639 11.8117 29.4155272484
42.5044 31.3354 8.66953 27.0482339215
45.1152 30.9272 9.77385 27.6752395169
46.6534 32.4354 11.3221 32.2179046275
41.8819 17.9197 12.8847 31.6151363838
42.6612 18.766 15.3837 28.2572839875
47.6837 20.2556 15.8054 29.5156924983
47.9952 19.1007 13.1588 28.7328832042
44.8123 16.9743 15.0639 27.838698104
47.1377 16.4188 13.3091 28.1028526137
43.9788 21.3407 15.1322 28.9145231818
41.9042 22.9686 16.4843 31.3266237966
41.2013 20.8297 12.5615 32.4156535732
39.9442 20.9443 15.2218 30.3179436801
46.7462 22.3134 14.025 27.3577213729
45.7318 24.3505 16.0219 29.2415629121
40.2043 26.3154 14.22 29.9432149093
43.5386 25.0973 14.3841 29.8549585847
40.6068 25.4326 16.6326 28.0561085029
44.1545 27.7272 15.1978 30.1867629698
48.1946 25.8198 15.5788 26.7022931517
48.2036 28.1157 13.6326 30.1580021381
42.7288 31.7977 14.8405 29.4987492684
42.1968 29.3773 16.0186 29.6973544113
39.8234 29.1577 14.4084 32.4547504822
48.4293 32.1324 14.7047 31.9695215883
45.6219 28.8413 13.3658 28.7699896209
45.4888 31.7175 13.6104 32.5737809147
39.6921 19.784 19.2775 27.1289855492
40.2485 18.6728 16.8914 26.233383318
43.127 18.7493 18.998 28.26233381
41.4009 16.4309 18.5413 26.4514466722
48.6979 16.9531 19.7468 30.9184051161
46.6663 17.8409 17.0609 30.1048194071
45.6281 17.8232 19.7469 28.5522657264
41.8715 22.1345 19.3681 30.8257596855
45.0819 20.6009 17.8292 31.2618093552
46.7475 22.8746 18.9914 28.877188044
42.4468 26.8185 18.5498 31.2796891221
41.6082 24.6239 21.179 29.7982485053
45.0342 25.5428 18.6517 28.9196521403
49.0762 24.838 18.1335 28.4508993171
46.4822 27.7253 17.044 31.5563641645
46.5501 26.2633 21.1818 27.3061586173
40.9624 29.6354 18.6445 29.2729232553
39.4151 32.267 20.9338 28.0482907942
42.8302 32.4793 17.754 29.7215624199
42.5692 31.5242 20.536 29.7569359865
45.341 28.8063 19.3722 27.220491796
45.6099 31.3314 18.8152 31.3742465253
47.9228 31.8808 17.4236 32.0772231896
47.304 32.2199 21.116 26.7727965103
40.8112 18.5424 24.8571 105.4162788879
41.3266 18.6652 21.7897 28.0086990245
46.3264 20.2594 21.4407 27.1903646122
46.3252 19.1825 23.9414 63.5012092152
48.7253 18.788 21.4837 30.1877080929
44.7369 16.7048 24.1077 68.0320772866
48.8146 17.4679 23.9841 79.245918442
42.8686 20.7524 24.3146 70.6641350167
40.0619 22.2855 24.214 83.9960395891
43.2652 20.9339 21.6907 28.3718238672
45.6518 21.9794 24.3414 77.4220785128
48.5765 23.5639 24.2949 86.2744821166
44.4103 23.6578 21.2433 28.9664146386
47.7498 22.8141 21.5934 27.9734898718
41.4422 24.7035 23.9116 56.6417422912
41.0038 27.405 24.0258 72.9482717089
40.7195 27.2549 21.2885 24.9193605019
48.5659 26.22 24.1763 68.9220907442
44.3005 24.5289 24.2153 82.9024784616
46.0486 26.4796 23.784 38.310330159
42.5866 31.9399 23.9973 68.0929943359
