5.8514 18.5538 5.95201 30.2612570088
1.50464 16.5935 7.81783 29.5370481398
10.4649 20.4097 4.98407 33.0700290079
7.97754 20.4731 13.2267 28.3297694231
11.1533 28.4845 5.95193 28.6671135632
1.09673 21.681 5.89487 34.7171081965
10.9653 23.9156 8.47228 29.1777631176
8.1564 24.568 13.766 30.5755372017
4.02068 21.1191 6.45688 32.0445769955
5.1821 22.2849 4.22589 28.1735777826
7.25308 21.4821 7.51452 25.3990481996
10.162 24.5096 4.54022 31.9494344529
5.68562 25.0391 4.06107 30.7959682291
5.45596 27.5484 12.4452 31.8851873515
1.38285 25.845 6.6013 33.0585661194
8.54364 23.6993 6.90016 29.1566369081
11.7393 30.1525 8.18535 28.6301791034
5.75355 32.0083 6.3631 29.5400196462
1.21769 31.7814 11.1897 28.4497787578
2.44675 30.7022 13.3133 27.7969965887
8.76207 29.3307 5.22224 28.8200520344
4.37675 19.3426 10.3146 32.2116089402
7.43732 17.0177 12.7845 31.1157652019
6.52316 17.8816 8.40869 29.8942137326
8.76466 19.9782 9.0745 32.8038924971
10.9236 21.101 7.68887 31.2057287908
9.70804 18.696 12.3361 37.8249155101
10.5446 23.6228 11.3817 28.6107107764
2.52582 23.5626 9.83949 31.4911718332
4.66378 21.7404 9.13616 30.3979534828
0.408675 23.8602 8.12759 34.5933632015
3.61599 26.008 8.74465 31.7547935445
2.24057 28.0185 9.88956 33.2473829886
7.46066 28.0034 7.22101 32.476603982
6.7726 24.1221 9.57093 27.6933700661
5.95716 25.5438 7.0423 33.3857538326
12.0914 28.34 10.0887 31.8273418351
0.0517152 19.1197 14.0799 33.0118187457
9.95283 26.7832 8.85414 32.1744041626
10.9709 17.9605 3.90198 33.1776968889
2.45631 29.5556 7.32895 30.897374404
4.86854 29.5062 6.2022 33.8963076699
4.38357 16.8233 13.2818 29.6876178022
7.78408 29.9337 9.44569 31.391130947
1.4985 19.0355 9.83453 30.3656352216
11.4691 25.3796 13.5634 29.522350589
7.48291 20.8355 4.7136 30.1213203405
3.21933 18.612 4.59417 30.0780587994
12.273 26.1367 5.21577 31.3157085521
0.28978 20.6013 11.7111 28.8471735189
1.81103 22.5757 12.272 31.1037932411
7.78037 28.7291 12.1653 30.3035286429
5.20582 19.6533 13.1196 28.2261358647
8.39581 21.8989 10.7616 28.7505598259
9.51635 31.7548 8.78889 26.8076261407
3.96493 29.4224 11.245 28.4599936831
4.81229 24.8961 11.6758 35.1460799842
-0.00195985 29.5993 6.20153 29.0452052503
2.63509 31.8297 8.89907 29.2492579288
8.61165 31.951 6.19646 29.9939770541
5.28949 31.4598 9.67223 28.0184604465
7.30473 31.3896 13.325 28.2604523662
11.723 21.0539 11.3639 34.3880264634
6.69288 16.5656 4.14243 34.8198989621
10.0791 32.323 11.7619 31.7066628236
0.216529 24.0524 14.3232 31.810882372
3.54715 21.2741 13.952 28.5346515049
1.33823 24.7988 4.01493 30.7087135484
0.654572 23.3034 24.2895 60.797415882
3.60133 31.9356 24.167 67.0093018251
0.207029 30.249 16.7369 30.1377838438
5.46814 30.7694 18.0627 27.9870203952
7.30991 16.8722 15.5834 30.5120315747
11.9139 22.8508 16.0746 31.8700417471
0.954475 32.2852 23.852 44.6099850082
0.724353 27.5326 21.6991 28.7654088439
4.2524 18.2734 18.0741 29.7708549974
5.42925 23.5794 14.431 29.8520857837
2.27273 17.2626 15.1137 30.1128592628
8.1235 25.6665 21.6105 24.2572448801
7.70908 28.5911 21.0455 29.6174065389
2.61466 16.709 21.3895 27.5615147785
3.95349 24.9689 16.3318 29.1336326701
4.97543 29.0421 21.4672 28.3120647364
11.2537 26.4686 23.7059 34.7612709393
10.7266 24.7011 17.8491 28.7836203026
1.09873 28.4889 14.5641 36.5100823101
10.8037 22.5289 24.4764 81.4866941338
6.81502 16.9777 24.241 79.2812341686
10.1535 30.6543 23.6416 33.9878714599
5.69662 28.1184 15.4737 31.8549508917
0.426507 26.05 18.287 31.9795813821
8.15336 29.402 17.8481 25.8654214209
9.45652 25.936 15.8106 26.1678176624
1.76142 18.6627 19.0652 31.8483236861
6.39548 19.5999 16.2407 30.4713218841
4.90979 30.8127 14.9412 26.4309816028
6.8966 17.8587 20.2119 28.1779686684
11.4742 32.3453 18.8318 28.0216622249
1.92369 24.3558 19.6455 27.4542399429
8.57102 28.6256 15.2871 26.1829870585
1.01981 28.7915 18.9549 28.4654034924
6.6199 22.5625 16.6498 28.6785802718
9.03876 20.8822 19.5923 30.2316798585
7.9721 23.5419 19.0351 26.1718715729
8.67316 18.4854 17.9834 26.9785844768
11.3982 20.568 21.3185 27.9121200672
3.76681 22.6733 18.1053 29.1108133755
11.8939 28.9131 24.6419 109.2051305511
3.28475 26.0816 21.1596 27.9502165895
3.84292 28.7992 18.9926 27.699066489
11.0336 29.514 17.7216 28.1477270179
5.62327 22.7353 20.2295 27.7806030656
1.25397 19.3185 24.3687 66.9234420335
5.21218 26.8679 17.8867 29.7661544979
8.01727 26.4784 18.4621 28.7165101662
9.54717 30.8802 20.5232 25.3556184512
1.65055 26.0406 15.8205 31.8960274134
10.7623 19.8419 16.6685 29.936766542
0.671453 19.7812 21.4761 31.298064963
4.29947 19.2787 21.4092 27.794429156
8.42062 26.5978 24.4136 87.4966927778
7.497 20.4242 24.2734 74.8521208623
10.3822 19.6294 23.9326 38.1294752991
3.17866 22.144 24.0081 41.6652330771
0.490143 29.6468 24.0738 65.1109334508
12.0199 27.4175 16.0603 26.1509801101
4.5716 19.6029 24.1484 62.8471503691
7.03496 20.5328 21.4028 28.0011315943
2.83502 21.8105 21.5874 27.2402200673
9.17895 23.1199 21.8573 26.149477149
7.88027 23.546 24.5185 71.9797691715
3.04695 16.972 24.1259 56.6470691515
2.53223 31.6964 17.0279 26.4277038614
9.08573 21.9764 15.2235 30.3774880712
4.97833 31.8248 21.7171 25.9006335883
5.55607 24.8671 21.9001 28.2784675029
4.88622 24.1003 24.6223 96.3185554426
11.0697 26.1213 20.944 28.4202783425
0.490908 22.0938 16.2647 33.7702429649
3.04192 20.5429 16.4562 27.696248904
0.66584 25.9345 24.2297 63.6445528372
4.82941 29.0703 24.1895 79.0386348755
3.43007 26.3655 24.1637 58.8187830044
7.58772 29.3414 23.9064 51.5870191648
8.25417 31.9024 15.81 26.7756164216
11.3352 18.037 14.6198 32.9316311756
7.01169 32.1966 23.7837 50.151379472
0.279441 30.5451 21.2802 29.6562326409
10.0341 16.9222 24.2336 73.7585561936
12.1933 23.4311 21.355 27.7232064626
12.1707 17.4907 20.4677 27.1585985165
11.744 29.1081 20.6718 31.1051206971
10.9059 30.1622 14.1843 27.8739633319
8.97593 28.3468 35.3534 90.2467368569
2.08211 20.8724 35.3115 117.5024825233
6.52502 32.4511 41.0102 27.912388527
7.78544 32.6814 35.58 83.417435376
3.20323 31.5697 39.5023 28.5578230568
7.33533 18.2209 38.5968 30.148901503
4.73411 18.5018 37.5529 31.1375236233
5.1143 19.2197 40.8171 32.3316085144
12.1414 24.4678 44.4811 29.5223058898
6.09156 26.5162 45.2564 27.8093133878
1.87952 20.0337 38.3637 27.6832252659
2.71468 22.8108 41.7877 31.4617557411
3.93545 23.3105 37.2059 34.3385632055
2.5145 23.7905 45.3682 31.3535592892
4.21289 21.7508 39.702 31.475470384
6.41633 28.2349 35.4815 70.6448940659
7.69523 22.124 35.6357 107.6970724569
0.448035 23.1117 36.3379 35.344001125
11.7886 22.498 38.2063 30.9950981351
1.18624 17.4113 43.9894 37.1597783408
2.9588 17.5207 41.5271 34.9440115644
8.90104 32.6293 42.3504 33.2145427852
5.0009 25.9563 39.019 29.5995557918
9.54924 25.347 35.8218 62.6352901144
11.731 23.7391 35.6978 75.6357959162
7.2792 24.36 37.0669 28.5278130227
9.52464 24.2131 39.3872 27.8651089006
6.69578 30.3496 45.3794 27.0919141419
2.76868 31.6866 36.4088 39.7729638927
3.75881 28.4671 44.7894 29.9723912123
5.51183 30.8655 35.5639 78.978542325
5.23844 25.9543 36.2156 47.6973907482
5.74109 31.2002 38.3017 27.2645057215
6.48898 28.5431 39.0352 33.1444246681
9.98292 30.9053 36.3965 35.351356052
0.670039 30.482 38.3641 29.1543935038
9.15952 28.9846 38.5411 30.357306483
0.938491 18.2737 40.0922 28.151628039
7.34485 23.2 45.1316 30.2786222004
8.67646 32.3211 45.1743 32.1595166573
10.1863 16.5496 41.1368 28.0812356399
4.42953 25.0517 41.8611 31.3687099335
6.9683 23.5096 40.2194 30.6960120721
7.19665 19.3526 42.6666 31.4745712981
9.69241 19.629 39.4027 30.4704843939
0.800784 25.6388 36.36 50.2837194462
5.82704 29.4761 41.4764 30.3671619678
9.72216 25.1751 41.7815 33.737798739
4.24409 16.5489 35.6421 98.2299655027
0.462714 23.9928 40.2263 28.7434624816
0.99693 28.1975 39.7461 31.0846755073
9.91352 28.3952 44.8704 30.3191063578
2.72881 29.2225 41.4238 29.4918043201
11.712 20.6396 35.6254 78.8275674675
2.23452 25.8484 38.7607 29.1913209709
1.64055 17.813 36.252 36.5261937684
3.28977 21.4548 44.0183 33.9749304483
6.14561 20.5853 44.64 34.946743293
11.136 18.3789 44.968 32.5653470683
11.8252 32.6994 40.1661 29.1479290116
11.5546 28.9468 42.7427 28.5092482659
9.81606 16.7859 35.6314 102.5655885946
10.6882 26.6561 38.2014 29.4339182314
7.05879 24.9133 42.9735 30.5555854537
8.5194 21.3474 41.2256 31.0059314624
10.7464 22.2475 42.8999 29.2776984278
9.81511 22.5488 45.6143 26.8331405343
3.03289 27.4123 35.3476 131.9883483414
7.46406 28.4562 43.602 30.9634742122
2.60916 26.181 43.6782 28.0167159676
1.02842 32.2106 45.577 32.1704956437
9.08862 19.6622 36.4089 41.8015975241
1.26292 30.0331 43.4841 27.5147251886
4.6382 31.6019 43.5252 29.9888564183
10.0925 30.3088 40.8227 31.7060476346
5.00339 20.8197 35.9601 68.7403573856
1.07534 20.1474 44.3177 29.6653254453
8.75822 17.3234 43.4169 30.8855187574
12.0622 28.0215 35.7682 73.9738143025
5.4988 20.7809 48.7079 32.2041371242
2.72225 19.5413 48.7833 32.5698760622
0.512814 29.8467 56.3212 33.7938368749
0.648232 25.7332 49.7831 31.5330180894
8.21412 18.7813 49.8252 34.793875501
0.596386 30.9654 50.1277 32.6576789246
10.312 29.6946 54.1363 31.9500106117
6.66645 23.7705 47.8058 31.5296820028
0.754527 20.4856 47.1208 31.5992547349
7.7093 17.6884 54.3459 33.8763142353
4.56074 25.4538 51.0219 29.5183932828
0.639877 19.8016 56.3261 33.2384575842
0.751718 23.0527 49.3596 28.9102378447
11.4332 27.9763 49.1341 35.7429376078
9.78089 25.1257 52.7837 31.4366607399
2.41007 27.8614 47.3272 28.2935169647
9.49893 19.8352 46.6922 31.2255092089
2.64422 23.0136 54.8474 28.1543872265
0.325173 30.0456 47.3393 32.0569799525
5.11626 31.812 54.7042 29.4281452034
0.52066 22.5392 52.7334 34.0318999134
8.25692 28.1392 55.3171 28.6747199668
2.06251 32.3001 55.7405 32.0968671304
6.57733 29.494 47.8361 31.9376066513
1.23243 20.086 51.0322 32.2327804775
10.6045 18.4238 53.625 32.3090250442
4.47506 31.5926 47.8558 31.6225623302
7.56114 26.9019 47.6882 31.2271277548
10.6341 25.9683 46.4529 29.3741456024
6.13535 20.3037 51.3958 32.0299651671
11.0634 19.4281 49.1819 31.652814369
10.9763 21.096 51.514 28.003834518
3.6494 23.5059 49.0518 33.5232478215
7.05627 23.1287 50.8007 26.7169500603
10.7323 23.5738 47.8871 30.2249582403
6.61058 20.2772 54.4561 28.2838439475
9.95526 27.6837 52.0275 30.2852565914
11.3966 22.2855 55.7684 32.6920144422
2.78666 27.5405 50.3766 31.0582846356
4.50576 24.3054 53.7113 32.821033181
4.59988 28.4216 52.7029 33.5757089602
7.08944 26.1223 50.242 31.7707846041
9.639 23.1862 50.5521 31.3478534501
4.37716 31.6355 51.7438 26.1528065169
7.41623 28.5102 52.408 28.5506936761
7.93698 31.1718 49.4699 28.4299663795
7.32237 31.0946 51.884 26.6201045585
8.19508 25.4516 55.5946 28.6411719711
10.5446 30.6517 48.6515 33.8233665431
3.61972 16.6245 52.6549 35.2671306426
5.66565 29.3505 55.8384 30.9413385266
3.66944 19.467 52.497 32.3686393364
2.967 30.2822 49.841 27.433173843
9.40806 32.2557 53.2567 28.6997568804
12.2573 16.7819 48.8366 35.2941050254
9.60586 21.1077 53.9491 29.643844092
3.93345 25.543 46.9575 28.4254409655
3.12384 16.8125 47.9743 32.7413899751
3.62067 20.4193 54.9754 27.6051821294
7.40551 23.5412 53.6052 29.1438849475
1.34668 27.3249 54.9372 35.5659743087
4.12891 27.1531 55.19 31.1186071648
0.296328 26.6711 45.7626 29.4332312782
6.87539 19.1423 46.8786 29.7474697728
0.0857906 23.8321 46.7178 29.2802305926
10.7212 30.7005 45.8181 29.5521782179
4.88174 36.0793 4.899 26.2957867284
3.96858 33.5307 4.71829 27.9688791976
2.15174 40.5803 5.51596 28.8147607848
6.61671 38.493 4.17884 30.9823871332
8.34103 34.541 8.07648 26.628628927
6.77642 37.0767 7.05481 26.7283970388
12.0347 36.9557 12.7624 31.1598848626
0.737448 49.0332 5.49822 27.4731056122
11.4253 40.6032 7.99136 33.0089554361
5.75892 41.962 9.61374 27.0303798385
5.87903 40.5294 7.29513 28.6877853548
8.7399 39.3626 7.37505 26.6511868794
5.15683 32.9253 12.288 31.2163212006
4.28692 47.9993 8.72623 28.918882626
2.46227 45.3731 8.0126 27.8117431092
7.68737 48.0076 13.1126 29.1433034409
5.16012 44.7482 8.78624 27.2556960025
5.87888 42.9842 5.62046 27.5958904955
8.48699 43.167 6.7992 30.0399937004
8.92076 44.631 13.4423 34.7703546829
1.82609 44.2921 10.7059 29.9759927692
1.24067 46.3445 5.30165 28.1323972226
9.55685 35.3243 5.60376 27.4509174551
12.0459 39.5746 11.782 28.8502306911
5.5663 34.2154 8.40778 26.7068010762
8.30382 40.5658 4.72372 27.1045878648
1.06679 38.5115 8.25979 27.1064203184
2.25735 34.0689 7.22304 31.3903268491
4.03771 37.2337 13.5146 33.8823506878
3.33543 36.0494 8.54273 24.997230245
8.38579 35.1376 10.7292 28.0800417615
3.87251 48.738 5.74027 30.424169908
3.53074 47.7562 12.7506 32.7409271298
9.1597 35.2577 13.7572 30.7513976322
1.08889 38.3977 10.886 26.9252536465
8.76664 37.9912 9.90784 29.2950935246
2.92932 42.0933 9.51508 27.5650081225
8.64963 44.9312 4.61639 28.136744123
6.31308 48.7982 4.06028 27.4475383422
5.43899 46.3663 11.1168 26.4769971634
4.45092 43.9746 12.1285 26.914956611
6.87539 42.4347 12.3685 27.5676223871
8.2355 43.6314 9.67572 28.8401987887
0.127644 34.4522 12.0078 33.2623560125
0.0544696 35.8566 7.8341 30.4761438948
1.66381 47.3128 10.9204 30.4412629916
11.5762 43.2808 6.86533 33.6037174484
11.3741 44.9042 11.862 31.49443083
5.08371 46.0102 6.15109 26.3872956859
8.36001 46.1883 10.8162 28.7865673404
9.81241 47.3259 8.79918 30.3669521405
2.91457 40.6166 11.8108 31.7079163427
0.285572 41.4409 8.24298 27.3809432598
5.57415 35.3496 11.1943 25.323530996
2.48516 36.1206 11.1797 30.6225464643
11.3639 34.8987 10.6192 29.1915914869
10.2779 48.7167 4.35757 29.423346856
3.74209 38.3647 6.88008 30.9170393813
3.21652 43.0703 6.08172 27.2383932096
5.86991 39.5938 12.2962 29.9427022195
5.84321 38.0351 9.78527 30.2412688788
9.19317 40.1103 11.9137 29.2987284131
10.5463 37.6624 5.84591 25.5400370639
11.3673 37.2863 8.60369 26.8264970257
10.5871 42.0908 10.2936 30.3867116694
7.92036 47.3183 5.99979 31.1927624742
0.953224 34.8605 4.13437 32.1032693404
0.945256 40.4314 13.7169 29.3304232219
6.41155 35.8219 14.2275 31.5847695872
1.31392 35.8648 17.0754 27.2389799578
4.18714 39.2198 16.8299 28.5649522675
3.07076 32.7878 19.9263 28.181246404
2.48915 33.3246 14.9067 32.0143713972
2.82181 37.074 24.6206 91.4132639929
1.73637 46.7303 18.7995 27.4709552085
10.3932 34.3687 17.4551 27.6405565381
0.86062 39.5609 17.9183 31.87093884
10.8182 37.1423 15.3258 26.0723206235
7.33093 36.9469 19.1625 26.8425282149
4.51722 37.2502 18.7174 27.0321275427
4.34011 41.7215 17.354 28.6055434064
9.67712 41.3172 16.8998 31.9126119181
7.7302 42.9957 17.6106 29.5974561849
6.23345 43.2326 15.1754 29.5056962296
3.2482 41.2768 24.129 63.5221327403
2.62455 44.2483 20.1919 27.6111952561
7.2066 32.7134 20.0755 29.8819031573
1.14677 48.2291 24.4913 71.0582026328
8.9471 45.0267 19.7891 27.0881749109
8.56769 45.5632 16.0556 25.4151724023
8.12336 37.5542 16.2478 28.4828564768
5.70031 33.5504 16.0487 26.5823645108
0.530459 44.4029 16.3385 28.0297760761
6.74293 46.6305 24.3159 56.3104790545
7.60663 34.4368 17.8122 27.4540079813
6.45646 47.2757 15.4931 30.0719768127
2.63831 38.6416 20.2678 28.7053946831
5.66667 38.5371 21.5821 28.8241021024
5.75347 35.7434 21.4668 26.7877237852
9.54609 36.4 21.2866 30.8423074067
10.1687 49.1052 21.4098 31.0413961394
12.2596 46.9176 18.4023 30.0593780508
2.78088 41.3432 21.2848 29.6982768675
1.7347 42.5397 18.0362 27.7166566472
5.91192 42.0406 19.5197 30.1744968142
7.79678 40.0929 20.8685 31.1098223406
11.0933 42.2117 21.6148 33.1154849872
0.594269 41.9959 24.2375 77.79621845
10.8265 44.5668 17.5363 30.0962064797
1.99666 38.4112 15.5644 29.5110586827
5.17966 43.9416 21.3399 27.9486749534
7.66651 47.4034 18.4121 32.488434246
10.5272 33.1165 15.1331 25.5546450252
3.89917 34.6434 24.4777 84.3340932558
6.63092 34.9116 23.8757 44.7848179751
4.70959 38.8933 24.4102 72.184661299
0.92333 45.3178 21.6978 25.7348886647
10.9268 40.2515 24.5418 89.1107272132
9.56009 39.7213 14.4966 28.6283420888
9.90754 33.5516 24.4535 97.3818543965
11.5652 42.8593 24.5309 80.7045349481
3.13776 35.2264 21.6466 28.3792086543
6.48224 39.8369 15.1612 31.6573547985
7.47607 37.786 24.32 79.6045072952
10.2122 36.5277 24.0424 57.8736708082
4.56282 45.6065 14.6211 28.1426619495
8.07348 40.5186 23.8702 42.8898658262
2.7133 42.9764 14.9305 35.0558606519
2.18615 46.7422 15.7289 33.3100353035
0.654065 36.9825 21.1061 28.5110702612
10.7433 46.1212 21.6114 28.0569786676
9.48401 39.136 18.5654 31.2083536305
7.41253 43.262 24.4309 89.6201788256
3.68877 34.8391 17.9341 28.8824589216
8.43261 43.0756 21.7184 26.2833185116
2.2013 47.8322 21.6779 27.3961946893
5.17547 48.7071 21.7572 27.7056840449
9.85929 45.2382 24.2128 57.4682035699
4.48639 43.8768 24.0703 43.4290086371
6.71657 46.0865 21.7182 28.5635839418
4.60839 48.5343 24.5928 77.5838721135
9.55428 33.7318 21.8385 25.2300175747
11.6252 37.665 19.8609 27.096449755
9.16932 48.2621 24.631 96.7936351496
10.1061 47.9728 14.9631 30.2337685542
0.339434 33.3934 20.943 26.4538570981
12.1603 36.5043 17.4504 25.5740856527
4.57544 47.3467 19.2258 32.5443952651
0.345103 44.6977 24.2694 60.0420106803
2.9778 45.8033 24.8002 93.7181250196
4.61153 35.1027 43.4072 31.5847781316
4.01403 41.5492 35.8801 60.9850663671
10.5336 42.8617 40.6272 27.1713196592
1.81603 34.4793 36.0464 61.212399724
2.76753 46.5848 35.8122 68.3394844381
5.31946 35.2439 38.5434 28.9998101385
11.4225 42.505 44.6722 29.0947713191
1.348 47.705 43.4516 28.0055504943
4.83986 46.1885 41.6493 30.9726941221
2.34595 37.3677 36.0456 52.3540516153
6.5197 37.2932 44.5918 29.7234760409
6.32142 42.9047 35.7887 73.9084213698
10.2198 46.4964 45.3724 28.944170632
0.398999 41.2316 41.1767 31.244935293
4.25642 39.2512 44.4242 31.4886972847
8.65747 36.0379 39.0894 25.2083046965
10.9665 38.1393 38.7325 28.8389013427
8.56963 48.538 44.6267 29.0897630422
2.57168 46.0609 38.6843 27.6978617283
0.0492585 37.59 41.4303 29.1791147891
3.58014 42.2273 38.6376 30.3198212579
8.68682 41.6836 36.0029 50.8698363025
8.83751 44.8588 41.1956 28.1261778083
3.27105 47.0491 45.4028 26.6184737409
4.81445 38.8934 35.5254 97.8718502728
1.90863 37.0848 38.6243 25.4787257368
11.1499 48.3035 41.0028 30.1362688443
10.1169 48.2217 36.2213 47.0758827885
5.45923 45.8018 38.7717 27.6741827166
1.57789 43.8666 40.0257 27.405778989
6.9935 48.1612 35.742 99.5631984155
7.69293 48.2662 38.5924 27.6121434092
1.98614 35.8403 41.854 32.7359876618
3.17027 48.5005 41.0653 26.4045029575
6.24389 35.293 41.0139 30.6190677234
0.224186 39.3172 35.3861 108.34939772
8.79349 41.5855 38.7647 29.3033743607
0.675212 45.0102 35.4324 93.5515995482
5.46778 42.795 44.8522 25.8487001443
3.27626 39.327 39.7594 32.1275758661
1.92741 34.1789 39.1054 29.3682336601
10.4652 36.73 43.6086 28.3783647108
5.39973 38.1322 38.3093 29.9165071018
7.68061 39.0553 35.886 64.0066484574
10.7746 40.7488 42.4213 28.944687106
2.57569 43.8624 44.3039 31.6239446511
11.6235 43.6771 35.7955 68.7235825336
7.84817 38.8554 39.1518 27.6600554046
8.02398 40.236 41.7225 29.37299098
6.335 43.2377 38.6366 27.7069940319
7.05429 44.5848 45.215 27.21989745
4.11872 43.2795 42.0499 26.7695735411
1.25437 48.3488 39.0082 26.007216325
2.93981 40.6082 42.0585 30.2962137778
6.94374 42.8073 41.5692 29.2553513698
11.5275 46.7953 38.8198 28.8005218498
8.77928 45.918 38.6144 25.8638132353
11.5896 40.8358 35.6354 73.1634349589
2.18255 37.2777 44.5011 33.2332153847
10.7335 38.3073 35.8807 58.5544638883
9.37681 44.4774 44.107 29.8108867428
0.753705 40.4595 38.318 25.6458498901
12.3318 43.1209 38.5791 29.3571779303
8.99156 45.1067 35.9117 73.9700342219
10.1067 34.6988 41.0915 27.835627289
2.07384 32.8155 42.214 29.4945668475
8.19476 37.2835 42.2836 30.3044540608
0.482083 41.5899 44.552 30.3130823757
0.602987 45.3225 42.466 30.8366997834
8.24403 47.9008 41.7789 30.3835708446
5.07357 33.947 36.0219 65.5620296751
5.8371 46.9147 44.1824 28.0739450873
1.2438 42.1224 35.869 53.4702166223
11.4127 38.8737 44.9016 30.476770582
6.95898 40.5632 44.4295 29.6218517392
7.80981 35.8518 36.0855 52.9688479027
5.34174 45.8577 36.0412 54.7756950553
10.8831 33.5218 37.8563 25.7848971311
8.0567 33.2111 38.3735 26.7008825517
10.3765 35.2163 35.5619 93.3633567384
3.7462 35.7774 49.4534 30.2295067244
3.54403 39.8037 47.165 29.5105639548
9.95634 37.155 48.5537 31.4429748071
10.9863 35.1677 54.4939 29.402256786
1.32472 38.1746 48.0759 30.5310363507
11.927 34.4375 47.2793 31.2219524043
7.23474 37.4837 52.7714 27.38461266
9.76689 41.8354 48.7885 31.1259637907
3.24118 46.0597 56.0291 28.3211504017
5.15618 47.09 48.2053 30.2549531751
9.21044 40.7279 46.1708 31.6085676469
0.0939012 41.1699 47.1217 32.4207346801
1.12271 43.6446 50.8153 30.8708573166
2.23963 41.8318 49.2033 30.5220569954
6.84955 42.6429 48.9439 33.5308642658
7.22102 33.4958 54.4019 27.4968114408
1.5571 46.2647 49.4769 32.0988665594
7.52705 45.3129 47.9565 30.3374454108
5.13962 33.5584 49.9759 25.7195780114
6.00178 45.4278 55.5607 29.0974086988
10.0446 46.6116 47.9674 32.2377895867
1.92269 37.3785 50.9388 29.3173973108
8.54415 40.5976 51.0262 28.3550690423
5.32959 38.1287 48.5972 33.0204825322
8.88429 35.4868 50.654 31.3839308208
10.2069 38.7046 51.5198 29.7407573676
1.99281 40.0717 51.321 29.1769537117
6.02731 44.1067 51.4831 34.0668690567
6.25681 39.2874 51.1246 31.5448682226
4.27512 40.71 52.7978 30.7580043793
3.15487 45.2163 47.1319 31.8000667174
4.37817 42.5387 47.4473 29.2420501855
9.07602 37.1933 54.8249 26.928598692
4.26764 46.5926 51.1618 29.203144004
11.0749 44.5991 49.5703 31.5731415242
9.32037 44.816 51.991 30.5050159639
9.527 42.1596 53.3005 32.9624976423
7.45505 47.5715 54.1196 28.9925552656
10.9467 33.8513 51.557 30.151055437
7.55684 33.9071 48.804 30.2901647686
9.54447 35.493 46.0436 29.8242025304
7.3581 48.9913 47.2612 32.1051806698
9.83939 48.6807 54.378 30.6410333726
8.85774 48.631 49.5465 33.3318585147
10.3489 39.1493 56.0871 28.681416693
3.26598 35.5439 52.8165 29.6010773954
7.65862 38.2716 47.1988 31.5987825193
6.05951 34.9566 52.3817 28.742904242
5.02221 38.5276 54.3474 31.3129067874
11.904 39.2612 53.7816 27.9428746927
3.10026 36.777 55.3441 29.1535880602
0.928927 47.8691 52.2403 28.4436358372
2.33098 35.5837 47.1399 29.3729213558
0.613212 38.0023 55.8043 30.0828113579
8.14694 42.5306 55.4419 32.1793280877
11.1413 46.386 53.0478 29.1168153907
2.21537 45.3724 52.8246 30.051929157
2.47848 32.9945 53.2568 29.2591354236
2.11525 40.6533 55.3862 29.1893844247
7.45634 46.8051 51.378 28.7638417685
5.46763 42.9523 53.8695 29.6630514043
3.4931 43.1549 55.8641 30.3092076021
6.58176 34.7945 46.2962 31.7722561762
3.12331 48.5925 54.0752 30.5381888557
11.0221 45.7875 56.0671 34.6527646775
7.3083 35.3521 56.1549 28.1840334716
10.2667 33.131 56.1432 28.3814684821
3.83299 33.4467 45.867 27.4922917178
14.064 2.02585 8.90451 29.4776727768
18.0592 10.6481 4.94368 31.7257831322
14.552 3.14832 5.79588 25.4068048828
19.3825 2.39792 6.06726 29.8937332211
21.2341 11.1111 13.4692 31.4787073187
20.8569 7.99874 9.64323 30.4619268981
14.9923 7.58376 13.2097 29.0193361168
13.867 11.677 9.66825 28.3841147004
22.8351 2.2841 13.1928 28.3257185288
15.3211 13.3069 11.8911 27.4604611539
15.8056 9.82977 4.16489 31.2943569648
24.1983 2.97056 7.20071 28.2919750381
15.4593 13.3275 5.1644 27.2700969519
22.468 9.43291 11.635 27.224522478
23.661 6.28988 5.28698 27.4889931669
22.0457 8.90964 5.08666 30.48864793
13.9544 6.92519 7.72591 32.2817807177
24.4194 4.82533 13.6638 29.8393802953
17.8294 12.8332 12.5612 31.7030489149
18.3019 0.414917 9.15003 31.1295781829
21.036 14.0257 5.14495 30.5458388386
23.0524 12.7005 8.57782 27.2276399847
24.3961 7.35864 12.0291 28.0485005914
15.2338 16.1529 13.1675 28.6088511201
23.0062 13.4971 13.6017 26.7645541336
19.848 15.1554 12.0651 29.3458559458
21.0507 0.382137 9.5133 27.7107793263
19.1941 5.02799 12.1791 31.5900243805
23.6744 11.9303 11.1104 29.216389699
12.5893 1.09942 5.54969 29.78061624
16.21 5.61782 5.90545 30.0564628737
19.1475 6.01799 7.28456 31.5602099168
16.9733 7.10749 8.66075 31.2117757662
17.9737 9.36934 9.65698 29.1271568447
18.939 4.65851 4.81718 28.9878500687
24.3268 10.4269 5.26311 29.5912917312
13.7735 10.4801 6.31201 31.3514434477
23.3807 0.517483 11.1035 24.8950488445
18.6533 11.1842 7.65116 30.9332510182
15.9131 9.83557 11.7183 31.2964364283
15.9202 12.2729 7.69801 31.2151055081
21.6772 10.0033 7.80766 32.1354859927
19.1632 10.245 12.0894 28.480658841
16.403 14.9288 9.26585 27.0109978375
12.5082 13.0177 4.91491 31.4462557453
12.496 4.80761 5.82123 27.1117451742
20.0667 13.5556 8.32828 33.9892015973
18.6108 16.1274 9.20353 27.7721192882
24.1748 5.22137 10.3176 27.7518795186
16.151 2.69567 13.018 31.7887327569
21.8837 5.96035 8.01833 28.2151204355
18.332 3.87285 9.21639 29.3940011317
24.1525 8.38012 8.91207 28.5470410454
21.5927 3.83046 10.3887 31.0916792154
21.4008 2.63672 7.7629 28.4545567586
22.1946 14.7953 10.4731 27.4286218417
15.7103 3.59971 10.5683 29.3636562789
18.2862 1.09108 11.9995 29.2248105253
16.6898 6.05751 11.2437 26.4767935584
13.9969 15.8388 10.2208 32.4557500671
13.8945 1.07962 14.0241 32.182673906
16.7852 1.90806 7.1165 28.3689405894
19.2939 7.74544 13.1993 28.696944996
13.47 5.7447 10.2196 31.973959988
13.4062 11.5393 13.1356 27.2391064344
23.6942 13.2408 5.39589 26.2382267018
15.8074 15.699 6.58569 34.5001971262
21.0879 16.2588 6.97429 30.6521122767
24.5191 15.572 12.5185 29.1255823443
20.0115 2.64395 13.8519 33.4566814418
18.2027 13.4364 3.98109 32.369302088
12.7766 13.489 21.4548 29.5971637148
20.6469 3.20616 16.6569 29.9035389292
19.5357 13.9453 24.3935 80.4146664388
18.5633 6.33901 24.3706 71.0361779347
23.9671 16.0958 20.7602 31.4415861533
21.1151 7.91938 15.2871 29.7138170154
20.0975 11.1623 24.463 88.9983614364
18.4769 13.6376 15.0611 30.5955016567
12.6567 15.8298 16.6217 26.717484829
16.7856 14.4531 24.3875 80.3411843325
24.1383 15.4766 17.9767 32.1995133784
14.8968 4.91759 16.5699 31.8470537679
17.3799 8.26462 15.0126 26.7340245578
15.0641 10.439 15.0729 28.0041189222
15.9093 5.68516 24.3318 78.8296485303
14.1317 8.17179 16.4661 27.3954659462
18.2401 7.13048 17.4077 32.9819656856
19.951 13.4631 21.6625 33.5411238511
12.3814 6.59289 14.6745 30.988462495
15.8758 9.84355 24.6117 103.3065609024
14.4731 14.0381 15.4197 29.4782169211
14.1519 12.1248 17.3837 26.7828487914
18.0746 11.0627 16.1569 30.1556556226
16.9685 1.37493 17.893 31.2866407526
20.1019 9.38363 17.4027 27.8172095326
21.7751 14.3408 17.4096 30.9093190012
20.9656 2.81166 23.6902 34.9083566598
23.8055 3.00958 17.4191 28.0809494147
18.759 2.17461 20.3495 28.8803385319
23.2319 7.14242 21.3144 28.6901279981
20.7988 3.89664 20.9988 31.1328915431
18.0922 4.18126 17.1315 32.6429738068
23.5091 1.51776 20.6851 30.0063736325
16.7016 11.784 18.3966 30.0503622881
15.1832 6.68658 18.7012 31.765690029
16.3297 9.34196 19.5465 29.8476206721
16.5722 3.58549 21.5749 28.5536669813
18.5042 5.74086 21.4894 33.3730757208
18.5961 1.99763 24.634 105.0222967724
22.8106 6.96842 18.0689 29.8147361678
14.7734 12.3542 24.4419 75.7372078638
23.2421 4.53213 19.695 26.8890646458
13.4359 2.51374 16.7232 30.8418180334
14.3817 5.64637 21.2479 31.0371136733
21.7498 11.7205 18.1761 32.8685869936
12.846 2.6443 19.4994 30.783367894
21.046 8.70093 20.0063 28.9975064785
24.159 11.0275 16.9961 28.0629720869
15.2764 1.4706 20.1067 30.6723788631
16.0141 14.1323 21.5592 29.0880018716
17.958 13.8064 19.8723 33.2241094398
19.7662 15.6974 18.7431 34.37353065
21.3386 16.1196 21.1753 30.9335715093
21.5808 11.1999 20.9251 30.4502340227
16.0 2.8486 24.1832 62.2766415921
22.3469 9.84491 24.1484 56.3755276892
13.7705 8.65605 21.3599 30.6018058651
23.4947 1.63874 23.6832 44.0614620908
13.8505 7.53309 23.9126 49.8272213727
21.0562 15.017 14.6666 29.4710997541
18.4322 9.13398 24.0112 44.2374280729
24.0492 11.5302 22.1274 30.0327981822
22.4915 5.16078 15.7707 29.5915334195
23.0586 7.00614 23.9459 47.1544038166
21.2383 5.29191 24.5885 101.6458124807
14.9944 11.4484 21.58 32.8813126965
18.5008 8.48464 21.0345 33.4605803489
23.5486 9.4078 14.8257 26.6041922078
21.4389 1.36427 18.6234 26.472281949
24.2785 16.349 24.0298 64.0401116405
16.9507 4.79755 14.5259 29.5979452294
17.1261 16.0678 15.4365 29.0908599658
15.7559 -0.145156 15.8911 29.2012771591
14.3856 0.314995 24.2099 83.8296080622
14.4311 15.7181 19.6927 28.2017422995
21.5037 16.1114 24.116 61.0550073622
15.0715 0.353569 38.755 29.3681982171
17.2636 2.52299 35.8169 61.0717496123
16.6626 8.0363 35.7587 81.6329160101
22.3138 4.28675 38.2863 29.2087363097
20.801 1.56978 40.3132 26.95267366
13.921 13.9351 35.4955 101.6384439503
13.1165 2.76462 43.8987 29.7080875589
13.7626 9.46869 35.5806 90.1909441057
23.1851 1.05533 36.1009 37.3622638546
17.2585 1.70591 38.3469 25.8077266298
13.3191 5.45713 35.8997 74.0950361868
19.4396 5.88067 40.1058 27.4449994668
20.799 7.52868 38.5528 28.0648573008
23.5494 15.4639 39.9047 26.1814311542
12.949 2.64583 36.2444 44.4593381147
21.7872 6.68425 35.8362 67.8463108989
23.5488 7.62588 39.7161 29.3283881888
15.1256 4.66353 42.641 29.165242155
16.901 8.63487 38.7202 29.8955820293
19.5086 10.3277 38.5262 29.7658014146
18.6354 11.5983 41.5513 32.7581730152
23.8129 8.23497 36.8436 29.9709934278
22.9167 10.6674 35.6027 92.4247888554
15.1355 11.8911 37.0084 29.6925438093
14.9186 0.823054 44.0578 28.2925171811
14.5431 15.0797 43.1468 33.2336477
17.5253 12.7475 36.0895 56.2322881855
20.1426 11.2297 35.772 73.628548607
21.2742 14.0511 36.1037 52.0395849301
22.7634 3.59585 35.4778 79.7585648546
20.1771 14.8067 40.9013 31.0290150438
21.6369 13.5743 38.8092 28.702468744
19.5152 4.17015 44.1542 27.8651671998
18.9711 1.53937 42.4854 31.567815911
23.0524 0.89521 38.9675 27.168317731
13.4647 5.4767 38.6324 30.398520432
19.6902 3.97043 35.5514 91.8165936605
15.8566 3.60676 40.3461 27.4400712463
13.6771 6.35916 41.4286 27.7108191696
18.4771 7.28253 42.3129 29.0427314061
19.7284 3.56634 38.6428 28.8165061916
21.4215 4.38138 42.0287 26.8533387004
16.5476 5.90724 38.801 29.0533722682
15.9983 8.1619 41.5476 27.055020397
20.2169 10.1473 45.6638 31.5232787199
22.0398 7.01096 42.3353 28.8748814973
22.611 10.5511 38.8253 28.2607319406
14.6557 10.7044 41.063 28.7026843287
21.1023 12.6668 44.0362 30.0074191407
15.6939 8.72623 44.4163 29.155702154
22.626 14.0116 45.5602 32.7627025678
15.7276 13.0145 39.518 29.8912088057
18.6903 14.0709 43.4608 35.4822390127
18.352 13.2838 38.7879 26.9326857251
24.0133 3.85777 40.6276 27.2709746919
24.4127 7.62594 44.1894 31.8128226223
22.2621 2.71451 44.4973 30.7953102836
16.3837 1.09664 41.5986 29.300353913
17.1032 5.60085 44.5556 27.8332641605
15.7607 11.4294 45.0917 30.3578606897
14.0588 9.69032 38.7281 27.9081337781
16.1117 12.9084 42.4198 28.0363537771
16.0775 5.25519 35.9198 63.4506276809
23.3502 1.20013 42.4745 27.8549912128
14.0429 15.4874 38.888 31.3516174434
13.3864 2.68322 39.0721 29.1745417918
23.8362 15.5996 35.436 106.6912934472
19.4664 8.31564 35.9236 63.1682095078
20.4379 6.64535 44.9299 28.4048340888
14.7476 0.490727 35.596 97.9568828589
20.3204 9.72092 42.8417 29.2799784055
22.6595 11.0779 41.935 30.0764089345
17.4763 15.261 35.6328 92.6916653539
12.5596 8.16888 48.8664 32.2543573259
21.3107 4.81143 49.1506 30.0454667406
13.9283 7.63583 45.9863 32.8700494463
15.667 15.0979 48.345 32.8756221104
15.6376 7.1671 56.3087 32.0772986811
13.2376 12.4268 50.6013 31.956916996
15.5989 0.659043 50.9494 30.5970536671
16.9626 4.86254 49.6597 29.0749265072
23.6802 12.0868 55.2464 28.8718891231
17.917 7.36982 48.6619 32.3048243411
16.1618 4.33025 46.9025 30.7010673145
16.9057 9.28443 50.0745 29.551930469
21.6878 9.49436 48.1072 30.7075217413
23.577 3.55165 50.6115 31.5340099992
14.9283 12.33 48.4624 31.3997373083
21.0511 6.17984 56.2008 32.5406219859
18.0051 12.0322 46.4464 28.5912177121
19.2587 15.8927 54.9993 31.1109269526
13.5908 2.39565 52.9395 33.0402962363
24.0956 2.0863 48.4693 29.1491719206
14.4418 3.56925 50.1749 33.246021047
24.4434 9.0003 51.6013 30.9607631753
19.0922 2.97468 49.2598 30.2689517487
20.8202 0.847738 46.2539 30.4747761485
19.4506 5.23616 51.7734 30.2277710206
24.3378 15.3025 48.5446 32.3998182315
16.3138 1.1649 46.5373 29.3747596248
21.0137 12.5823 54.9339 30.3346018125
16.3897 16.0588 51.9181 29.1295909782
15.2106 6.03575 51.8415 28.9734414696
17.1377 6.47205 53.8172 29.3483125108
18.1387 8.1533 45.8977 29.7577687018
20.6159 7.6203 49.6712 28.6379376077
22.2933 6.1782 46.8436 28.5340585942
14.3796 8.39533 50.8662 28.9358836448
13.8629 10.5451 52.6478 35.185076132
17.6805 11.7418 48.9653 32.1554632491
17.821 9.38348 52.4369 30.0579406185
20.2584 11.6954 52.277 32.0358980249
23.8045 3.92699 46.4627 30.4850234388
14.9945 13.7101 54.6324 33.77617466
18.8897 2.36853 46.6147 28.2495115364
19.0472 0.80714 51.1082 30.7278653451
18.7326 13.9579 50.5574 27.2837636737
21.9005 11.7709 49.8379 32.006005238
21.3784 14.6982 49.9508 30.4151562744
13.9322 15.3994 50.8372 30.0656383511
17.5023 13.7288 53.1879 30.2207744784
15.0084 2.49614 55.4919 33.1462358409
19.5011 2.72069 53.6277 32.8546369971
22.2772 5.78968 52.0245 29.0248476711
21.8167 4.22695 54.2961 34.7712533118
13.0459 6.32846 56.114 33.0903030838
23.3506 9.35018 54.4826 32.1254669958
21.4748 9.03045 52.0921 26.2961076555
19.8386 7.79783 53.9598 27.6918202913
13.5952 12.2244 46.0064 28.9868770629
13.718 4.48993 45.9176 29.1691998557
17.3412 3.98405 55.058 32.9231908122
16.1739 11.0631 54.0174 29.943921855
20.1978 0.241585 54.6171 29.9468013447
20.0296 10.1179 55.7361 30.3587233812
24.116 12.3708 47.6794 27.7252026837
24.4717 15.1206 56.1217 29.1469612641
24.0023 8.51154 46.7512 25.9193967946
24.1792 1.36184 52.2403 31.1833277875
13.2974 0.889753 47.0721 36.8954113305
24.3657 4.24588 56.0172 33.7601890215
12.9916 5.16127 53.4389 28.1106845621
20.9971 15.5142 47.4075 30.0071092388
20.7296 16.2453 52.2901 29.6135836563
18.1419 14.7266 46.2604 31.2983068586
17.857 25.9556 4.52568 28.2618740284
23.5219 28.909 9.71448 32.468019253
16.6678 22.1148 4.54377 30.3150671629
16.4841 28.3298 4.26098 28.6585149084
22.4553 23.5869 14.0935 27.7201893056
13.6827 23.9329 14.3066 30.212745472
15.9524 23.1361 7.34432 29.0356898197
20.8348 30.7797 6.63096 29.2292992724
20.5712 19.2721 11.75 27.3760238117
23.0422 21.0648 5.20876 31.2600919204
20.8426 23.7111 6.90292 27.933935761
12.9106 16.9655 8.02305 33.9817992013
16.3178 30.812 13.4056 29.1522823129
24.6187 18.5098 9.57953 36.7981301659
23.0028 24.2742 4.3728 28.5915867257
19.797 28.0938 6.32627 32.2027239134
23.2097 32.4444 4.2746 29.0008238186
13.0891 19.643 8.89047 32.0146556037
23.7539 22.9939 7.11794 32.0727304553
17.8931 29.6429 10.1 31.3585125309
23.8655 18.0913 13.8569 33.9771801199
23.733 27.4844 13.6736 26.8628351326
20.6199 32.3494 4.26962 25.9807354724
14.7483 20.245 11.944 31.4359011016
15.8413 18.0032 10.1924 27.4258726434
19.4924 18.8392 7.69771 33.816279543
20.5044 19.7892 4.986 33.7385151283
23.5854 27.2999 4.75158 27.4300237562
21.8943 17.6233 9.74885 32.1652279694
13.4761 24.7463 7.50292 35.7561027152
16.3929 22.6214 13.6228 33.1277780797
18.862 20.8473 9.64 31.2631038478
14.888 20.5901 6.94436 33.5125790308
22.0273 26.2783 7.03274 32.9773450092
13.2686 27.5023 13.1277 27.2435375937
15.2069 28.9383 6.46894 28.3116163395
14.2629 26.9998 9.13311 31.4621762318
16.9158 27.8939 12.2633 31.0900539258
18.0487 25.0681 7.23212 28.539124222
22.5486 25.1192 11.7813 29.2750642685
20.8874 29.6079 10.4381 34.2156268619
15.9235 31.6596 9.74182 27.7604319401
14.1768 31.5299 7.74103 27.3074119188
17.7576 30.9272 6.85459 28.617537262
17.0366 27.7424 8.07387 27.4618002452
23.4096 16.7757 5.77221 27.5409868084
21.4285 32.323 11.2533 30.5663885316
23.582 29.5385 6.67856 32.2783717254
13.7991 17.3228 4.86509 32.1036273709
19.5571 22.5452 4.88013 28.7589278274
19.9173 23.173 9.52093 32.2182068283
22.2922 21.75 11.6405 29.3144437363
14.1507 23.1864 11.3352 29.0508202805
13.007 30.1639 4.79369 28.1250160884
19.4581 24.8804 12.4672 32.8284988245
16.558 22.7713 9.91181 28.6104847272
17.7688 20.0767 12.3878 29.2360524933
14.8894 32.2936 11.9001 26.5864691115
16.5971 18.3929 7.41938 29.5858137715
14.7507 25.8681 11.7009 26.8402087362
17.4648 25.5109 10.209 30.2700896825
23.7757 23.2785 9.89762 28.9530530999
24.5994 20.3016 12.0768 31.3275049463
15.8938 19.2812 4.42426 28.644812725
20.6914 27.6384 12.751 31.3717276532
23.3364 30.4831 12.6384 26.9847160962
17.9027 17.2179 12.2056 27.3080453256
24.1399 26.3345 9.13674 28.0117791531
21.2186 18.0841 14.102 26.5032991791
24.6191 18.8592 6.71364 34.0972735982
12.5552 30.5973 12.106 31.1079007639
15.393 32.1183 3.95485 28.6750458866
15.6896 17.1165 23.7131 35.818878838
15.1215 17.2985 17.2546 28.5783355148
15.4905 27.6787 18.5922 27.0618798339
23.392 25.7908 16.0157 28.5058306948
21.7255 19.4313 16.5741 28.495317785
19.0142 28.0286 23.7622 34.7117410745
22.9162 21.6198 17.9256 29.7738972388
19.3827 30.8151 24.3835 64.2980505544
16.8515 22.1745 18.2127 31.0367211266
18.5068 18.2784 15.5476 29.8858355655
18.6244 30.7971 17.6599 29.5600647469
17.8129 25.1312 14.7475 31.0004208573
20.9486 21.546 14.5222 32.369715103
13.1995 30.6919 15.8479 25.080875172
12.9383 26.7674 18.8026 25.7477603343
16.8204 31.8272 24.2717 70.0715305668
18.0639 26.3798 19.0344 27.4267066064
14.9863 26.1505 16.0297 32.0106263017
15.0831 28.8305 15.0435 25.2120311726
22.3948 30.6181 24.0092 46.4575892678
13.794 21.7148 18.1384 32.0575674227
16.6561 21.32 24.1022 91.7370187553
15.9213 30.2282 17.4278 30.475384168
24.2411 18.1426 16.9166 33.9373104391
22.9761 32.2692 17.1163 31.1107197677
19.9109 28.0778 17.66 29.746309495
14.3933 32.5515 18.0678 28.9728902889
16.9801 19.217 18.8654 29.9576119744
17.7087 18.4515 24.4579 92.9828307056
19.7279 18.683 18.4643 30.8728360619
22.7313 20.2534 20.487 28.3529465378
13.8582 24.2626 19.2289 27.5904160769
23.6676 29.5144 17.2092 27.6701681569
18.0687 21.1645 15.5567 33.4751544218
18.6872 24.2396 17.4118 29.1507507909
20.7891 23.7357 20.3579 29.0469843536
21.3662 24.1589 17.6532 31.1581973016
13.0824 18.8561 18.2067 26.8468304279
21.8338 29.8268 15.0042 29.4045765446
22.2402 27.3913 18.3159 27.5738980107
22.8471 27.464 20.8466 29.4206466193
14.4558 30.1095 24.243 50.6975307562
14.1582 30.4871 21.5784 29.1819446529
16.1005 28.4333 21.3468 29.8367157651
21.086 29.7882 21.858 27.6528307275
18.3224 29.6944 20.4034 28.3439993656
13.0264 24.5201 24.2669 86.9864849011
17.6648 32.1048 21.714 29.4199117153
21.141 26.5421 24.5551 101.3204058193
15.4658 17.9454 20.9939 29.8415802567
13.8853 21.7042 23.5392 35.8821366249
18.9048 27.8615 14.8494 29.5658178894
17.9443 20.1802 21.6429 30.5553774657
23.4486 28.0193 24.4633 73.1320449399
16.3386 28.1048 24.5225 104.3484079663
22.9781 20.0749 23.794 54.3898143436
20.6192 18.4895 24.3932 94.7250959814
20.461 18.8975 21.1349 30.5214169504
21.3714 32.2054 20.4852 29.0585332175
13.9803 20.5166 20.6089 28.1056076145
17.7511 23.8612 23.3698 47.9363616181
14.0811 18.2933 14.3416 37.5133535943
20.8456 24.0099 23.7762 59.6586000833
18.1105 22.6726 20.5566 29.2049191774
22.9772 22.6471 21.2476 27.348016022
23.5181 23.0418 24.3346 83.7656260366
15.5451 25.6052 23.5302 41.5498051811
16.0903 25.1131 20.7717 29.9999520803
20.2667 26.4328 21.3786 29.4776451815
18.7298 30.7241 14.7933 29.5988447692
13.0034 18.9309 24.8318 127.8254795387
12.8602 16.7897 23.1304 27.158455246
15.1424 20.3596 38.6511 25.8366295365
15.8799 23.7107 38.6065 27.8191825454
18.2041 19.4915 40.3816 29.7949933789
23.3536 17.8993 38.7651 27.5286170435
23.874 18.0891 36.1808 37.6244525662
21.232 18.7208 35.6876 78.8636029136
14.0021 25.4649 36.0304 46.8535769071
22.9655 27.3809 45.0099 31.0796640859
14.7418 17.197 41.4296 32.1919820009
14.6747 23.6011 44.9072 31.8355125862
18.161 20.9447 36.3992 35.9608131666
19.3405 24.5191 38.5109 30.41099096
18.7019 16.3184 39.0409 30.8927723135
21.0408 22.4297 39.9433 28.9815548835
20.8894 21.6458 35.4082 89.6437995288
13.3941 26.0644 38.9339 28.6469581712
20.0732 16.4055 36.3896 35.1748400648
23.0252 20.5161 43.8773 28.0150317031
20.7532 18.5719 38.5994 30.2221884594
24.1066 27.4231 42.2481 28.3676481896
19.202 22.6272 43.5298 32.1979359122
15.2355 31.7619 40.838 30.5850142116
13.2092 29.7016 39.9739 29.9937893044
17.0659 32.4844 35.9895 51.9987826128
18.4867 29.844 35.3597 105.9069020751
17.3531 29.6566 37.9473 26.2205727635
21.0896 30.7848 35.9037 56.0108033007
17.0311 32.4052 38.8406 26.6992585763
20.0884 30.0855 38.5505 28.6872389412
18.5321 19.6629 43.132 31.8059585354
16.2425 17.7207 38.8485 26.8365343488
15.6589 27.7409 35.805 75.9872853211
12.5131 26.4156 42.1991 31.7347309551
18.5126 26.5698 35.8205 57.4280835232
13.174 30.4536 44.3537 30.6422892376
15.4708 19.9002 41.9746 27.3214475044
16.9501 18.6153 35.9464 74.7885356096
18.1422 22.0462 38.8037 27.0396164405
16.6949 23.614 42.8318 34.3784013175
23.9986 24.7453 44.4698 29.3282085535
17.0964 26.5836 38.6509 25.8172506458
14.9473 27.427 40.6596 30.405399444
18.7272 27.3897 40.2206 27.0728042848
18.1293 26.0316 42.6178 28.2800151923
21.7771 26.8867 35.8262 67.2572015897
21.2441 27.2708 38.6163 28.5494331942
21.0504 24.7445 43.7494 31.5042610008
22.3758 28.9026 40.8457 29.5495759164
20.2686 29.5342 43.0688 35.8831004772
18.2848 30.4223 41.2117 29.9389639493
22.0482 24.616 40.7076 31.6620214078
14.6136 20.8946 35.8381 67.6540651992
16.0794 19.1286 44.9499 32.8334062564
14.6656 16.2569 36.1746 38.4510505814
21.243 19.9784 41.3882 27.8638235237
20.937 18.4726 44.0538 32.1212854735
12.4988 23.4699 40.8863 28.5256349162
18.7501 23.9949 35.5879 79.0132777795
14.9219 22.435 40.6952 26.8354720914
23.5914 24.6149 35.6805 69.6096604549
16.2478 27.4405 43.4718 31.2256154035
15.8414 23.4355 35.7261 75.3565343524
23.0211 31.9017 45.6766 31.5510215847
14.1461 29.8513 37.4471 30.5434293923
15.6754 16.3616 45.6607 32.3491396982
19.877 26.9685 44.5883 31.5238414392
20.0973 31.5334 45.4138 28.9503461183
22.3059 16.2753 42.3532 34.4630156683
23.7265 21.8992 35.391 89.1518346245
14.1152 20.9589 45.6651 31.2684612494
15.9546 30.2849 43.2856 30.8266675339
23.2572 31.8981 40.5811 33.1996340479
23.5434 29.1411 35.7276 82.4136946478
23.309 22.0204 38.2362 29.2609105471
24.1921 28.7667 38.5488 30.6538958778
24.0537 20.0484 40.5332 28.3637587965
17.7141 32.4598 44.1456 31.9025593544
24.4554 24.5147 38.5862 28.9719942322
12.8043 20.0862 43.3626 28.5841887319
12.5046 17.8727 35.9426 59.6431500052
12.7551 31.4744 35.8918 78.5815929713
12.298 18.4419 41.1666 28.8047117934
12.5127 19.3962 38.6404 28.5896003529
14.9597 28.0247 54.5056 28.116870193
18.1681 18.7075 47.0864 32.182147274
23.6859 20.1528 50.5795 28.977142789
12.9875 30.0864 54.494 28.1776646223
21.2427 27.2757 52.877 31.4186853512
20.8378 23.5072 55.235 28.5739361417
16.4846 19.0258 52.1771 27.9887995845
14.0435 24.8254 49.2684 32.0241265339
23.6684 18.9425 46.1719 31.7868342591
22.9471 16.6077 53.673 32.0397047603
14.7385 16.8341 54.8906 28.0310301319
19.0174 22.1138 50.9383 32.0947130657
17.2058 20.2797 49.3334 34.5129383647
21.0216 18.1564 46.9841 27.3166419588
21.021 30.8148 54.736 26.4363991279
22.7595 22.9023 48.6472 32.9565708151
18.3593 16.4634 49.3795 28.3369501118
18.2573 27.9451 48.9579 31.0618886724
16.025 24.5191 47.1726 30.0854837827
21.4716 25.2143 49.629 28.6646797175
22.3919 27.2312 48.0904 31.7882818033
19.4393 25.9401 54.9164 31.721625396
24.3274 29.5483 46.5607 27.7356410698
14.5857 28.908 46.4478 32.8540342291
16.7453 28.695 52.1563 31.6201473452
20.3341 19.1915 54.5132 27.8453684974
14.5965 22.1264 49.261 32.6354566649
13.8141 18.8477 53.0515 30.6992802533
19.3501 18.6392 51.1292 28.0296213571
24.352 30.4619 55.0237 29.5925064981
17.9311 30.7152 56.1356 30.017317602
21.6959 22.401 51.2612 29.2439275407
13.6675 21.9484 51.8657 27.0994270755
23.1669 23.7177 53.2123 29.9602603874
23.4911 25.9635 51.403 26.8980106291
13.1138 26.7986 47.3846 30.8380491174
18.8193 24.9375 49.6173 32.8124218047
17.0572 25.8704 51.7693 30.0872209741
17.192 24.2355 53.8242 27.3223408898
20.0206 28.8373 51.143 32.5279562683
21.6607 30.1808 49.2844 33.1509023458
18.0884 22.5505 47.5595 35.8776952816
14.6103 30.2995 50.563 30.8140087572
21.5625 17.0237 56.1771 27.6277560186
16.2135 30.0458 48.4343 31.7361100169
12.7647 16.6281 46.2059 32.0472130131
12.6907 24.1164 53.1842 29.9076181969
12.9972 28.2667 51.9851 31.0612973929
19.054 21.7065 53.9391 29.5029989296
16.0045 21.5233 53.2448 27.3818838337
21.7157 18.6415 49.8085 34.5712449078
17.2032 32.4734 48.5258 28.0387738086
15.9771 32.0296 52.3158 29.1728976785
13.5251 25.955 55.3662 30.9193418703
22.9497 19.482 53.5211 33.0175242052
14.4309 25.6974 51.7536 27.9432089431
12.4422 21.4168 47.6995 28.6388581418
12.5125 32.5846 49.4341 31.9062731761
19.8203 21.359 45.851 30.401706749
18.5414 31.0042 53.4083 30.3562349978
19.9393 29.2506 46.8304 32.1315820424
17.3662 18.001 54.788 30.6812039907
23.8153 27.9876 54.0351 28.9748615631
16.9052 27.109 46.292 32.4058326706
14.0684 20.7747 55.1161 31.6890284335
15.6888 24.3624 55.8839 30.0992716044
24.4406 28.4179 50.0917 28.8173831007
13.9779 32.6131 54.0676 29.016763543
22.7599 32.6842 53.1443 32.9765243389
21.155 28.4236 55.891 30.4089479795
22.5578 22.4568 45.8862 32.5496194975
12.3164 34.0059 7.98917 30.1489484741
14.4879 35.4684 7.64189 27.1413039753
16.3492 33.5375 6.67393 25.6843496588
13.3804 39.7995 3.81379 31.2956285494
15.1238 48.7224 6.0736 27.6277015666
14.1424 35.0916 12.0722 27.3683370278
15.6833 46.6534 12.4834 32.0877263646
21.3474 45.4778 10.832 32.0142762305
21.7427 41.3849 7.20942 34.6441756587
14.5379 48.4149 8.99656 28.0725475799
15.6087 41.7839 7.04006 29.9005257193
22.8672 48.2105 7.79269 29.7759287804
19.0293 40.1299 6.63355 29.9889936536
16.8384 47.1933 10.1431 31.2750419863
17.7554 35.1331 12.5353 29.6255051631
18.0882 42.7088 5.80628 30.5454693031
18.8045 32.6121 12.3846 30.6353582926
20.079 49.0276 4.69402 32.897375762
20.49 38.2235 5.05524 28.4151073782
23.7966 45.0007 12.0884 30.9592582315
13.5314 48.4076 11.8186 29.3694146726
17.8395 47.1367 5.41375 31.2501887894
22.2253 43.8609 6.22846 31.6002374667
12.8828 44.079 9.4246 29.7383740712
17.7477 33.8685 9.40375 30.9526063924
22.8068 38.4098 11.2002 28.4526344714
19.7159 36.3696 6.8453 30.5549889272
21.5728 36.4338 9.1368 33.2198812841
19.9232 40.7848 11.1081 31.6951677016
13.4737 37.3028 5.72351 29.0568232369
16.9758 36.7249 6.01314 29.8841735691
15.376 36.4911 10.217 30.2070412427
18.1033 39.6238 9.38668 32.0520673508
15.6729 39.3443 6.08027 27.8951722712
22.3184 40.9834 10.1339 32.1765775746
15.2316 42.9356 9.54702 30.4694902794
19.2886 43.5406 11.4677 41.796174497
23.9019 38.0765 7.8678 29.5485896204
18.695 45.1393 7.07756 28.6155486165
24.5227 41.8197 4.25119 27.8712408495
13.2147 46.5695 5.73602 35.4178185881
20.8528 47.63 12.2344 29.8058562803
22.9921 39.5194 5.623 30.0563413435
21.1577 45.7335 7.98777 33.4479755485
12.3771 33.0611 5.0947 27.567602056
20.1926 45.0363 4.44305 31.3259722531
18.231 36.943 9.88779 29.403671188
20.4227 36.7192 11.9846 28.3282073989
23.2366 34.2492 12.8822 28.2783999847
19.4908 33.6601 7.071 28.3075955056
14.2313 44.2816 12.6195 32.3303678364
13.4994 38.5699 9.47187 28.1150601744
15.62 40.3478 10.3906 30.8776091633
13.655 42.3242 5.25605 31.5057512585
17.5372 44.6686 9.47268 32.8965617845
15.4605 40.7338 13.191 34.9173521075
24.3962 33.6366 6.77787 31.6556335198
22.0663 33.3012 8.6074 31.6665460731
20.2515 39.1952 13.2546 31.0964712574
12.3666 46.7115 13.8034 28.5278680853
22.9337 48.7395 5.13048 34.1847667956
12.3155 46.6993 8.51244 29.0386995133
14.4662 44.7479 3.95126 31.7213973425
24.5616 34.318 10.0573 31.2722984697
23.034 47.7817 14.2509 29.0734701115
17.5703 48.2451 13.8949 29.847528554
15.2109 43.0276 14.8766 30.9020536303
20.8027 33.1241 15.3393 29.8815892672
18.6028 35.4331 18.2823 30.7043376255
19.7795 44.3907 14.8383 35.8038096633
15.293 38.1218 14.6233 28.9233335395
13.4335 33.0869 14.7237 29.2922833851
15.7985 35.5776 19.5061 26.8763872815
16.3045 38.0978 17.8774 32.7834409408
15.2299 34.3389 23.8455 47.6220981343
18.5006 36.257 15.7404 29.3467481456
20.3365 40.6717 18.4563 33.1687307247
23.0383 36.7899 24.2455 72.8201496583
13.441 46.5263 20.9116 28.3328495192
15.3638 48.3753 21.7231 30.2225624654
13.6767 38.7331 16.6126 30.4873514783
18.1062 40.8518 16.8444 31.4245065575
17.5562 43.4906 16.1302 33.0935041523
14.8235 45.3196 24.5755 107.0381276483
21.8547 44.0687 16.225 29.5524032253
22.5441 41.4303 16.759 33.9350513347
22.341 47.9097 24.1781 85.7254393452
19.9004 47.0255 14.7139 28.2157907793
19.6528 48.678 21.3967 29.1706610735
