27.0504 40.8224 15.4972 26.9173012068
20.1025 43.8595 18.9365 27.2842785077
23.6375 35.8168 18.8076 29.2200446215
29.6875 42.3 14.9564 30.9891443396
26.7254 38.7543 13.4999 30.9095849648
27.2624 42.2485 17.7356 29.9949213867
26.3028 32.7987 19.506 29.0836759695
28.2698 34.9532 13.8006 28.9238580612
21.5635 41.7288 20.9674 29.8017324754
27.8386 34.5 21.0738 29.6746120216
22.1215 34.7299 21.2401 29.6917110178
21.1922 37.5692 24.2626 95.6412485555
28.5603 37.6451 24.4079 93.1149820621
23.6589 44.5677 24.2869 65.0795394529
22.0615 34.7111 23.9254 60.3434184482
25.0552 34.2636 24.1159 64.3822667902
28.1482 33.2709 23.8 50.1471770155
19.8301 48.5457 23.8257 48.0751828484
25.8275 36.7498 24.4579 92.7694925829
23.655 38.4024 23.6931 34.1833722209
21.8362 41.8735 23.9639 46.0172537008
26.5082 44.3675 24.6981 97.9810839267
27.2742 41.5281 24.4085 73.5858603286
29.5258 46.0681 23.958 58.3966806366
24.2894 40.9235 24.301 77.5596086274
27.1005 47.4481 23.9961 56.9143455544
29.3795 40.081 23.1417 26.3130142075
21.6353 46.0079 21.5906 29.1150571405
19.8988 43.957 24.6633 96.4676524685
22.0995 47.0252 24.2295 79.8644683045
27.6287 43.7082 22.0036 26.0789914214
23.5112 43.8891 21.6774 28.6818442048
25.9813 47.8041 21.1196 34.1028952099
20.6482 37.9815 21.4338 27.4087652329
26.0173 36.6438 21.6413 30.5365702322
19.685 40.0582 23.6964 39.1985353447
24.1991 40.7422 21.3663 26.2646608758
22.4072 35.1261 38.0768 28.9218935013
25.2769 49.0299 35.269 121.9538882239
28.8096 35.6685 36.0427 62.0431227015
25.6875 36.925 35.8995 66.9121502074
24.5547 41.3716 38.0412 27.323239054
22.2968 40.1963 35.61 80.0494737285
28.3639 45.6389 35.6336 96.2285484188
27.6263 43.3179 38.3303 28.3488121373
28.4767 40.067 35.8007 74.2210804577
24.9127 34.0809 35.7288 77.0648716244
20.0434 42.6899 35.9097 66.9311545544
23.1304 43.03 35.7523 73.6473842503
22.7598 36.962 35.975 57.2800657966
25.3144 39.8177 35.9234 67.8391553889
24.7161 46.6835 36.597 34.2154863106
25.9059 44.0736 36.1438 58.086122718
21.7373 45.6286 35.7732 79.2033636831
20.0028 36.6397 35.6271 85.0983660791
20.9305 32.6735 37.3549 34.54786795
27.2448 46.6035 38.0734 26.5942435741
29.2478 42.6675 35.8963 67.0346023215
20.2271 41.0567 38.3443 26.0730105269
27.4036 32.8411 35.9983 63.3306426823
22.4887 39.1537 38.2339 32.3275360239
28.1348 39.1983 38.5397 29.2499027678
24.89 34.3392 38.3884 27.4849629612
21.0195 45.2582 38.6226 29.0586305051
26.5065 36.8382 38.6197 29.8365912642
29.2853 32.8572 39.46 32.3191196068
25.8701 43.8674 47.4223 28.2360187179
27.388 37.7464 45.7377 29.370386171
24.9379 48.3605 44.2125 30.2674500933
25.0552 34.3069 41.7336 31.5909936082
26.6014 33.391 46.8227 32.0069811235
29.2847 43.6056 44.8591 27.414364685
23.0352 42.052 41.964 28.5504357344
19.9787 39.346 40.6626 29.2150318318
21.1707 42.1223 44.31 30.412507154
22.509 46.1656 45.2759 28.9921414457
22.8398 33.3051 42.3421 27.6030028136
28.8079 35.774 39.0138 27.9939286029
21.8517 44.7854 42.7501 31.8587435638
25.0792 39.6844 45.4991 28.4048687036
25.9878 48.4409 41.5965 28.7790549287
25.3404 43.5673 42.9716 32.3321239029
29.3536 45.5776 40.3229 27.4268372506
26.0262 37.0395 41.9429 35.1471624562
29.009 41.7287 46.7571 26.2805477836
22.2365 48.4752 43.2291 28.332461214
26.4176 45.0499 40.5435 33.8834052054
28.83 41.3758 41.8947 30.6249320314
24.2031 47.1218 39.6403 30.2110385736
23.1042 35.7082 45.8332 30.3781064873
28.2772 33.3184 44.0952 28.9312925114
21.2697 36.826 44.0228 28.3292127892
25.9316 35.3198 44.6399 30.1982201292
24.9846 39.851 42.3709 32.1599259838
21.4274 36.8568 39.9068 30.1360001172
21.6943 46.8485 40.593 24.9784793714
26.5047 41.0035 39.9758 29.5665981438
27.9476 45.9275 45.7442 30.4328308561
25.2909 45.4965 44.9605 29.3693074821
21.78 39.6011 43.1208 29.0518102428
20.6732 39.0825 46.0539 29.9764787472
27.1313 41.3156 44.0119 28.0218482454
19.8943 48.108 44.1043 27.5791457673
23.9212 32.8859 47.3147 27.1244973707
23.4208 42.2898 46.2776 29.2286291553
29.4363 35.8843 43.8898 34.1361276433
20.8952 35.1374 42.0747 36.618963366
28.7561 47.9291 41.9 30.5022028073
28.7462 37.2216 41.4729 31.2708145846
22.4403 42.8208 39.3483 32.7791196655
24.3837 37.5812 47.4779 26.4938992478
26.4934 41.323 47.3406 28.0044280521
20.2256 39.2152 51.9488 29.5764332428
23.1741 37.1643 49.9723 24.9933211446
28.7487 44.414 48.3387 27.5092809095
29.1549 37.6722 53.6554 28.711350815
20.3708 39.7849 49.2075 27.4810131845
20.157 36.0072 52.3 29.1350190529
21.2434 43.7988 52.7884 30.7458379039
23.7959 40.0463 50.6287 29.7730165799
22.7624 47.3716 51.9802 29.7665642374
25.1431 46.7902 50.4998 27.8726144778
27.3094 37.5859 48.3259 27.8272799815
26.6529 39.7569 50.156 30.0135931837
22.9053 48.0849 55.3595 28.8301474334
25.2971 44.2382 50.2886 28.5111277341
20.0492 42.4755 50.3507 26.0861570969
23.0796 46.9783 48.1718 30.6386098665
26.0624 45.8396 53.6634 28.9487710427
20.7475 48.5497 48.2231 31.6927346115
20.0467 47.7362 51.0127 29.1258530171
20.5887 33.5528 51.0391 26.8403557558
23.6395 34.1718 50.2924 27.5970976537
26.3963 39.041 55.2693 28.265043855
26.7105 38.0621 52.6139 30.7608617264
25.1627 35.8075 52.349 28.1568026974
28.1889 43.4685 55.1136 29.974571648
20.9448 36.4227 55.2633 27.7430443514
22.7042 37.7651 52.8807 26.543768358
28.8127 40.7109 54.8437 28.1413613087
22.7157 39.922 47.7541 25.8450777316
23.5217 35.1739 54.6709 27.1481657246
28.7011 44.7163 51.0559 29.5871506987
20.4324 41.2874 54.1086 29.6580508401
23.7627 39.7733 54.5904 28.7496364736
28.5953 41.1341 51.5336 28.5338442845
27.7784 47.3352 51.2672 25.7362743148
22.9755 42.6613 50.405 27.136430841
26.0969 35.1727 49.2541 37.1070961707
23.7827 42.3433 53.7058 30.5255197428
23.4169 45.7485 54.0654 27.5010035464
28.9392 33.4497 53.017 33.5666018389
27.618 48.7372 53.7349 27.9320862879
26.6159 43.0712 52.5787 28.7258732898
20.7733 36.5646 49.4394 28.9982999324
27.8726 48.5628 48.736 30.5494711455
26.3389 33.3827 53.8422 28.6789656784
22.3603 44.12 48.1243 28.1725222147
25.6794 36.4386 56.1865 29.8168422345
27.4025 46.4187 56.1137 30.8221182267
21.3851 34.3014 47.798 28.8633812091
34.8297 12.0552 6.32776 29.683476305
31.0505 2.42989 8.79155 32.2403164488
32.6983 4.18256 5.45018 28.530362034
36.0857 -0.0804163 9.52688 30.5531847359
36.7879 2.46335 8.31004 31.5670592198
36.867 16.3714 5.39091 28.5139738988
34.452 13.616 10.3945 32.3282009374
30.0016 12.2465 9.52534 34.7372691402
29.9206 6.69559 9.14228 28.0826545529
38.4173 7.14833 4.80033 33.3682359112
35.3892 4.77613 8.85802 30.8941524901
32.8435 6.9304 4.98138 29.1119725077
33.2906 12.4249 4.08246 26.5414709675
35.2758 0.570483 12.0417 32.7568505382
34.8922 11.025 8.99814 29.495966463
35.9817 9.41327 6.14503 28.1898222032
38.7719 9.63954 5.86702 26.8392619636
32.2734 0.408341 7.02156 35.0597747229
37.1446 16.1629 9.88232 29.370409992
30.7121 14.671 7.89116 28.9090052463
31.1198 10.5663 7.62282 34.1799571369
32.1234 15.3281 11.236 29.6090216249
32.5814 15.2075 4.67784 31.8533426864
29.9775 7.33674 5.23544 35.0106756882
33.1172 8.89895 8.98346 28.1756611293
30.9368 12.8462 5.69622 30.8049894886
33.5905 10.1154 12.0988 32.6666269772
38.5485 4.16211 11.2469 30.6221728642
35.3293 4.04357 4.82605 32.061892019
37.4752 9.6286 8.9107 28.8350839232
32.0318 5.23227 8.00683 27.7302869042
31.6219 7.93077 10.9831 27.4018033515
35.3262 14.9388 8.24119 29.201666134
36.1714 12.308 12.1618 27.2244692403
32.9577 4.10965 10.6996 30.1732376152
37.1126 13.5663 6.05872 29.8710393317
37.4009 2.2583 5.79586 31.9533647673
36.6846 6.74804 10.0256 30.3398368811
34.3897 7.13743 7.33292 29.2887587803
35.6254 3.29729 11.5736 28.623731491
38.1817 13.6888 10.7335 31.9766345479
30.5771 2.75446 12.038 27.7299968357
37.7116 10.0337 11.7855 30.04737157
37.5565 11.8305 3.85015 28.8580235207
29.7845 3.40177 4.41216 34.4004290733
29.6126 0.411678 10.588 29.0652110084
35.1249 7.9595 12.2019 29.4019436902
31.6458 2.284 14.6717 27.9285222868
38.4331 14.2726 15.3357 31.2003368803
32.2548 16.221 17.2785 30.9085167959
29.8407 11.2297 20.6312 28.0446540033
38.4491 10.7214 20.2318 29.7932693044
34.3108 2.61993 15.5341 29.1295782824
37.732 3.72089 14.2276 31.3018883361
34.9974 6.77301 16.1992 31.8263843512
36.3802 10.69 16.5543 35.4146784375
37.0984 5.46538 17.8851 35.4192473194
37.9853 1.48999 20.382 29.8459552338
32.7408 10.109 14.7245 31.4548511982
38.8774 6.52777 14.1204 28.6069158307
36.0596 12.9849 14.7855 33.3282684552
29.5957 8.28346 16.8288 30.0033764149
31.0495 1.47841 17.43 33.6448713746
34.7422 15.543 14.503 29.1643646422
30.8867 12.3492 14.492 31.0886759465
32.4284 14.426 13.8543 30.1981240272
31.7865 15.1237 19.7871 28.4713959667
37.5288 0.534364 17.4124 30.7844731878
37.2978 13.908 20.9987 31.9353814206
34.0624 11.537 19.2953 35.1072609185
32.9489 3.14056 18.5713 29.4841073447
32.278 4.23648 21.0401 30.0735963875
31.3679 5.57173 14.845 27.0619313622
35.8653 2.83317 18.1011 35.6024472306
31.902 8.25049 18.4728 30.3617832326
32.4863 5.70059 17.409 30.9758219915
39.205 10.7489 17.5258 32.3907692644
37.8318 6.3198 20.5236 31.349816351
35.001 4.76616 14.1045 26.7537410833
34.873 14.1998 19.2518 34.1951300775
39.1956 1.39364 15.2485 28.8036369406
33.8231 9.55931 17.1102 29.9940095437
30.7271 8.20987 14.5166 26.4037176761
36.8362 8.53001 14.6374 31.3010016515
32.8182 1.1064 21.3396 30.9453847798
34.9236 16.2075 17.2406 30.5139099802
30.1196 13.5961 17.0206 31.1791570044
35.8108 10.4816 21.1589 31.4948232061
32.9588 6.92813 20.781 32.8433295564
32.8723 5.93895 12.6528 26.4204600782
33.2713 0.881907 24.3926 95.6532719373
39.3082 14.0804 24.1838 93.4014973339
29.6271 1.13594 21.7489 28.4826664397
35.765 0.724964 21.778 33.8833335541
31.1005 8.32046 24.3765 66.9111399366
33.3668 6.29434 24.331 94.0599393976
32.6658 3.67039 23.6215 44.2591626657
37.9956 4.84937 24.6453 121.2946994669
36.0996 7.14951 24.158 57.0776638733
29.7839 3.46384 23.8959 55.0381477917
38.054 1.9435 24.0459 54.8599977437
33.2017 10.2404 24.29 78.9351470399
35.8091 11.1484 23.8844 51.4384779793
33.7927 15.0216 24.0927 56.2093665903
38.0421 9.44401 24.4012 101.733278715
30.9962 16.0157 24.3597 77.0749528215
34.4051 16.3245 21.5896 28.7150771456
35.6375 7.58302 21.5204 33.8407938932
36.4618 13.9224 23.9039 51.3231039989
31.8924 12.4842 24.0731 55.0367986696
35.9572 0.148702 24.6013 109.0862292105
30.5866 8.47717 21.7289 31.0492986752
38.5704 4.18723 21.879 32.297631425
32.0915 12.6536 21.3851 31.717398972
29.9567 5.08197 35.4247 128.0021955146
32.3784 3.65256 36.0135 66.8804338424
31.7923 15.345 38.2415 28.0245600783
36.2105 2.7143 36.215 65.8636291185
30.4623 13.1297 38.6952 31.8271526346
33.5099 14.7297 35.5392 91.8511261142
36.0093 15.7147 36.152 53.5445454709
38.0104 5.1456 36.3115 54.5261038382
33.2189 9.3448 38.4871 33.6774938594
30.2378 7.87396 36.2022 42.2672816394
34.6406 5.34265 36.6882 32.7326045827
35.1361 7.70177 35.5501 101.3903317242
32.5681 9.22999 35.6761 75.3298514071
35.9511 11.9468 35.8484 60.5378460254
37.9854 0.374131 35.7297 73.7057517859
37.2653 9.5879 35.7181 68.9754454231
30.1994 12.7912 36.0463 61.6627994832
33.271 11.7504 35.5023 80.4339866333
38.3451 7.50034 37.5954 27.1528766417
38.2547 13.9214 36.0344 59.5275016106
35.9844 8.13104 38.7012 26.2432250244
32.8896 0.789816 35.9265 94.0391480948
35.3475 12.608 38.7173 30.4692572305
31.2667 3.54523 38.2551 27.3226022984
31.1444 7.4479 38.5495 27.5359761596
32.0121 0.812792 38.6332 28.5550502191
38.091 0.60993 38.5326 27.1744701015
36.7662 8.06485 47.1928 31.5905308667
33.1229 15.7383 40.3515 25.9882413851
38.8576 7.4966 42.5637 28.1593190937
32.4507 5.5075 45.8533 29.7159674073
34.1609 1.00021 45.4578 29.5854912947
29.8581 1.8374 40.847 28.8932720541
39.3257 11.8179 44.0584 27.0864122433
39.1019 4.9268 40.5233 30.5915544807
39.1864 2.3379 44.3322 32.1793742388
34.7797 12.9994 47.253 31.4822519724
38.3513 15.64 43.4104 28.0453193004
37.5141 5.2691 47.3066 28.5841254976
35.5505 2.63341 42.059 29.0547669621
31.3177 16.1115 44.8859 26.2671195676
30.8103 16.149 42.1182 30.0696972498
35.1883 15.7896 43.5732 31.72667304
37.8414 9.52609 45.1238 28.8914720928
34.2209 5.57087 41.7699 29.3292402486
31.5051 10.2956 41.8304 30.5487719253
33.2132 5.26682 39.2228 31.2807783717
37.1234 10.6152 39.7944 28.8122101902
32.5341 11.1814 46.3707 29.642536309
30.3025 8.12426 41.1825 27.3466269458
35.8206 9.6897 43.18 29.9176202054
33.9534 13.4679 42.0788 27.4886674633
29.5712 5.71104 45.944 32.654528318
32.3776 2.04924 41.8979 34.9894197883
29.8354 12.0495 43.2346 30.7027256635
29.4343 8.26915 47.1199 30.8153485913
37.7925 4.29448 42.8605 26.7181850933
34.1175 3.83838 44.4147 30.38646418
32.0783 13.5403 44.1043 29.1141604096
36.2459 7.62292 41.4308 28.2209453562
38.7669 13.6885 41.6859 26.0957228807
36.284 5.77043 44.6368 32.3498276304
37.3044 12.1243 46.4461 31.6212401691
38.8518 14.4627 46.1611 29.9987510542
34.238 15.6107 46.1631 29.0321769526
33.2687 9.53701 44.1265 32.9880277167
32.218 6.99102 43.4451 31.2105046594
32.7895 11.9312 39.8394 28.7436985457
36.6266 4.87849 39.1869 26.5701778125
36.1206 12.1255 41.9126 29.368157379
36.6156 0.678102 44.2167 31.1663234107
34.3147 0.394299 39.9678 26.7883418733
30.3862 12.7332 47.2019 28.7858625125
35.9632 15.7815 39.0861 29.6781042236
36.2214 2.17387 38.9876 27.3207482138
38.5677 14.6551 39.081 28.7543383567
29.9255 6.24632 51.9892 31.7592222699
31.071 4.03884 50.4649 32.4533711769
33.8415 5.32852 49.9351 31.0724383052
37.7766 2.55952 50.2784 31.306363097
31.9379 15.0158 52.8682 30.7210969096
36.5714 3.31509 52.8229 29.0906357438
37.5093 14.8673 52.3462 27.1473437332
36.7369 8.77708 55.6289 27.8564985627
32.6174 7.4181 51.8072 30.9845489553
33.3519 9.68793 50.0642 27.5420062955
35.5912 5.83229 52.1447 29.5022909356
35.7754 3.48479 48.4416 33.9408032357
29.8618 9.40843 52.9627 31.5947149689
37.6279 15.7621 48.4685 27.7466529026
37.0321 13.4221 50.1616 27.563474966
32.5495 12.291 50.7817 27.2070374554
34.4521 0.92908 48.4762 29.137160069
36.3699 5.52443 55.4646 29.6220722327
37.3031 7.60277 51.4526 29.275572797
32.0321 12.3713 54.1183 27.6664805874
34.3317 13.8792 49.5461 26.9796120667
38.2373 11.072 49.0406 28.2824455401
32.0235 8.98651 47.8308 30.2781786697
31.1603 0.625598 49.9014 27.4403866656
37.5243 9.93821 52.9487 29.0696645196
37.3484 15.2431 55.5063 28.0828183824
34.811 1.56973 53.0916 30.3528076996
39.3274 6.28028 49.3075 29.7446899436
38.9003 3.61336 54.3622 29.7964376931
30.9546 0.5351 54.4989 30.7750138007
32.0116 4.49345 55.141 27.5717540415
35.4278 11.7534 52.3113 28.4353361703
31.9669 2.79585 52.9712 33.2122748664
33.942 6.55644 54.7491 29.2016676169
30.0517 12.335 49.9887 33.4909568896
32.7734 9.91913 53.2047 28.9878607671
36.0188 9.60177 49.8123 29.2556999073
35.2248 12.88 54.7573 29.6253181706
39.3883 7.74743 54.4084 29.9289604383
39.5681 13.5516 55.4209 30.9823633158
35.1094 15.8594 53.1651 29.0099380848
33.8315 1.91799 55.7639 31.0033166105
33.992 9.30832 56.1077 33.6578877004
30.9934 15.9403 55.4699 29.0007892001
36.744 0.21468 50.0867 28.7889303255
32.2414 3.08639 48.0168 30.254621996
33.7966 7.17748 47.675 30.6580066464
32.2153 27.7855 10.3568 27.1398441787
34.4429 17.5388 5.38844 28.7174165275
35.7525 19.4615 6.88548 26.4471859165
37.5977 21.373 9.79808 29.3712596823
31.4842 21.305 5.86529 27.133512608
37.6793 24.9131 11.7832 28.4818671931
37.8126 20.6467 5.94131 29.4346927183
30.5665 23.2523 12.2247 30.1924716891
30.7898 25.2023 5.10849 28.0839572068
33.9598 21.6537 6.78612 29.8048400438
38.9696 18.095 6.28578 29.044605674
37.9938 27.7864 5.41149 27.9035825066
36.5789 25.8716 6.88701 32.1429805243
32.1792 28.6312 7.11308 26.871149781
31.2265 30.5056 5.53573 30.7362322038
35.9545 31.0945 6.1661 31.3048738762
37.9247 30.1236 12.3672 33.5931735645
32.3864 30.7299 10.7877 29.0876760118
30.8549 19.0946 7.73384 33.4080912779
30.5712 20.6739 10.7993 29.8837984368
36.2849 19.101 9.52549 26.6164311984
33.3882 19.0876 9.19159 25.9828745129
38.8357 20.5927 12.1921 29.6369735524
35.3696 26.0366 9.41347 28.3004875559
33.2589 22.1391 9.31171 28.8862454203
35.5521 23.2096 10.1435 28.8363675978
31.1208 24.1681 9.68976 30.2504363718
34.6764 30.8676 12.3316 31.4834738283
30.2728 23.4655 7.04094 30.9989633647
34.3886 24.4795 5.65699 27.7104659234
33.0073 25.7548 8.33089 27.7561521433
33.0779 16.4913 7.60542 29.0493159798
39.0371 28.736 9.74518 28.2505841449
35.9192 28.8798 10.5093 28.8074731721
33.0478 17.8391 11.5001 29.8747369009
36.5017 29.5934 3.95997 32.6335317547
34.3161 30.0334 8.33465 33.2647267905
35.9855 18.9169 12.1184 28.4252318518
38.4981 30.0956 7.47128 32.4099057151
33.0122 26.7748 5.0911 31.3491887068
29.6163 31.9219 9.87349 28.384214275
39.0777 24.8215 7.29855 30.8092080768
29.6871 26.9129 10.2102 30.4102428779
39.2247 22.1452 7.76432 30.9173668467
30.0423 24.8356 21.199 31.003873904
32.6648 19.2289 18.1959 31.6572055438
32.7885 24.3107 13.3859 30.7783382143
38.5956 17.1226 15.258 28.5760685164
31.053 28.6579 14.2914 28.8592577235
35.052 22.8314 12.8383 28.9216421296
30.5274 22.7432 16.4578 38.4965297756
36.6165 16.5375 12.9085 31.7819163583
34.2196 20.4256 13.6228 28.2908405836
35.8334 23.4562 18.9254 30.796956261
34.6871 27.3934 15.4981 27.3406309365
33.2841 29.9815 14.7094 27.7493376189
35.9336 26.9021 12.5378 26.4315252437
30.2509 30.8649 13.2689 27.5578192676
38.7965 24.2783 14.3767 27.5385710407
33.4669 29.2622 17.6238 27.6896036005
38.3929 23.575 20.6551 28.3843762751
30.9875 27.014 19.7058 28.0089770474
33.1448 24.6508 19.3544 31.2795562106
30.5652 20.0259 20.2411 28.3038294655
35.7873 32.3672 17.3621 34.0579728673
36.6151 18.888 19.9943 29.6557853909
34.2635 19.5933 16.0934 31.9041770781
31.6269 27.0419 17.1893 29.3285369232
36.8018 25.8419 17.7238 29.5463359475
31.7368 19.7173 13.1206 29.0603633723
37.3448 28.394 14.5885 28.143126425
39.2068 32.4638 13.0759 31.6146663601
34.279 20.2343 20.2675 29.770319687
36.3663 21.7249 16.4614 35.0055113137
35.8528 28.4875 18.5607 28.8362380668
32.8935 24.5783 16.4175 31.6409527039
35.9411 24.2479 15.1746 27.3929268493
35.1536 26.19 20.6987 26.0226922706
37.7258 30.1315 16.9843 33.4181860524
38.866 20.4265 15.3319 33.4565907797
31.3282 30.8092 19.2341 30.752812873
33.1671 27.023 12.7856 28.09409336
29.7498 19.7958 17.2657 31.3681646573
31.04 16.7492 14.5642 32.3439277631
36.5828 18.4353 17.1873 29.0798654248
33.0294 32.0501 16.7175 26.1601623755
30.0634 32.2069 15.9764 28.6038779465
38.7725 27.5498 24.1978 69.6907700361
35.5589 20.3448 24.2555 63.8239659497
37.4225 16.7359 24.5148 87.6435326133
31.5373 18.9834 24.4518 74.3780474772
31.1577 21.7596 24.2461 67.9782450216
34.0613 32.8028 24.1746 68.9474924456
38.1846 20.9433 24.2189 89.5334211748
34.0592 22.7817 24.227 94.0266944744
33.0139 27.8832 21.5263 29.7462764524
32.6078 27.3605 24.1513 70.388873634
30.9854 17.1375 21.5675 26.1572699066
38.2441 23.6009 23.4763 46.2240292462
33.3459 30.6617 21.7615 27.1587120564
35.7328 24.9487 23.2096 34.7247271151
32.2491 30.0642 24.3932 80.6357775154
30.2643 26.0535 23.9359 53.8832758915
33.101 18.6726 22.1889 24.9741643478
35.6477 27.784 24.291 84.1941442206
36.0111 30.69 24.2599 65.410282379
37.37 27.8308 21.7339 24.7393086181
34.6708 17.6849 24.6559 84.9082110312
31.1771 22.3275 21.5379 29.1814837209
38.3399 20.6551 21.2996 33.5153182553
36.0164 30.3607 21.4271 26.9630997069
39.1857 32.1714 21.3502 27.8182739357
37.2805 16.6076 21.388 26.9721399119
29.4799 30.1166 24.1734 67.4976310131
34.0336 22.8716 21.5548 28.4303022865
33.3294 30.9115 38.1307 30.6718203532
30.1426 24.0094 36.8463 30.5034944173
38.0834 21.5387 38.3326 27.0826999017
35.8344 31.3739 36.9513 30.4777424205
36.9004 24.0689 38.0991 29.004416366
37.8254 29.5976 35.8847 85.4050927623
33.842 26.037 38.257 28.0025596535
34.3931 18.3104 36.4949 39.9072471509
31.7643 17.3002 35.8134 67.5562065013
37.2816 20.304 35.6974 86.0548570524
36.2685 25.804 35.6952 106.0516284649
38.284 17.5999 36.3523 48.2744347354
34.688 21.1527 35.7083 84.2700228712
31.0701 26.798 36.1405 50.1486864013
31.5205 31.1657 35.9218 73.6215223761
33.3015 24.9381 35.9127 66.7856633377
35.3705 28.1005 37.1424 33.1636264567
31.8716 21.9535 35.6817 84.1731633253
29.9694 19.4211 35.6467 84.2983850986
33.2456 28.6958 35.4264 117.1268127795
30.9016 19.9151 38.2534 29.4454336588
38.7622 27.0427 36.2899 44.9666016557
34.4393 22.6614 38.1831 26.4751810063
32.0744 28.385 38.5302 26.0670400771
33.0488 18.4755 38.9185 27.4259733904
29.4697 30.3342 37.7659 29.3199209897
34.389 32.6879 45.9551 31.1589509075
38.2633 28.7466 46.0811 25.9217169653
37.0786 32.2374 39.2443 36.8247154279
32.1078 26.7995 45.7858 27.2054129405
38.8164 31.7237 43.8684 28.7492463355
34.5265 27.3823 41.5791 31.3718880908
36.6635 17.5412 41.567 27.825140658
38.5701 21.9881 41.6774 28.0630020727
33.984 18.4128 42.1172 24.9488490665
32.1283 23.7074 41.3956 27.342397471
39.3052 26.384 39.061 31.4400035913
34.7979 24.5445 40.6868 26.1772330508
38.666 18.448 44.0785 27.3728557766
31.9923 31.095 45.905 29.9181985706
31.8878 28.1316 41.3848 29.8410427345
35.1527 23.02 44.8375 32.66896353
37.5638 24.828 40.7683 35.7506248494
36.8357 28.4499 42.6393 31.0628852184
37.7073 26.7137 44.3412 28.3957605921
35.5877 25.8793 46.1362 28.6761197004
31.9768 30.6428 42.6852 33.073856586
32.0847 21.3482 42.8106 29.0672595811
30.8642 18.9334 42.0915 26.1254322895
39.32 28.6472 41.4321 33.9984459041
35.5617 29.1806 46.5839 26.4237988446
37.9792 18.6208 39.1841 27.9432180812
31.0872 18.7044 46.5378 29.1477950606
33.1254 32.7088 41.1507 30.1497377951
33.4653 18.7101 44.7868 28.6806781627
32.4616 22.6459 45.1508 26.5875564119
30.0019 25.8912 41.224 27.1996025656
35.6556 32.4462 41.5542 30.6435171021
36.0537 31.1912 44.1857 29.5161213843
34.7402 21.1614 41.7064 26.666377447
30.7742 24.817 44.1435 25.4608270452
33.6211 28.6403 44.1411 27.5919139345
36.1088 19.1646 45.4915 27.9667837384
36.4222 21.1989 43.5848 28.2095209614
33.8325 25.4419 43.5175 26.7767708564
39.4585 31.2079 46.4528 28.0309924516
31.6616 22.5873 38.8799 29.5910121499
35.4336 19.9261 39.4568 26.5847242013
39.1561 18.8216 48.1605 29.9695546213
30.1065 22.5867 49.2486 26.7448894035
36.4172 19.2528 51.6562 30.2880988
35.1933 30.5397 48.7508 25.7977816833
33.9429 17.7677 51.6695 27.2877944735
35.9409 22.3494 52.6398 30.1355917406
38.4894 23.2258 52.4205 32.3263420372
38.3925 24.576 55.2873 29.34311865
33.3618 26.1568 51.1884 32.3651539576
38.7209 30.8574 55.2585 36.2244765935
35.0414 19.9184 49.1154 27.9467496677
34.135 31.3103 52.0535 33.5714738787
32.053 29.7956 48.3035 28.0308965541
34.3084 24.2657 49.2428 26.7955857449
30.4542 26.2826 50.2592 31.398613566
32.8045 30.1514 54.2981 31.0594613389
36.2463 26.5714 49.6132 27.9024672148
38.5126 28.034 48.6788 26.9289084929
37.8066 17.1853 50.9168 26.2094851008
31.3688 21.8885 51.7244 26.7166869793
30.3002 29.1451 54.0307 33.9629877531
33.6768 27.4382 48.3718 26.9878943769
34.1796 28.3771 55.6681 30.2477057359
33.8464 21.9687 50.4595 27.3421947943
35.9816 29.3524 51.2209 30.2851336865
31.6271 31.576 50.4658 36.5742697705
30.5434 26.3452 53.1974 33.52174258
36.4954 19.8567 54.4732 29.0501546507
37.7407 26.1614 52.3369 31.3291786869
31.7614 23.9521 53.2771 27.3732447556
38.2729 18.048 55.3439 30.5559932809
31.8946 24.2582 47.5578 28.3469941435
35.5301 26.9454 53.6326 28.6160664631
35.5309 17.2488 47.7466 27.0452906282
31.6575 19.3345 52.451 30.7236466011
30.509 23.2534 55.6559 29.2349495347
30.3948 16.667 48.7902 34.9182674788
34.4551 24.1771 53.5261 26.8228365845
37.2703 21.9954 56.1087 29.1289117003
32.376 21.1394 47.7824 31.997941071
31.9198 18.986 55.1113 28.2773848355
34.4144 17.9636 55.2293 29.7873042374
38.0918 30.7585 49.2098 29.0197970151
38.5379 30.2916 52.505 30.5403152655
33.2432 16.3596 49.4663 30.8145096156
29.7858 17.2457 51.9952 29.9420426446
36.3836 26.2299 56.0935 26.9475681377
37.0859 20.5898 47.764 29.6804137781
29.6578 30.9959 52.2592 29.2382451875
34.7174 23.2478 56.0306 26.6940148665
36.7634 23.6396 47.8631 32.0757096997
32.371 32.5648 55.6752 33.6947006393
32.5844 21.5123 56.0626 29.9700055355
39.2176 25.4122 47.6497 30.0668335563
36.9001 35.2219 4.12076 34.1085140208
33.414 32.7476 5.53085 28.7684417137
37.0318 33.725 6.66531 32.6375854209
38.2625 43.53 8.45056 30.5534405334
35.6337 34.9108 8.72716 29.4348212463
31.3485 36.9209 6.36643 28.4299566953
37.2666 38.1375 7.43922 28.2010912686
33.9683 35.5876 5.41384 30.1402938466
35.4336 40.0518 7.72599 28.3732760161
37.2877 37.8321 4.60558 29.8162279967
36.9414 48.8242 5.08222 33.2879865789
29.8745 40.754 8.09006 32.0020950582
38.8799 45.1107 10.581 30.9644793716
36.6943 41.0519 9.82702 29.4160163331
32.4227 43.5976 7.06254 31.8282369247
36.6213 45.2224 12.5019 31.070147498
34.3088 45.0391 8.15859 33.2452907278
36.4756 44.5538 6.68172 29.4513293949
33.7352 47.8785 8.90636 32.7790547615
36.8045 43.7754 4.00666 30.1178401172
30.7265 37.0951 10.6287 30.7339237878
33.1034 39.0307 5.67695 30.5518963041
37.6624 46.7928 6.71764 31.6132455181
33.3898 37.7553 10.6351 31.1955840756
31.1593 33.9688 6.91626 31.8317021444
30.0695 45.0488 7.26328 30.8948706415
32.5164 40.8028 8.27694 29.0888396651
35.3411 41.2309 4.99924 32.7971918019
38.1516 36.5373 9.47314 27.2042342179
34.2828 37.068 7.99188 27.7348819288
30.9907 34.3865 10.5532 31.3014512546
31.9884 45.2901 11.3475 29.5891921849
31.9344 47.8509 11.0246 29.9517541511
38.1112 38.8925 11.0338 26.8432923073
33.2682 33.2157 8.88496 28.9047227137
32.8573 43.0606 4.30817 31.3200597671
33.015 40.2952 10.7513 27.6135516961
34.4769 43.9202 10.8648 33.4226560892
36.3241 35.4978 11.8164 30.7394964992
38.3089 47.51 9.34678 32.7875656207
30.2979 46.2727 3.91483 29.7702075353
29.7849 47.9075 6.33823 32.6625061943
29.5976 44.7078 9.73493 31.2807810962
31.645 40.3209 3.84095 30.9930090997
29.4302 38.085 8.20034 30.387326166
29.9783 36.7036 3.72633 34.1965886728
34.0261 48.9159 4.99822 34.0974907067
34.4363 33.4302 11.5216 32.2245555637
35.142 41.4252 12.3576 27.7678352775
30.6798 33.9528 13.3724 28.4735626133
29.635 34.7121 17.0407 30.0334701739
39.2277 44.8695 16.344 38.8476161321
36.9309 34.6909 16.2811 30.943730567
37.2759 43.5391 14.523 31.1227848539
30.1278 37.134 15.5627 29.6921301732
33.7429 46.3442 16.8657 27.5720568827
33.2286 33.8962 14.3245 33.40335406
32.2303 38.1801 17.1132 27.7437576762
35.1558 37.7298 12.9417 29.929581839
33.7225 36.5979 15.0174 32.8445116065
30.2627 47.0293 14.7562 30.1335760014
32.1627 40.7058 16.6571 28.9845891392
36.0149 46.8942 18.2378 32.7185644357
35.3018 42.0997 15.91 26.3577089271
29.8147 41.2999 18.0999 26.6585726654
33.1453 42.1168 14.3592 28.8346237831
33.7949 45.9787 14.2178 28.7461290535
36.3254 32.7881 20.0687 31.3360024225
38.9225 35.5099 18.0082 32.0683493012
33.6319 43.6608 18.1139 27.7690861654
36.7885 43.9136 17.927 30.5035653326
36.8075 47.7855 13.4708 32.3989037953
36.952 39.4748 20.2442 26.8949137871
31.8192 34.1384 18.6404 30.451703099
37.9005 43.2291 20.282 27.0936530139
33.7347 36.4594 19.1507 29.5174831633
35.3281 48.7829 15.6562 30.215252825
31.6932 44.6509 13.9554 27.1775820989
38.1928 35.0743 20.8396 28.4017157167
37.0325 39.3992 13.4446 24.3106873544
38.2401 35.0243 13.7764 30.4732484267
35.5673 36.8127 16.8413 29.9161624949
36.7074 39.5134 16.5632 31.5128042605
30.9226 40.7211 12.5796 32.2887742912
38.7844 46.0611 20.6445 29.5307276728
34.5347 40.7904 18.5189 28.2048705242
30.7835 44.0949 18.2137 31.2300683608
31.896 47.8338 18.4499 31.3670703017
30.2873 38.2743 19.6704 27.9623546698
32.6889 48.6913 13.5846 28.8695680189
39.0062 40.0647 18.1189 29.7775562444
30.2306 35.8472 21.0641 28.2913446327
32.8718 39.0029 20.6772 29.6353307616
29.9614 44.9032 20.8206 31.6104501495
29.5763 38.1025 12.9901 32.482497668
33.074 42.086 21.3069 29.1452085957
39.1166 41.3999 13.5274 31.7294816305
33.516 45.4122 20.7611 30.2021827394
30.1089 41.7524 21.1776 27.4495537696
31.3489 47.4546 21.1247 26.2205485106
35.8428 46.9014 21.0807 29.0858244895
34.1074 34.2876 21.1476 27.7784319636
30.8114 36.2109 23.6103 42.9359882091
31.0075 33.5304 24.0038 71.5892977774
31.8222 47.8939 23.6359 36.0942968763
37.3791 35.6147 24.0328 59.140940425
37.65 32.999 24.5739 100.6471341322
39.1441 46.8395 23.3086 33.0407704169
32.9608 38.0075 23.3076 30.2402642453
34.6116 35.3849 23.6642 51.7201799313
35.6657 38.6598 23.8762 64.294782385
38.2663 40.1847 24.4152 91.3665926083
32.7589 42.7792 24.0386 62.7014453194
31.7234 39.8937 24.5375 111.4732644502
35.5785 41.9839 24.0635 71.3349773272
33.5241 45.9548 23.6537 59.7713655819
29.8341 43.1567 24.4285 80.801134418
36.524 46.37 23.8811 58.6863689986
37.7286 43.6556 23.8737 55.2887490432
38.9502 39.8354 21.7872 24.4521478795
31.601 33.0847 21.4267 24.412005783
36.0237 41.8602 21.3809 27.1844728215
36.108 37.0826 21.1365 28.7011638141
35.5158 37.6356 38.3935 26.2405103203
32.0063 33.3506 38.5823 28.1924049198
35.1579 44.1517 38.8376 29.6741454763
31.2623 34.0922 35.8022 85.9300999602
30.7643 43.66 38.4322 28.0793423869
31.2898 45.365 35.89 83.2544306494
38.4313 46.4755 35.4404 92.8538468662
35.1869 48.0938 35.7615 78.2780268906
38.5163 35.1055 35.7311 73.81614406
31.91 41.1322 36.286 42.7732581425
35.8571 33.6649 35.6748 100.7263055598
35.0389 41.0345 36.2119 42.5289119755
37.6584 42.5506 35.4454 101.5519903398
33.6076 38.5592 35.6243 92.1338453183
30.6576 38.3119 35.6889 78.9200585361
35.9199 44.9627 35.7481 64.2891030271
36.6624 37.3259 36.1078 53.5194310391
33.9097 35.5938 35.9566 57.3046653425
38.1307 39.5964 36.0972 57.1774225774
35.5498 47.4061 38.4063 30.0951987839
33.5408 43.5609 35.9629 66.3052602246
30.8723 47.1297 38.0028 34.4656899194
38.4047 34.6344 38.4566 34.8908271106
38.7219 46.7282 38.472 29.2252362914
30.645 37.8 38.5197 28.3825575116
33.0597 36.0658 38.9209 33.3233926185
33.209 35.2134 41.9194 38.0437886549
37.7105 47.4477 45.2411 30.1945786447
36.4327 34.8902 42.3754 28.8142314836
34.3304 35.1331 44.6176 29.3604971431
34.916 41.1626 47.1131 30.8283321892
33.5153 40.2996 42.6683 33.5124196166
37.0605 45.3942 40.6583 27.0384858477
38.5025 44.3035 45.6372 27.7431498013
37.0956 36.6481 40.2634 29.4393208431
39.2188 34.6054 43.6567 30.0948974063
30.7198 38.9873 42.7369 35.1763109558
29.9948 43.506 42.1368 27.6351001541
32.5755 43.1136 42.6035 34.9631627185
38.0191 40.287 42.4173 27.8371809984
32.7089 39.0224 46.7617 33.6660378147
35.8425 38.1838 42.7199 31.9577891017
36.637 47.7778 41.897 29.8645082364
34.18 39.7935 39.9725 29.6573783544
35.5892 41.5651 38.8416 27.9577019017
30.0048 47.4267 44.1759 28.6932319349
38.1689 41.246 45.9321 32.099648985
30.7581 48.3898 47.4279 29.6528452295
32.4477 48.8625 43.5312 32.0507325917
33.8683 46.9338 41.9889 31.3888322198
31.7545 44.696 45.2166 28.804959036
31.9956 36.546 45.4552 33.2127182333
38.4549 35.4282 45.7935 30.6344063866
38.4393 42.7805 41.0208 28.1773098412
31.7107 40.6265 38.9948 33.4000964993
29.7745 32.771 46.3525 34.4521197337
34.9568 46.1813 44.6074 26.8227174227
36.7643 44.0475 43.5751 29.5084409059
33.7516 47.3893 46.9516 30.4448323938
29.8056 39.4567 45.5401 32.6366099126
36.1185 36.9676 45.2084 32.0645559634
35.8019 41.3353 44.3432 28.8455913649
34.2517 43.8525 45.9109 28.8367333479
32.8603 44.8151 40.1913 31.2467382113
37.8559 40.0523 38.8859 28.1414430056
38.5159 44.4732 50.5134 28.9664040368
38.3034 33.9162 54.3486 31.6059699148
39.0995 42.6008 53.2476 29.605540552
33.655 39.1177 51.6254 29.0288112501
29.881 37.0251 49.4655 30.1937803536
30.5769 35.6609 51.8103 33.8397513729
35.6645 33.4272 53.2208 38.3865017612
37.7093 37.2404 51.074 31.1004309041
38.0425 39.3444 52.8918 31.1383831911
38.6979 38.6088 48.7842 33.9568457453
34.2054 36.8217 49.3835 31.839050731
38.1621 41.2633 55.6962 32.170835813
32.3316 42.5452 51.0484 28.6492887983
34.9216 44.2825 48.516 29.3502247825
36.8237 44.798 52.8012 33.7623959442
29.6813 33.8911 55.5168 32.0066158942
38.939 41.2398 48.7838 33.8222431369
38.73 45.3562 54.9116 27.9383637713
30.4631 47.9282 52.3296 30.9194280322
37.9994 33.4432 47.8468 31.2787854639
30.553 35.1523 47.6341 33.2903894277
32.9619 45.7542 49.6536 30.2850441349
31.9633 41.4216 53.7466 24.6235727514
36.0667 48.0344 52.9679 30.1277390455
31.4403 44.9646 52.0886 26.8519204163
31.8502 38.9536 49.1964 26.945968626
37.5081 45.353 48.073 30.9925427366
30.3826 41.5429 49.2802 32.4707845942
34.1592 35.124 55.0856 33.6247505169
35.2496 36.1842 52.042 32.5202446823
34.8237 41.9509 49.9762 30.0310788461
32.7251 36.9366 53.2297 33.4139869575
30.6923 39.4059 52.2192 25.2896899673
34.431 41.1611 53.5525 29.5105682384
38.1782 47.9919 48.274 31.6859678005
37.92 47.9462 55.196 34.8125494787
33.9232 46.4997 53.6476 28.8523755443
36.1723 39.3366 55.1049 33.025170358
35.1594 33.3878 48.5655 34.5343142834
34.6541 43.9004 54.876 29.9570354066
37.3804 41.5673 51.1703 28.944175424
32.7255 47.5373 55.7185 31.8775890815
32.5316 34.4946 49.4345 32.1908602691
33.5673 48.264 51.0132 29.3394480523
30.9784 44.1128 54.6794 28.6606990547
30.926 45.5251 47.5295 27.6640247796
36.1553 38.4758 47.7557 32.6951324875
40.2152 0.447012 10.457 28.9292079673
42.5302 3.03001 7.64163 32.11769205
46.345 13.2735 10.7357 28.3135099597
42.7422 8.90482 6.00844 28.5203645915
45.0421 6.48773 4.47221 29.8847054531
41.1188 5.42412 8.00008 33.2782573534
47.2847 2.73726 5.73849 29.3200525237
44.3569 3.76396 5.15079 33.3514415078
45.4747 8.1972 6.94966 36.3773078533
40.6068 9.10433 8.03353 29.2170753028
39.5647 2.83774 9.06092 33.206534978
49.1323 16.1874 4.72159 31.3793022359
46.8749 0.501059 9.58366 32.4464552785
47.5986 12.2322 6.39304 32.2829378036
45.1559 11.1649 6.51594 33.8689516036
40.9563 15.2797 6.9176 30.5281046319
49.0857 9.64701 10.2332 30.673256363
42.9143 9.13161 10.9665 33.2174167116
48.9635 15.1489 9.16519 28.3819792952
44.9483 15.9743 6.85627 30.764868377
47.559 14.9814 6.94445 31.0184179117
49.0295 4.08401 10.1024 33.306084214
45.2243 5.76353 9.87705 30.9448891173
44.1071 2.3942 9.94005 28.829053301
46.6205 3.27366 8.5211 32.7716082056
48.4256 7.92538 7.74406 34.4964845996
39.3887 7.06425 9.81379 29.0896862053
43.286 7.49126 8.92222 29.9917127864
39.876 11.8316 9.11702 30.9971293702
48.8681 0.241336 11.5345 30.0181004979
43.833 11.6591 3.84445 34.1617266874
40.5621 7.63692 12.2083 25.856264294
47.5215 6.93013 10.2638 31.3198075252
48.5067 12.2104 11.2168 26.5034604826
42.2356 11.8353 10.7247 31.0219868284
47.6375 0.425762 6.75173 29.5033763295
44.3713 12.6234 8.78301 34.0329024932
39.8771 12.8991 6.58748 28.8792978436
46.1521 15.832 10.7385 26.6876215732
44.4327 4.51384 12.2887 29.1977411222
41.2388 11.1364 4.72006 28.8669394921
43.2591 14.9035 8.51411 28.0155478205
40.3496 5.44435 5.22659 29.062272558
42.079 1.89392 11.834 25.9582333182
39.8159 2.98648 4.50834 32.0824105891
42.4203 6.95765 3.97756 28.1229404963
42.4517 1.71895 4.54627 28.924780693
41.6622 15.3349 3.94834 31.369867902
41.4745 1.40335 17.9997 29.1305055542
40.9771 3.40481 16.2479 30.579040957
44.4065 14.5689 18.0672 28.5922649563
44.0216 0.169119 18.4477 29.0301161364
44.1438 0.766191 13.5997 27.4853285143
45.5667 2.81753 14.2324 30.1246873716
40.1878 13.1283 20.4182 26.5995489776
39.5568 13.7747 13.0943 30.9697706877
43.4203 4.87617 17.5496 30.0919674595
40.1207 10.076 13.5143 30.4995340752
42.3108 5.92495 13.338 30.1071790164
43.4025 0.410046 21.2747 29.6469062369
42.8031 12.6738 16.4049 29.9321301902
43.4906 10.0023 16.2631 28.1216510423
43.0215 6.87319 15.9404 26.1498473056
44.4541 9.97215 13.3217 30.9907223645
40.4327 13.4956 17.5761 31.8437228287
45.7544 2.57764 18.3469 31.7393750611
48.0925 1.81814 13.7378 32.8352549454
42.2415 15.2974 13.0444 29.4353187515
47.1392 9.21691 12.6762 33.1247566305
49.0892 11.4482 21.2363 28.6276641948
47.451 12.6535 14.9689 29.9846376277
44.1713 14.9714 14.8319 27.6107261037
40.6205 8.58127 15.6548 27.041273592
48.953 2.14116 18.584 33.6002753265
47.5777 6.59164 19.9263 27.1358147619
45.7555 4.74827 16.1417 27.2470907471
45.1636 12.7268 13.1392 28.4936522775
41.5318 9.71831 18.6898 26.8602333244
47.0146 11.7822 17.5093 28.9919477999
46.8531 6.26597 13.0772 29.8230087743
43.5143 6.06293 20.2154 28.1549932252
48.1483 5.01896 17.7404 30.1564077002
45.6725 7.50471 15.4315 28.1232031651
41.0727 7.10849 18.8679 28.1777835699
47.4379 15.4493 15.8155 27.656751019
41.0772 2.25292 21.0276 30.4905931888
44.8274 9.86901 18.8904 30.0422300725
47.2775 8.49472 17.4804 29.548899406
40.8667 3.61557 13.1347 27.8777149546
47.1202 14.2554 18.7066 29.9047565204
41.9864 12.2896 13.4335 25.4906678738
42.8055 11.6925 20.8164 28.4217053202
45.4792 7.81644 21.1743 25.9664818096
43.3291 14.4903 20.5858 26.8750715197
45.8077 4.257 20.6031 29.8532205535
39.5876 5.77574 17.0311 29.9128394684
48.6868 4.2356 12.8076 28.9480782805
41.9845 0.843086 24.5131 115.4782818701
46.3335 14.2158 21.7102 26.9864758837
48.8088 8.23649 24.386 82.8877165326
39.993 11.312 23.1467 33.4279962183
42.8715 3.73331 24.0208 66.5977808096
42.6079 6.76106 24.501 100.3144692647
45.6067 4.2318 23.4384 34.015338009
46.4428 7.08168 23.7672 42.2219113876
42.7231 11.2207 23.7613 58.3290996848
47.754 3.28662 24.5617 112.824534725
46.9367 10.612 23.9724 44.3765135399
44.6536 8.92048 24.4336 87.7302893516
41.55 4.9646 21.8914 28.8937821855
44.3528 13.4172 24.0894 65.5356128146
43.047 15.8685 24.0532 66.0511753646
39.8298 0.44252 22.7776 26.4710702348
46.9782 13.3793 24.4044 78.8403537579
46.036 11.0479 21.3492 29.7232453824
39.6414 7.03393 24.0708 47.6130761207
40.817 15.2572 22.2876 27.5339477339
47.1946 0.564029 24.3431 76.8804730898
39.6782 8.35455 21.3693 26.9824812934
46.0327 1.45507 21.454 29.5848700142
42.5944 8.68938 22.2111 27.7081482191
49.1405 14.7915 22.0574 29.3872605512
49.2352 8.37514 21.624 29.4508434974
43.1072 5.18062 37.4353 33.432740689
45.388 4.97472 35.5072 113.5183420211
46.1037 2.64583 36.287 40.4978166249
46.4534 14.4807 36.2994 35.9048780096
40.7201 1.61477 35.9469 67.3161173536
40.3502 8.7397 35.5845 89.3891633965
40.2689 11.6815 35.9151 58.4206415591
41.6141 9.43637 38.1497 26.9971459747
45.156 8.96335 37.158 31.8676214555
45.1281 11.5738 37.4795 29.4000454097
49.2429 8.42085 35.6207 96.9480564092
48.1528 5.87832 38.1525 31.9320498017
47.2514 11.9506 35.3034 121.5220867397
49.0861 16.2422 36.1952 44.9671635594
43.0632 7.642 35.7835 78.777694313
43.6705 14.7362 36.0511 44.4966650058
46.9628 7.1072 36.1276 45.5956495625
43.0649 12.1765 35.4618 106.5082810889
48.6311 2.35466 35.7052 90.5574049155
40.7194 4.48239 35.7551 96.0792130208
40.7009 15.7667 35.7121 92.9706483929
45.2017 14.7656 40.3396 28.6208645457
42.7484 1.56122 40.1842 29.5535969645
43.5136 2.66804 43.3005 27.9125021651
47.5093 14.9485 46.8211 29.5609712278
42.7559 5.2504 42.7035 29.7124041896
44.7072 9.14278 42.6795 29.8273469565
43.8529 15.6474 45.4788 26.0729122979
45.2853 6.39284 43.5955 31.0515573011
41.8128 10.2157 45.688 32.6488921843
48.6878 2.54314 40.5059 28.9118475509
41.113 1.43805 42.9908 29.9532551737
47.6413 8.07442 40.4699 31.3501509954
42.0635 10.5511 42.6453 29.8565567408
45.7693 9.34047 45.4167 28.8984843689
45.4977 13.3577 44.0928 30.6804101766
42.7359 6.57395 40.092 28.6893364237
39.438 10.2048 41.6613 26.1709574466
40.227 7.54699 39.9106 27.9433371403
42.4635 13.2804 43.8095 28.9531435465
41.2723 15.9063 42.3371 30.9837769417
48.3887 9.35389 44.1248 28.5259358919
44.2159 3.71416 39.92 32.1343360161
40.4795 5.60512 43.9912 31.9983817352
45.0319 0.456773 42.158 30.1071986963
49.0639 0.0758882 39.5905 29.5348159912
43.3636 10.7377 39.7472 25.6443111997
44.0989 5.1779 45.9756 28.8351467303
47.2037 4.33045 44.0721 33.0202175494
41.3815 12.9495 46.3979 27.0758276023
41.6299 6.38429 46.9451 30.4547099422
40.1282 8.89838 47.6516 29.9967488754
47.4113 1.97443 42.81 31.2817881269
47.3866 13.6205 38.9536 28.1952330399
44.8323 8.26346 40.013 28.0563094804
48.6249 4.28597 46.4426 31.191825685
41.5828 13.1786 40.6415 27.532471802
47.1898 11.8888 45.996 27.1589797064
44.2818 13.4758 47.3059 26.0212692737
46.3112 16.052 43.2394 26.9765483625
48.2186 10.8127 41.6093 32.3805839621
48.7403 6.96262 42.9582 33.2161927067
46.171 6.95546 46.928 29.423293047
45.7494 0.266239 47.4256 31.035583464
45.4789 11.8109 41.323 29.4540315271
44.1668 2.25688 46.0937 31.6390237297
46.6811 3.42272 39.0496 32.8029158815
39.9001 4.23662 46.5991 27.6896400937
44.0235 10.5235 47.4254 29.8770137934
40.216 2.69037 38.8047 34.0316031563
42.9935 15.1888 38.8309 28.1460982939
48.9713 16.0687 39.2145 26.7444083617
41.5785 1.9256 47.2641 30.3650629957
39.9661 11.6994 38.8519 29.2386297398
45.2297 5.20569 49.5513 31.041329449
49.0395 9.42127 48.6366 30.9482525382
47.7235 1.85668 50.025 28.4427325203
48.9629 3.48862 51.899 33.4828047297
43.8593 1.65966 52.5113 31.6992052373
40.5874 3.21325 49.9121 26.7056606046
46.0223 3.71766 51.9771 29.2735357763
40.3106 13.9127 52.3789 31.4259643681
40.8763 11.3026 49.7936 26.6112659361
46.5394 14.4725 54.5083 30.5864076243
42.5982 9.20136 49.8887 26.7906201762
44.4492 12.4005 52.03 29.7709303764
45.763 8.21439 52.827 28.3446790431
45.4199 8.28538 49.5851 31.9097551115
44.5949 16.2005 56.4246 29.9626324
44.5193 14.3501 50.2433 25.5869255881
46.7632 11.0458 52.1381 31.5605487658
41.6964 13.8593 49.3539 30.2811107492
42.2681 0.59573 50.3114 30.7982854633
43.636 0.366162 55.1032 30.1655699533
42.5313 5.03387 49.2224 27.527559157
47.0409 13.5353 49.3008 27.9124363649
47.8654 15.7342 52.7133 30.4936475176
47.1927 5.99418 55.6191 30.45271853
42.2093 4.29059 55.1107 30.5136873962
42.3349 16.1325 52.9047 30.9490789637
46.6383 3.2934 54.7832 30.24206288
46.5965 3.30926 47.9229 29.4158524155
48.1101 12.7369 56.2027 33.3523905177
39.6726 6.19858 52.3414 28.7719614002
46.8936 10.952 49.1777 27.1091819607
41.0 3.13916 52.7466 27.2365990045
43.0343 9.86216 52.2383 27.6197483891
42.295 6.63065 51.2815 27.4172022739
40.0082 11.1609 52.4298 29.3546525342
43.699 13.7682 54.3934 29.5997942705
48.17 7.84829 53.5883 30.7450193857
44.063 5.74877 53.1854 31.5173836963
41.264 9.86804 54.6394 30.1860434785
49.0657 10.1374 54.9499 35.2855049682
39.7742 0.516425 53.7583 38.63590463
44.3797 9.11018 55.4032 34.3776970706
46.2686 0.865965 55.9005 28.5372374202
49.0087 6.70177 47.9119 29.7506081326
40.6726 16.3091 47.8848 29.6758671641
47.3721 23.5542 6.05919 29.4867391185
48.1979 19.5841 11.2686 30.5518923126
46.4824 19.9536 4.27836 30.9089295342
47.6882 19.7457 6.89439 32.4630884869
43.6284 19.0266 4.87061 27.9296097728
40.4619 22.2343 4.14139 33.3049598301
40.8564 17.9453 4.26557 28.765517765
44.8056 23.3475 6.79675 32.5958899618
41.8434 21.0992 8.52262 32.5936255914
40.8346 25.3633 3.71302 31.9014973782
43.2904 16.4491 10.7373 31.9788676318
44.0836 25.7503 7.12441 30.7486338358
39.4895 16.8735 8.58624 33.1618319785
49.0993 21.9427 7.3974 26.8113958357
44.6541 29.7719 4.53481 34.599796441
41.3619 26.0927 6.55202 31.6322505702
41.8394 30.4017 4.21653 29.4209960804
45.7919 27.3831 5.58843 33.19744467
47.9779 30.349 7.27188 28.3748421495
39.4672 25.9263 9.95757 30.9242024574
48.1086 29.2843 9.7947 30.0246814718
47.9741 21.9606 9.97051 31.8680821171
41.5891 18.562 9.82214 31.1795537702
40.7073 28.6761 6.45116 27.2540767415
44.0722 18.3722 7.76934 32.4417294511
48.4428 28.3409 5.65333 29.6111978103
41.0599 29.832 10.7257 27.7202185052
45.288 22.9409 9.84842 36.8516611235
42.4524 29.2193 8.48645 30.5440274958
46.4853 18.2953 9.04555 33.7581068246
42.71 21.5113 5.81276 34.9405304497
44.1809 31.2384 8.71251 30.5540715373
46.1055 25.7304 10.9864 27.5329541486
45.7076 29.8478 10.882 27.9092358385
42.5558 22.954 10.5359 29.6013415019
41.9628 25.603 10.8728 30.1295169538
45.7462 31.3264 6.46187 27.8323598306
48.465 26.2643 9.80362 31.5858900618
44.0127 26.9549 9.71779 28.9100159509
40.2993 32.5163 10.4552 31.9183780554
41.1573 19.4928 12.2251 28.8784806458
48.7883 25.9611 7.11562 32.7612475729
46.5463 31.8894 12.3568 30.5734690016
49.0624 16.5138 11.8711 28.9255775407
40.9279 23.8634 16.6077 28.139978474
41.8814 26.545 13.755 32.2335472361
42.0289 16.9943 19.2874 28.0954838576
40.1672 22.729 12.5377 28.3448716904
46.348 16.5942 13.6109 31.3261305608
43.3092 21.6153 12.9562 31.7506804062
46.1427 22.6 17.9494 34.7012087573
42.037 18.8365 16.5199 25.8891466283
47.4848 28.2634 16.4017 31.5992480314
40.5472 22.5656 19.1784 32.1842845401
39.4079 26.7833 14.999 27.0736732964
45.5084 19.5064 13.5996 36.9097063052
40.7792 19.8894 18.9066 31.6838364214
42.4938 26.6027 18.3967 28.4080450455
43.0973 25.1984 15.9777 32.5766295749
41.3065 17.5189 14.1883 31.9911622089
44.1239 17.192 17.2109 27.8059642607
47.715 20.3706 16.845 31.4516762062
48.7854 23.5076 13.7243 32.5229844544
42.4346 29.1495 13.0099 29.2759039807
44.7776 23.2787 15.1516 30.1388998357
46.4336 24.5819 13.5946 32.0984354395
47.5786 27.2663 13.808 29.7836682635
41.0523 29.7271 15.3875 29.0048516235
48.6236 23.7318 18.9614 28.0296338166
45.3668 30.4573 16.3692 32.966852018
40.444 32.357 15.6503 29.5912444574
43.1646 29.477 17.532 30.8720649896
45.4885 27.837 18.8261 31.3317319076
42.9922 31.0483 20.0481 30.1452243984
44.465 20.3739 16.1756 30.7512746099
44.5079 31.3234 13.9344 31.787619345
48.1235 20.6882 13.9849 32.5854825746
41.4275 21.4762 15.1061 26.6317169985
45.2283 24.9046 19.23 29.7291435076
46.3025 18.4055 18.0856 27.4347253959
42.9116 19.4706 21.0426 31.465436336
45.725 19.3585 20.5874 32.9561632543
42.8159 23.7846 20.397 33.062983247
39.3371 29.6627 20.4411 27.9923868069
48.5812 16.8699 18.5013 32.0387057132
47.9391 30.5608 21.1053 29.0138327377
39.4917 16.4779 17.8575 34.9362494787
39.3663 26.1065 20.7169 26.9295005953
48.3942 32.2554 18.6159 28.5016095912
48.9358 27.9467 19.7023 28.2144461052
49.0687 31.096 12.7515 32.4713007319
48.9955 26.0205 17.3264 31.6462247462
39.8989 28.807 17.9879 26.9050332442
39.6658 26.1209 17.8242 24.0332303183
45.1722 27.8997 12.5954 29.7270255516
44.3858 18.3882 24.5898 90.2980055695
45.9593 21.6317 24.3678 82.8783215085
42.3798 19.6678 23.6922 46.6398873012
48.898 31.3935 24.0339 60.3447426545
46.936 17.1528 24.5777 74.1415609289
43.7168 22.2778 22.6774 32.436697019
41.8356 29.2329 21.9134 28.7398491115
47.3015 24.4644 24.3547 82.6748896743
45.268 31.7683 21.4193 29.9345133934
42.631 24.3376 24.4417 117.2468961453
40.3196 25.4992 24.0979 66.4163421367
44.4489 26.5867 23.52 40.1012444343
40.4076 32.4241 24.0063 51.9927031633
40.617 29.6185 24.3603 82.4458486055
45.6354 28.814 21.4216 27.6483322403
48.0932 19.526 24.2929 60.4200640627
46.9428 29.5421 24.5132 89.0581723236
43.6401 29.1318 24.3897 81.7109174642
44.7023 31.9386 24.2743 77.6717497471
39.8842 18.5229 24.1033 70.524335444
48.4869 27.0637 24.234 70.5163547689
39.6808 17.7768 21.3037 26.2895316108
45.0199 16.9384 22.0691 30.1204585863
41.9626 26.2567 21.6098 27.3680463866
47.627 26.442 21.5368 26.1547250339
46.7905 23.982 21.4079 30.8600957462
48.2715 19.7878 21.7735 29.8162387231
45.6362 30.6195 35.6573 63.0394795496
47.6981 19.2414 35.8435 51.7686968634
44.4964 27.5786 38.5517 26.4238721659
46.7041 21.7157 35.4763 87.7793925544
44.1567 22.7313 36.2847 39.8790898555
48.2659 31.2408 35.492 84.0864667021
41.5368 24.3393 38.914 26.9535181772
42.3168 20.4964 35.4367 103.2684111963
39.8127 21.6426 35.6563 87.7024632806
42.7325 25.4612 35.8055 79.3497526447
48.2109 23.8215 35.5423 79.1487947479
42.678 17.9675 36.0269 42.8178467498
45.6456 17.043 38.4639 29.1758126109
44.8906 27.8718 35.4395 86.2774943849
41.7604 28.1752 35.7394 77.4812274614
47.2252 26.3213 35.7426 62.0440194152
43.5629 32.0535 38.442 29.4757107128
42.8565 21.0238 38.6295 28.2762384798
45.4609 17.5025 35.4592 99.9518050526
40.347 24.3568 36.4231 42.1070149352
46.5962 25.9329 38.3004 27.6360460665
48.8554 32.3935 38.0419 28.2038116892
40.3334 30.6353 35.9548 55.0180295562
46.7437 21.5343 38.2277 29.0071650767
40.5391 16.6814 38.5083 28.7904633779
41.7452 27.7136 38.6605 26.5831999878
45.8071 30.3156 38.5772 30.00919077
41.1314 30.3997 38.535 31.2980519841
48.7061 16.381 41.9781 27.8466803283
39.5415 19.3286 41.6492 28.5952855847
47.9411 23.0581 41.7634 32.5637910484
45.489 19.2854 43.4155 27.7152627796
48.453 19.6043 45.3593 29.5437177304
44.0513 17.3734 41.802 28.4277478713
45.595 27.3269 47.2469 35.1158315103
42.3758 19.8494 42.0046 26.7190889495
39.9609 25.2803 44.8711 32.8310485322
43.8157 27.8997 41.2129 28.3916327046
43.2725 25.0244 41.628 31.1774682223
46.613 17.478 45.6793 26.3872349454
42.7319 30.1496 42.4155 30.2312224721
40.409 22.6719 43.7402 33.4673619161
46.4286 27.3422 42.4752 32.1753190371
