4.40771 38.0518 11.8527 30.8357766417
2.60234 47.3747 15.0663 27.9869694981
7.03672 39.1446 15.3289 34.5201915906
8.54263 42.7795 13.4385 29.0751400058
11.9497 46.2894 5.43186 29.801796254
12.1044 45.9946 7.93064 27.7007074547
5.31528 48.9792 12.9326 32.3758951985
7.99115 48.0664 12.1792 28.0554364232
4.92741 40.7231 14.242 31.6523807475
9.89435 48.5801 14.3411 28.6875689757
10.3926 43.0354 15.5212 27.7634248141
6.57045 42.7077 15.1715 27.2351654679
2.0533 40.5966 14.9465 30.0645281167
10.0059 45.0655 9.95485 27.9540567079
11.8262 47.8517 10.6943 30.4575963714
3.25617 37.8881 9.18243 31.1540218816
0.679775 39.8366 4.52571 29.743188182
1.40214 37.9502 13.5158 29.9689128933
0.261356 41.2005 12.5159 32.0755158568
11.0558 36.6266 7.85213 32.5893506975
11.0388 36.8782 13.4665 30.0988088305
11.7639 40.2272 4.97383 26.0729518491
12.2818 37.5615 5.47433 28.1698903868
0.196521 48.9289 14.1201 33.0227379768
2.09537 38.5865 24.0417 76.813163042
3.23507 38.6022 20.2618 26.9500533942
11.686 42.3162 20.3047 29.1668667847
8.82967 46.0855 18.7828 26.7469987294
1.35265 45.6736 17.3025 28.7167209372
8.59232 39.6285 19.2937 28.494486285
6.18385 38.6196 20.8636 27.1511678327
4.87257 48.6804 19.963 27.7418090589
10.0611 37.4665 20.4741 34.0957113004
3.33648 43.752 18.2222 28.2626605455
5.0531 45.6453 21.2132 27.409651959
5.85371 43.2839 22.7169 27.5896293349
0.125755 47.5366 19.205 30.2969032058
8.88369 41.7775 21.4776 27.2206923204
5.75664 44.7835 18.6095 27.760985527
6.853 42.3903 18.0095 30.844289861
8.20757 47.4623 24.1816 67.8919363431
9.59638 42.7997 18.3802 27.4762218449
11.1607 47.4582 19.5237 24.8152995661
0.387926 38.9685 20.8468 28.3586461003
2.35822 48.4417 21.5863 26.8363313222
6.90128 38.8682 23.6526 41.5729001609
4.5248 39.9158 24.3408 81.103789625
1.47449 38.9519 17.0349 30.5913861135
5.86755 41.3714 20.7505 27.970483119
3.33567 40.827 22.0477 28.2735654817
1.36392 42.4319 23.8524 66.182525048
4.06818 43.0243 24.7921 112.1197531273
4.2269 46.2347 24.0768 51.2654601738
9.12632 40.6316 24.1964 67.630908421
7.75208 43.0523 24.7096 102.2771537104
11.1966 39.6634 22.09 30.2142027421
2.53527 41.06 18.6853 32.3754427195
1.66768 47.3386 24.3408 93.5325795176
11.3008 45.5247 17.1611 26.0332326179
7.28844 47.6105 21.5948 27.6518748068
8.96023 44.7191 21.3887 28.3860095694
5.50901 48.4083 24.3437 87.0010391243
9.54286 44.952 24.2389 69.5313934787
12.4178 38.138 18.5943 28.1296936197
4.12453 48.6676 17.1978 28.7855499546
2.2071 45.6818 20.3891 30.4907809045
6.41855 37.7746 17.7664 35.7547709976
12.1732 39.5529 24.6868 124.2971193883
11.8245 45.1186 21.0692 28.0067718543
12.5449 45.1207 24.0266 70.4248624611
3.53635 40.6425 35.6825 88.9173110404
1.11312 41.7156 38.7142 26.9026738973
1.55908 48.8527 36.6147 38.8493880657
5.49053 43.098 38.3952 27.0152734805
5.98672 48.2316 38.7153 32.3870215585
11.0483 38.8037 36.3092 33.0173105942
11.5432 39.1296 39.0222 28.5204767308
5.12412 41.25 41.8387 27.4766882952
3.93536 46.8959 40.4949 35.6817043512
4.19972 44.709 42.5595 30.1116809724
6.74109 45.598 38.6629 25.7512266308
0.807941 41.5566 35.7942 71.8716685776
5.55594 42.5114 35.529 91.6706325911
10.8313 42.7465 35.9607 76.1067751402
8.02871 41.5196 35.8237 55.133834917
6.33368 40.3548 38.4675 29.8194570133
9.76371 45.7282 38.5247 27.8604780746
7.07455 44.9803 41.6025 34.8281130942
0.521618 44.5852 35.7532 76.3677516513
3.50322 40.0154 38.5116 28.652192173
0.679197 44.2658 38.3185 27.8999242063
2.50309 46.4873 35.9004 80.0132416095
5.64141 45.6751 35.9886 73.5566193379
8.66155 39.7827 42.1417 29.2068942802
11.0808 45.6617 36.0818 68.3303510032
5.34345 48.7329 35.936 67.0641680874
6.38657 37.5534 36.4989 36.2293727679
9.71991 45.9972 42.2215 30.9367116157
9.82655 48.6783 41.0178 35.6757000505
8.35836 47.5877 36.3229 46.2951194996
9.01448 42.5494 38.4674 29.1627583117
9.74731 37.6443 40.2938 31.3188768761
7.13839 37.4161 39.0692 28.1460851678
11.4274 41.7928 39.7602 26.6239883586
8.66036 38.992 35.2511 124.6234973277
3.16885 43.0318 40.6927 27.0669141444
7.56936 42.2489 40.8446 26.9580879551
2.66735 37.9512 40.4416 28.6289861388
3.26698 45.3625 38.4308 27.8995859433
2.00433 48.8488 39.398 29.5182314292
11.4378 40.3714 42.3042 30.8551961873
11.5721 48.5135 35.6012 86.6723793447
11.2359 48.2739 38.5699 28.5301109718
1.28479 41.9406 42.4442 28.5529294566
3.32506 37.5792 36.4442 46.2284971235
0.520788 39.7576 40.8889 30.9860354606
5.76266 38.8231 42.6753 24.8721819349
11.5029 44.4577 40.7829 28.8805197001
1.06337 43.1476 51.5803 27.4035399569
6.3108 48.5488 54.0676 31.6913971541
10.2203 46.4131 45.3707 30.038265677
2.47957 45.855 44.4496 31.7281910957
5.66212 46.1919 50.331 29.3652214212
5.82719 42.8431 48.4247 26.1871919895
1.79687 40.8541 44.8363 26.6352955543
11.235 40.81 46.7514 25.9620446566
5.75877 44.8174 45.8452 32.5560437075
4.98227 40.8674 46.1659 28.6788026772
6.16993 42.4597 44.017 25.8931159171
10.3159 38.865 49.693 28.5841855276
6.33852 38.77 48.0632 30.606668257
7.7523 37.3602 44.208 33.0433075513
8.14028 40.3931 45.0863 27.3351976737
2.87354 48.6368 44.7827 37.0054719411
2.81212 43.2641 45.9668 28.7970551618
8.29773 41.3363 47.8175 28.5023487463
8.81768 43.9913 44.0078 29.7635352485
0.702965 48.0252 47.8738 31.5388148407
7.74068 44.6088 49.3766 25.4728687963
9.19095 37.7856 46.999 31.3339222969
0.716284 42.7405 54.2922 28.0039017345
11.9812 44.4846 45.27 27.6779495992
2.42238 42.9968 48.9501 25.2501158673
7.58981 39.9047 50.5476 27.4545686677
10.5674 46.5007 52.4556 32.3571965959
0.315923 36.708 54.8891 31.6159315509
0.105268 46.1827 54.2128 26.7402706032
9.19985 37.9411 52.031 31.8183154752
1.48331 40.6592 48.4948 29.577828747
9.73702 48.2973 48.2356 28.8377307195
6.32843 43.7755 52.2356 29.2319995942
4.51543 42.1585 50.8813 27.0778292546
4.71341 46.4331 53.4461 31.5115482508
10.663 42.8781 49.0971 27.9581443933
2.13575 46.1489 50.4847 30.8326791432
2.09911 39.4388 52.2932 28.7331009601
3.6245 48.493 47.5857 28.3994659096
4.13008 45.7775 48.1317 25.514265482
8.8663 45.4729 56.4515 30.6954205512
10.3145 46.0123 49.8087 29.4755494443
2.58577 37.7167 47.07 34.6270775639
10.048 43.1911 54.2148 25.9405241131
2.30731 47.7245 53.8029 28.0773767261
10.7972 40.9563 54.8315 26.5065793502
5.23893 39.0955 51.8654 28.5497984158
8.86373 38.9666 54.6638 29.4766198974
1.62906 36.7983 52.1136 26.2114774218
0.904563 45.1601 47.4036 28.5340284056
3.95451 44.6316 55.6218 34.4133602346
3.50652 42.4938 53.8058 30.5705119209
4.03827 39.6764 49.1894 27.4014757078
4.34423 39.7921 54.7151 30.0800270097
7.27728 43.3802 54.8605 28.6302209342
1.64936 48.8266 51.2427 28.0868622038
8.69303 42.4547 51.3825 32.1894382812
8.962 47.7708 54.4649 32.3307711659
3.32732 38.681 44.1581 28.1324041677
6.65688 48.526 47.583 29.630604632
6.8007 40.7461 55.5214 30.1126024207
7.8524 46.0622 46.9356 29.4962244547
10.7115 41.9051 44.4184 27.7959678748
12.2575 38.4125 46.5206 34.1506697207
2.88396 38.4757 56.2522 28.4641709315
0.0907405 39.8796 54.4899 28.4020402693
12.3562 48.7566 51.7097 27.6164257361
12.8054 5.35485 7.02266 26.4783090328
15.2868 3.06958 7.43508 30.4991644946
18.9327 6.00369 16.2251 30.7533077936
14.6482 4.15198 4.95069 28.3784121133
15.7449 12.0656 9.24771 31.5048607024
22.7585 5.20958 15.8104 29.8693985214
12.1879 10.6182 5.74712 29.0819946649
22.4765 0.948931 8.94596 31.9006892245
22.2652 0.175811 6.22463 29.8054566291
20.5051 7.36889 7.54042 30.563924162
17.3049 4.44136 4.34974 28.5319585178
13.3637 10.7144 8.84577 31.0727361955
22.0818 3.63542 10.5249 34.01392792
17.9778 1.74928 8.76324 32.1968645712
20.3221 4.4214 3.9655 33.0874348876
17.496 7.56395 4.96641 29.2834320397
17.6886 10.4426 12.4781 30.2919550504
13.4291 9.7296 16.1416 32.2355424525
13.7908 1.42997 4.51031 27.5731212149
21.8643 10.7047 6.59657 29.379815657
24.8545 1.08949 15.3345 35.3404913097
18.3174 11.8894 15.6772 26.705089708
19.805 5.94801 13.5846 29.0314252097
18.2721 3.52331 16.7223 28.8441978966
14.8805 5.05686 9.4522 30.8651698526
18.737 3.62506 7.16355 33.5592072279
21.7331 3.27727 6.60661 31.489137758
15.7892 4.55012 12.1399 29.221115032
23.0765 5.46442 7.84135 30.6993401163
14.6119 1.70056 15.7841 31.7598453402
13.288 7.95392 13.8563 28.6338360491
16.4142 9.88121 15.2261 33.5004765201
15.194 8.68845 12.0622 29.6272888582
14.8561 7.84924 9.17248 29.0722124225
17.8307 5.65148 8.97762 27.2824782195
20.4168 5.84102 10.1793 30.5087261174
20.6699 10.3962 4.17196 29.2990472229
13.4003 8.05309 6.8543 25.4867051835
17.4338 7.8688 7.66837 30.3348815884
20.4495 10.503 12.1547 30.9689836094
17.7312 10.1832 9.33646 32.9301898533
23.5766 8.35402 7.02234 27.5143481538
15.9218 1.66741 11.1278 30.163041146
23.1328 2.98673 3.91278 30.7502798493
16.3406 0.923691 14.1063 29.877691643
23.8827 7.62342 4.40692 30.0652129295
20.0015 0.320894 10.0417 30.9491590221
19.6385 1.22569 12.7688 31.3197896269
23.0853 7.91011 15.2594 31.3217090471
14.3054 5.15186 14.3203 30.3439119238
12.6826 9.91797 11.3515 26.9993938747
18.0867 3.27891 13.836 30.3791835669
17.4675 6.57088 11.8349 33.0493808682
21.7986 3.77667 13.556 33.5280430421
22.2143 8.30913 10.0447 26.6257558572
21.5518 8.01251 12.6871 31.3206737788
20.6721 7.37769 4.61428 30.6475433467
19.5697 11.9024 8.01557 34.3964087959
14.8355 8.38489 4.78577 29.4361215859
21.6191 0.962544 15.1315 32.0564736264
13.0202 1.47428 10.6172 32.2093370322
24.1132 10.1805 13.4583 32.8958253047
21.6065 11.1424 9.92756 25.959789074
24.9303 0.264829 10.4872 28.76181407
12.5016 3.08856 14.8104 30.903609299
24.3197 11.0651 10.7678 27.1016435747
15.6893 3.53181 17.6697 35.8889619022
16.0948 3.50029 20.3543 32.5085156484
20.1128 3.18173 18.7443 30.0354189779
15.9564 11.8648 19.1998 31.1161647774
24.236 6.34614 19.8591 34.2063954478
12.7734 7.63673 17.8386 34.1230078226
13.4287 3.65083 21.1885 29.9740586083
20.9679 5.99827 18.1213 29.2321474202
17.5734 1.41409 21.4714 32.7623252663
17.3733 5.72767 21.5749 33.4945716003
21.8647 6.99936 21.3915 30.4605661317
14.4101 12.0536 24.2417 82.8575298098
21.9058 8.50026 17.5454 30.7474846701
22.6628 10.1471 21.4196 27.5265735521
20.242 1.67441 21.5933 27.377058147
20.2216 10.7083 17.3037 33.0594606012
23.3949 1.57679 24.247 71.6544489662
24.1179 9.1487 19.2296 33.0977506707
12.4034 1.0234 24.3158 70.5702644052
16.1462 3.76784 24.7137 105.6188486987
17.998 5.8364 24.5468 82.5746377321
23.4541 3.82743 18.3999 31.1331595263
17.6515 1.26197 24.2788 72.4015676879
13.5339 3.72908 23.8376 37.6984731525
15.434 9.31167 23.9577 54.100238625
19.4799 8.89696 21.8098 30.9182356308
18.0327 9.00663 24.2786 63.1113549542
20.3423 4.93044 24.1154 58.5190536761
16.3716 8.39269 21.3434 30.5894376429
19.894 4.86589 21.3732 29.8639340641
20.5256 1.85094 24.2352 62.0379595493
22.9466 1.43587 20.0487 29.8011838053
13.5183 8.04483 20.3667 32.4689619172
17.8253 10.004 19.2507 29.5715250986
19.433 11.2477 24.65 116.4517906093
20.3486 11.3882 20.4471 29.0912869358
21.9837 7.23386 24.3065 80.1118922905
14.0495 6.76216 23.9513 49.6325778551
22.0324 10.0462 24.28 61.3908383254
12.9433 0.656885 21.5663 32.8110260926
24.3495 12.1766 21.4401 26.1275886485
13.225 12.1862 19.7357 32.1095278579
15.0746 6.31384 16.8232 33.2034290305
17.2284 8.02048 17.0572 34.0574152373
19.8286 0.746511 17.0531 31.7549939275
21.1427 11.2955 36.0513 62.0822173823
15.3268 5.97188 35.6169 85.0548490104
18.1633 1.89437 38.7408 28.936202969
13.0807 10.3144 39.0055 30.3994759531
14.3817 4.54721 42.6613 29.5011408694
20.7649 4.44495 40.9706 30.5270569088
22.5064 2.25802 35.6669 108.6133489278
13.7543 12.3521 42.1234 26.7367310283
15.9052 8.66429 36.3046 50.0509333827
13.7337 4.21163 39.0146 25.3435595199
17.5835 4.45943 35.8475 68.7933369198
20.336 4.59807 35.8276 76.3598068568
20.2111 6.79908 39.0302 26.6608979313
24.0663 6.99478 35.7331 101.5482067571
21.3895 8.3076 40.8922 28.9589475209
22.8055 5.52571 38.0554 29.3135620691
12.8294 6.71474 38.3019 27.6058753544
16.0842 5.77493 40.281 30.150112828
18.5991 9.3535 36.1253 64.3061990918
20.6706 7.54704 35.9812 72.3664316746
23.1606 9.58071 36.6944 33.2886586896
14.6108 0.751221 38.703 28.2514433255
16.4222 1.98781 36.1455 66.1359771748
23.0508 10.3554 39.7101 31.2917790648
17.103 2.31536 42.6995 32.1969570564
20.4395 0.295154 40.8646 30.7385431391
22.9031 6.22577 41.6266 26.8687293825
18.0961 5.06695 38.531 29.6107639636
15.7669 2.64363 40.2029 26.8294928343
17.1018 8.05007 41.7841 30.71832828
15.6113 10.7079 40.8367 31.2607365744
20.8304 2.83494 38.0947 26.2648101847
19.3701 11.2859 40.5976 27.7155668318
15.1279 8.38371 38.8837 27.3628587845
24.4422 9.7582 42.8576 30.3604911073
18.3438 9.19092 39.1518 30.9362809783
20.2812 0.157464 36.5075 53.6679730755
22.7472 2.45569 40.3124 30.4696311169
13.8721 10.7398 36.2025 53.7781806087
14.0342 3.51962 36.4693 36.9468114852
15.5838 10.3885 55.4424 30.5336452056
15.6313 3.56917 44.7995 26.7910015858
15.7622 9.83303 49.5921 29.7419214463
23.6793 11.0716 48.2596 31.048631816
22.294 0.449545 50.1918 28.4509522548
18.498 11.1293 52.751 28.5954532264
19.6863 11.621 47.7969 25.8632412716
14.0249 8.63896 53.4102 30.2938827735
17.5997 6.67742 50.8405 34.5512343809
12.8621 3.32766 45.9027 27.5515545051
17.3334 4.37412 52.6256 27.9702988856
18.5821 6.68822 43.8345 31.3090466614
21.828 3.78605 45.0365 28.74573358
14.2468 6.58331 55.4706 30.3390200589
15.6243 7.62572 46.4678 30.6621735824
22.7141 1.41584 43.0186 27.3002143891
14.9126 7.18735 49.8662 27.4855418811
12.6901 6.86265 43.3558 31.472570411
20.0623 8.92153 46.7521 30.8426495282
20.4105 8.51603 43.8845 29.6901362522
23.6743 5.5367 43.9795 30.3248387901
17.2983 0.178729 47.4045 29.8087178465
21.6993 4.7784 54.162 28.6768056991
14.4758 0.779484 48.9244 27.2472240193
21.3093 7.42757 53.2881 33.1013310638
18.7162 2.14352 46.0259 28.1831167187
23.6974 3.3662 53.6315 27.7958812768
11.9722 4.00462 49.8612 29.3488757874
13.9534 11.9567 49.474 27.7250379503
20.2164 10.2969 50.3171 31.6572883419
17.3271 5.44647 46.0973 29.8608802913
19.5326 4.0217 47.9637 29.84369813
17.8162 1.84401 49.8025 28.7308905594
20.4212 2.65388 50.5452 28.634002578
15.2095 0.949062 46.1651 28.9746742996
22.3558 2.76546 47.7554 25.1834485815
18.2702 9.51431 55.6203 30.716651609
15.5862 10.7773 52.0892 29.7698868953
19.8457 6.88385 48.8032 30.2299570473
23.5289 3.61751 50.5766 26.9243604101
16.9609 9.91165 47.1505 30.904323472
22.8159 5.69811 48.7511 27.8008116379
12.747 4.27162 52.7002 30.8083738965
22.3285 6.90084 46.2464 30.1152723555
14.475 2.01049 53.5861 29.3355814444
21.6367 12.1407 54.5124 28.0180604811
12.5364 0.254786 54.9542 29.5908535512
19.3413 0.767145 53.6325 27.8416556971
19.6791 3.48377 52.9266 27.5020397912
23.4572 9.41481 45.7478 31.7292728292
24.5597 0.55247 52.3088 29.0750749276
20.5564 0.515254 44.6732 27.9236169396
12.9065 6.22276 46.1786 28.8734271034
14.8728 4.80197 48.3957 29.9808553411
17.2091 6.30792 54.7407 31.1661191574
24.3442 9.65822 50.7472 29.842000914
18.7391 8.37482 53.0084 28.2741822336
15.4481 3.52961 50.5874 27.7110996551
21.8322 7.84099 50.4635 31.586602298
16.8953 2.44324 55.0625 30.8748195472
13.8874 10.8146 44.4457 29.4936344596
22.6464 9.08155 55.0336 27.8068222131
16.1396 12.1544 45.9167 27.9973645837
22.2561 11.828 51.8084 29.9635785903
22.1709 0.652308 54.0809 28.241888061
15.4498 0.417353 51.7416 25.7752219896
20.0705 11.2452 43.2658 30.6922302584
19.4299 4.09106 43.5104 29.1328365933
14.9701 8.43462 43.5985 31.5799442145
13.9625 13.4883 15.7567 29.9054826159
17.864 16.9451 5.51449 30.1026413395
17.7953 19.6443 3.81443 34.7169548439
13.8296 23.6608 13.3677 26.1134378063
18.745 14.6132 7.06082 25.8247692072
15.0781 17.8791 6.33638 27.8951024686
20.0957 13.6509 4.62832 30.831784843
13.3998 20.0197 5.45641 27.574541663
13.6352 12.9191 13.2129 28.4669912663
16.6293 19.1784 8.20386 28.6125825743
23.7844 12.6557 5.48951 29.9367731408
22.1198 17.5742 7.16957 32.4585630587
15.9143 22.7577 11.7102 28.5781690678
19.3561 18.5105 7.85033 30.1455650194
16.5577 21.9636 7.69939 30.7173192129
14.9156 21.8839 15.4841 31.4530604669
14.0163 16.4532 15.1636 26.4751573635
23.5245 17.4969 4.96945 29.7698402448
20.4153 22.5468 10.1809 26.9547970521
21.3351 20.974 16.1776 26.3212981241
20.0475 14.7371 11.4942 32.4856359725
15.735 15.0943 10.3463 31.642359146
24.2116 20.3374 4.13436 35.8754108492
18.4167 16.1369 9.31684 30.3731273324
21.8865 14.5382 6.83456 31.3867739589
22.2419 23.7697 15.7602 28.3116317879
14.091 21.0531 10.1928 27.8061722534
15.945 12.7625 12.279 28.5818060078
19.2961 17.1618 16.8022 32.6660695483
16.22 18.0941 10.7964 30.8831372808
19.3665 19.9346 11.0568 31.0375969662
23.401 16.1257 10.571 31.3408127972
21.1201 20.9743 13.422 28.9154088783
19.118 23.0892 7.82933 31.9882093687
15.0992 12.7592 4.15994 33.6376371562
21.0914 20.8301 7.33226 32.9211566696
12.8133 15.4957 12.9314 33.8761147715
16.7577 16.0659 15.7491 27.7254875875
12.6464 21.5928 7.77153 29.7372581431
23.7001 20.4211 12.2575 30.6861124895
13.6249 19.0276 14.2816 30.8350947259
13.5363 18.2523 11.3904 27.3700537069
17.5968 14.8074 13.4209 35.4213449273
20.8483 17.4614 11.7965 33.541580647
24.2536 17.7671 13.0159 30.2158923497
21.7148 21.6977 4.75129 36.493165488
16.5116 19.4617 14.9395 30.3700926168
23.1693 21.554 9.7329 29.4002495624
14.4383 15.733 7.91472 30.0059712907
22.9186 16.7924 15.3556 29.4207796057
22.0238 13.9952 9.73327 30.1491925042
21.9504 14.184 15.5622 31.5616798699
17.1646 20.3809 12.499 28.7374217561
18.9851 21.5434 16.9177 30.2341728637
20.123 12.8561 13.8813 31.4933938026
13.7078 24.2498 7.07793 30.3029169877
20.7272 18.0833 14.6414 31.5004044642
17.6842 22.787 14.7332 29.9861586484
16.3929 22.0142 4.70719 30.1714582023
16.1329 13.6519 6.90828 35.0331089231
12.6435 18.4977 8.73643 30.2391712176
24.1636 18.9108 8.68286 29.0780422965
22.8036 24.573 10.894 30.7559552031
24.1044 22.1623 14.8173 29.9201099017
15.6542 24.3794 9.08369 25.614852762
19.7945 23.6885 12.6218 28.3905851463
12.5227 13.4694 4.96646 29.8117974536
24.2611 12.5542 15.4314 35.0010640142
18.464 16.3952 21.722 28.5980044402
15.9426 16.2389 20.5485 31.2002140127
16.9471 13.2971 17.1905 27.1348699674
22.6112 14.878 21.7143 28.3746096054
23.1233 21.9613 19.7905 30.7854394709
19.0552 14.3236 18.6121 32.0170165287
21.3255 13.2128 18.0396 27.4575843017
14.7198 18.8535 21.3906 34.5555480421
16.4972 20.8805 20.0705 27.2555922973
19.9405 18.2276 19.6761 30.8181967093
15.188 17.0433 18.1181 32.8679101201
22.3087 19.7328 18.3286 31.2151913257
13.3419 23.7561 24.2348 79.3904010768
19.2925 23.8832 18.6384 29.4341885653
20.7503 22.4202 21.3772 27.6494722337
15.8079 18.2352 24.1153 50.7953565418
18.2137 13.4484 23.7417 48.4669785209
16.011 12.5348 22.048 32.5658310391
18.1809 16.585 24.3927 97.5002052974
19.9825 13.9621 21.4852 29.6707118777
23.4166 15.6741 24.4917 95.6581838058
17.3157 19.282 17.6697 28.5274664151
24.2592 17.9875 17.507 32.5832339579
16.5466 20.8172 24.3243 86.2544275492
21.7396 17.5373 21.7779 30.9357306806
20.5512 18.3029 24.4095 73.966861971
18.1312 23.9134 21.3526 26.2823596781
23.0525 20.5199 24.6144 90.3467601661
13.5481 23.5157 21.0123 29.4278598291
15.9184 22.351 22.1328 25.9413757646
13.2421 17.5971 24.4953 92.5078727589
24.5356 18.8165 21.5364 29.9777140956
18.9648 20.2152 21.2884 30.1031292484
19.1581 20.643 24.1945 55.2412408175
12.2399 21.415 18.0139 30.8990271758
14.7113 22.2286 18.2064 28.9315772693
21.3413 22.5096 23.9208 44.7212860924
13.9586 14.7192 21.7513 29.2541256457
24.3033 24.1059 18.6549 31.4334931131
12.4738 15.991 17.5841 29.3459810379
13.169 14.8124 24.4533 84.5720670657
23.6535 13.9532 19.2439 30.3641254388
24.0606 12.8847 24.0013 49.3009926778
18.6593 23.8324 24.2493 65.8828901247
15.0024 15.5213 40.8385 32.8070524826
18.695 14.4257 38.643 29.3618738615
13.7173 16.6056 38.0334 30.1485645971
15.8083 16.3961 35.9066 45.1161159838
18.8671 15.2141 35.6993 82.9917235476
20.7503 17.2695 38.0956 25.757593326
24.1999 22.6708 38.2763 28.8645418388
22.9623 13.6273 35.5654 94.9384504129
18.3325 23.8571 42.2578 29.0187641761
20.8888 24.1915 35.6011 80.6135700753
17.0222 18.7066 35.3168 100.3884500354
14.0366 21.0808 38.3236 33.8208327904
20.9685 12.483 38.7336 29.069380014
19.8297 19.4774 35.7539 87.6368791754
21.946 16.0843 35.9247 56.0419626308
19.7837 15.8903 42.6605 28.3709683456
15.9389 18.1215 41.5364 30.3761128719
23.9755 18.1111 35.7134 103.2643147937
15.1284 20.9634 35.7466 64.743196883
18.1935 12.4402 35.9431 64.9783207513
22.3028 12.608 42.8707 29.4142471496
13.1254 22.7452 35.5455 115.4793090743
12.5961 16.2437 35.4191 113.5426542567
17.1939 22.4889 35.8823 60.6917421838
19.3098 20.9349 42.8247 30.39267191
21.9907 21.5615 38.9673 28.2518646447
22.7726 18.1147 41.5617 31.8743705038
14.1579 23.9216 38.9536 30.0953857988
23.0517 13.9095 40.22 29.3692372615
22.7089 19.0953 38.0949 30.2894674088
21.1717 15.92 40.3804 28.713218721
18.9562 21.692 39.7853 28.6095888231
16.6826 16.5218 38.5642 30.3149663773
19.6357 21.9814 36.768 29.0419814829
16.2669 20.4512 40.2767 31.308139441
18.5783 18.9218 38.3659 32.4735527727
23.2933 22.6848 42.7241 29.8353583045
23.651 23.9352 35.7004 85.3205595574
21.7357 20.7651 41.6771 29.8219250277
12.5643 13.5923 36.0844 44.77720509
17.1423 12.9117 40.5336 30.0960562989
15.5435 13.3265 35.6505 93.6020820367
13.1977 18.7353 42.3608 29.6071341807
12.2808 14.3537 38.8279 32.8087657682
14.8794 24.6387 41.7235 34.2571754941
17.2764 14.1893 42.7989 28.3314724099
15.7753 21.9733 42.7425 32.9086484572
17.3034 24.1387 38.3582 30.28167032
21.1251 24.3781 41.3517 29.1526003385
13.1958 21.021 43.4464 30.0902206549
21.8821 14.9776 44.214 24.5263027926
21.9206 12.9913 48.2721 26.5516551135
17.9314 13.2351 48.9424 32.5914090837
13.9063 13.0189 52.1073 36.5667692399
15.9562 22.5512 48.5254 31.3292140599
14.5903 14.0778 43.6921 31.5702860687
12.9046 16.7859 47.5173 30.7763055712
18.2232 16.4974 46.2592 32.5209465621
19.9336 17.7595 48.3327 29.8522406695
15.9195 15.0624 52.5304 34.9948135778
20.2489 14.3195 46.0923 27.203362658
13.6505 16.7289 44.5484 31.8138500667
15.9156 19.4552 53.9321 33.6459967945
22.6799 17.6034 44.3872 30.223858187
23.764 14.6285 46.7349 27.2623142964
21.5773 23.1259 47.0583 29.591197867
18.8192 21.714 46.0613 31.0858247244
22.2351 22.8744 52.8356 33.843442785
12.6307 20.8519 50.5038 33.4995025655
15.9286 15.0404 55.3693 29.6580271624
16.0472 20.9935 46.0333 33.7035517415
15.4453 13.6866 47.8452 27.9909357795
23.0309 20.2921 46.4989 28.5257129631
20.4447 19.388 45.4946 29.2720359792
18.6214 17.9644 43.3181 30.4247814737
14.0096 23.227 50.4482 31.2814030713
13.1938 21.5933 46.2248 33.0439099372
16.0381 18.3968 45.0451 32.3960084653
13.4622 24.2798 52.9557 29.2668483936
23.0368 14.0968 55.7336 27.0384339911
23.5705 23.5649 48.7783 25.2017730643
14.0376 21.0619 55.674 31.9765554061
15.6919 16.48 47.7956 31.3812464881
22.0937 16.4643 48.3449 29.2325168414
18.7164 17.1732 50.6901 31.1200935195
24.6607 17.6027 51.4595 33.1774845729
23.9203 18.477 48.9148 26.690304418
20.1079 20.6935 48.5168 30.3559888358
24.5384 14.4723 51.5821 30.1658128105
18.1636 22.1112 50.2663 37.3930629903
22.7628 21.0807 49.5271 28.2193667441
18.5141 12.906 44.5996 27.1190863126
22.5534 20.0148 52.1147 36.2682723396
14.8228 17.4168 56.0195 31.4107090708
18.4045 14.4208 51.3721 28.9315488397
19.0948 13.2578 54.1465 32.0548424958
12.2953 14.2724 48.5651 30.8271428505
17.9329 21.4685 53.0168 31.6811396315
15.8073 23.1583 54.3761 31.7135379828
20.421 19.6076 55.4192 32.197491067
15.9873 17.3614 50.4401 37.9536710995
19.9564 18.9059 52.4997 32.905205447
21.5047 14.6259 50.7993 29.9385988735
22.1064 16.8541 52.7763 31.68999012
21.776 16.8215 55.5116 30.851333545
19.9194 22.3959 54.7119 33.5768246837
14.0004 18.8261 51.8692 35.917715214
21.9265 24.6734 56.1156 33.8338424861
24.2675 24.2017 45.9823 25.086622445
13.2117 14.2348 54.7519 29.5568371511
19.0293 15.7482 56.0539 32.6108761989
14.1947 24.4363 46.4804 36.2739569809
19.6057 24.377 44.8474 30.2393778643
16.7974 34.1475 16.1798 30.3280691964
23.8813 25.3523 7.15454 28.6554351202
13.5446 33.8938 12.6546 29.7985089697
21.4925 26.0368 5.77361 31.1516652904
16.5566 26.7936 7.72789 26.1083171352
24.3675 30.8891 6.84769 27.4359255869
13.1131 25.5909 11.1164 29.9773788135
18.7585 33.2768 13.2534 32.8536988132
15.9478 29.8727 5.23634 29.0090626476
20.1849 35.1758 15.1118 33.8371717959
14.037 32.0278 5.37743 31.0794239123
24.2424 31.2674 9.62782 31.8671675857
15.2989 35.5329 13.8657 29.7619825785
14.5035 28.8934 15.1816 28.5555784049
17.328 35.8214 11.6794 29.5949819093
18.866 25.6203 6.5671 31.4909700659
23.3246 31.9826 12.3185 34.2485001055
22.5766 33.1019 5.76169 28.6392700032
15.5121 34.3201 4.21826 32.1255700694
13.1866 35.2646 10.0948 30.5293949864
16.2199 31.3067 16.4578 27.4789728957
18.818 35.5238 8.54864 27.9239806254
22.4895 35.6361 7.54652 34.9005036196
15.4589 27.1654 10.4125 29.3137375517
22.1246 29.0098 5.41863 30.8775970327
16.2154 28.3237 13.0058 30.1011750948
22.4264 26.5241 9.02307 28.8340703714
17.3048 29.3753 8.20147 28.5704687441
18.0401 24.9493 10.6581 29.6817602185
14.5963 27.5339 5.8978 30.1994118757
14.8068 31.5419 11.925 29.5066239891
12.9529 30.6807 14.0724 28.5388963717
19.3875 29.2307 10.2243 30.0843515602
21.4053 31.3334 9.94913 32.4064533092
20.9928 30.9484 7.00338 32.5669977808
21.9817 25.4793 13.6443 27.241971562
15.8345 34.0339 8.36919 30.3571463641
19.3663 33.4099 10.5086 33.7555182379
14.4195 29.7758 9.6112 31.644123567
21.4441 30.7613 14.1852 36.0591456454
17.0985 31.6952 9.93276 30.5039082302
19.9221 35.4659 5.69398 29.0396150855
24.2186 28.1759 10.1407 33.152730252
16.6306 25.6431 14.2307 29.4141272289
17.6559 33.6063 6.22167 27.4582408267
13.9089 26.1279 15.2975 27.5264141334
21.2317 32.6487 16.2521 34.2420118952
12.721 29.3231 3.91221 28.9792082954
22.7819 28.0088 14.2442 29.7170994421
13.6822 32.383 8.26397 30.6645515788
19.4578 26.8501 14.2997 31.3250397392
19.1021 29.2581 12.8521 31.1978027136
19.6778 26.7698 9.18561 30.4503337699
18.4055 31.133 5.90234 29.2746398313
16.8437 31.1364 13.8327 28.7338817103
14.3218 24.7976 4.3322 31.4926774838
24.3869 29.3296 12.5631 29.9052247825
14.8788 36.8403 5.23698 30.9386672676
17.4861 24.5558 4.2763 34.965428957
23.0699 27.0209 20.3699 27.027281048
19.9413 36.9463 17.1624 28.9264357506
15.8801 25.0393 24.0287 54.1205443554
19.4283 29.678 18.5579 31.3509348633
20.5685 27.2054 17.0533 30.0513859446
14.218 31.5426 19.3436 29.8651505015
17.7507 25.8676 17.0488 29.3849245593
13.6154 28.5029 21.7306 28.5991320175
20.4177 30.0007 21.2945 29.5108688328
14.6161 35.9803 17.9729 27.8907751259
21.5033 24.9549 18.1716 25.4495857004
18.8422 32.1302 17.8696 31.0708118639
14.6139 28.9258 18.3908 29.1155550425
23.0132 33.0234 18.2914 33.2231635856
23.1265 28.3986 17.9583 32.4933172332
13.8217 33.3477 17.0058 30.3484146197
18.1752 33.7853 20.0098 28.8185737532
17.4285 36.2952 18.1472 26.8207128157
22.9996 36.3589 24.5021 95.7206193821
15.3797 27.8112 24.4982 85.1957827112
20.3556 25.7691 24.4182 64.9626524904
19.2226 28.4721 24.6023 84.9916914903
16.4416 29.2889 21.0734 27.5748617318
17.2026 28.6686 17.7769 30.1076406576
23.9439 35.72 18.1029 29.7960372525
23.1323 29.3621 21.5401 30.2022292528
23.1753 28.8917 24.0295 52.5228544796
23.2036 26.1138 24.4244 95.8088670045
17.0019 29.774 24.1308 46.6178226126
16.5878 32.6225 24.3513 67.8960578201
19.9526 32.8323 21.6834 28.0698137074
16.3002 32.23 21.3598 29.7028480507
20.8557 30.5154 24.2587 67.801118794
13.4809 32.7514 24.6958 110.9630550616
13.5553 33.9045 21.8665 25.9667663449
15.9822 35.6047 21.3301 27.7047117111
15.472 35.6088 24.1666 73.776071371
20.162 35.8626 24.3138 75.2348095919
12.695 28.3634 24.3302 67.6054050551
19.5718 33.2751 24.421 83.0300010333
16.0746 26.2476 21.279 27.9730448794
22.0135 34.0593 20.6891 32.984453018
18.8668 27.6415 21.7707 30.6659749799
13.3295 26.3842 19.8275 24.8831868879
20.9783 25.4927 21.6045 29.9688964776
15.5904 24.9286 18.5891 30.4898208431
20.9261 36.5221 21.7917 29.4537843834
13.4003 25.2995 36.5883 35.6807288033
15.3185 28.4414 35.9467 59.5707825596
19.433 26.3309 35.2983 96.1235813273
22.9386 25.1906 39.2372 27.2569128135
24.3085 33.717 39.7168 31.2693711984
13.8306 27.55 43.0731 31.118095109
16.4373 25.5052 35.4967 90.876715217
20.3663 33.1091 42.4858 33.5720030146
14.0905 32.8653 38.177 32.5591465672
16.0246 35.8735 41.0253 29.457097616
16.6057 34.0963 38.3772 29.2372369607
17.541 30.3974 35.7914 72.3268764785
18.8038 26.6805 38.4302 28.8872214192
15.16 31.9917 35.8075 75.2580796224
21.449 27.6127 38.7328 27.7635273013
22.1871 30.801 35.5685 74.5232261764
21.7069 27.9641 35.9125 61.619968201
13.5569 36.7908 41.944 29.998321075
22.8246 36.2729 40.1828 30.0429121569
24.1562 31.3669 41.522 33.0416987932
19.8918 34.8734 35.4446 73.7205749111
19.644 32.1623 35.8218 49.9014480886
22.0965 32.0489 38.3039 28.9666145484
22.5808 34.0398 35.6544 65.6975693759
22.382 30.0815 40.0071 26.9003809774
15.9657 32.5893 42.0039 32.1112620165
15.4201 27.0669 38.3496 26.7623093254
20.0782 30.1031 42.4694 26.3558932325
13.911 31.3035 40.5478 33.0501636191
20.3197 27.1981 41.5997 30.2929248099
20.4545 34.5659 40.0344 32.1851189145
17.1142 34.3653 35.4671 78.7447492952
17.6147 29.3341 38.5694 32.5444215151
16.5044 28.7508 42.3683 31.0317656318
18.0477 30.4072 40.8171 27.2574689684
17.3119 26.0527 40.9504 27.8266673443
19.0451 32.5579 38.6902 29.8440964007
13.6262 28.3553 40.0663 33.0341664996
24.0121 26.4298 36.6055 33.2000140296
22.947 27.9332 42.4845 28.5486446708
12.7522 29.8478 35.7354 95.1876093949
14.9002 36.6014 35.7336 67.9679311601
23.9915 36.5861 35.7082 74.9404156472
15.2577 26.8961 45.6282 30.7456996377
16.4847 25.1988 48.2866 28.6862265787
18.3461 30.7552 55.7929 29.2294034105
21.3163 28.4831 50.6997 27.7579487327
14.3363 28.5365 47.5211 30.2950610217
14.0147 30.6582 45.9718 33.1169687322
18.5495 29.2625 44.786 32.6701134083
23.3881 35.1678 44.6275 30.4006625924
15.3987 34.7282 46.0256 30.1856646758
21.6411 30.6124 45.0343 29.2472386185
19.338 26.7874 48.2421 27.2646785635
22.2593 30.0996 48.4096 29.3478016552
23.6649 34.623 55.1917 29.1486530061
15.9535 28.9582 49.7593 31.8116455804
18.8592 34.9107 44.2475 30.0564585197
16.4138 31.2116 44.6624 31.9474528308
19.3801 24.9415 50.5393 31.6400594581
22.845 32.6137 43.6523 32.939189397
17.8249 33.3186 46.1828 29.1337553385
21.0921 33.8068 47.9912 28.1399186931
21.0339 35.7182 45.8281 32.4814088571
13.7111 34.3075 48.0451 29.9843258522
18.0764 26.5264 45.7488 31.5593212823
19.472 34.4624 50.0748 28.3150784387
17.9145 26.3094 52.5739 33.612031599
21.6397 26.2476 53.7746 30.1834733428
23.5232 33.1298 48.2508 30.4990441972
22.2357 25.2615 44.1009 26.6459764261
23.8082 26.155 49.4057 25.6103379335
13.3501 26.8078 51.2149 32.0088509096
18.852 29.3826 49.0814 30.305581611
14.9725 30.6916 51.8158 35.0827947968
13.3266 28.8146 53.1958 29.4709466715
15.9337 26.5215 50.4343 27.4318541798
19.5731 31.5778 51.1475 27.368262449
23.2163 28.1809 45.318 28.8207737671
20.4394 35.011 52.8581 25.3971483745
14.7802 33.765 50.6554 30.1618657577
17.4454 31.5378 53.0159 29.8985540698
17.1257 32.9811 49.0263 36.5682711723
20.0099 31.3772 47.0439 27.5637680161
17.7544 34.2994 53.1177 27.6413058595
23.1254 30.5155 51.6378 28.8125800064
16.0386 29.1012 55.2855 32.8128339633
21.4653 32.4486 52.9363 28.5072091526
23.8504 30.2471 56.0583 28.6559555625
21.5906 26.3891 47.0642 29.6497572926
17.9472 33.9229 55.8447 29.7319625428
21.8548 25.2174 51.2281 25.9946271221
19.3729 28.862 52.5961 29.6836299797
16.5254 26.3302 54.9011 30.806903311
13.4882 33.7809 53.1619 32.9693936661
13.7122 26.7058 54.7492 25.2996498742
21.5175 31.5742 55.3463 25.7173145317
15.7283 36.2904 51.4111 29.7483874023
15.2513 36.0579 54.35 28.7258086999
21.1019 34.1785 56.2429 26.2680490151
14.5197 34.4109 43.5144 28.6672298265
20.7972 28.9087 55.2243 35.1750924195
24.3067 26.584 53.3843 31.3608500957
15.1875 39.7893 8.90408 30.3089704632
19.9968 43.0292 15.0579 29.1115961873
17.9883 40.1074 6.23481 25.9347594443
15.553 37.0334 9.86464 30.1104633131
21.2366 47.6835 13.3726 26.3452486209
23.1266 37.2402 12.0195 33.5808992463
20.1501 37.0526 12.3638 30.9412534715
15.3921 43.8122 5.19439 27.743243414
15.5321 48.7263 5.48817 28.1211420481
19.3439 41.6383 11.677 32.7931935001
20.477 48.8495 3.83263 34.2949938828
22.3232 40.9335 9.37849 33.5607977485
12.7063 40.7168 12.3237 31.1968572454
22.5632 42.2855 5.30629 34.1776505554
19.4348 39.4689 13.5717 29.2478220753
18.0809 46.3859 13.1055 30.3109687372
16.9548 38.2493 13.2026 30.0277084642
12.4239 39.9928 8.00729 28.8111744932
16.8027 37.3052 7.16543 30.1018673364
13.4951 36.8608 15.3716 27.8620932992
12.5017 40.3555 15.8026 26.9873534004
12.9763 43.0655 15.2897 29.0834128156
24.2712 37.6334 6.20598 39.3564240166
14.5642 46.4244 4.31289 29.2348295865
19.911 39.854 8.30795 34.7561278896
19.725 42.457 5.96754 32.4377877937
14.5239 40.7885 4.9499 29.612080734
16.4931 42.8029 12.323 30.2624195478
16.7133 43.8374 9.72603 32.1255300387
17.635 45.8971 4.98392 31.3511433616
20.171 46.8214 11.078 32.5999953809
23.7938 42.5921 7.51621 31.5073173227
22.0986 39.2286 4.8837 34.4364580679
13.7486 43.8568 12.7435 34.1594602418
12.5613 37.7849 11.4495 30.1766209546
19.4419 42.9603 8.9521 29.1321584688
17.8873 46.5488 9.33836 28.282135768
19.5083 38.0801 4.70675 30.6180247292
23.5375 44.3149 14.1366 32.8766775393
23.4436 45.1065 8.49055 32.1017830672
22.5884 37.3812 14.8505 29.3806192802
23.74 39.8824 11.604 33.3016824891
21.108 45.5644 15.271 32.3831722809
22.0508 46.4612 6.2989 31.0939266306
15.0167 39.2253 14.9199 32.1454734609
15.5616 40.164 11.5193 30.6523007811
13.2793 48.5629 8.07171 29.0953304465
13.5382 46.7159 12.6514 37.9667487546
17.7212 43.9839 14.498 30.1620200698
16.3076 38.8504 3.94398 27.676503162
14.6926 44.8256 7.80165 32.9934154758
21.881 43.44 10.872 32.0962396258
19.4115 45.4777 7.17654 33.5835882363
21.7515 41.9246 13.2989 26.11270274
16.1906 47.7977 11.8087 31.9596003686
16.2062 41.7626 7.38406 27.7686767607
16.3392 48.637 8.24601 30.8245309161
12.468 42.7813 8.14093 29.7090746544
23.4007 40.0095 14.7349 29.0485080391
24.3861 45.5414 11.2725 31.6983439675
16.3557 44.1379 16.7854 31.0691241895
23.2177 44.6119 4.18915 28.9140863794
20.7203 37.2528 9.56622 34.4244496128
18.0596 48.0575 15.496 30.2477691558
19.1486 39.2982 16.212 28.6238002483
23.9255 47.9191 12.7458 35.522459593
17.9203 43.1643 3.63944 33.4875687847
15.4584 48.1292 21.5937 31.1867679833
18.4417 37.2083 20.8075 28.751831723
16.5715 39.0748 17.2537 31.2453673831
17.6797 39.8677 21.0889 29.9756302722
13.811 43.8709 17.7756 26.66181112
16.8179 46.7646 17.444 34.0586009166
15.9355 40.9527 18.928 27.788253717
20.7178 47.2579 18.3347 30.5136670569
14.4327 39.9234 21.5737 30.1606944244
13.2929 40.9635 18.4082 26.3614615565
17.711 43.2574 18.8833 27.4455598678
23.3349 43.919 18.3724 28.6278918418
18.2589 46.8452 19.6827 28.5545928614
19.9825 41.4037 17.8886 29.1205906697
22.0406 37.5486 18.7923 28.543236447
14.4594 44.2824 20.5954 29.423112336
20.6575 44.5341 18.0114 27.4866800952
13.7016 37.315 21.1773 26.6865002145
12.9845 36.9172 23.961 49.3594199657
14.3559 46.7607 19.5638 27.6384629028
22.2949 39.9821 17.4838 30.2629318642
20.1649 41.2011 20.9626 28.8090004713
20.3221 41.1916 23.9069 66.5983479636
17.4333 40.025 23.8003 63.3892912392
17.7799 37.3873 23.7748 53.6293877902
22.4895 39.4509 24.051 61.615748145
13.37 47.5693 24.3188 83.9843620596
17.6252 44.7378 21.2973 27.1679585071
14.6569 40.5871 24.1988 74.6071353624
21.2734 47.8535 21.2008 27.650515407
20.3067 44.0113 21.4568 28.0427955248
17.0986 44.6683 24.0651 76.8138711561
22.7329 45.2328 24.0771 59.1643718939
20.0333 43.7949 24.1626 79.1012090803
22.9822 45.1812 21.1516 26.8877548067
14.5387 43.1152 23.7528 53.1359679972
23.942 41.4038 19.3425 30.0574308788
16.4209 47.3006 24.173 71.9458236378
21.326 47.7885 24.6885 114.2875231246
22.3102 39.4083 21.026 28.0821419967
18.8619 47.3383 22.7063 28.0912036225
23.6446 48.1939 23.0634 24.9572734197
24.0889 49.0649 17.8082 32.0472425387
13.2714 48.4755 17.2516 34.4890443194
15.0533 39.6314 38.5807 26.3841804278
17.2806 40.7983 35.6369 85.2435522452
23.2266 45.8252 35.7079 90.7136072372
23.703 39.6252 35.8267 64.6440355512
12.6029 40.8541 35.9818 64.8777495882
21.0309 37.4112 35.9915 52.8366698988
19.2992 37.1786 40.2183 28.4501426718
14.9328 39.2656 35.7798 64.0085921795
17.2321 47.985 36.0008 69.1927974463
14.1303 48.4426 36.1392 57.4580823817
13.0515 46.3241 39.111 28.3501828783
16.3909 43.6459 35.9284 70.8414597485
15.583 44.2742 38.7508 29.8634942409
21.7143 41.8344 35.3533 118.5151098342
20.4783 47.5624 38.6954 27.5282033765
23.1547 48.4933 36.5093 39.6732677222
15.9758 40.7247 41.1522 29.4529557174
17.3529 36.9099 38.4228 30.0011507341
17.6956 47.7339 38.8891 28.3230552313
18.3028 45.4978 35.4887 107.125499599
19.8721 40.2321 36.581 29.1825575937
23.1176 43.3503 39.9217 33.1337611313
20.7962 44.4818 38.6036 29.3558027478
20.8954 44.5722 35.9045 47.3156221852
18.4358 48.9279 42.8351 31.6486801746
17.8643 37.0182 42.8252 27.515812208
21.1919 38.552 38.6626 26.9692862921
13.2267 44.2286 42.9601 30.8596687941
20.445 39.9261 41.4024 28.7848130388
17.2579 41.9132 38.3586 28.9200403577
14.0114 45.649 36.4347 52.7700515049
20.0573 41.8794 38.947 28.5228558041
22.9695 40.9375 38.2373 29.0904553171
21.7901 42.1694 42.2202 31.2833767628
17.9875 44.9658 39.7582 30.5585295661
13.8811 39.3815 42.4403 28.8074652557
17.7142 44.4248 42.4296 30.994060956
17.9919 37.6218 35.6658 72.1556218873
23.1154 47.9716 42.2164 31.4123179599
13.6255 41.9694 38.296 29.0222606171
15.267 47.9656 40.4429 30.700253348
18.0452 39.8583 42.6419 29.0572143432
15.57 42.7939 42.86 30.8000217336
23.3029 47.6068 39.1078 28.14277394
23.4044 37.2106 42.8213 35.0924980021
12.5573 49.0618 41.9946 34.2729432547
14.0463 37.0972 39.0105 27.0127639372
20.3219 44.3432 43.3767 31.8271536409
16.4282 37.2837 45.4719 31.107762034
21.9154 49.0202 47.0837 28.9510328833
17.0586 38.2948 47.9635 35.3613012665
20.3245 37.215 54.8035 30.3139874464
22.868 40.8763 44.7504 29.5163388542
22.4992 43.8417 54.0088 31.7791968504
14.6253 39.3414 45.1584 29.7977479961
16.5442 41.3828 45.0639 29.6150818581
19.4942 40.0822 45.4312 29.1143649327
17.8182 43.1677 46.9188 28.6920302487
21.0989 46.5286 48.1086 29.9344838435
12.8075 37.8613 54.8474 31.7087959481
20.4116 42.7704 45.5674 29.0091503439
20.1755 44.5923 52.4333 24.482320389
16.9984 45.7383 46.5049 32.6297075283
23.8222 39.8409 46.7566 31.4591209471
18.4691 46.7841 48.7053 30.7641496498
22.6481 37.1924 48.0162 32.4201038918
21.5117 46.4374 44.096 32.820890127
13.5699 47.9641 45.6468 27.3927318387
12.1385 44.5731 53.6107 29.2142552694
12.3006 40.9002 50.2375 27.4203614838
21.0281 38.4214 43.8658 29.8481303021
21.7038 39.198 49.4853 28.3685570107
19.2439 39.8519 48.1757 29.6047905666
14.2018 39.412 48.6184 28.3590846728
21.3324 47.1835 52.402 29.8092409435
14.226 46.9695 43.2879 30.0735848971
15.5168 41.6674 48.3298 28.5847104702
18.1706 37.1235 50.5439 31.6451392101
19.103 42.2499 49.2852 28.4860767472
17.5292 38.0358 54.2583 30.6627096396
21.3843 43.5602 50.3246 26.2369270009
13.7002 42.5433 55.3744 32.1120033991
15.0493 46.455 51.2101 29.6190287262
14.2136 45.605 47.3522 31.8451736553
23.4945 45.5695 45.631 30.6836866535
22.8867 46.0444 50.0531 28.0330080929
24.3872 42.0849 48.0658 33.864277284
14.9941 41.2706 53.3194 32.9415627633
17.4934 44.7671 50.9638 33.1372677397
12.6262 39.9923 53.0905 28.481222406
19.5952 38.7377 52.1462 28.7010464688
13.4163 37.631 50.7078 28.8123608919
22.5029 39.4797 54.8765 32.5942012957
23.2599 41.0988 50.5562 26.5335792841
18.863 45.3134 54.7675 31.4163967073
17.026 47.2928 53.8354 30.0840745256
17.0147 46.6288 43.7454 31.3421978718
19.1063 41.6517 52.147 30.5297445293
15.2476 42.7371 50.9588 31.2363721166
17.3821 41.1293 54.4729 32.6555883476
21.8004 41.3057 53.0729 30.1833176385
13.9665 47.1109 54.1842 30.3186113582
13.0646 47.2913 49.3956 26.1894227438
22.3241 43.9066 47.4185 27.8469660639
18.3405 48.5104 51.2065 28.6577981115
13.0078 44.2075 50.9705 28.1987676153
21.5385 46.7092 55.487 26.3663925174
13.248 42.997 47.4627 28.9441190918
24.5705 47.9668 46.4139 27.4603324716
21.6211 36.58 51.0894 28.8382437401
17.5075 48.7035 56.2611 30.5441125186
24.3748 47.3083 55.4491 27.5839774163
30.0237 10.0092 7.13354 32.0676777633
28.5799 0.322188 8.64959 30.7274187087
36.2948 12.0819 14.4358 27.6642025733
26.9245 2.54296 4.79833 27.2719383218
31.8599 3.49297 7.24395 30.4367930534
29.5733 0.521399 11.4563 31.1543577901
26.302 11.0867 8.54086 31.0522843685
31.8613 2.87358 13.7113 28.7759492581
26.5076 8.29167 8.002 31.1576131868
27.8579 5.57269 11.2105 27.2871511073
29.1042 4.35712 5.5224 33.0841745389
31.5679 7.32955 3.80049 30.7644098538
31.8276 11.0842 11.1177 27.0608077885
26.9803 2.87598 10.0965 27.816963431
31.8228 7.80923 6.64481 33.1239198739
25.6959 4.49865 7.38218 31.0659904303
28.6422 9.36409 4.18527 31.0371125361
27.1628 2.28825 13.1545 30.1020184127
36.1283 7.84141 4.44293 31.3158073406
35.7725 2.49693 4.69447 28.471526302
31.1159 10.5353 15.9685 30.0732184863
35.8672 4.23826 9.46127 29.2949820542
25.6069 6.2628 15.7643 34.6726101634
28.7485 10.8791 9.63695 26.5891423622
25.0352 4.92321 4.1515 29.8933919541
25.6407 1.57718 7.72193 27.8160507229
29.9578 3.39754 11.6487 28.4372292499
34.1239 11.8081 12.5437 29.0316354175
29.1736 3.87448 14.7476 29.9580144288
32.782 1.02925 7.29868 30.5411097292
34.3062 6.06887 7.75197 27.687863993
27.9728 5.94036 8.08325 31.0847664908
24.9507 8.09535 10.3074 27.3398530088
35.2174 9.98485 10.4738 28.7970604873
31.8989 4.38119 9.89403 30.7331576526
30.5588 6.47672 9.12861 27.8249395006
34.232 9.25983 7.92944 28.6993412341
32.4397 0.127534 12.7941 32.4306825207
30.4992 8.03 11.1198 30.3810518398
26.9043 10.6913 13.5369 31.4905758652
27.4455 9.06829 11.3807 27.142776128
33.5437 9.94686 15.1313 27.9497250708
33.0671 8.40029 12.2211 30.9269768717
30.2176 1.81452 4.88395 34.1938051835
35.4289 10.5515 6.0093 31.7019110453
34.012 6.34562 3.84426 30.6473207373
35.5379 6.74463 13.792 27.5261043368
35.2817 0.980968 8.79812 30.7671300155
33.9189 5.77451 11.1218 27.5153450199
34.285 3.99138 13.2695 27.1741753219
28.0978 0.365904 5.93036 27.3125317597
35.6667 2.38589 11.461 29.0821191349
25.66 6.55156 12.571 32.6789410754
34.1438 0.150758 4.97495 28.8722669034
28.9609 9.1874 15.0321 32.0645970291
29.174 6.74594 13.7767 30.1113060335
33.7134 7.58733 16.1236 26.9197636632
31.8472 5.71053 14.9152 31.6897584968
33.928 4.29088 5.74892 32.0092285255
25.7943 3.32942 16.7078 30.0753719416
32.4524 11.2776 8.52555 27.4235266097
24.9771 3.66154 11.5899 33.7534325063
25.7336 9.97936 4.63279 30.9455022685
35.4094 3.26351 16.0539 38.1138816818
37.1164 6.34992 11.4317 29.1555098751
28.8346 6.39094 3.69012 29.8384992153
29.6282 0.468394 18.423 25.8774218207
26.3075 0.217866 21.2215 27.2607881889
25.3183 10.2811 24.6059 101.1159903981
33.1536 2.2599 20.0055 29.0281105337
28.6465 4.37723 20.0564 29.1511511871
35.5808 11.249 18.6843 32.4025665858
34.1551 4.61977 18.4505 29.7867820854
33.0005 7.26347 18.8936 27.8139032665
26.9985 12.0265 20.9793 30.2976415584
35.8153 3.26593 21.2897 28.5865915629
35.569 5.95771 20.6258 28.0124969779
26.5591 9.9562 18.5186 32.9185946703
29.0029 0.390793 21.3768 27.3794766339
28.7594 9.61183 20.3054 28.5627159313
26.7343 0.730593 18.5584 31.5390088486
28.1307 0.247084 24.0998 46.462170347
36.0785 8.16399 17.7145 28.8092851059
26.3188 2.43978 24.5988 96.037041668
28.2142 7.48042 21.857 31.0384249741
24.8074 2.6016 21.963 32.8933850414
30.0206 2.869 21.5194 27.2955711836
32.1062 2.33056 24.4251 74.0842936447
32.7238 4.03715 21.9347 27.2878716443
29.5681 2.90075 24.2551 50.4268042828
34.2588 4.36892 24.545 92.6744598063
35.7093 9.95049 21.8015 27.6527000448
26.6669 5.48376 24.2336 64.7183897467
29.2933 8.56661 24.3519 81.8612705931
32.875 10.5369 20.3111 30.4730039952
31.0017 6.43933 22.2562 30.1255858723
29.4809 5.46294 24.5001 84.7620517654
33.9805 7.78785 21.8717 26.6111444371
24.7406 7.54156 24.2054 65.8868976634
31.0058 9.59315 18.6283 31.5693917983
35.5667 7.07685 24.5126 83.236571984
27.8603 10.9169 23.4777 31.0449035887
32.0891 8.91563 24.1046 69.7545583988
30.4318 12.0346 21.7328 29.8145517066
26.301 5.04319 21.3625 30.7779496331
28.413 3.1803 17.3227 28.3324292233
29.9392 6.59303 18.9214 28.6669343543
35.4677 0.432441 24.4591 84.0411846718
36.1052 9.98453 24.5121 91.0256615856
36.477 2.81889 23.809 37.3893213085
31.6434 11.7805 24.2287 64.944024401
26.0096 12.779 17.8006 33.6103858157
31.2236 4.5139 17.4391 27.0207649032
27.7448 7.79081 17.1147 34.0486775579
31.819 1.89369 17.5885 29.821321424
32.4503 5.22562 38.9751 26.3864627084
25.9631 0.584162 39.526 30.2539830335
29.6082 6.22458 38.9831 27.1615265315
29.4873 4.14444 35.6676 85.4291428739
35.7404 4.44532 35.6507 94.59565993
34.123 1.52468 38.6663 27.4222373398
34.7145 1.80221 36.127 58.2952916736
29.6008 5.61092 41.9528 27.1507360449
33.3748 11.1854 38.3458 29.4948713425
27.0921 4.7343 41.999 28.8829750646
32.4435 8.44886 38.8631 24.9799613709
34.8979 7.12683 38.7515 27.7233160571
32.3629 8.79425 35.904 63.876120602
32.4421 5.61544 36.0603 57.981977408
34.4543 2.03827 41.9677 31.1515358506
29.8316 6.90249 35.8584 68.326759704
36.5395 0.602686 41.0509 31.4848621818
29.6867 9.0503 38.5753 26.3264281588
30.5176 12.2766 38.7443 26.5507705031
30.4852 10.8472 35.8984 55.691974351
26.817 7.48845 36.3643 44.8956490293
28.1102 12.153 40.9063 29.7880909376
34.4529 11.1343 35.6672 80.1356093384
26.8211 12.006 37.877 27.8508277063
28.836 1.4996 40.1708 27.6333611019
26.8609 8.60704 42.5527 26.1651330309
31.5516 2.53329 38.6476 27.3351426932
31.8033 2.22894 35.8285 73.3967762845
35.5997 4.05826 38.8324 26.9971460397
28.3376 3.59569 38.4064 29.4695638421
26.9828 7.74376 39.1262 28.4478823485
32.5002 5.89549 41.9797 28.682314215
34.9547 4.74224 41.4617 29.621375444
27.739 9.91478 35.7935 79.8398685134
31.567 1.63149 41.438 33.1702224734
25.7473 10.1853 40.0282 29.7931388235
29.5463 7.98606 42.7983 29.277271219
27.017 2.44234 35.8725 89.4513760126
27.2585 1.85842 42.8107 29.7570675075
30.4039 10.3745 40.9482 27.0884654996
25.0022 11.3459 35.6491 93.5842414063
34.4772 11.7244 40.9857 27.6734857161
35.5951 7.30623 35.92 67.685872482
32.7187 8.66117 41.8797 28.3749012444
35.7952 9.11543 40.9828 31.6255414702
25.1986 3.42316 38.9974 28.4846630415
32.2426 12.1209 42.7293 27.3380796218
25.1623 5.94638 40.2578 28.4875983551
24.7019 3.94971 36.1691 50.066118832
25.0096 1.10939 44.4818 29.3483092478
35.0463 11.6407 44.2391 26.4445072072
28.3874 3.94667 54.2446 31.0464448148
27.6737 10.1446 47.5952 38.0289382771
35.9153 3.06792 50.3804 32.061801816
30.5716 7.70618 45.4113 31.6743917562
25.8241 4.84303 51.1397 31.6946287351
33.5991 2.09105 44.6905 32.9499628088
32.3501 11.4898 46.881 30.6831923722
34.2774 0.29169 54.7905 28.6831279344
28.6005 6.69867 47.3989 28.3582536962
34.8762 4.43099 45.9483 28.656393324
26.0958 8.53731 45.712 31.3064752106
32.0107 8.94374 47.9614 32.2072151731
28.5544 2.71364 44.8944 27.4329447166
33.1573 9.46506 44.7911 32.0371132084
36.7828 1.61148 46.1274 29.7483096475
26.2202 6.0827 44.1216 25.7548298908
25.909 12.0564 55.2382 29.4148394229
31.4933 0.921403 52.6774 27.5492914542
32.8705 11.5891 55.2368 32.3461391092
28.5998 12.3165 54.2391 27.1743993271
24.7593 10.0381 53.8487 30.0168553491
30.4536 4.43888 47.1836 30.4403163184
32.2447 5.60914 45.1705 31.1175796801
31.5177 1.63235 47.098 31.9477067237
31.7719 4.87539 49.883 30.2030096241
26.9007 4.66522 46.2568 29.3212839777
30.67 3.26959 43.5386 29.4335736568
35.4078 9.88438 52.589 33.0847075505
25.7183 6.27031 48.7337 30.9092237556
30.0256 6.28679 53.7153 30.244592506
28.9866 5.70965 50.2105 28.3486874132
34.2538 4.4346 48.6283 32.2273262871
33.9413 2.72669 53.3223 31.454143097
26.8351 8.64925 49.9947 31.6241137094
29.3278 8.29518 51.1623 29.319646086
34.8082 8.30589 47.4777 28.8605734763
31.5828 9.4663 50.5108 29.4110553495
27.2015 11.432 43.3358 31.3112389686
36.2571 2.83926 54.5011 26.1198504239
36.6058 10.2174 48.1003 29.0753837164
28.1413 3.3971 51.4847 29.6025674353
28.2491 1.34174 49.7971 29.2484226326
25.8528 5.4459 54.3366 32.5140453567
32.5125 5.5553 52.7477 32.7255112986
29.8213 1.50172 54.8924 30.625294908
31.0768 2.00094 50.2732 28.8546014431
26.8132 8.28475 54.7616 30.35206884
