3.91956 40.0048 24.4828 75.7646467886
7.02393 47.0557 22.524 30.1611573948
5.64888 44.5735 22.9224 29.1516323959
10.1241 43.2145 17.4604 29.9276658125
7.45562 41.5415 24.0943 43.9890488668
10.0035 44.4532 23.7439 40.5480439639
4.14939 38.1917 22.07 27.1621647113
9.34261 39.5358 17.7813 30.8976774669
0.846301 44.7698 24.0031 51.3611953383
4.05745 46.3654 20.8323 29.8884676011
2.7059 37.197 18.1343 28.9355009207
9.35067 36.6691 18.3593 30.4287104447
5.56738 38.5268 19.1823 26.1560141374
9.358 47.658 24.2128 73.635343055
0.706881 39.5206 18.1028 29.0241234172
6.9624 46.5091 19.7784 29.6780519926
1.09487 44.6636 18.1833 31.226874448
7.9995 39.7649 20.2799 29.3850009942
12.1121 47.1302 23.8166 50.6979764501
3.20469 48.9769 19.3948 31.7513751961
12.0647 37.0092 24.1765 73.4831142938
3.07274 42.8513 38.5858 27.0637931576
0.589545 41.6346 38.7111 26.6981791886
5.0441 38.9725 35.3884 111.3343666141
6.36082 41.3438 35.9525 52.701194632
2.8178 41.3822 36.0083 63.0390878284
9.48048 41.3217 39.0048 27.7399497479
9.20494 41.2448 36.0339 55.4709393067
10.5303 47.742 36.5642 33.2568509594
3.36585 44.6972 36.0999 48.1357961729
5.32991 40.6025 38.5624 26.5553514975
4.46275 48.4654 42.605 29.0585509203
5.98589 44.2674 35.5844 89.3957877393
2.89109 38.8194 37.4006 29.0783435014
4.03304 46.1033 38.6382 27.1447153468
6.75947 48.4369 38.7213 29.9090209127
10.3014 43.7929 35.5993 90.0734350502
9.52074 45.3155 40.8719 28.3280970801
10.0921 43.8675 38.2948 25.255990818
0.79053 37.8003 41.211 28.1092603722
1.40002 43.1211 41.5557 29.3258021942
6.23361 46.2816 41.9009 28.6493933955
5.9427 44.4135 39.7371 26.7415869048
6.60959 37.8027 38.4617 29.3588130782
8.59292 46.3066 35.4827 87.0671986636
9.79112 47.6627 39.1531 28.7657775824
6.6755 48.4075 35.8385 77.095677202
8.84323 42.8347 42.8887 30.5523025666
9.352 38.5768 38.3973 30.1828811443
1.25292 46.5909 35.6792 81.2326031034
2.40695 45.7114 40.6492 30.0983606683
10.2522 38.487 35.5589 102.5262037694
3.26202 38.9055 40.4106 27.7069746413
5.22493 36.9701 40.9175 29.9732289
0.0223597 41.8916 35.7877 83.1500684092
11.6789 43.2016 42.0998 26.3094167513
3.91564 47.8459 35.7368 70.2146706214
8.42029 48.223 41.9833 29.0611491667
7.06766 42.0558 40.0688 29.2029279258
3.61313 41.4392 41.1174 27.1739355425
10.8768 47.0101 43.1369 28.3112070699
7.58601 45.2676 37.8975 26.2002997474
10.989 37.8429 40.5406 32.4319439584
12.077 48.0943 40.6358 33.3830429115
12.065 40.9369 40.2632 30.3682341903
5.97681 41.878 42.9951 32.7258673331
10.1805 39.2791 42.7361 32.7849881903
2.96722 39.4795 48.1885 27.2261844434
6.13873 46.9196 54.7072 31.400214124
6.40277 37.3803 43.4482 33.4005276778
2.3707 40.183 43.7299 32.4149268892
10.8773 46.3179 48.2808 27.7292091934
8.92787 37.1969 55.1183 28.2559147703
11.5988 41.289 46.1532 29.9510625874
3.9962 45.0174 45.806 29.8385713507
3.94812 42.7447 48.5769 26.6020922569
8.48193 38.7338 48.8162 24.9623378378
1.99465 47.5619 54.1224 29.9424620817
6.67559 44.9707 44.2094 28.6202565009
1.03509 41.7864 52.9152 28.9142541111
9.47724 44.7371 45.4376 28.3405284836
0.673594 41.3975 48.6476 27.9705398178
3.02233 40.127 55.467 34.1919938258
2.43649 46.7476 47.6429 30.7289995841
10.8939 37.3567 48.5639 28.2605514853
4.60177 37.2679 45.8173 29.0163136631
5.69805 47.7741 48.1268 26.5591269499
0.493721 47.7278 44.4431 29.9814038138
1.49598 36.9261 47.4029 27.2613447006
7.01381 37.8844 52.4531 27.9706188406
9.94044 39.9396 54.5716 33.9731194728
9.63767 40.5835 50.6775 31.4310901638
5.5576 42.3024 46.0811 27.7815183531
5.7414 39.5983 47.2518 28.3759649797
1.29972 43.7967 50.086 30.0955226917
10.909 47.2259 56.1342 30.3206734596
8.10929 42.9769 47.2037 28.901710126
5.27401 38.2855 50.5467 27.8035580827
5.04199 43.2201 51.847 28.2199365354
11.0441 43.787 50.1299 29.0522431309
8.83215 40.3957 46.6664 27.4573205005
5.68372 47.5893 45.2675 27.4591588758
2.31032 41.6848 46.0003 31.392788158
6.53446 37.3353 56.0286 26.840730287
7.79946 40.0113 43.846 29.7059851738
4.36962 45.4386 49.2521 27.7300742618
2.41306 44.285 52.7074 26.958621263
6.79949 45.2191 50.9201 28.61664589
10.6331 47.3584 53.1509 28.751019894
8.23989 46.9148 48.9972 30.0676583511
0.773466 47.9944 51.5426 32.3545944738
2.57437 39.6701 51.1767 30.2713581014
4.10148 42.9223 54.8405 30.8526803211
8.19843 48.6727 53.5573 29.565154504
2.56822 46.3414 43.4349 29.4021851067
1.65183 37.4992 55.5005 28.3283810519
1.58781 37.6576 44.735 27.2351938343
4.30165 46.6676 52.3358 28.8244915692
7.91389 40.4086 52.883 29.3996411368
8.52389 47.5285 45.7285 27.6132801146
8.26059 44.993 53.7377 28.1102555382
1.08744 43.844 44.5017 34.0809465844
5.59691 41.2598 50.0512 27.1858354457
8.19268 42.9311 49.716 28.0114277595
7.08254 42.5971 54.1667 29.4964593666
11.1789 44.4835 52.7893 34.4099951823
10.9483 48.9485 45.3336 28.7003950953
0.205042 45.5073 54.6888 28.7743542565
10.8135 37.9018 45.3031 29.5608039888
11.7118 43.8003 47.3172 26.708204634
2.83253 37.583 52.8002 30.2962139021
11.6753 37.5815 51.5632 33.3174913987
0.139138 46.3475 49.3933 30.3280801475
4.8657 48.9417 50.8093 31.8385410208
9.19456 44.9043 56.4132 32.7698440337
12.8511 1.43681 6.00635 32.3840155667
23.8717 9.83974 11.9221 27.8122542752
17.0723 4.29649 8.87171 33.9576689099
13.0384 6.22052 7.33425 29.8212029042
21.8946 0.537172 5.76493 28.6051391349
20.565 2.82182 7.39904 30.998734773
13.9257 8.64248 4.49557 27.6958737564
14.5227 0.166632 13.9759 28.5259311731
14.3229 4.84134 9.39338 30.7107260144
17.9289 3.36473 6.35348 32.5002302604
15.5771 7.27159 6.04637 32.0694541912
21.036 6.99597 5.43845 31.3444340585
15.3735 11.7146 15.7463 26.9828344013
20.1408 3.2868 10.1842 28.7592452813
21.5076 0.754821 11.9858 31.7193619482
15.6558 11.8334 5.74127 32.8027385226
16.721 9.50555 6.96578 28.7847328029
19.4154 9.13121 6.31216 29.7758235581
20.8768 11.3029 5.67111 28.2424516204
21.619 4.54976 14.589 30.9204941932
17.3852 1.87104 9.90786 30.9860052967
18.4034 2.14076 12.747 38.3336445531
14.511 1.2398 4.02351 31.3025142592
21.7548 5.50839 7.78249 31.4710956303
23.0152 2.23971 14.0363 29.7312300868
14.387 2.11059 10.8539 31.1617178775
13.9569 8.94742 10.1997 27.902262668
23.1628 2.70527 10.2712 29.6300533228
16.7002 9.26944 9.91107 32.2385990467
17.9749 6.79309 10.6049 32.0301984317
17.662 6.51644 13.2443 35.5650996306
20.5788 6.04615 10.3747 27.9824490984
22.1073 6.61371 12.7617 29.4030743515
19.8435 8.86551 9.19642 31.7675403574
22.692 10.9403 7.77205 28.1511647167
12.9329 10.7675 11.8978 33.8508995456
13.1857 5.21212 14.9202 28.0436503661
17.2875 11.4608 11.6419 31.8747771838
20.17 11.1631 11.1978 34.5353126568
12.8096 3.79081 12.5418 30.324188716
22.8454 8.48284 9.72319 30.1199654348
13.6421 2.2782 15.7197 30.9140503746
18.9366 4.27057 14.6024 33.6659415935
13.3768 6.40478 11.553 28.55000259
16.9621 0.998951 5.04577 30.3025573169
13.7793 9.66617 7.5898 29.9277055513
17.6625 11.2239 14.4853 31.3806522607
13.5954 9.6305 14.6494 31.1495025822
14.8872 7.23256 14.1547 30.5208195382
17.0002 0.209212 14.5319 29.2373912139
18.5722 8.51456 14.9204 33.0312193171
21.4176 8.58582 14.3414 33.8123214978
22.0609 11.4222 13.572 32.0688613671
12.3893 2.75839 8.70451 28.8254226713
16.7039 5.43685 4.31357 31.1078023705
19.8819 4.62788 4.46079 27.4469461362
24.2468 6.61625 8.24102 26.2620360764
23.4421 6.51231 3.7859 30.863192936
24.4151 3.77396 4.0029 32.6720743748
24.1909 0.994092 8.65254 28.1322501526
14.3838 1.08257 21.5908 28.031338087
12.9177 5.34703 24.021 78.8018139126
13.216 8.99191 18.1335 30.6023115051
23.0349 2.63683 18.0823 33.0015604774
15.6764 9.67748 21.3403 30.2472996942
23.1324 3.16995 20.6592 32.0576032407
24.1814 10.887 17.6232 32.3337099944
23.3767 6.80674 18.1932 30.6211406906
19.6577 5.75641 18.8597 29.1796966691
17.7082 7.56644 20.8985 27.2506202148
22.9425 6.01032 20.9389 30.352308937
20.2944 9.74448 18.8733 32.4629160687
13.516 0.428036 18.34 28.2501273663
16.0614 9.59346 18.5319 27.3924752149
22.2165 9.01125 17.1515 32.4731944248
21.7194 10.8024 24.5576 119.4047350048
16.8743 11.6498 24.3855 71.9143588564
13.2444 5.58316 21.1226 29.5518276747
15.5522 4.61229 24.1427 83.7219225792
16.5339 2.37969 23.4032 34.8276564326
24.4828 11.7755 23.7402 45.8393387107
18.7583 3.9105 21.0826 31.6643527674
20.8525 2.29362 21.9122 31.2487740211
18.804 4.61799 24.0968 77.6070772518
21.2049 3.24642 24.2736 85.5186807532
22.963 5.69216 24.1227 68.89104534
16.0684 5.53693 21.4796 27.7084582729
15.421 7.06374 16.9884 31.7324499123
17.3101 12.0728 21.2673 30.4087492436
18.3203 7.39411 23.4643 36.5540290383
16.2391 9.0759 24.3076 88.4567500662
20.7704 7.90522 21.0679 27.6779663332
21.1396 7.81893 24.1058 75.3733230185
13.6088 11.9488 18.08 31.3337021841
13.101 8.42823 21.0355 29.0219891943
14.2153 0.302221 24.551 118.3301002186
13.1442 3.41381 19.3402 26.5468279937
21.921 10.2951 21.8567 30.2933891187
18.1143 7.78116 17.5871 28.6248633821
17.0473 12.3667 18.2708 28.626760442
16.0469 3.10273 20.062 28.9162387999
13.6243 8.00886 23.928 45.9725063155
21.7931 4.95793 17.3325 28.6190378906
15.4197 4.2221 17.2704 32.9010340836
20.3013 0.0131996 24.3817 91.7658652798
18.3223 3.45086 17.1613 33.5340258634
24.5521 11.2145 20.5803 33.2491834222
18.0871 0.680882 16.9494 33.0568160141
18.3059 7.2496 35.7833 72.871451313
17.2252 1.93405 35.7443 79.6692661398
17.8778 0.990628 38.3843 27.7461143435
16.7572 4.61728 36.0055 52.2760431241
13.6955 7.06692 42.0959 32.1586933103
12.8619 12.0673 38.1352 31.9180733852
19.9635 9.3503 38.8979 28.5839220156
18.3372 8.79362 41.528 30.1378201472
22.9524 0.127891 38.3994 25.4970926048
17.5715 5.00262 39.9019 28.2034046293
19.0557 6.74506 38.5961 28.1809169613
13.3213 3.47469 36.357 37.1612637287
22.4014 7.73143 38.4017 29.6563876828
22.1902 5.80033 35.7496 77.7606910053
19.8374 4.23977 35.4506 88.0014937552
14.3828 6.43878 35.7737 72.9954473769
18.9644 11.8931 38.7504 29.7503750608
15.1814 8.77382 38.6091 28.2064684934
16.1909 11.3488 38.6477 27.4820408846
15.9783 8.73672 35.9215 59.4880701029
16.3256 7.32608 40.7291 30.3214769906
14.5365 0.886385 36.0925 54.4232318747
16.3562 11.5861 35.5998 95.0368759051
22.9 8.88486 35.9529 69.8267607845
16.9219 1.50984 42.7415 28.6015260675
19.9501 9.49282 36.0645 62.3091347661
15.7602 2.07981 40.1948 28.2991581818
13.8269 0.441025 38.9666 28.3277886002
19.282 5.35341 42.3283 29.5602756022
20.4802 1.45489 35.7517 55.8935227947
15.1665 4.39788 38.5004 26.735206861
20.9407 4.65247 38.0795 28.9028917715
20.7497 1.88289 38.577 27.5156165864
19.2076 2.39043 40.9538 28.1963577772
12.8097 10.8226 42.2893 30.406663866
12.7944 6.32504 38.645 28.2386551057
21.961 4.48623 42.2386 36.4386394602
13.1275 4.44022 41.0753 27.5935890275
24.1062 4.59279 38.8239 31.575424678
22.6498 10.9743 38.1607 28.0692316298
17.1547 10.7062 42.9688 28.90136781
24.2456 7.8121 40.4627 31.8060319894
15.2776 11.757 41.4828 31.5342014552
22.9627 1.81105 42.8126 29.2328160996
12.6223 9.29358 38.3371 29.129280407
23.1565 8.80321 42.8697 35.2423223298
23.0454 0.209801 35.3131 102.8272137542
15.5944 3.89991 45.4846 24.9266792113
13.6881 5.6743 48.7809 28.9588175686
19.8791 9.25826 55.8648 28.5141639798
12.4982 5.1082 55.6696 32.8468083199
20.5333 1.60473 44.0423 29.6238730571
24.065 4.83542 49.9227 32.2324912824
20.0452 3.15631 46.4478 30.5336715182
14.908 10.9194 55.7888 27.3365656281
21.1161 12.0762 48.2197 30.3521973211
14.3327 6.26127 44.7965 27.9212793724
16.6613 0.367224 52.1112 29.4466350853
16.916 7.49506 45.4972 29.1521434192
14.7236 0.344278 47.9651 30.1814260868
20.4708 6.13982 46.2774 31.7911473604
19.1284 7.59775 43.9489 28.0896357633
12.9756 7.66706 51.0491 28.1602351344
21.5925 2.59455 56.0963 29.5390321338
22.0492 1.07616 49.7893 27.0678419368
13.2245 10.1874 53.72 29.8974635719
16.0153 10.0038 45.3315 30.2784134033
22.0492 9.78978 46.9379 30.0730978187
16.1192 1.10864 45.7783 27.5531816129
17.5715 10.4869 54.8641 31.8499731735
19.3533 0.490184 49.6264 30.050057758
17.9369 1.89104 47.6773 30.5271028395
19.1501 6.58785 51.2872 28.6570075021
13.2484 10.5875 44.9092 37.4971053511
22.7865 2.21148 46.8373 28.5814687164
14.948 6.40802 55.107 31.1445567803
15.368 5.06206 52.2589 31.5342889135
17.6545 4.48023 50.6405 30.9046905454
14.4217 1.49338 53.104 28.8769079617
17.9126 6.57035 47.8882 28.495479426
18.9793 10.4687 49.4035 33.7885261323
20.4613 7.91697 48.9238 34.9808877976
21.6453 3.81293 50.6158 34.6681277991
23.6357 10.5881 51.8731 31.3477720913
17.7635 8.20452 52.7501 28.6192148842
13.2764 7.88636 46.5244 28.0691462405
16.7654 11.0097 47.8824 31.2359118315
19.7177 10.2868 52.3683 30.6158948519
15.5378 8.40633 48.739 32.3306148262
23.2903 5.15189 46.792 28.5609054508
23.7078 7.81792 48.157 29.1726538959
18.8534 0.757276 55.7347 27.6947091822
22.3574 11.5208 55.8209 30.0309806946
18.1396 3.74588 44.2565 29.003308337
22.0143 9.66466 53.7428 27.3796744645
18.5222 2.10396 52.0636 27.1544744269
18.9368 6.7428 55.2925 28.9030267109
23.4613 6.23726 44.0518 30.4369658367
21.5542 2.38198 53.1748 32.3532092252
16.2397 4.48159 48.0673 26.6994062129
15.8246 3.32561 54.806 28.6848725003
20.8046 5.69422 53.3238 30.1549503645
13.3473 2.70484 48.6006 29.4822043897
18.6644 3.38939 54.4751 26.5728956599
22.9957 7.12458 53.9088 31.4196250013
13.4123 3.58999 51.3967 27.0314373635
15.293 9.26722 51.6285 31.0412729612
20.9937 9.88988 44.1633 33.7208682703
16.1141 11.9179 52.1892 29.0703208301
23.2258 0.518163 52.2832 27.9450049068
14.3426 2.82571 43.198 33.2919175467
21.1164 24.2922 6.77117 27.1617196997
13.9328 14.2247 5.76927 33.9885413179
21.0348 17.9093 15.1554 34.7853752471
21.1033 16.2316 7.8805 25.8799689048
19.0016 14.3989 8.18679 29.4228373111
22.6568 19.8506 7.46438 28.5607005825
24.1669 13.3479 16.8451 30.2164069167
14.0543 19.4836 13.4366 29.0377306576
22.4545 14.1139 6.3867 30.4109060864
21.1712 14.2217 13.628 31.4268263502
14.0874 17.499 6.90635 29.7289695799
19.1841 19.9892 4.40853 33.327696717
18.0389 16.8558 6.95187 29.2596387389
15.8941 16.322 5.29683 28.9172272354
16.5577 20.011 15.13 29.483140114
20.6561 17.9254 5.54665 30.6289718514
19.744 20.2584 8.78769 28.0519240266
18.5096 14.8443 4.34188 32.7003534743
20.2619 22.2832 11.2037 27.2705967643
17.989 21.1295 6.67325 30.5654442283
21.9846 22.4694 8.60473 29.0064091646
17.6572 24.2414 10.009 28.9316483782
23.033 17.7568 4.07706 28.7445249604
23.3735 21.1191 5.27065 27.3955387582
23.7574 23.6433 6.03187 25.0759464361
23.2235 23.0082 11.6705 30.7157470757
17.9162 14.1988 10.6383 32.5809774747
22.9445 14.3269 11.0617 28.9197789598
13.7606 23.1893 9.44988 32.7757931265
22.2855 20.45 14.9346 30.6314117396
20.377 17.7346 10.2434 30.225469866
15.7614 16.1168 10.5558 29.9495132989
13.4541 16.6919 9.63072 30.4148840822
20.5004 22.3748 13.8157 29.3568309622
15.3764 19.8733 7.57408 30.9071780674
17.0868 18.2195 9.16002 27.1258247328
18.2325 20.1776 11.1049 28.0426161222
12.7875 21.2873 4.95702 31.8862840564
14.6872 20.4691 10.4669 30.9313733318
16.666 22.323 11.7136 33.4115976611
18.6074 18.393 13.7666 28.6631927747
15.4286 21.0702 4.64681 30.8731820759
12.2116 24.2893 13.5004 34.3693928333
12.3669 14.0715 10.3568 28.9424660388
18.7023 13.456 15.5788 31.277224818
24.5719 13.0029 8.24078 25.5550310796
12.6358 14.8931 14.721 30.561498605
15.0746 13.8531 14.1305 28.7192115125
18.2751 12.6187 6.01753 32.2829389157
19.5383 16.0098 12.375 30.3744919416
18.1745 23.7386 7.45821 30.1150208474
23.254 18.4763 11.1238 32.8982052409
16.8199 15.6838 14.9714 28.9719063825
15.857 17.244 13.1142 29.9852511913
23.6831 16.3762 9.33368 26.8263716034
12.5091 17.6525 15.7519 30.4305083208
21.3274 13.0383 9.21842 27.6890346323
17.8536 22.3575 14.468 31.5129071013
16.1186 23.7971 3.98592 34.3964092173
14.7093 12.951 11.3709 33.4935980506
21.7532 14.5538 16.5664 31.1746528952
12.2749 18.8002 10.7318 31.3426777777
12.62 21.5317 14.5583 36.7930036223
20.4727 24.3783 4.08277 30.0915906927
19.1821 19.6173 16.7316 31.2216461989
24.3032 15.6497 5.22672 29.0917698235
16.4139 23.6145 19.4676 33.2366753665
12.7046 12.7447 24.0053 40.5226432417
22.546 18.9749 20.3556 30.7964491733
12.9379 21.1092 24.5887 100.4642408615
18.8855 15.935 21.5321 29.4042277457
24.5042 17.2947 18.2458 33.5602474919
19.9811 12.7322 18.0175 33.2207661813
23.9931 22.9294 19.9017 26.6224638982
14.9905 16.9741 21.2448 31.3631189157
18.9007 17.6207 18.6862 30.9059460687
13.9935 24.205 17.5821 32.0167240197
23.3234 22.2302 17.2322 29.3865280675
19.3485 12.8176 24.396 79.3953854875
20.0237 20.307 20.881 26.9036700376
18.1561 18.6439 21.4082 32.7324352542
14.8548 20.8291 18.954 37.6166030901
12.5795 13.1388 21.0486 32.4272938102
19.5173 23.4956 17.9325 32.1423085494
15.2475 14.3414 19.0304 29.2457433843
21.5918 17.0445 18.0712 26.7109270742
15.2193 13.9269 24.3343 84.9536021916
20.8134 14.8919 19.9672 30.1274169111
20.2235 15.7894 24.2346 87.84542832
22.91 16.3989 23.7265 43.5908569545
23.2833 19.1713 24.1167 92.3079086239
23.1354 16.1673 21.0729 30.9947393364
14.8707 17.6623 24.2728 70.8835449895
15.0334 18.7552 16.8073 26.7827537091
17.9562 17.6492 24.1823 72.6348184104
18.6047 20.8998 24.4298 101.7612626939
22.4058 23.1439 23.8253 56.7340451934
20.8912 21.2929 18.1279 27.7354396802
21.8153 23.6777 21.1399 28.65221034
13.0854 16.5413 18.5346 28.7003251448
15.5442 20.4339 24.3905 73.2299835248
12.7555 21.5004 17.2891 33.8651485263
13.6818 20.7507 21.6416 34.4257345031
16.3942 16.6503 17.5842 30.6238976131
18.6554 22.9239 21.0354 35.2098270468
17.5615 23.412 23.6759 43.3404983148
21.0152 20.7101 23.567 36.8064021877
16.2331 14.542 21.9392 27.3456904409
24.6527 20.7541 20.8591 28.3808661204
12.5245 16.0664 21.3806 27.0944345497
15.049 24.3602 23.5455 43.1190681951
20.1489 12.4132 21.7163 32.797920541
12.8608 20.0445 36.3071 47.2363434038
20.6073 18.4612 39.9251 33.0861206856
15.7386 23.1006 42.1696 31.6817847891
15.9342 23.7792 39.3658 31.3805607588
15.2254 14.5153 42.4002 29.9717240977
22.5668 15.1092 35.9353 68.297188838
22.5793 23.367 38.8359 30.9704251651
23.4813 13.0392 40.0921 29.5608692054
17.2568 17.2199 35.6566 88.7507299923
13.801 12.9375 35.6535 80.3216200249
15.3256 21.1323 35.7834 94.2464479057
22.6576 15.6282 39.0971 30.5958743521
15.7436 24.1114 36.2608 54.3423488165
19.5314 15.408 35.646 102.9106268455
19.6138 21.9551 35.9433 55.2297791888
13.9003 19.3191 43.1215 32.9446374525
13.0097 19.547 39.1709 31.1805244929
21.9324 12.4258 36.0135 77.8597569559
14.8253 15.896 35.9619 64.1675081693
17.7405 19.9549 35.9419 61.334412712
23.8217 20.2402 41.3012 25.0449132161
20.7769 12.7975 40.598 32.3206845241
19.4543 15.9326 43.1625 31.0294509873
22.4975 19.0445 36.3163 54.3424548596
19.9064 15.6257 40.2965 31.9019997618
18.2057 20.1274 38.6668 30.6365444638
23.1744 17.8528 42.8901 28.2008121928
22.2981 21.6242 35.5297 106.345748349
20.6179 19.2017 42.5799 31.1862490579
15.6274 19.0874 40.7931 29.7848818847
17.7714 16.1679 38.483 33.3248713829
12.9809 16.5072 38.952 32.2529350995
15.5678 16.2719 40.49 30.3184249005
19.8892 22.5769 38.8857 28.418133809
19.6293 21.7896 41.5213 30.9414375061
15.6684 21.0228 38.6652 29.5660662155
23.3081 18.5662 39.0268 28.6014168659
15.5471 14.2623 38.271 30.6569021303
22.1374 22.0194 42.561 28.3731390776
12.5039 17.0689 36.1022 65.8997361171
19.0393 12.4718 36.2474 42.6367900121
17.4114 20.8092 42.7159 26.5497406352
23.0272 24.3544 36.2305 36.4397551707
19.7974 12.4115 43.1797 28.5179115224
17.3164 13.5174 46.6359 29.6009540977
21.213 21.6347 51.7316 31.6600737909
12.5507 16.7814 47.9597 30.5676411178
21.8687 16.042 44.959 29.5414883316
15.0698 23.0252 45.7282 28.9109490433
15.4779 20.4182 54.5729 28.9393339557
15.4886 17.4526 55.4442 31.7948346991
13.0905 20.3004 53.0096 29.9786902059
12.3558 21.9014 47.174 29.513527865
18.4395 18.282 46.7851 32.6267722395
21.2307 21.7658 56.0022 33.7756367794
23.0 12.7713 50.1941 34.4488464781
14.7576 20.612 47.4239 26.1872563478
18.1696 21.1702 47.1777 29.2188716337
17.6889 22.4127 44.8536 28.2804761829
16.8044 24.3698 48.0916 31.9247068482
17.4075 13.9656 43.743 29.6559223348
22.8994 21.9567 45.1691 31.9083223232
17.9298 18.2747 43.6498 30.0300396418
14.0712 14.42 47.4959 28.6120391474
15.791 13.0816 49.7192 30.3931221633
13.7809 18.5916 45.9243 30.4148595609
21.0715 13.3545 45.2125 28.4640652791
17.1749 15.683 50.0447 27.9736054592
19.5562 14.4351 48.0671 28.2286734372
24.1949 17.065 47.4623 31.7415206281
18.8578 12.9786 53.0403 27.0632482277
21.2298 19.3225 48.8086 30.1404920766
14.178 18.3188 49.5356 28.2239531049
16.2155 15.7721 47.2228 25.3876897124
19.8855 14.7938 51.1343 32.8816842477
20.8098 16.7167 47.4076 32.2730382589
17.1024 18.6119 49.3424 30.18366792
24.2438 24.2568 45.1117 28.618849014
17.6786 21.5403 52.2544 31.9705480013
23.864 18.5775 49.7384 30.7596353817
16.2858 21.7334 49.4385 28.7329437273
22.6985 22.659 49.5852 32.5203590799
21.0328 21.8986 47.2398 31.0272206854
22.9474 21.4555 53.7634 31.4106761035
15.6899 16.8852 44.6786 29.4618875533
15.0491 22.8035 53.3211 28.6491893731
13.1525 14.2227 50.2987 29.9494774981
16.8901 13.8167 54.8705 27.5643042605
13.9916 13.5012 54.2197 28.2167461829
22.8483 15.1181 51.7791 35.083981797
14.3919 16.4312 51.6894 29.5793250456
19.6281 19.3748 50.8682 32.4870057769
16.6296 15.9668 53.1059 27.7850517445
19.1544 17.3015 53.1178 31.9939708326
21.6879 16.4406 54.5616 34.934987691
24.3443 19.1613 53.8444 31.5958270274
23.8453 13.8121 54.2414 32.9049571393
24.0799 19.2448 45.4446 31.674421547
18.2432 19.4738 54.4276 33.5387442219
19.2516 23.7906 52.1939 28.1177284034
20.5886 13.7981 55.076 31.7315274588
13.8886 22.6999 50.636 27.681369855
13.2838 23.7381 43.4342 28.0274582003
12.7996 16.7899 55.6853 30.8342290519
23.6886 12.8556 44.9286 32.3700787462
12.559 15.1163 43.5537 33.9824282788
12.3202 13.1701 45.7751 33.2684969151
12.6213 20.4962 50.395 27.2426568326
16.5293 25.4367 6.34136 25.3410222205
13.5464 32.1833 15.2777 32.6910525551
24.3845 34.9708 12.5772 29.2036169222
19.45 29.8142 5.2931 27.0516490813
22.9064 34.3519 7.02445 30.8914418635
21.9009 28.0102 5.63099 31.8178602291
21.4319 26.3298 8.70911 31.2220354603
14.2034 28.2214 16.3815 29.0160478534
12.2753 31.0564 8.68457 28.3169501441
23.8987 25.6711 12.3227 32.7481622553
16.2934 29.05 8.64807 28.9204115217
17.6288 31.9037 7.70631 29.2936390859
21.6894 32.3493 4.71767 28.0153468588
14.8034 27.2904 4.50139 29.051731089
14.7107 31.4388 7.19632 32.1853855845
24.5254 34.5979 9.80738 30.8080959149
17.0113 35.511 6.44407 30.2142477278
20.1097 25.1689 11.1691 29.0210267205
13.498 28.1467 8.76316 27.1053957425
23.0669 26.0012 4.27742 25.8219213628
23.9524 32.126 14.0799 27.5871397791
17.3428 30.387 11.1748 28.6139777571
21.2185 25.0434 15.0887 31.5027574705
18.2036 27.7282 11.3434 26.3462373481
18.3158 26.2684 3.81495 28.478180024
19.9595 28.6772 8.90094 26.9841382572
21.119 29.363 11.235 26.5510896126
17.3037 33.4581 10.5262 30.7928344935
17.9348 27.6316 6.94262 30.0183857736
19.649 31.2595 12.1506 26.363084933
23.1693 32.0228 9.85664 27.935316813
23.6909 30.4382 11.8723 32.9631990885
20.4802 31.1308 7.61943 25.7671113716
23.5649 31.4124 7.24808 30.3336169026
15.8132 26.3412 10.2226 28.4571631489
13.5522 35.9226 10.0192 31.657637357
14.7177 33.726 11.6674 32.6536938489
20.5232 32.8766 10.0237 24.8757665922
17.6116 35.8263 9.16708 32.5176886428
20.0635 34.6609 7.91874 29.2410107863
13.391 29.0904 5.8889 30.1148673848
14.6707 34.0767 6.07528 33.1149916977
21.495 27.0227 12.6426 27.3289045312
21.5562 34.675 12.1168 28.0248177096
15.0698 27.2116 12.6864 30.3982838971
12.4021 34.8334 7.7247 32.105271111
18.3223 33.9342 13.8206 31.0118022709
21.4018 33.267 14.5481 26.9170970229
23.8657 24.8723 16.1301 32.0986158734
14.0074 25.4436 7.78289 30.7270012552
14.9489 30.9104 12.96 29.081313064
16.4026 29.2436 14.8076 28.063903312
23.94 30.0796 16.1296 32.1088288868
21.3853 28.933 15.1608 32.2696537151
22.1901 34.7667 16.647 25.5208354935
18.7653 33.4675 5.31646 30.7841180537
15.7238 34.1251 14.3675 28.0725741443
19.4169 31.2297 15.1566 29.8051307137
24.3297 26.3102 9.55125 33.7716075209
18.1178 27.111 14.1193 28.6397605808
16.7469 24.9264 14.8808 32.3493063531
13.8325 25.6296 15.1766 27.8554732962
12.3452 31.7222 11.3519 27.9564741367
16.9218 31.5032 4.29693 28.5839643341
12.6606 28.7525 12.3234 26.9171277729
17.672 34.8743 16.8201 32.1871396983
21.9169 36.3388 9.57131 31.4009045033
23.6381 34.643 4.14731 32.150073515
14.7282 36.6574 14.4035 31.2022524058
23.0356 30.0346 3.81401 27.2851594173
13.0416 27.7751 21.6118 26.8872568715
19.5114 28.2502 21.6603 31.8113245025
21.406 25.6734 18.1215 28.289251809
17.229 25.7472 17.4987 30.463055627
15.9752 27.9439 18.7737 31.360011458
23.1646 32.1447 17.8686 25.7365470922
18.8541 30.7745 21.8089 26.4560873116
23.065 28.2241 18.1631 27.5228952283
12.3906 30.5366 20.3689 29.311212332
17.3167 29.9881 17.3229 28.599501378
14.5394 25.2774 20.9612 28.2141148468
16.1473 27.7881 21.8507 28.9829120919
16.0689 30.5902 21.4001 31.3376091241
22.6002 36.493 19.382 28.1422425168
20.4942 31.8566 18.035 27.9346781387
19.9383 29.3773 18.8004 29.2261562302
19.144 35.6043 21.6 29.1733624501
15.6796 32.3896 17.6718 33.5154729937
19.9145 35.1597 18.5469 29.2994022568
13.5613 31.6786 23.7607 34.9530913905
23.8726 30.0095 20.1978 29.8023801707
15.4568 27.2658 24.4689 94.3632880013
19.9704 34.8013 24.3903 71.6150879993
19.3004 25.5359 24.2659 78.1087670761
24.2079 34.175 19.9521 27.6009574954
21.7233 25.927 24.1466 68.1524090275
24.4826 27.3409 21.39 26.460874533
13.0099 28.9274 24.1058 50.5087753236
16.2852 30.3955 24.5562 75.1087410142
17.5904 33.0152 24.6405 77.5351519785
18.2482 28.2382 24.4874 71.8549269268
19.9924 32.8328 20.5977 29.7803464801
22.0245 26.5049 21.0804 28.1414063557
21.6925 28.76 23.7235 46.1733069721
14.9815 34.544 21.8063 34.3597189366
15.0122 34.0265 24.4637 72.0317138272
14.4302 32.4265 20.0516 27.1639897026
19.8362 30.9431 24.3156 67.4358759577
22.4313 32.5066 21.4569 30.4011388685
12.4529 28.2796 18.4826 29.1780775888
22.2136 32.6078 24.0446 55.9996748611
12.8024 34.3763 17.274 26.8768531316
15.2337 35.4554 18.5481 27.0317528861
16.6818 36.7284 20.8738 26.2169676774
19.75 27.4757 16.8558 25.4793065851
23.5423 30.8021 42.3382 25.9640122508
14.1393 35.965 36.0155 52.0580785329
14.0255 25.7969 40.5714 31.4937202278
16.0723 29.0015 35.9369 75.2978208956
19.4926 28.9353 35.7833 75.2288917646
14.7061 31.3792 36.0678 54.4219616451
21.3839 29.3874 42.0774 30.5175333488
20.8862 26.1651 35.6199 79.2649914924
19.6862 27.2229 38.1754 26.4302978125
17.1684 32.3085 38.4936 28.2742739391
13.0393 25.2871 36.0325 62.0526653826
13.4452 28.08 35.8271 82.4915460962
18.4313 24.892 38.6316 29.7613261577
16.9799 32.961 35.6186 98.4855968379
19.5312 31.843 36.1563 43.1389332342
20.0933 31.1056 38.832 28.2061644208
12.6898 31.9042 38.4655 29.1272035016
21.4108 33.7954 36.0259 60.2211672116
23.7337 27.4868 35.6124 83.2732554073
18.5685 29.6919 41.1515 28.3344672153
16.9893 35.8099 36.126 60.8034475707
23.3801 34.122 42.3554 29.4317648512
21.4987 33.8155 38.7918 28.9845374168
23.7036 32.5159 39.9467 28.6582371303
14.6233 32.6958 42.6069 31.4103923016
14.7749 29.8615 42.6977 28.0490345399
17.2667 29.3568 38.2399 28.3715047759
24.0233 26.8291 38.3606 27.9549159764
17.665 26.9501 40.9211 30.6850521088
12.296 29.1816 38.5961 27.7303997932
22.388 30.2894 35.6589 79.6472267506
16.9795 35.8839 38.8135 34.7736847591
14.7245 28.9859 40.1513 33.8839706727
13.6794 35.8509 38.7389 29.3528085115
14.8132 33.4425 39.6831 32.8467678215
24.0739 32.8405 35.6111 85.069046397
16.3862 25.9815 43.1812 29.0562030741
21.6679 27.5827 39.6308 28.7662146078
19.0648 33.8991 39.9955 29.2143974129
23.1451 30.0884 38.4901 28.5085721326
18.8986 32.7532 42.7058 32.3837016069
24.6135 24.6952 42.4581 31.6381453273
22.1631 24.8508 41.2648 29.6303361202
19.421 36.6692 41.3551 30.1716623539
12.2961 26.4871 42.8969 30.1320655677
21.7649 36.5399 35.9303 73.5415207249
18.3836 24.554 35.6748 93.5240140602
20.1802 26.2283 42.8465 31.3840155189
12.5727 33.7094 35.7777 85.6103551176
12.595 34.3333 43.1348 32.7175673502
18.7475 24.8926 44.8082 28.3155808182
15.2098 36.3432 54.4099 31.4250600998
15.9142 36.0648 51.8134 32.0964187399
23.3375 25.2387 53.2688 30.2415233051
18.1289 27.931 45.1602 28.501162461
19.3346 30.9329 55.2567 27.939214497
15.9282 31.4051 47.0814 32.9843282975
18.349 31.6804 45.8308 28.6821901619
21.2116 33.8766 51.7594 29.7605542144
14.4406 27.5873 44.6287 23.9903222601
22.9743 31.3075 46.6434 28.8465225563
12.8646 25.2466 52.3868 33.2784850826
21.8812 27.7775 44.6548 28.2233821131
20.6143 25.3003 53.8259 28.3988115469
16.0054 28.6237 46.7708 27.5110783996
19.4057 25.1302 49.8729 34.2890825019
16.4616 34.4926 47.4668 30.2227577446
22.8409 34.6682 48.806 29.4916579635
23.1917 34.1553 45.8576 29.4276040944
13.9498 25.563 55.3961 29.7523840968
14.5942 28.8248 52.2019 30.745692873
20.4874 36.625 51.7563 27.7406705761
22.4007 25.7608 46.6029 29.178424194
22.9442 27.7969 54.6055 29.6807925082
21.6373 32.2062 54.2978 34.0686830605
20.3408 28.991 46.6864 30.3008953083
15.97 26.829 48.8573 28.0437064572
23.0849 31.7874 51.5458 31.4201344439
17.3604 29.9848 43.5723 27.0565203746
17.1608 25.1245 53.917 32.4166782686
13.8498 25.7262 46.4694 28.0674380607
20.1982 31.6942 47.8043 30.9132593489
24.4872 32.1596 49.1755 30.9902327644
21.7374 36.4391 45.4001 30.7820541119
17.0081 36.2606 43.2824 33.5246514574
13.6882 27.5066 49.8479 33.2966180114
14.5474 34.4706 49.7544 33.7637528051
16.0642 30.37 49.7841 27.5091454866
17.7645 27.9524 50.5639 30.1607066126
15.5336 31.4582 54.4266 31.257478191
18.3659 36.2095 48.371 30.1688421799
20.0152 34.2379 49.0907 31.6201705
12.7364 35.1939 52.3126 32.516462091
12.2847 30.6863 44.1006 29.3690084372
23.7376 25.2368 50.6586 33.6853044855
16.7989 28.7112 56.2598 26.9541124223
23.3085 27.1238 48.7782 30.6868083285
17.973 32.0511 52.9407 27.971609249
20.6616 27.9236 49.2901 29.9856475004
17.0701 27.8533 53.4881 28.1252606922
18.97 31.0325 50.702 29.6750967581
21.4214 32.4733 43.8923 32.90695872
15.0222 32.203 51.493 30.1074694808
16.6348 33.7171 44.235 29.0339041183
14.4148 33.963 55.8213 32.95539002
19.8742 27.9877 53.8344 30.8697994694
13.1154 30.1211 48.5367 31.8706028689
12.4192 24.5904 49.0605 34.577326855
18.294 34.7295 53.071 33.3175144959
17.6217 35.5172 55.7197 33.7636392493
14.4874 36.1085 46.5631 29.9217707288
24.561 27.6172 44.0073 29.8419271145
21.1028 29.6532 51.4058 33.6638948308
12.2591 28.8512 46.1861 29.8388182633
19.0036 36.4477 45.5495 32.96359384
19.9674 24.4761 46.9857 27.76330879
13.8258 39.2452 8.11152 30.4651109327
15.8776 44.2536 4.96861 31.6237596888
12.8914 41.2609 15.1091 31.5885257887
22.4359 41.6274 14.9766 32.0196274822
15.374 38.0252 10.1571 33.6937399742
22.0528 38.3874 11.9846 29.4506622228
20.3181 45.7887 5.02239 32.4305573741
13.5488 43.4004 6.33959 34.9004057553
17.0712 41.608 6.20887 32.062327158
14.9558 41.7183 8.36157 30.138003855
19.4312 42.525 7.40376 30.7472916725
21.6643 42.1738 5.38574 29.9370240945
22.8312 43.5336 9.20255 30.9413349311
20.8865 39.2518 5.3952 35.1947203292
14.7813 45.7086 9.95797 30.7890049943
13.4857 46.1856 4.39285 29.1612161336
23.7903 47.0832 14.0806 27.3329955334
22.4786 45.9384 6.7951 28.3929732803
18.0942 45.3209 6.66561 32.5740603074
21.9793 48.1558 8.47371 26.6309882691
19.9933 46.4642 14.7465 28.7829790264
14.3238 38.474 5.38871 39.1403567632
23.9229 43.4784 6.53517 28.4245252871
14.9215 48.5508 8.95555 33.1724653036
19.7784 36.7556 13.5585 34.3883906492
18.4059 39.1491 13.3894 32.1874544234
13.5661 47.626 16.1745 26.9075661027
18.1096 38.6128 8.77902 31.040431779
20.5517 38.4831 7.99027 31.6654353714
21.0762 41.0277 9.61007 30.2741465631
23.0774 44.1302 14.4235 29.3931700042
16.0486 45.0984 14.1032 32.8544862567
14.7428 41.3634 13.0921 32.3050728154
15.6523 38.8176 12.8783 33.542198014
17.8587 41.8172 9.58712 30.1644337796
20.6014 40.8591 12.5856 31.1804945518
18.6443 42.8227 12.0854 29.6247383477
23.6542 39.7208 10.1557 30.8864409418
18.9805 39.1611 16.2073 28.480613193
20.749 44.8145 12.8342 30.1150991728
17.8405 47.1016 13.3012 31.2128048823
13.5588 42.6655 10.9778 30.9797024038
17.2597 44.8387 9.44543 31.036024809
18.889 46.7608 10.5299 31.075632572
17.353 48.4104 7.25583 33.6396151754
23.4582 47.562 11.4086 26.8611180304
21.6658 45.7162 10.4166 29.1643239302
12.4153 44.7414 8.59922 31.002017962
19.4956 48.723 8.83183 27.8933325031
13.5829 45.2097 12.4822 29.20804596
13.2018 48.4737 11.8433 28.2946839129
23.7548 37.5596 14.1096 26.1112775947
17.2411 38.4806 5.99415 29.9528590169
13.1434 47.4648 6.99681 32.1325209361
17.1627 42.5792 14.1544 29.6374303638
17.9808 41.7335 16.6665 29.3380778984
21.636 37.3054 15.8662 28.4209650793
24.1553 47.4809 4.95504 27.1280548474
23.7583 38.5652 4.83821 27.9516852762
15.4197 37.5555 16.8246 30.2286894694
21.7635 48.4277 14.7967 27.5459802072
12.8256 44.9916 16.7181 29.0757684349
23.9006 40.9457 3.74597 27.1523593787
24.4473 46.8771 20.2615 31.0732578296
19.9179 48.6241 20.8883 32.6123851041
17.5859 39.0824 20.5158 28.9722469015
13.7036 45.3791 21.1004 26.6844717196
16.1419 48.4691 18.6133 29.1226591745
19.1929 42.3779 19.223 30.1381575212
16.9993 48.4594 21.2511 28.2455051122
13.3946 39.9482 17.4917 30.694971044
12.3428 47.7038 20.6238 30.8549698678
15.5519 41.3179 21.2502 29.3157421105
15.7481 41.4938 18.4504 31.3442753572
24.2358 47.2317 17.3501 27.7393997358
20.8537 45.3321 18.5059 28.4719310873
20.6973 44.4159 21.2396 28.9030644021
22.8514 42.8027 21.2909 29.9904262416
23.3515 44.6505 17.3953 31.4277575677
22.0083 37.0352 24.3478 84.6941749714
20.0711 48.0198 18.3415 29.41997291
14.7959 38.4972 22.4848 26.5671665108
14.4243 40.525 24.3844 76.8881322752
12.6554 37.3011 18.5042 31.4348612478
17.654 48.5934 24.1403 66.131835422
17.4136 40.725 24.6463 85.5065518884
19.5707 39.3054 24.1703 51.9457242349
22.3025 40.1374 24.1913 71.1886280727
20.0808 39.7999 21.5033 28.1056000042
13.0373 42.7381 21.6368 27.3061873593
12.7348 42.7468 24.3416 84.0031930439
13.9311 45.2086 23.8146 42.2286919644
18.1306 43.6243 24.644 88.2147552628
21.0291 44.6755 24.4007 78.0372592974
23.0256 42.8824 24.3549 89.1871287087
17.9294 42.5828 21.9282 30.0258309232
14.8309 44.1988 18.5387 32.9686802568
22.659 40.4578 20.1379 26.707519019
16.4928 45.7058 24.3964 79.8528128654
23.3999 38.5551 17.7823 26.3573767799
16.7686 45.7618 21.3572 36.2629178187
22.0138 46.7899 21.4154 29.7905483814
22.3491 47.2198 24.0998 58.4672743565
21.2874 37.3685 21.6163 29.3684777183
17.9252 37.7861 17.9554 28.2855184709
17.8635 36.9544 24.2538 61.3567752535
12.4229 37.8309 21.3986 30.0956702414
21.1982 40.9623 17.4826 31.7716860641
16.202 46.1728 17.1007 29.0699105909
22.3707 49.01 17.215 29.3667688033
15.0058 36.7911 24.5607 80.7569252019
18.7547 44.7544 16.9622 32.3254454883
13.1119 38.3409 35.587 95.553142242
18.095 40.3823 35.542 99.3303391971
13.8436 38.2583 39.8428 34.5009173171
15.213 40.2238 35.9971 50.7648105607
20.6434 41.8927 35.9063 69.3247957585
23.1659 40.711 36.3701 38.0347538938
23.9075 38.2879 35.7739 94.5478274356
23.5521 40.7631 39.1195 35.6000046251
15.143 42.965 35.4058 107.5894794817
17.3837 44.4078 36.0977 43.8916190045
17.4958 44.6313 38.7097 31.1136787325
20.0608 44.5202 35.6592 85.2930594037
20.8029 41.7844 38.8217 32.8441731166
20.4406 44.6131 38.5751 29.1877977041
24.1091 45.6787 38.3529 28.9908995798
13.0132 44.4064 36.0477 40.7063339143
21.0766 44.2235 41.6754 31.5760556536
13.3316 47.0509 35.805 80.1554275488
22.1155 46.6551 36.0237 41.3110435143
23.2845 45.8048 41.4146 27.7184688717
12.759 43.7642 38.777 27.4028735659
16.2934 42.6337 42.3831 29.2672332379
19.5282 37.8515 38.7655 28.3110039311
15.6631 45.3376 42.4003 32.1317078507
17.9162 39.2275 42.123 31.7736817003
18.6993 40.2109 39.5119 32.3029023033
22.0941 36.6293 42.5114 30.0555005769
24.0984 38.0931 40.6423 32.2087111608
13.176 45.1233 41.051 26.6900161067
14.4286 41.3329 38.4089 32.1242128874
22.08 36.8008 38.8513 33.9662975398
20.5958 48.4273 41.0997 28.0964711115
16.6953 42.132 39.7372 31.6453599604
16.2276 47.0585 36.1675 54.3515132998
17.4631 47.5627 42.0877 30.8465368146
14.8745 38.1674 42.5139 33.9907726908
20.1066 47.4544 38.448 26.0797100617
17.0837 47.4152 39.4241 26.700833273
23.3074 48.7258 41.082 28.9735802918
14.3974 46.6573 38.598 28.3805424119
19.0203 47.9665 35.9798 62.4701402362
19.0513 37.7326 36.079 61.3615982183
22.8651 42.6848 43.0937 31.7872040786
22.2635 39.6372 42.9342 31.7852815733
12.6621 41.3286 49.7197 29.5022766106
19.412 45.9806 52.4534 31.1553080415
23.0376 36.8812 50.6379 29.9082012629
18.6899 39.1693 46.1725 29.2975243237
18.0535 48.11 53.917 27.9504081641
20.2616 39.7172 48.3763 29.0502557702
15.1369 40.9608 43.963 31.9227699961
12.7527 39.2995 47.9146 29.3555935625
18.7749 43.1384 43.6069 33.4435756773
20.5803 43.4923 47.0731 30.7330452964
17.5877 43.6423 46.4199 29.723214959
16.5174 40.7996 46.3606 28.8078532166
12.515 39.467 53.4217 32.2411783267
22.1139 45.1469 54.0846 28.0568835263
22.4145 41.5144 45.9731 30.3117962628
24.4263 45.1479 47.777 29.5388430667
14.7502 44.5105 47.819 32.3912900195
16.402 48.1042 49.6302 28.172506343
15.7324 45.638 45.3368 30.0678632957
21.5619 48.0026 44.9017 29.2815491653
21.7952 46.4554 51.1101 29.2408623144
21.7928 47.6543 47.9459 29.6953913776
20.4798 42.2649 52.7772 31.4364158553
23.1245 39.6215 49.1176 29.0516142552
16.2414 38.6234 50.4385 29.5843542062
20.6314 43.6415 55.8528 29.7380700898
19.2793 39.7834 52.952 29.2896933289
19.058 38.4941 50.3501 27.2722375876
16.3864 46.9249 55.3818 31.4936226849
15.9396 40.5 52.393 28.1421273672
24.5113 37.2178 47.8651 27.333385881
22.4768 40.4248 53.9215 32.5323741633
22.5634 42.3165 50.5141 30.5683841509
23.3731 47.7646 54.7488 26.6249642771
17.3997 47.8537 45.1092 31.3558240297
17.1902 44.6981 51.6178 29.2728445455
15.5685 41.818 48.7816 29.0717768593
19.7938 42.1645 49.3695 28.6820509095
17.4047 42.203 50.7166 27.3124925529
13.1193 36.7176 44.345 30.3973525358
22.0808 44.856 48.9891 25.1226081262
23.1687 38.7267 45.7973 27.9881102334
14.7561 46.0061 50.1537 33.3039753227
18.7446 46.5304 49.3997 30.2321610001
19.2675 46.1121 46.6325 28.8375085111
19.6792 40.4249 43.9053 30.1690217563
23.5774 36.8984 55.3074 29.3930207162
18.8695 38.138 56.1558 31.5741892754
15.4087 38.5981 47.9437 29.752250067
13.5226 41.8161 52.4835 30.3258637389
17.3363 40.1476 54.9714 28.1327797463
14.5999 38.9217 55.157 35.5846050311
21.0965 37.9354 54.2942 31.4545868558
12.5043 41.2185 43.6811 28.8268650764
23.8822 46.7534 44.2073 31.1048775151
16.502 44.4237 54.2412 28.9728690968
14.0439 48.1466 55.0625 31.0952270494
17.8177 42.4851 55.856 31.715709542
12.4114 47.1622 50.5955 31.3244602021
12.8119 47.6715 46.2996 33.1458360991
12.7986 45.3153 44.4553 31.5482715806
24.2942 44.5306 52.0388 28.1201186568
13.8274 43.8579 54.1788 34.6852576109
24.1899 43.9881 56.0971 29.3807445241
21.0503 48.1442 56.191 28.6727049502
20.1125 46.4778 43.2736 29.7465505687
25.3233 4.40334 6.98124 30.2797727973
33.8241 6.46048 14.2568 31.4943576291
27.2404 5.85119 5.58119 29.3759038864
30.1162 3.40402 7.547 30.0152316242
25.253 2.18172 16.2421 27.9240337363
25.857 4.8538 15.4763 30.0033998966
33.8469 4.98939 6.82218 27.4858111569
32.8538 2.46483 5.68842 29.3399766617
34.7307 11.167 11.0996 28.4250132426
34.3572 7.82811 16.3554 28.554095297
35.1359 3.98328 13.4306 29.9411101805
27.6195 7.6374 7.83991 30.1599688288
28.7219 7.05472 15.7948 30.4128249754
34.1758 6.64078 4.86893 30.5113806983
35.1476 8.91732 6.0656 31.9913823215
30.1106 9.73175 6.21793 29.1250138642
26.6741 10.716 8.12141 27.792325296
36.7541 8.40437 8.21016 31.9158406311
36.2131 4.88824 10.6337 30.808614274
30.5113 2.09826 11.4869 27.7954791546
36.329 4.09811 7.65319 29.0549017044
31.7942 4.01448 15.166 31.826344732
30.5203 5.75361 5.92643 29.4024234412
31.1381 0.452803 8.60877 29.957836
27.1657 2.80667 8.96006 34.4868608353
27.2783 0.638898 6.89915 26.4286005091
30.3499 7.63787 8.15559 26.8373699293
34.6337 8.70159 12.4403 27.4850342136
28.0611 2.67319 13.0142 27.5608513134
32.343 0.117935 15.1018 27.2314064384
34.0162 3.09001 10.1565 28.5319639678
25.1752 4.97227 10.3605 27.5703803365
36.6053 11.0055 4.56483 29.3444279855
24.8576 9.20922 6.80787 29.2593769802
34.9037 1.52583 7.59397 28.5883221678
32.7008 10.41 6.58608 32.1060191975
31.3985 4.12702 9.87807 27.4311552206
27.4032 6.93291 10.7363 30.3452643136
32.6067 6.39071 8.89819 31.1991552518
35.1313 7.28274 10.0802 31.1015308615
32.6919 11.1926 9.18881 33.7159065944
36.6316 0.207038 13.2988 28.4938717853
27.7662 10.1516 10.604 28.9724440979
30.4548 9.69884 10.2246 33.3125844514
24.7574 1.35797 5.89788 26.5947338849
31.5456 0.119334 5.08661 25.3904191945
28.4684 11.8215 6.49075 29.49331856
27.0067 10.6066 14.7806 31.9854897917
25.8228 0.641243 11.2029 28.9372247796
29.1687 1.82412 5.16611 27.6624582885
32.4584 2.20095 13.1814 27.0568130469
25.2026 8.35875 4.28571 30.0588538634
35.2444 1.89967 15.2273 26.714561615
26.0926 8.69316 12.6339 31.1909217747
28.5503 4.33375 15.0862 25.2607185986
30.9205 6.6177 13.8596 29.7461008744
30.9453 10.8596 14.7186 30.2839206391
29.4552 5.51369 11.8013 33.5634507204
31.8057 9.03267 12.5582 32.8387673373
35.3154 10.6781 15.9759 29.9087836649
30.063 0.420236 16.5174 24.6739954786
34.4956 0.649377 11.2635 29.9230445514
24.8934 6.14863 13.0508 31.2219777335
25.4701 3.09565 12.6682 24.7019341884
28.9216 0.0327935 14.1615 29.7162965306
35.6728 6.4374 18.1315 29.4091011665
27.6884 3.83211 21.7908 25.0330270561
32.267 2.44612 17.7182 31.0254893588
29.7091 2.16552 21.0589 28.5692770639
35.5465 3.48306 17.7219 31.5472772392
34.4779 10.1551 18.9077 29.1418082602
36.3003 9.33143 23.9179 57.5941101426
29.9889 5.53987 18.1801 29.3784853918
31.4931 4.07253 20.0771 27.1287545822
31.9794 7.78342 17.743 29.5398829086
27.7543 5.87046 20.1183 28.8283963414
26.826 9.48372 17.262 31.2565258395
26.7052 1.61278 18.7299 30.6618225442
28.8545 2.81117 17.3429 28.8182575095
28.7363 10.9236 19.1229 31.5035439199
32.3666 11.9829 19.5307 29.7237590724
26.1784 6.74331 17.6335 31.8973793055
26.9136 1.11572 24.303 62.7649218073
25.6317 2.19691 21.2002 30.7569361526
32.6697 0.247487 22.7629 29.8534450989
34.1841 4.03904 20.4313 28.7122908671
33.7562 0.23428 19.7806 30.501800429
30.9807 2.41855 23.514 41.8819261516
35.0769 6.7682 20.6504 26.7136913027
35.483 1.45465 24.2034 93.4144394677
35.5175 1.66071 21.4194 26.6322617055
25.6069 3.67434 24.304 83.7726694719
28.4685 4.81283 24.3102 90.3466471363
25.7961 6.73593 23.9767 69.0705563918
28.9689 8.06537 21.4307 28.3601047871
30.5573 5.5754 22.4003 27.8123230534
33.5647 3.60422 23.3909 38.2902951386
32.4926 6.10018 24.2004 93.6763221908
35.4343 6.45497 23.598 45.7386431548
25.5568 7.38711 21.246 32.3517948438
26.7423 10.0874 21.5988 27.9102558994
27.2876 10.8482 24.169 76.7472673096
28.3319 8.27975 24.1694 71.393996601
31.7717 8.97268 24.3261 83.6169388675
31.0286 9.96643 22.0321 29.2150388612
33.9214 10.7157 24.4556 88.5736593768
32.8096 8.35808 20.187 31.3237280195
36.5533 9.44749 21.2048 30.5281036864
30.1753 9.38929 16.9166 28.8343472429
29.5952 0.263465 24.4515 100.8819048297
24.6754 4.4965 36.0642 60.4130066269
28.4977 1.5357 35.5339 99.6105508234
27.5401 11.3416 35.7511 78.4083454791
31.0908 3.37426 35.9593 58.999438627
26.9479 1.46575 42.3499 30.4981037075
33.4373 2.00319 35.7371 84.2373788841
25.1603 2.0707 38.7043 29.6269837473
32.3544 10.6704 41.3601 27.5792742904
26.7194 6.83765 35.7815 83.062340428
28.0826 5.69029 38.0229 30.5912854001
28.5374 3.01737 38.0715 30.5791662961
32.1366 6.12381 35.7712 62.577254588
29.6679 7.15014 35.5339 97.124819769
31.1562 2.22974 38.5429 28.5409202911
34.9726 5.9843 35.2186 136.6046743139
26.1913 5.74917 40.4931 32.5079652695
32.0779 4.70634 40.1107 33.424060052
25.7054 9.29705 35.9525 64.799654175
27.0118 10.7017 41.0483 27.5395172298
33.4174 10.572 37.8269 31.1799927933
30.251 6.79769 39.1817 28.9814119254
30.558 9.78464 38.9449 29.9697520349
35.7043 3.75296 42.3038 31.9726755367
29.9416 9.94225 36.0888 54.9231432413
27.556 0.947713 39.8176 30.070381509
36.6712 0.528557 41.7945 28.7438290978
35.839 0.0961626 38.9129 31.3754012593
30.0318 8.21809 42.9667 28.9711868412
36.1418 3.55673 36.0394 61.1863332177
35.4012 8.41742 42.29 28.8139363971
34.1889 2.30938 38.329 26.8003973726
32.8386 7.96254 41.042 27.3519469151
25.526 1.77133 35.8752 54.6549450918
35.1436 4.49655 39.5436 30.6670704711
32.1427 12.1049 35.8291 96.9698203464
33.1153 0.611743 41.0249 29.4507774191
25.4113 10.1204 38.7922 30.954577073
28.1707 7.8706 41.07 30.7767091789
33.0082 7.78929 37.9844 28.6861419678
31.6983 2.79452 42.2973 33.4102773453
35.6306 7.22005 38.8044 27.8798078566
35.2106 11.853 35.8358 77.884425362
28.9175 12.1337 39.7582 32.3667521792
24.7787 1.51384 44.7988 25.9013787402
26.0136 1.21199 52.4397 28.07444734
33.12 2.76922 46.7158 28.1187725036
35.4025 5.24292 53.5358 29.6676048734
35.2016 0.678702 44.8971 32.3996469414
36.5393 5.02386 46.3319 31.2718876858
28.6137 5.6854 43.844 34.3315937661
32.5431 11.1474 49.4773 28.9179024357
34.426 1.94553 55.8642 32.4782541494
30.6397 3.35273 47.4706 34.2111873254
29.6952 5.88899 46.7256 33.2089835217
36.4906 7.91894 45.8592 37.3800271781
25.9613 3.85672 46.1405 26.4198421383
25.0791 1.42195 48.2122 28.6180086626
34.3925 11.5486 55.7179 28.2250901963
29.6772 10.5179 47.0242 30.6158751459
28.5068 10.0018 44.5927 32.8686123781
33.1792 8.15409 45.7736 32.8603196463
31.2187 8.14985 47.6573 30.3152309495
25.9937 11.4843 53.311 33.2545779008
28.9244 1.86149 49.3765 29.1415984283
30.47 4.98784 52.5813 32.8916539538
34.7723 4.26673 48.3685 30.7554152148
29.5169 1.6685 54.3774 25.5131743757
31.1951 4.04507 55.1806 31.2189958324
31.3646 7.34592 51.0498 29.9091441849
29.7384 10.981 53.5572 27.0445803476
28.4245 0.176008 46.6771 27.6392104875
27.2139 5.41489 48.1997 28.891041397
28.3197 7.00147 50.4571 29.853187754
26.1514 7.93942 47.0866 28.2026534935
32.3986 9.78813 54.4894 31.678144803
32.903 7.08273 53.4503 30.6390562825
29.728 9.11477 56.1918 30.386371118
33.8618 6.82087 49.4676 34.3726752542
25.0766 6.46719 52.0593 32.3076102008
30.32 9.69873 50.7406 27.5318904254
31.6881 6.87378 56.3215 29.1959546771
27.6835 9.4473 49.0476 26.2456389718
35.9393 6.65429 51.5341 30.2225290588
25.5365 10.185 44.0209 28.8691777409
34.8472 9.57022 49.5628 30.5375832823
27.5426 11.7263 50.5895 32.622059647
36.8237 2.87212 44.8135 26.8363860094
26.6214 3.34027 54.2182 31.0276733487
27.5623 9.09364 52.7406 29.1118021536
32.398 6.45367 43.6208 32.8217890272
26.4821 2.94125 50.127 30.7167588865
24.927 0.83711 55.4113 26.7418420128
34.8124 9.51857 52.3184 29.2793066346
25.1956 8.79945 50.5981 28.4578099697
24.5388 11.0468 46.7569 30.2734648639
25.3615 11.1031 56.1363 29.1744666859
30.5918 2.12511 51.5625 31.8631886458
27.7078 5.78777 53.2374 28.1711662487
27.6514 7.54626 55.5141 31.0405512402
33.6487 3.02426 53.2481 33.844355482
33.645 2.19283 50.3383 33.1709392342
28.6238 2.90262 45.4799 28.0724996689
33.4167 3.74069 44.166 30.3327430863
26.1804 7.15405 44.4221 28.5472450679
36.092 0.609487 51.1133 29.3542608006
36.4145 6.30809 56.0463 33.1775689402
33.9151 11.0112 46.5821 28.4496350368
30.6514 11.3488 43.4342 27.3849364289
36.7419 6.18313 43.4135 30.7641209774
28.2788 4.10575 56.2538 27.6864378228
34.1539 10.4725 43.8025 27.7716844823
29.5411 1.23311 43.3927 27.5289346555
27.528 0.128084 55.8527 26.3960918599
33.0295 0.0290994 47.1035 28.2588674624
25.8996 4.13715 43.1257 29.9425999865
32.1346 17.8875 4.81715 29.2314380224
26.9064 24.0665 11.504 28.5362090995
30.482 14.9029 13.692 31.1582344223
33.4402 19.6049 8.47341 29.1786178665
28.7677 17.1337 6.6498 28.1910983258
29.5768 14.2386 6.91183 28.6513343897
25.4386 19.2364 3.8702 26.811085873
35.7302 18.7832 15.7751 29.2043756838
26.4454 18.9465 6.68709 30.4699295135
34.7825 20.5515 13.7573 29.0652492772
32.3439 23.5971 5.8149 34.0230928605
26.5837 21.729 6.3293 28.4970298284
33.9265 24.0698 12.3007 30.2111291409
35.1927 20.3039 6.15951 29.084872847
31.8917 13.7077 8.37146 30.7917467274
30.5285 21.2844 6.28543 32.614184579
34.4811 14.2437 7.16153 32.9495353597
34.4039 17.3828 6.41603 27.7880400974
30.2744 18.7997 10.198 27.7787065534
28.5848 15.0092 9.37049 31.0120336435
35.0529 13.4463 16.716 26.2980033455
34.361 16.6513 9.52535 28.3409007138
31.6783 15.6137 10.3317 31.4463218726
26.0179 15.7054 7.89236 29.4971281934
