3.44868 28.6754 54.9241 28.9905877518
0.915074 31.8757 55.2256 30.8418729276
3.60162 32.644 52.2841 29.183533432
6.61399 29.5232 53.4806 31.5515641109
6.48026 30.9245 55.9667 27.9495587326
9.23011 31.9494 55.3693 28.3800010866
8.38102 32.6601 52.839 31.130170336
3.05099 32.9579 7.62957 31.8355180846
1.79192 35.0658 6.33113 30.6792175075
6.03769 35.3865 6.06948 31.6204872093
8.71085 34.6672 6.17167 27.8910883215
0.229824 38.5845 4.86309 27.1144492473
4.1307 39.3819 5.40784 28.6135113957
1.28216 37.6673 7.43729 28.4786652604
8.15698 39.2152 4.582 33.4671204224
5.79689 37.3456 3.86199 27.7617651614
8.9858 38.8324 7.39386 28.7598875428
2.17726 41.7003 5.38094 29.6152708041
3.43494 43.6068 6.97974 28.258092038
7.40798 41.5818 7.60115 30.7668412136
6.90098 44.5701 7.37309 25.7550087125
8.88566 43.2913 4.99903 29.7291144433
5.75088 41.4406 5.28854 27.5548474344
5.22509 44.3981 4.64321 25.159619435
2.65877 45.187 3.9582 26.9328374859
2.54136 46.7306 6.19536 27.4066988399
2.85688 48.8665 4.04154 28.9473541611
9.00862 46.1958 5.57515 29.463455746
5.09684 46.804 7.13547 27.2510399459
6.40517 46.9255 4.07038 28.2577930548
3.42572 33.985 12.2629 31.1833985868
2.8124 36.3424 10.4186 33.0283672529
0.266343 32.7399 8.80213 28.014604794
5.01767 36.4875 8.57274 28.7603516908
7.08553 35.0918 10.9997 31.6908107907
9.04154 34.2231 8.90358 29.7703475809
5.10786 33.5025 9.79044 27.2356779931
3.60418 38.9956 8.17762 29.479657173
2.67527 38.6329 12.2686 29.6568166153
2.53928 40.7552 10.1137 29.9421566524
9.14206 37.8531 11.2675 28.625984481
6.09152 40.6587 10.2432 33.0308731201
7.10517 38.1218 9.48052 30.0975133262
2.66002 43.5028 10.3017 27.0289545213
1.10742 44.824 8.19993 28.0134661873
5.75582 44.9164 12.2845 28.016216641
5.35825 43.4722 9.49605 30.5491447673
9.21264 43.5388 12.3005 33.9129137535
4.8306 47.8687 9.65726 29.5854885639
0.635308 48.0922 8.01287 29.2595589005
3.62287 46.3382 11.6252 25.6230854822
1.09603 47.3059 10.6982 28.6980319236
8.35499 46.1572 11.663 27.2575928067
9.10648 45.6538 8.99888 31.1536489062
8.94795 48.9446 9.88986 30.0450919602
4.92058 36.3096 15.5374 26.573913746
2.77817 36.0036 14.1054 29.5812677442
1.48545 32.8597 13.5838 31.44422868
0.901847 34.9211 15.986 27.0687547951
7.96872 33.9714 13.3629 27.2648164875
8.93911 36.7096 13.8068 28.6224965115
6.20333 33.8653 15.6469 29.4197271449
3.59627 40.7369 15.1876 29.3980216683
0.706392 38.6836 14.2383 28.2976290035
5.22906 39.8781 12.8361 32.2722802591
6.62353 38.0234 14.403 30.5305786855
0.887569 41.417 14.5785 28.630968733
1.40478 43.8183 12.658 29.666629839
4.45383 44.4865 16.5264 32.3994387228
5.33716 42.9952 14.252 30.2237221214
9.79125 41.0994 14.2397 27.8717213831
7.53786 41.8355 15.5197 29.3440018879
2.80802 45.4379 14.5302 26.7409361606
4.03809 48.1876 14.0569 29.7579452969
0.378854 46.3551 15.5135 28.9076434937
6.81815 47.0066 14.2681 28.9570620729
8.38742 45.5149 16.3279 28.299943996
4.11351 36.2835 18.2043 28.6636536722
2.59778 34.1081 18.7376 28.8872301551
4.56844 36.1523 21.1608 25.5805147892
7.63537 34.7932 17.6429 28.3199301839
2.7405 38.4788 16.9281 28.7244215451
4.46599 40.3056 18.6794 31.4292986899
0.234915 37.1016 17.5346 28.7402904645
7.08203 37.1452 18.7214 31.2730549167
6.58683 39.3132 16.9246 28.4559482323
9.6343 40.1299 17.5104 28.7645596973
9.10847 40.0272 20.344 29.0344514217
0.206618 42.4071 17.0015 29.339909968
1.72828 40.8584 20.8969 31.0355959235
2.75563 42.6645 17.9577 29.4291347345
2.93901 43.5253 20.7338 30.9234336311
7.31093 42.967 20.003 30.0306123056
8.64203 43.1554 17.7347 27.0672202433
1.5757 47.5974 19.5231 32.2039222108
0.461779 45.0498 19.8933 29.3995472811
3.17335 47.4943 16.93 28.4745172274
3.82998 48.3815 21.0322 29.5750294113
9.27481 47.6566 17.973 29.3398450199
6.15081 47.0751 20.2076 29.815964418
6.01143 46.9119 17.57 27.0699562641
4.38689 36.5918 24.072 56.6143271133
1.7447 35.5502 24.4619 96.508322768
0.720965 33.0695 24.2073 67.5594500923
2.02936 35.0159 21.5432 28.20355734
5.47708 33.8162 24.278 79.3037689569
6.7018 34.3422 21.6849 29.6809719356
9.58296 34.6692 21.3609 31.6274273168
8.35185 33.9565 24.4311 98.4075007369
3.96093 38.9748 21.6152 30.6348850667
3.79636 39.5707 24.291 89.9470157472
7.70491 38.163 24.2723 75.8018693263
8.92556 40.3513 24.4567 90.0681842898
7.14665 37.7664 21.2845 27.6359308748
6.2822 40.6822 21.3194 27.7222224583
1.83819 43.7933 23.34 32.5728441128
1.32817 40.9733 23.9468 65.448454964
6.17274 41.2359 24.0162 52.7053637877
9.01709 44.2206 21.5814 28.4847843386
5.98581 43.9944 24.2061 55.2979109167
8.68757 44.8102 24.6101 95.2196673073
5.40291 44.8075 21.3785 31.1758298721
3.58117 45.237 24.6634 111.8633841867
3.7005 47.6936 23.8305 37.1280577256
1.12218 48.7502 24.0649 58.4762008829
5.97028 49.0128 24.525 86.5005688486
8.25482 47.5347 24.584 70.0554251727
8.35185 47.6565 21.8761 28.9528320404
2.71009 34.563 35.6104 80.8286003931
3.92913 34.0738 38.1128 28.0952737308
6.24187 35.4305 36.1074 53.4072891659
1.44115 38.7027 35.3742 106.5224358485
3.80401 37.2618 36.2797 49.2878247266
8.4895 39.4756 38.2526 31.559706792
7.91328 37.5913 35.6109 104.1180979645
6.90555 40.7355 35.9353 77.9958559139
1.47378 42.1698 38.6283 31.2397718459
3.92082 41.1889 38.3356 30.9026797773
1.40769 41.4538 35.8882 49.6983367486
4.44293 42.2884 35.5572 88.2473433172
8.86017 42.7563 36.4641 39.3335578666
5.65988 44.5294 35.8486 42.0463704573
4.06953 48.8445 35.9365 55.8919711538
1.21356 45.0551 36.1793 37.6065564341
3.66206 46.015 35.1324 121.1270315216
5.61555 44.9666 38.634 29.268543263
8.1187 46.499 38.4554 31.416520069
8.41032 45.4734 35.5586 107.6504624539
2.13043 34.4151 42.5591 32.0885165853
1.9324 35.1431 39.8488 29.0582957213
8.61455 35.034 39.9295 37.8002165693
4.99673 35.1173 41.4282 31.4712189413
7.26051 33.6293 42.4298 29.1577137139
6.14139 35.858 38.9282 25.3842085721
1.6078 37.6845 39.7595 30.9472524798
0.789963 38.2535 42.2923 30.6883754799
4.12691 38.5515 38.9689 31.9014741071
7.50301 38.4684 42.7535 32.7145781883
6.77361 38.4138 40.0284 32.0518076422
0.116143 44.6785 41.2193 30.7621822843
1.08318 42.9215 43.0353 34.6437774516
3.55889 41.4542 43.1901 37.6276168756
1.91538 44.9185 38.88 28.9345338898
5.88905 42.6239 39.8362 30.3036086603
5.98748 42.8706 42.5023 33.2854873015
8.43899 42.5208 39.0554 29.7411064125
4.66209 45.4615 42.5404 33.2670920363
1.39528 48.8186 40.072 33.0003225987
0.548552 46.5885 43.1988 29.0822183127
3.71866 46.3369 39.943 29.6690210283
7.15871 48.6354 42.499 32.879335744
9.06795 45.4071 40.9919 33.1222855844
7.25984 46.0918 43.1569 30.2084452484
6.94691 48.6362 39.62 33.4554892563
2.78744 35.1859 46.7715 31.1032528052
0.416077 34.5857 45.3383 29.3437909448
9.35824 34.1044 46.479 31.0126691034
7.87022 35.4168 44.6021 30.4444697411
5.3359 36.0046 45.664 30.8473535382
0.670839 39.4333 46.4224 30.7374334658
2.78285 38.9044 43.9921 29.7444877189
3.70794 38.6209 46.6818 28.405028842
5.18479 37.3534 43.3293 31.0001738046
9.61128 37.4928 44.1466 30.0558873252
4.36976 41.102 46.1006 31.9237075229
2.40785 42.3973 47.5832 27.1248044644
8.66169 43.484 47.1144 26.9552811186
7.80171 40.962 43.9081 32.0137896366
7.27286 41.1564 46.6143 30.8529760983
3.38386 45.1288 46.8193 30.2957509187
2.96261 46.5573 44.3855 31.4076173576
0.555646 48.9629 47.3752 28.3103556025
7.84248 45.6844 45.7217 33.0170177214
9.05741 47.7866 46.5177 31.8065415377
5.61841 46.1301 47.6429 31.618548246
2.4068 36.1464 50.7911 29.074914953
0.614726 35.7337 48.9811 26.4050520031
3.85139 33.555 49.736 31.728793637
6.46975 35.1336 50.0655 29.0578441577
7.80078 33.3106 48.288 29.2293166193
9.34172 34.8688 51.1358 29.5140901487
3.8778 38.6051 50.0646 31.7239740747
1.46611 39.9377 49.1572 29.2753428372
9.56659 39.4709 50.624 31.1872086421
8.0168 39.0455 48.0834 32.9532182016
5.97266 37.2487 48.2868 30.885400437
3.41172 43.4124 49.853 30.5685831591
0.220358 42.3674 50.3522 27.4740950202
7.73229 43.6765 51.1843 29.6000815021
6.03649 43.6139 48.5024 30.8232685613
7.57965 41.2075 51.685 29.4226029953
3.22964 46.2309 50.5823 31.851301738
1.8063 46.6415 48.4429 27.721876666
6.09933 46.0411 50.9948 29.767842953
6.78821 48.7071 50.7953 34.1765600756
2.72537 35.7578 56.4449 33.4192829163
1.07921 33.7025 52.5373 31.0090400343
0.307839 34.654 55.7461 28.3159325736
5.77261 34.278 53.3897 30.5391594796
8.08314 36.0686 55.0604 30.4893718798
5.06677 33.9866 56.1183 29.5829482849
2.48445 38.6391 56.1138 27.3694209621
4.84955 38.8018 54.4746 28.2549783955
0.977862 40.1476 54.1175 27.8305906099
0.581724 37.696 52.3493 34.0430881643
7.79069 39.7491 54.3026 29.4578257875
5.54967 36.9027 52.2903 28.6210940475
8.20942 37.3644 52.4948 27.9678334375
4.97771 40.3393 52.0888 29.5461820845
0.878613 42.4924 55.9254 29.2671530608
3.63743 43.6998 54.3022 31.9652499226
2.65483 41.9194 52.4779 29.8743414721
7.49511 43.8839 55.4132 27.9725722265
5.69361 41.7732 55.0752 29.3328127237
9.52248 43.3712 53.5125 30.0380184482
3.52497 47.1329 54.8982 27.1792920477
0.199946 45.2715 54.9098 30.4300008728
2.02651 47.7426 52.7506 30.1632772756
0.144146 48.3053 54.8689 31.0564286855
8.61588 47.5122 54.7354 31.7924477319
6.01551 45.9686 53.6667 31.3375305894
13.5332 1.98509 6.55724 30.7831666962
11.3306 0.970446 3.98569 28.5315704149
14.658 0.330957 4.28325 30.9312152316
10.8124 2.27396 6.47984 26.12662133
16.9485 1.54946 5.43787 30.2658266978
19.5176 0.127696 7.44352 28.7831912716
10.318 4.3952 4.91413 28.9266429396
10.1764 7.97478 4.38608 28.1306669635
14.5885 4.81384 6.97388 31.814103369
12.8242 5.79309 4.97498 30.2568354256
17.3925 4.36485 6.15379 30.723890281
16.3191 7.37003 6.17311 28.4756216485
17.3694 7.45275 3.63695 34.1154994127
11.4206 8.99245 6.78695 28.5010833216
13.8513 8.63629 5.43332 29.7871740113
9.94759 11.4006 7.20969 27.449037453
15.6752 11.0356 6.9064 27.7331521084
18.3573 9.70286 5.75322 28.8463234123
15.5723 12.0276 3.94369 33.5472718936
18.3654 11.8598 4.00847 30.1748997882
11.3758 14.622 5.9839 32.4845692107
14.4502 16.1588 5.36803 30.2648242082
15.8178 14.0432 6.59882 31.2344505384
18.544 14.9871 7.29951 34.1673730166
19.2934 14.3925 4.5848 31.1236826499
13.7051 0.297014 8.94214 30.5061764076
12.8108 1.6301 11.4741 28.626657166
10.9269 3.99865 9.23484 29.6520582498
10.1319 2.20668 11.27 27.8608664299
16.1054 0.122162 10.6245 27.0048367105
18.2164 2.57283 9.52205 29.612488904
15.9077 2.77773 10.9375 26.7963621362
18.7477 0.600964 11.5993 26.738845512
11.1471 6.81283 8.77262 31.7584404646
13.8027 4.18882 9.43873 29.579723892
14.3497 5.88704 11.8059 31.6063393449
17.2158 6.63997 11.3687 31.3151369743
19.08 7.71511 9.54324 28.8687902192
19.3171 4.33329 12.4038 28.9700484005
13.2233 10.7611 8.28224 31.0642275244
11.307 8.58058 10.7743 29.163036009
14.1783 9.05786 10.5903 31.9285521665
16.2219 8.39033 8.85655 29.4833163154
17.4296 10.9224 9.18358 30.7988757426
19.5392 9.63741 11.4374 27.6290284801
15.3772 11.1997 11.9707 31.0697941644
14.1732 14.2664 8.93442 29.906719548
10.8201 15.3239 11.7325 31.0436635676
11.6112 13.0173 8.64465 26.2264305538
11.5074 12.5274 11.7 31.0713506758
16.4862 13.4158 10.2983 28.8068637696
18.4939 14.9431 11.303 28.5055933705
12.0205 3.20235 16.0784 36.5277172546
13.8746 2.34969 14.0375 31.7660113845
18.4273 1.68692 15.475 26.719677986
15.6148 0.392817 15.2625 31.3723660195
17.1681 3.12866 13.4121 26.6858132091
11.8168 6.84423 12.9103 31.7381035898
14.727 4.9623 14.5422 29.3850438032
12.4532 6.18302 15.9741 35.2810559191
16.8728 5.48926 15.8957 29.0417559886
17.5304 7.56725 13.9122 31.4746947195
11.3471 9.01248 15.0655 36.134539279
9.90709 11.3113 14.0029 32.2520629092
17.5748 10.4453 13.2572 28.8121250154
16.8703 10.9126 15.8738 32.7369324734
14.5838 12.3186 16.2098 32.1683490705
14.0043 12.9577 13.1837 37.1301763919
18.6204 14.5973 14.1832 30.9090053285
15.67 15.4845 12.612 30.4679444883
11.9307 0.982907 17.921 30.0044595721
12.6407 1.3903 20.613 29.3716580332
19.6317 3.93632 17.14 27.3775756364
17.4254 1.36692 18.2271 29.699501149
17.7377 0.328623 21.2119 29.7386065703
11.1422 7.16248 19.5632 31.8152985676
19.22 7.07003 17.7014 29.5510045773
16.4538 8.13662 17.1419 34.7374589715
17.1011 4.09517 18.5948 33.9024347167
15.5997 7.53655 19.8097 29.4947795201
18.2338 6.5975 20.432 25.537659173
14.1412 11.8338 19.7325 32.9618741504
13.2359 8.34585 18.2414 32.1984927528
12.3302 10.8926 17.3896 30.1157471253
19.3832 9.24454 20.5223 30.7920541524
18.9627 11.7092 17.7591 28.7886981473
17.4337 11.386 20.9827 29.1379828323
10.4209 12.7061 17.5828 32.9099946447
12.1404 14.9258 18.0309 34.2374189318
11.6461 15.0833 20.7089 29.4416134208
15.6837 13.9432 19.6668 25.6634240339
14.9189 14.7021 17.0537 27.0818354245
17.7845 15.0962 16.9213 27.6730278263
18.2506 13.871 19.6853 25.8227570312
13.6181 3.0329 23.7615 48.7534443495
10.9777 1.91049 24.634 96.302708981
14.7108 3.61046 21.2953 32.0758964313
10.8023 3.11987 22.0479 27.1474529341
14.2858 0.257293 23.2389 31.6018126893
17.0612 0.357268 23.9527 57.9160533735
18.0827 2.88215 24.4386 80.0373700573
17.2094 3.10396 21.4035 26.9334898379
14.4708 6.18714 21.9638 26.5895632198
13.8531 7.36198 24.591 90.4474520166
10.9719 7.1691 24.3641 68.309934461
11.8247 5.72701 21.9312 29.853007684
17.4491 7.04694 23.2701 28.5996746859
16.1307 4.74644 24.4381 84.5657662264
12.1738 11.4511 24.4069 101.4873559407
14.5652 9.96174 24.0643 44.6115007594
10.1183 9.68356 23.6802 39.5318849103
17.2464 9.29799 24.7595 112.6201154411
15.2546 9.96033 21.5085 30.6426094253
10.6913 13.8413 23.9278 64.9078860214
13.1811 13.3548 22.2234 29.5764546191
12.6816 16.3146 24.2454 68.5503121664
18.326 16.2934 21.7028 28.1173652215
15.5102 15.9031 21.5685 26.8736936888
17.2693 12.473 23.5024 36.5546184463
15.3269 14.3373 23.794 56.4794353764
19.5737 13.9684 24.1897 56.0178289033
13.3718 1.24973 36.3824 41.3662932897
10.7854 3.1364 35.7144 74.151774381
12.8572 3.85694 38.2628 25.8602271583
15.9656 1.86499 35.8228 71.619187473
18.9243 2.43767 36.1493 50.6207256851
16.5743 1.23437 38.4731 26.7376707716
12.8602 5.13265 35.5126 95.9480502235
9.98076 7.74707 35.8181 62.9542225477
13.3868 7.16987 38.3571 31.3774203718
15.5923 4.64906 36.128 45.7329366639
17.1292 7.12765 35.9674 65.7695554124
19.208 5.33181 35.6478 105.8954823824
15.5557 4.49381 38.8021 30.0586926556
12.788 8.33469 35.7974 67.0263048693
12.4301 10.47 37.2958 26.0421338525
15.3736 10.2549 35.6374 91.4472313533
14.8948 11.7221 38.7408 27.814247852
18.1267 9.81206 36.463 36.4589960119
13.0226 15.5848 36.3196 57.9757288197
11.8193 12.8417 35.4304 108.406677752
11.6514 14.162 38.3958 26.8986939695
19.0543 13.1603 38.5019 26.1352243281
16.0721 15.7039 36.4723 42.4972022562
19.1531 15.9207 35.5201 105.055137777
14.8197 12.9233 36.1193 50.0255542203
18.0634 12.9047 35.8436 75.1320914599
13.7316 1.3361 39.5143 29.3889607997
10.6186 1.81221 40.3125 29.0168512097
19.4393 0.32795 40.4742 26.7735948984
17.5031 3.53646 41.3274 27.9401100289
14.907 2.48719 41.8406 32.0071207397
15.4401 0.0845347 42.9887 30.2821451261
18.822 2.65775 39.0886 24.6449219695
10.9446 4.51171 39.893 25.3325342935
10.731 7.37277 39.5908 30.6518338908
11.6653 4.94108 42.7497 33.3134470897
18.2614 5.90403 42.2929 28.425757813
16.2219 7.83894 41.6623 32.5408196949
17.5559 6.77932 38.9779 28.8106067086
11.1622 10.7726 39.8716 25.3395231313
12.2885 9.28715 41.7147 27.3674298275
12.5285 12.1039 42.8959 29.9421584563
14.3337 9.12239 39.9779 29.8635882803
17.537 11.4678 39.9123 29.3944730465
17.9205 10.1929 42.5769 30.7424834514
19.2526 8.90504 38.9965 27.0546381277
13.7046 13.3554 40.4283 28.5139415141
9.88937 13.2812 41.0218 26.3104427641
16.6549 12.9612 42.3244 28.3775759091
15.3067 15.359 41.6489 28.0310465555
16.578 16.3244 39.2986 31.7832780829
19.0728 15.7606 39.4504 26.1613904734
10.1832 3.69118 46.5072 30.514316183
12.189 2.05788 45.8714 31.1322076009
13.6404 3.56407 44.0604 30.8987813093
18.7142 2.60775 45.5186 33.6358923766
17.2244 0.116955 45.0626 33.3643707209
14.2887 7.65817 43.8512 30.6001733544
11.6485 7.54637 44.6057 26.7892890506
11.4932 5.98178 46.6633 28.1593393003
18.8957 6.86612 46.549 33.538820838
14.8944 5.33782 45.5032 29.2173312017
17.4731 5.13229 44.8861 30.0770181897
10.584 10.1853 44.3976 28.4791819699
12.6695 11.2023 46.8989 31.4504020765
17.9591 10.5343 45.3891 34.7176252445
15.0544 9.60994 45.6711 30.2649043435
11.1587 14.778 43.5103 33.0332022154
13.1283 14.2209 45.8987 29.376552871
18.0797 13.3443 46.0606 26.6655436874
18.5658 14.4956 43.368 32.2916675039
14.9822 12.3517 44.6774 28.8324272201
15.6418 13.6097 47.591 30.2127371934
14.3012 3.33601 49.9762 29.3215991061
14.1714 1.43699 47.7594 29.493202282
10.7255 1.74899 50.283 33.2698684586
12.9392 0.00298275 49.8201 28.4144820703
15.7698 1.38385 51.4725 31.1196681877
16.6033 3.58364 47.7461 30.644391263
17.4383 1.24237 49.2273 31.230287146
13.0651 6.14788 51.6979 29.9815004884
11.6869 8.12098 49.8008 31.6019347852
13.6073 6.10296 48.5669 29.9033066519
16.8201 5.53916 49.8401 27.705433285
19.3271 4.62009 50.9696 31.4968121786
17.9399 7.80469 48.9773 33.6145512761
13.0302 10.6935 50.9375 31.4499891084
10.846 12.083 49.1034 29.5256287689
9.91458 8.57047 52.0593 27.4734021248
15.3269 8.32041 48.2274 31.8241728737
14.8271 10.9904 48.8685 29.4216713512
16.4775 11.8489 51.2621 32.9197819799
10.9475 16.1261 51.332 30.376344447
14.008 16.0597 51.2907 30.5399720777
12.4255 13.4273 51.6705 32.3074721937
11.7402 16.3324 47.9055 29.9402094032
18.2552 13.4653 49.2124 30.4884305044
17.7741 16.2998 48.4023 29.0212120692
12.1278 3.4332 52.2689 32.4632629711
11.0132 3.28652 55.0088 24.889814892
13.4092 1.26464 54.4883 30.423182373
14.242 3.6865 55.2861 31.922545379
17.6585 1.5507 53.7272 29.8795278633
18.9247 1.78608 56.4484 29.6481373443
12.8022 6.11934 55.0367 28.9679475952
18.2901 4.69925 56.3909 26.1335483554
16.6301 4.18268 54.2709 27.9730465969
15.8881 6.1433 52.5513 31.7875785714
12.8222 8.68171 53.1482 28.4111298863
13.8232 9.83511 55.8139 31.5712478421
11.1226 10.3063 55.5454 31.464743275
15.7608 8.43919 54.0466 30.0344348678
17.6153 9.77487 52.7533 32.0517557437
19.3651 11.1678 54.4527 31.700307416
14.6926 14.086 55.4174 31.6112111972
10.3776 12.9754 53.7838 32.1209376009
12.541 15.7687 56.1196 34.06955199
17.1868 15.5387 55.3478 33.4013236518
17.8414 15.4636 52.7945 35.3691015095
15.2107 13.8354 52.7797 31.434717803
13.1549 17.9852 7.83264 31.0150118146
10.6784 17.0608 7.11297 30.3733481547
15.8154 18.3694 5.18957 28.5080984564
17.6988 17.9728 7.14087 33.3502363667
14.1384 20.7314 7.15394 31.7988661445
10.7532 23.0199 4.08214 26.2704904326
12.0773 22.7604 6.47429 28.5433400689
10.0871 21.7971 7.88744 28.9715944462
15.771 22.2431 5.35395 26.7820520016
17.4263 22.2559 7.83126 31.8990002547
18.4889 22.1002 4.57664 29.9742897632
11.1284 25.6004 6.50688 28.2803346821
13.7005 26.1124 7.68683 29.7414402336
14.9827 24.6705 5.19402 29.4241607647
18.2105 27.5579 5.14443 28.4703033952
17.1875 25.2823 7.47042 31.5569122995
13.6272 29.0193 7.22165 26.0844124427
10.4098 29.3087 7.77807 28.7975466391
13.2464 29.845 4.66544 29.3367035652
10.5649 30.1621 4.21757 27.7159346523
10.0882 32.0596 6.28184 32.6439406751
19.0996 29.9472 5.00931 27.3527759867
16.3534 28.8165 7.407 31.3765319386
15.7298 31.5885 6.04402 31.2304419653
19.4835 30.7105 7.75151 33.2090493566
17.9703 32.3228 4.38161 28.8956622991
14.3576 16.7068 10.0041 27.1108753879
11.0361 19.5406 9.58888 28.1397147071
12.3578 17.6614 11.6251 31.2193832769
16.5553 18.2373 9.6545 32.1900478722
18.6185 17.6713 11.6807 29.8915129388
12.7254 21.23 10.8014 30.1662414126
12.9316 23.8654 9.62377 28.0539835175
9.98885 24.0826 9.89486 28.8277715941
15.559 21.0223 9.69974 27.9987484686
15.1095 23.7269 11.1962 28.0005778214
18.9082 22.3064 12.3709 31.2951721837
12.6189 26.943 10.5423 29.1661207388
16.7735 25.6807 10.3082 28.5979294333
15.2324 27.7693 10.9179 26.3396768538
18.922 27.7065 10.97 32.1848805555
13.5365 30.2608 9.49039 28.8105840615
11.3461 29.5122 10.7294 28.756718501
10.0819 32.5292 12.349 29.764732417
12.4509 32.5423 8.02448 32.4772828312
17.409 29.8677 9.89125 32.6531108365
15.7337 31.24 11.7574 30.3137876759
12.8373 18.1609 14.1628 29.1760265215
10.7335 17.8182 15.4801 32.6935909034
14.8183 19.6972 16.0451 29.8238678324
17.2912 18.7288 13.9931 29.4627340957
15.1052 16.7692 14.8599 29.5504855547
13.474 24.0456 13.7822 31.0864700483
9.86575 22.5632 15.3239 31.6658122299
13.4888 21.0846 13.3649 32.3531490863
16.3507 21.9305 15.6377 29.7741071219
16.3062 20.9597 12.5381 28.7133259582
18.87 20.6698 16.1489 29.3707387022
9.97982 27.8731 14.0755 28.8312105312
11.3546 27.2852 16.3296 27.0980463494
12.9332 25.0193 16.637 29.6718292797
11.3941 25.6929 12.7288 30.6697322117
16.3214 25.2599 14.2394 28.9709706006
15.5988 27.843 13.5147 29.6926497791
18.6341 24.9602 12.6877 31.2906888907
18.635 27.3737 15.7553 30.7496078399
13.5356 28.9516 15.1404 28.5179962329
11.5458 30.1237 13.4488 29.5343215006
14.5137 31.5974 14.2254 28.4663123919
17.5718 31.8526 14.5756 26.1766317579
18.1092 29.2396 13.5052 32.2372342293
11.4243 17.7312 18.1902 32.4939881149
13.049 20.0518 18.4892 32.2815057424
18.8593 18.4781 20.0395 25.5909251695
16.3036 17.7255 18.243 33.3526682926
18.9547 17.6702 17.0253 24.8818331464
14.9306 18.9274 20.7979 27.7493381137
10.1704 23.2661 19.5224 27.1964153107
11.6269 22.6614 17.5376 33.70664148
13.5146 21.4341 21.1894 28.3391067972
16.575 22.2212 18.7353 31.9714931827
19.3257 22.2384 18.3481 29.3356881962
17.5905 20.7113 20.9354 27.3483399251
11.1866 25.3434 20.8316 28.4805595871
13.5508 25.8738 19.4537 29.1969646656
13.256 28.4069 19.6869 27.9549993042
15.8269 24.5772 17.0044 29.9385495372
16.8921 26.8603 17.9911 29.0932285752
18.0271 26.3384 20.5013 33.4740930681
14.4894 31.8739 18.6387 25.8977088871
12.0666 31.6737 16.8322 30.5984467081
10.9313 28.7664 18.5972 28.8465651926
13.3803 31.8895 21.1812 28.2562340488
18.0421 31.9308 17.1178 27.1273082394
16.7998 30.5371 19.1854 27.7935419646
15.068 28.9689 17.6842 29.7653344666
11.7396 19.1718 24.432 84.0113297707
10.0702 18.5545 21.8211 27.4108171805
12.4966 17.562 21.5967 26.1237487715
14.8472 19.9984 23.7733 34.6817697975
15.3782 17.2638 24.5932 100.0786517952
19.5195 19.1536 24.2266 84.1000405869
18.4327 16.4875 24.4168 76.9585195505
13.1084 22.0554 24.2931 71.4302014032
14.2511 24.2388 21.511 28.7452713203
10.3314 22.2881 24.0544 56.2677061799
10.7765 21.264 21.3994 28.5599175555
17.4527 23.5847 24.4017 89.1598319447
17.238 20.8838 24.0272 56.5522963154
16.859 23.9685 21.5811 28.4648811733
11.197 25.1603 23.9457 62.4799035129
14.2418 24.6096 24.2667 67.5624164967
14.3976 27.6372 24.3494 95.2086941719
10.1245 27.7903 23.4173 35.7090480314
17.2519 26.6438 23.8817 53.3981755434
10.7263 32.0648 21.698 29.0786409269
14.5347 29.4994 21.8604 32.1843921994
12.3458 29.7686 24.2911 91.0908709294
17.435 29.0583 21.7875 30.4896353664
18.4628 30.6962 24.3325 98.216512799
12.2481 18.2568 36.5536 51.1695787847
14.3526 18.2654 38.4314 26.921886553
15.8013 18.5409 35.9182 75.1794567986
17.5157 19.8215 37.9638 30.6178803727
19.6296 18.7306 35.9779 64.7030166653
12.7325 22.2884 38.6526 33.8917170096
14.6717 21.0729 35.5121 102.1085616171
12.1689 21.3064 36.0574 51.8724457085
12.5811 24.1422 35.7787 81.7296151317
16.7831 22.8485 36.2058 40.9624589364
19.1258 21.6352 35.8206 89.2260152338
13.8556 24.9086 38.3579 32.0288713051
10.214 25.3484 35.5731 95.038313279
19.653 26.783 36.457 42.1216241204
16.7132 24.819 38.6881 31.3362539365
17.1331 25.6615 35.5728 119.2927879768
15.2334 27.1873 36.8026 37.9475595104
11.1514 31.5131 38.6581 34.218340901
11.3181 29.9176 35.8519 55.7429161259
13.9396 29.4074 35.333 132.5818573336
10.0747 32.376 35.5809 97.7347678221
18.1202 31.2314 35.698 105.9541522858
15.1484 31.5551 36.3891 39.2427411115
18.2474 30.8826 38.6241 29.9365225741
12.6125 16.5908 39.6365 28.669372076
13.0464 16.6092 42.8192 28.5936249632
10.1334 17.7282 39.9591 29.3057799915
17.1873 17.5689 42.9858 28.5480428577
19.5421 18.0301 41.8612 30.6176844088
10.8231 22.3833 40.7942 31.0311838815
11.1491 24.4557 42.0392 30.3666028024
14.0641 20.6734 42.1744 33.5672778109
16.1897 22.8805 41.0563 34.042294501
15.009 20.6702 39.3918 30.0885323551
19.0907 23.021 41.4581 28.7739541161
12.7966 26.204 40.6876 35.3950009102
10.7139 28.0853 41.056 29.4486740435
15.2289 27.414 42.0054 30.6018979629
18.0101 28.026 43.2084 28.6220748643
16.317 28.2338 39.3683 31.2024937384
18.8781 26.792 39.3031 30.8826136456
13.2868 30.2171 40.4296 34.2006749161
14.204 32.5313 42.4982 29.4171610011
9.88829 32.0863 42.3865 31.1684763272
19.3377 29.9806 41.4749 30.863506995
15.5823 31.1874 39.1136 28.1333327131
11.9484 19.1402 43.4167 32.7255356526
14.3343 16.8094 45.4096 29.0433664963
11.7203 18.855 46.083 30.1117971833
14.3201 19.9103 46.3125 27.4354523099
16.1956 19.7593 43.9335 29.7271122926
19.3804 18.3405 45.6794 31.6787725107
17.4058 16.3542 45.4088 28.0600592329
10.6295 23.65 46.5363 33.4725996735
14.7306 22.7725 44.3329 27.508392353
13.5398 22.53 47.3152 28.1267675582
12.5727 24.4295 44.5342 31.7317046397
18.405 21.1624 45.2362 32.6400688742
16.5915 22.8629 46.583 27.7541558096
12.8003 27.1906 45.2193 31.3887439818
15.4333 27.6256 46.0812 26.519274512
16.5778 25.5145 47.2355 29.3950625584
16.1071 24.969 43.3318 30.1443130235
19.3411 25.8685 46.4129 30.3765445225
18.6945 25.4057 43.816 29.5522101236
10.6639 29.2191 43.6262 28.5647995083
13.6462 30.947 47.5139 31.9955241652
14.7322 31.2507 45.0272 29.1288481525
13.465 29.4052 43.4276 27.9148660212
10.8486 30.8647 47.5247 31.4258640723
17.0016 29.6761 45.2418 27.6252940316
19.3237 31.6701 43.7771 28.762009431
18.3987 30.6766 47.5009 28.4040523786
13.3446 19.7006 50.7044 27.8088262657
11.2863 18.5292 49.6327 28.0723785881
14.709 16.456 48.6943 29.4013153238
18.0462 18.7353 49.7213 30.0931165412
15.2735 19.5066 48.7635 28.9835131009
10.9766 21.0206 47.8903 27.7411715853
14.3822 23.71 49.4488 26.9250832652
10.5021 22.437 50.8737 29.1437259946
13.2288 22.3396 51.5494 29.5505429812
16.9086 21.7699 49.5953 27.885087416
19.514 22.808 49.0801 31.3349954531
10.9035 28.107 48.055 30.6972700873
10.3342 24.7076 49.1667 28.847336872
12.6204 26.0392 49.8213 30.3044819729
14.2501 28.4154 48.4262 31.6770178353
17.4695 28.4528 48.9876 28.9348742074
16.4664 25.8348 50.3984 29.3546646242
19.1007 25.1228 50.963 31.9306371849
15.5573 29.1309 51.7211 28.901470117
18.6839 29.7948 51.2613 30.7885679751
14.7896 31.7184 51.9871 34.4731136615
13.8118 18.2865 52.8406 30.882847549
11.8963 18.5325 54.8593 34.4212732169
14.2302 20.1546 55.9369 34.1288455993
18.2772 18.2504 52.4171 32.5219222064
17.533 18.2575 55.9849 30.195716149
16.148 19.4797 54.0322 28.3819195433
11.3893 24.0555 53.9077 28.7594243005
13.5605 23.0581 55.5703 28.3011360951
10.0237 20.5173 56.2472 33.9761215372
19.3001 23.6367 53.4787 27.1947119908
17.2961 23.6153 55.2767 26.967177902
15.3045 22.8884 53.5421 26.2058712024
17.5494 21.5456 52.1806 29.7900543963
10.2472 27.3668 55.2446 31.0471646205
12.1592 25.8309 56.4357 27.8239956871
13.3442 28.3354 53.1722 29.9477238694
12.9354 25.9438 52.4184 28.8591889309
14.2177 27.8615 55.7581 31.4259097599
17.6496 28.2552 53.5482 29.0215823901
16.7523 26.2468 56.0942 27.0052302714
15.7072 25.838 53.2159 27.2616201614
19.6593 26.4576 54.3209 27.3530254129
14.5366 31.9208 56.0422 27.0159970487
12.9832 32.103 53.9332 30.1047534009
11.0228 29.9149 53.9221 29.090841389
16.9534 30.8067 55.0996 29.6017814258
14.5035 34.5351 3.96681 29.1666838036
14.5973 33.9204 6.95047 34.2995640398
19.1756 33.5197 7.40708 32.1036436459
12.6094 38.1183 5.51053 30.9944590443
10.5451 36.9082 6.91901 31.6639323123
15.0976 36.9596 5.56516 31.2375996639
18.9691 37.5398 3.60749 29.465742132
16.5281 38.7247 4.01776 32.0523220367
17.007 37.3211 7.93958 34.2429389793
10.4217 42.8529 7.89948 29.2275176886
14.2872 41.6058 7.11179 31.2028683477
12.3869 43.1608 5.75019 31.2039860826
16.3693 41.3887 5.34495 35.2587226941
18.4774 42.1146 7.0488 30.7338021558
15.8847 43.9799 3.8244 34.3110389031
12.5787 46.0191 5.52937 30.3284882611
11.5956 47.4914 7.71243 29.9065577904
16.8669 48.8723 7.81408 27.6385215715
17.2779 46.276 6.926 31.3269151635
15.2178 46.5096 4.98567 32.392229118
13.8938 35.1056 11.9479 32.9658455454
11.1193 36.5124 9.90239 29.4866005591
11.6451 33.8787 10.4178 30.4228668394
18.9083 34.3878 12.2141 29.6044854092
16.7687 34.713 8.56108 33.0854941495
16.3888 33.9371 11.185 32.0489826495
13.4516 37.6909 10.7187 28.0809453534
11.0643 40.2547 8.62063 29.0304095512
10.2765 40.487 11.4944 29.5100150278
13.4971 39.152 8.13897 28.9189166932
12.7621 39.5067 12.3913 29.4748506737
16.0757 38.8885 10.1067 31.8148015445
19.4955 40.7745 9.08894 30.7184635292
11.3669 43.7185 10.253 28.752016425
13.3878 42.0919 11.2912 31.382576951
15.3374 42.8744 9.39416 32.0753210525
18.3858 44.5377 11.0578 36.6160185803
17.358 41.4844 10.6706 28.6253510715
12.7632 47.692 11.8625 29.94636981
12.9262 45.9756 9.53392 32.0333087103
16.0198 45.8508 9.41567 34.5116398385
9.90311 35.0387 16.0251 29.4609843063
12.2207 33.5115 14.3369 31.9691628048
14.2559 36.5684 16.5672 29.9120593647
15.5282 36.4239 14.0927 27.6287859222
17.5589 34.879 15.0052 27.5051575497
14.8297 33.5871 16.3377 26.481609695
10.3024 38.4814 15.286 31.1418878702
13.148 38.7035 15.0382 29.8182004129
16.3038 40.2399 14.9639 29.6490159912
19.119 37.1487 12.6814 28.6199882587
16.8046 38.2833 12.8316 28.5931906948
19.685 37.3784 15.138 26.9479140524
14.4681 42.8944 13.9352 32.0964620856
11.9316 42.829 15.3206 28.1139154687
13.8726 41.0031 16.5798 28.6491757176
17.7962 41.8576 13.3843 27.3297193094
17.3765 44.0952 14.5684 28.9239750412
10.3539 47.6675 12.8961 27.852632942
12.0975 47.4114 16.7307 31.8350049086
13.7474 45.6252 15.0897 28.356369582
10.4637 45.1753 14.484 29.8091811078
19.3874 48.3526 14.1875 28.7525716533
19.6172 45.1025 16.089 32.8462527244
14.8622 47.559 13.5061 28.3051087783
17.5013 46.7775 13.1781 31.6637658549
12.1945 35.0383 17.8485 36.3472469258
12.3567 35.6828 20.6079 29.2820178034
16.6311 34.0617 18.9937 27.5005286881
19.1616 33.2653 20.9151 29.8390836512
18.8491 35.4965 17.3733 25.3945107449
12.3304 40.2165 18.747 31.0578374912
13.4734 40.3288 20.9882 27.3242851463
17.9958 39.4886 17.3531 31.1359814639
16.3405 37.0811 18.353 33.863267696
17.9873 39.975 21.1213 27.9549837081
11.3989 42.8818 18.2366 28.0606874241
15.874 43.1757 17.042 30.1880199847
19.4294 44.0119 18.9267 32.1496064123
17.5037 41.8128 18.7095 31.3851404548
10.1678 46.1434 19.8959 27.8172197635
12.9142 45.3513 18.5891 30.0329312644
14.9409 48.9053 17.8823 30.1054157721
17.357 45.9718 19.8862 30.5368612759
15.2058 48.1493 20.701 27.7884664318
15.4738 45.9138 17.4081 30.5906908497
12.5441 35.2526 23.5018 33.9394865307
9.96751 36.0563 23.9708 56.2744826068
13.3335 32.784 24.0115 80.1261090072
15.6802 34.7727 24.3285 88.4026010278
18.2603 33.532 23.7451 47.5097368125
15.0877 34.5939 21.3348 30.7019219468
14.1384 37.7147 24.4247 93.762863896
11.4161 39.0988 24.1916 63.025773164
11.1117 38.253 21.4129 30.9261694519
14.4245 37.887 21.7231 28.5934953026
17.4216 37.3653 24.2818 65.0394995377
17.8195 40.2454 24.3306 68.7615225318
17.2126 37.3916 21.3389 26.9071816542
11.8421 44.5105 23.8919 52.1250611335
12.664 41.7442 23.9245 56.6425639406
11.0441 42.2882 21.3981 31.2038330361
18.7692 44.8085 24.5706 89.8721233229
15.8049 44.471 21.6177 31.7680129892
15.473 42.019 24.3569 78.4137195201
16.0374 44.7583 24.3836 68.6183112206
15.7031 41.6632 21.5219 30.4043144713
10.8793 48.2204 24.4487 63.1624976198
13.6426 46.6606 24.4509 92.5026837103
11.7081 48.0468 21.6966 26.5657562016
13.4049 46.0158 21.3471 26.3074174466
19.3989 47.832 24.4944 97.87806095
19.2213 45.9792 21.9087 28.7769743426
11.5251 34.7036 36.1942 52.9697389386
14.1921 34.0861 36.2555 59.4235312101
18.4631 36.0382 35.4456 101.9938018098
15.803 36.3376 35.7701 82.8524212482
19.4159 33.71 36.2853 40.5472675979
10.6839 37.4584 35.8026 76.6764083291
12.6324 39.6185 35.5825 97.176644766
11.1264 39.1125 38.3461 30.15048856
15.117 39.0287 36.1011 45.9938935596
16.9448 40.4268 38.5646 26.68265762
11.7822 42.6274 35.8092 87.6773159486
12.1393 41.7629 38.6638 30.561305201
17.9728 44.0923 36.5706 36.9736307111
14.8393 43.5492 35.6585 88.7168833107
17.1814 41.2575 35.5663 98.7270440013
15.1448 42.5842 38.3468 29.1799991533
12.921 45.3832 38.2989 32.974266209
10.1412 47.5008 36.3109 36.9243623526
12.9788 47.5112 35.7716 95.0294163727
17.2879 48.0859 35.3424 108.0043557987
15.4808 46.3073 36.1699 34.6204793791
18.027 47.9831 38.0862 26.1832575118
11.8499 34.0092 41.6351 29.0296256803
11.9028 36.4777 42.7504 29.7159266698
14.0633 35.0144 39.0297 29.4531713728
11.3556 34.4186 38.9239 27.7780899945
18.0797 35.1964 40.8048 31.4369169614
15.7411 33.5325 40.3617 31.2285292305
12.276 37.9461 40.4279 31.9872181455
12.8155 40.3591 41.8613 32.1903642196
14.8839 37.6478 39.084 30.9927730634
16.4839 38.2948 41.4728 28.9838555793
19.3829 39.3736 41.2972 27.7204697925
18.1774 37.645 39.0934 31.807045951
10.6448 42.5599 40.9558 28.6946068633
12.3029 44.7647 41.0634 31.3443860597
14.1273 44.7201 43.0625 33.8459897985
17.2651 44.2275 39.2975 27.8204293671
16.7232 44.5615 41.8492 29.4281893261
19.2945 44.4498 43.1831 29.7743298505
15.5521 40.8692 41.2212 30.6958905466
11.094 47.4235 41.3882 31.4533744392
11.8659 48.1251 38.913 29.670091645
17.1431 47.7052 41.6835 32.4900167864
15.7733 46.5982 38.8918 30.6208613524
13.92 35.0237 44.1417 31.444484494
13.5628 34.9204 46.8853 34.2545545002
17.0087 35.7512 43.3297 27.2724939955
15.5987 36.6189 47.1455 30.9531797366
17.5966 34.7681 46.4621 26.8287474179
17.0337 33.2642 44.3029 29.2680791928
10.1642 38.0712 46.7685 30.8869623526
11.9947 40.2787 46.6851 34.9735458833
12.6427 38.909 44.3093 30.3988435597
16.7732 39.7647 46.1491 31.450417986
15.3114 38.0095 44.4745 30.0275251033
19.3607 40.0766 46.6714 29.4142271085
10.9453 43.1313 45.8456 34.0840994964
13.4385 44.3834 45.7932 30.8796323894
10.3634 41.751 43.5442 33.8086021489
15.4921 42.476 46.4016 28.6144070112
19.2751 41.5611 43.5982 32.2717002189
16.3722 42.2819 43.5828 31.8484707178
13.2188 47.5684 43.6648 32.4227128784
13.3873 47.0765 46.3914 29.509846549
10.6636 48.9713 44.5404 31.5154410884
19.2154 47.2997 44.2804 32.3335461337
15.9524 48.0712 47.3768 32.3741287021
19.3556 45.0009 46.3491 34.0588076938
13.1604 34.9032 50.1939 33.1537350699
10.851 35.82 48.3329 36.3361228828
17.5693 32.9753 48.5191 29.7814670609
15.5073 36.6069 50.8048 32.5294165061
18.2919 36.2036 49.6299 30.8338412029
14.9033 33.0076 49.0116 30.9844557456
19.1958 33.1731 50.859 32.6775935478
15.7015 39.2544 48.8826 35.5203079932
17.2146 40.0287 51.0581 28.1183420753
18.8001 38.332 51.974 26.7279485133
11.4416 41.3186 50.3611 29.8292276125
13.672 44.1517 49.289 29.0724996158
13.6444 41.3786 48.5257 29.6830303201
9.95144 43.3297 49.5592 28.8781574164
18.2792 42.6176 50.5656 34.6702262055
17.3406 43.6306 47.733 32.1371412736
11.4611 45.5851 49.9703 30.1330108165
11.2276 47.2805 48.1311 31.9745311042
19.5313 47.9507 49.9146 33.6789047841
15.8535 45.7553 48.9142 30.5088409483
17.5647 46.3296 50.8679 32.5359768422
12.3795 35.4953 55.4234 30.0050532331
11.803 34.4423 52.7363 31.1246650134
10.012 34.4776 56.3471 31.4782740957
16.8773 34.9769 55.4118 32.0115490478
17.1407 32.8923 53.1627 31.8522213129
10.9846 38.9686 53.0598 29.5000464045
12.6012 39.7915 56.0022 32.0739503252
13.2786 37.0646 53.0835 33.8982217351
10.2218 38.0882 56.0561 28.7476481185
14.8712 39.1942 54.6443 30.659238737
16.6511 37.0108 53.1635 31.6813996727
11.2643 42.6951 56.3694 32.301102307
14.5424 44.6916 54.4662 32.8483570033
13.5866 43.2041 52.1134 31.5639173999
11.8237 41.4468 53.2721 27.7822059884
18.5776 44.1992 52.7119 32.1493674795
15.6793 41.1651 52.7902 39.2911426641
18.3784 44.4582 55.4222 33.2367372093
11.548 45.1755 54.4086 27.7117870103
11.2483 47.067 52.4391 31.1421654143
13.8483 48.522 52.3463 28.4861193415
10.9162 47.0222 56.3921 28.9580383531
19.3506 47.2887 55.9266 31.4818827554
15.8351 46.7394 53.1761 31.0814281786
17.0572 48.3258 55.1374 29.5102954512
23.8722 0.622333 6.44374 28.8600099421
21.5155 2.04843 5.70777 30.0528468784
25.6811 2.41156 7.61133 28.8653614174
26.5972 2.67978 5.084 27.8130192746
19.8414 4.12706 7.29728 32.4105821595
22.7569 4.98575 5.70628 29.3461148266
21.7119 7.92046 6.61159 30.8544010865
28.9124 4.35165 5.64148 31.8513443698
25.9752 6.79202 6.9046 29.2287308856
25.1821 5.38753 4.68811 34.3793182619
28.6182 7.09947 7.26722 28.2727327743
20.3609 8.27544 3.96664 29.7831718771
20.0617 9.71432 7.9139 27.8103400898
24.2386 8.9542 6.63507 32.0150339814
24.4435 11.4573 7.7706 29.1724318018
23.0403 11.4466 3.92277 34.4784135131
25.6335 10.0757 4.21378 33.1942067256
27.4003 12.0523 4.68212 33.4525056233
23.6872 15.2316 5.50414 28.982467873
21.5843 13.1765 5.69816 32.0499133404
21.5126 16.1977 3.85462 35.6854081797
25.9071 13.5751 6.48538 30.6867902102
27.6966 15.3586 7.39996 30.6069033701
23.1777 2.10244 10.7454 32.9255025553
20.7225 3.50945 10.281 29.3717046036
27.6777 2.50629 9.38839 37.6286769426
29.0708 0.0182032 9.62676 35.276560963
21.5337 6.27189 9.19659 28.1277316015
23.6785 4.38297 8.75154 29.5014230558
23.2153 7.50646 11.1651 33.622585595
27.4117 4.54804 11.0227 30.6499238372
25.466 6.34461 9.70754 33.1619393289
24.0897 10.0515 11.7839 34.2451601661
21.6443 11.5189 11.117 31.1199104334
21.9375 11.77 8.43567 29.2823463684
29.362 10.3851 11.1244 29.8900973689
25.8255 11.0428 9.96706 30.8337733683
27.6118 9.16145 9.07442 34.3851956629
20.5824 14.4598 9.02304 31.7335691844
23.7227 15.4816 11.1325 32.0015262183
21.3918 13.9213 12.3061 29.8857251379
28.7043 15.3274 11.2305 29.1215027771
26.3403 13.8975 10.7102 33.0171098194
20.8034 3.15464 14.3909 29.7211407368
23.4408 1.86874 14.8088 30.4825882338
26.6742 2.13208 14.6181 29.579894594
28.7 3.73841 13.5234 34.4628981909
29.2318 0.25237 16.2165 29.9156736732
24.9616 3.64421 12.7067 32.9126089789
21.6697 5.77853 15.1952 27.566953431
20.1888 7.73795 13.4726 28.7317319766
23.9347 6.02044 13.7457 31.7138401683
26.1761 7.42806 14.898 35.4071184611
28.7808 6.28859 13.9465 34.5185540275
21.5801 9.40853 15.0618 30.0085948172
24.1385 9.62978 14.6461 28.9288722539
19.9296 11.8172 14.8523 28.1174228514
28.4805 11.7934 13.5685 34.2345421176
22.3047 13.514 14.865 28.5690642727
22.4422 16.2683 15.9622 30.0903465699
24.8082 12.406 14.9696 33.6191000992
26.9701 13.8532 13.8044 32.0363562157
20.1235 0.367428 18.9914 30.5239044619
23.4771 2.61943 17.6418 33.1294466895
21.0791 3.05672 19.5355 27.9925759892
26.3127 3.08991 17.1587 29.4827177311
26.6087 0.765747 18.7794 28.6220782734
28.5423 3.35465 18.9164 27.9861452035
25.8115 1.96194 21.1106 28.2481246573
22.8136 5.32281 17.5342 27.1270027649
21.6828 6.58041 19.8319 26.5887154404
26.3533 6.14339 20.342 33.4705927324
25.3748 5.86735 17.4269 31.9510449262
20.999 9.5051 17.9226 29.7635496014
22.6482 11.825 19.4382 29.7427176854
23.3552 9.19613 20.1563 29.1625742338
25.3983 9.16823 17.4726 33.9413326743
27.7963 11.832 20.6176 26.8676117133
28.3691 8.78278 17.0815 33.7213168411
24.8889 12.0785 17.7605 33.7946210393
21.0172 13.5205 17.4449 28.270794461
20.7735 16.0825 18.57 26.5314656447
26.9969 13.6038 18.8155 30.20649449
25.9702 16.1868 19.0955 31.2315986661
22.543 2.2193 23.625 45.446898381
20.5352 4.06407 24.3385 82.6044650848
23.439 3.2059 21.2881 29.1205270888
25.4899 1.56989 24.1122 70.8165543517
28.1049 3.88827 21.6064 24.3723674292
28.4649 2.34207 23.9157 54.9726039503
20.0751 6.86561 24.3053 80.9927066039
23.3327 7.1421 23.8956 52.6089086767
23.746 6.01833 21.4262 27.1985724468
19.9764 4.50205 21.5908 28.5477794447
25.1343 4.56041 24.3418 98.7060285999
27.673 5.72437 23.8893 43.7828839748
21.2984 8.98783 22.5016 29.6124006507
22.9262 11.5527 24.1059 63.3241666108
20.0655 11.1721 24.4103 83.6478681756
25.4196 10.5977 21.7787 28.7672336821
27.4915 8.41043 21.4565 30.4987140922
24.8914 9.32383 24.3631 93.5607417697
28.2908 11.8028 23.821 53.9538595162
27.6728 8.65469 24.2183 74.1812388335
23.6879 13.2055 21.7543 28.9538260487
20.9809 14.1785 21.4202 29.8706667948
22.3273 14.5555 24.4095 82.93873243
29.3557 16.0929 21.5663 29.3149034326
26.3566 14.3821 21.9469 27.2748057442
26.9408 14.5539 24.488 97.12154368
29.4164 16.1123 24.2524 69.4846446441
21.6619 0.802489 38.307 27.7478729532
21.0439 0.265393 35.6672 75.458039457
23.7798 0.310941 35.4783 89.9468827474
25.4725 2.5046 35.5358 85.5868451048
25.3023 3.83367 38.5984 26.5405982725
28.3735 3.54254 38.1043 32.9211863725
28.2468 1.50681 35.6783 70.69771446
24.1166 4.88356 36.0641 79.6637443833
21.6689 5.63374 37.0788 32.6445423295
28.6649 5.10943 35.7441 92.2621299779
26.2873 6.46465 36.4367 38.8407221171
22.1399 8.53354 38.4931 29.3689917502
20.792 8.73859 35.8961 91.3636707714
23.9615 11.3312 36.2429 45.1365125745
21.088 11.6407 35.8546 77.5556075709
26.684 8.30955 38.5541 29.5371799203
27.9383 10.7274 36.2203 40.0778904641
25.8134 9.3162 35.6371 115.8436163695
23.825 15.7133 35.515 96.0267311864
21.3017 14.4212 36.3423 34.175388582
25.4463 13.7226 35.9358 58.8879917082
28.5206 13.6473 35.8038 66.0244201993
28.6941 12.9234 38.6754 26.5982028085
25.7756 12.9111 38.71 27.3784561179
22.5933 3.41196 38.8698 29.4275159387
22.1689 3.34016 41.6872 32.7871029944
19.7583 2.1321 42.8795 29.958759415
26.0509 1.43221 39.8962 32.6725519111
24.8296 3.54149 42.2222 28.8055019494
29.2033 0.695417 39.9672 31.7578693185
21.2909 6.1291 42.383 29.585944637
23.2504 7.65312 40.8731 28.9865644731
19.9001 5.18526 39.6326 27.9647706178
25.625 6.25932 40.3543 32.3720520935
27.6668 4.9369 42.6025 33.8359643157
29.3999 7.0686 42.0004 29.3086459419
20.3898 9.01315 41.9241 28.8383362336
21.8401 11.7511 41.7214 32.7175803851
24.5806 11.9663 41.538 29.7408799653
24.4164 10.3503 38.8461 26.7548336474
21.126 11.6394 38.9171 25.9879624649
25.2013 9.27003 42.0089 28.3374522011
28.0296 9.42346 41.7731 29.3712987378
29.0545 12.1813 42.2431 32.9015410699
29.01 10.2617 39.2411 29.2158460201
20.6718 14.6011 41.6122 28.2858241852
22.8651 14.1915 38.9834 29.4155202434
22.5986 15.6683 43.0542 31.1156708922
25.3419 15.3284 40.2494 27.4452144993
29.0643 15.5241 40.1804 28.8171002167
27.745 15.3407 42.6051 28.0942529254
25.2615 14.238 43.1346 27.6445195185
21.409 3.10044 47.1563 37.2106592029
23.0038 0.951444 45.8659 32.7741965445
29.0184 3.18716 44.0179 30.4504521103
27.7746 1.39742 45.9848 27.4469258487
25.1424 1.00734 43.6426 31.2368289409
25.2735 2.82005 46.3198 29.4081377421
22.721 6.85652 44.7288 27.7987072377
21.5816 6.07624 47.1941 28.5043131867
24.9614 5.17832 44.6125 32.4525123067
27.3325 5.70807 46.4579 31.7612051193
20.3999 9.03662 44.9762 30.1656734218
21.7341 10.3869 47.5455 32.2707543811
22.708 11.3786 45.1019 34.4120359345
24.5557 8.98898 44.6592 31.4617802976
26.5977 8.39165 46.7044 29.9952394354
28.6133 9.53585 44.9388 32.4136140454
20.6777 13.3438 47.1265 33.1725011727
22.8923 15.7847 46.3433 31.6896801265
27.9742 12.3296 44.8191 30.3614915281
25.1399 13.1217 46.0006 31.748325375
25.7124 16.1646 45.9081 25.7962176435
28.4579 14.5828 46.437 29.1393515887
23.1971 2.24884 50.0755 32.4120545306
20.1841 2.05489 50.1834 28.9277233904
28.0572 0.962691 49.1127 35.3539972533
27.6593 4.03086 48.9465 31.0820949209
24.2121 4.18212 48.4051 29.047094936
21.0477 6.79775 50.0914 29.4836089082
23.6415 6.19188 50.6851 29.9195826484
23.604 8.16067 47.7941 30.8266420848
26.6444 5.93646 50.3505 30.1186369858
24.2276 10.6433 49.6183 29.8054083914
20.5797 12.0544 50.1483 30.1589613019
19.8852 9.54572 51.0947 32.3872062585
28.1422 8.29805 50.492 33.1033365381
26.8214 10.1505 48.7354 29.0395639252
28.947 11.5759 47.8186 29.1018615512
20.7392 15.8149 48.986 32.7381002175
23.1645 14.9697 50.3553 32.2971559425
24.7967 13.2127 48.9274 29.9671391694
27.313 13.8209 49.5082 32.3403180334
27.4892 16.2782 51.2835 31.5315295144
20.4352 1.72774 52.805 28.8101476512
22.0345 3.71882 54.1326 30.1936702522
22.2561 1.57513 55.9258 26.2210169531
24.2043 3.63579 52.228 28.9523863249
28.5967 2.10489 53.1948 28.4982364608
25.9538 1.76959 53.3734 29.9479476337
29.2839 1.98054 55.8875 31.0779530588
24.942 1.2421 56.1847 30.3382005148
21.0534 7.7146 53.1244 29.2675350871
23.8383 8.10588 53.1816 30.7387744675
20.9912 5.57262 56.4521 31.03667793
19.8751 5.23882 53.442 28.4902671614
26.7516 4.95626 53.0442 33.24460549
25.2264 6.54014 54.8041 33.9904230185
21.6181 9.73389 55.065 29.7295076626
27.3059 8.57727 55.5076 33.4701623674
24.7113 10.4946 52.1878 32.386613585
27.549 9.80634 52.6961 34.3943242187
29.4182 11.8022 52.2328 32.2362119164
24.375 12.4328 54.2197 32.6040345213
22.5246 13.7745 52.7145 33.490653478
23.2254 16.0066 54.4589 34.3827681203
19.7135 13.2224 52.4967 32.0716262891
26.5249 13.7462 55.4412 33.2872161641
28.3954 14.0866 53.2002 33.8349658848
25.2197 16.0228 56.3484 31.8345339511
23.2885 17.5215 7.2668 29.1522077416
20.3832 18.9047 7.33994 31.488325689
23.6617 20.3743 4.38529 31.260944258
21.2959 18.8931 4.63251 29.6099129791
27.1953 20.0867 5.76733 34.4838666459
24.6497 20.1556 7.09148 31.9288158231
28.9977 19.3569 7.94172 30.0094387722
28.772 17.0821 5.60304 31.6746123016
27.3497 18.096 3.63389 30.6233011793
23.9306 22.9196 7.80207 37.3732908046
21.3885 23.6822 7.17498 29.2857725013
20.5282 23.7868 4.64781 27.9321904345
19.8735 21.5286 7.96728 28.7997039065
29.3536 24.2882 4.50946 33.2809180198
27.945 21.7318 3.7257 32.328219191
24.1982 24.9339 3.86934 32.5390816106
20.041 26.1366 7.65041 33.4471209078
22.9772 27.0957 6.91129 31.4080087684
20.4326 26.4552 3.87931 26.8070984257
22.8773 27.5606 4.14209 26.7591154228
25.2719 25.2746 6.89007 32.5847858247
27.5582 26.099 5.2908 30.8152438969
28.1876 27.8674 7.66651 33.7239678404
24.3808 30.8485 5.59028 29.6582843551
23.8181 29.5815 7.82799 28.4533482523
22.3018 32.3254 4.5214 28.3248537137
29.0063 31.5609 6.64692 29.9287811386
26.5543 32.5088 5.42473 31.752129126
21.0581 19.0793 10.9301 32.7058045491
21.9198 16.9571 9.39626 28.6047502671
25.371 16.4133 8.77938 31.0547322517
26.2973 19.1415 9.24871 35.2367541162
25.5448 19.7936 11.9037 34.1087940131
29.3978 18.038 10.465 30.0358111389
20.7665 21.8982 10.464 33.4972414997
23.3067 23.3706 10.7013 36.966674942
21.4177 27.616 9.70897 29.7343794386
23.2131 26.1125 11.2883 32.2338198031
27.1536 25.6325 8.9162 36.3216778829
25.364 27.2451 10.6487 31.4836537988
28.8261 24.5141 10.8885 35.0464981687
22.3561 30.7779 12.2471 33.5793371654
21.6757 30.4381 9.44033 27.6887962541
28.0792 30.3239 8.8189 30.9798787814
25.5391 29.8923 9.59008 30.3858401451
25.0056 32.1395 11.5692 34.2002755403
24.4003 19.7947 16.788 27.9997487253
24.243 17.4005 12.9426 31.2857926612
21.8749 18.8911 13.5756 30.5849008497
19.9833 17.081 14.6285 26.6517666056
28.1533 19.0562 12.5809 29.9232069688
25.0602 17.2204 15.5722 30.8245342384
28.0005 16.444 14.2349 29.0432350356
23.008 21.185 14.7482 28.1287073428
20.5508 22.4379 14.6117 30.7714273143
27.1751 20.7291 16.3405 31.1779703184
27.1418 22.6819 14.1288 28.2444300678
29.0807 21.7508 12.5454 28.6120256947
24.7967 22.278 12.8787 31.8760127124
23.0061 26.1556 14.1343 32.054197212
20.5108 25.4664 14.8241 29.2383622414
26.8655 27.7721 12.9326 30.9202378503
25.248 24.8205 15.2458 30.6242991049
28.1491 25.2965 13.462 30.2561631342
25.6033 28.0068 15.2176 31.8222434969
22.9846 29.0642 14.5495 36.2012702281
20.087 32.0863 13.4543 31.3696627135
28.4385 31.6579 14.1762 31.097040805
26.0982 30.8298 15.9803 30.0996433679
28.9417 29.4131 12.6634 33.6518082884
23.3 17.7419 18.5919 28.7326771677
21.1773 20.055 18.7541 29.1420025154
27.713 17.6266 16.9972 30.4600291473
27.6661 18.1747 20.376 29.3210017041
29.5104 20.2297 17.5562 27.1616114882
23.6756 23.0269 17.0174 27.9424040998
21.0459 24.4079 17.2637 30.9149039941
23.6514 21.3623 19.4026 25.86576953
26.675 21.351 19.2356 26.6659733983
28.5034 23.8838 19.0321 28.8670209274
24.2627 27.762 21.1509 30.4985191834
22.8235 25.7687 19.7618 33.8704370201
20.3 26.8814 18.7489 30.5653824158
27.5685 25.7372 21.1159 26.140249057
26.9175 26.5209 17.5132 30.4146001111
25.2177 24.5701 18.7747 26.9986371008
26.727 27.6292 19.7707 28.5565035044
22.8232 30.8696 16.8936 30.9788614092
20.3064 29.4976 17.3269 32.9498457796
19.8059 30.6523 19.9596 26.3526520877
22.4929 32.0712 19.8742 26.2179920456
28.2461 31.4875 17.7304 31.2544061442
29.4723 32.3605 21.1501 31.0999692925
28.9281 29.3153 19.4301 28.8918218752
25.1261 31.76 18.6791 30.2676938483
