9.39676 44.8627 38.9245 29.7255248589
1.66546 38.3899 41.3368 31.501655003
8.11522 40.5908 38.9788 31.9421185785
6.96043 36.9151 35.733 80.1951997258
4.79474 38.6739 35.8372 59.3338446711
3.24053 37.1657 43.2061 33.7089963575
10.6677 39.143 41.0589 28.5372607284
4.72512 38.5543 38.6321 27.1269689337
0.823435 45.3491 41.2881 27.8357582524
2.36402 41.4014 38.6985 28.1669251836
9.05713 37.8273 38.7938 31.8321192878
11.211 43.3548 35.7755 85.3333801856
5.63218 37.8832 41.8428 28.0520824705
2.8198 47.2788 38.9551 27.6585635688
5.1455 40.9176 39.5238 26.7231267858
7.5139 44.6891 41.1149 29.763017741
2.51153 48.8512 36.3878 41.6702007252
11.8363 46.5184 36.2138 44.9318631892
10.2989 42.3343 40.2728 27.921600247
2.5627 41.1163 41.7699 31.2388410786
12.3799 41.607 38.3703 29.0441118246
10.3461 47.8634 43.2102 32.1365042254
11.855 42.0751 42.5484 30.1305385315
2.32079 36.9077 38.8062 31.5658622618
7.81259 48.8884 42.4087 28.4929052726
3.06386 38.1907 47.2717 31.3316074155
5.88021 38.4035 44.926 26.5905781931
6.78055 47.9469 53.6084 29.5631664639
9.10574 47.2333 47.0752 30.221483634
10.4186 38.1466 45.3643 26.7526331683
10.1301 39.3271 50.796 30.0540813774
4.25394 40.6986 45.3404 35.0523596219
1.72827 41.9901 44.6547 31.8380598335
4.52632 46.2662 52.9966 30.9984243697
6.55742 44.2484 47.1879 32.6712344696
4.92268 46.1716 45.952 31.2457206396
7.44877 38.3731 56.3923 28.3285652403
2.5545 48.0385 53.0563 30.5209124345
2.56705 44.728 45.2358 31.8745836047
9.16185 44.7026 46.0974 29.0929233077
6.61744 45.3397 49.7729 30.4365446566
0.217146 41.5257 47.117 29.495264043
1.50527 44.0883 47.6905 29.1075047988
11.7626 39.3903 54.6094 29.7881886222
-0.0612796 45.949 44.3749 26.8202657121
1.14853 40.1148 49.3956 27.7919110575
3.79157 47.0584 48.5495 29.7329307119
3.06586 39.6377 52.4571 33.6374666839
9.85331 40.5598 44.3547 28.4168893257
1.02578 47.2705 48.4131 31.0801900344
7.17928 38.9887 47.53 29.6638413498
10.0855 46.7783 56.2077 32.5125703772
3.87642 38.4962 50.0021 28.2498984609
7.77029 48.5174 56.1859 31.04173872
3.13505 42.6718 49.7318 31.7553005318
9.88257 37.7793 47.9802 29.1688117652
5.18774 41.8914 47.811 30.0726245134
5.98712 40.2344 49.7561 31.4072905457
10.3498 43.2235 49.7832 30.7785966555
8.22502 43.6872 51.7479 33.6279563309
10.9379 40.7997 48.5249 25.6036884882
8.21316 45.5313 53.9996 30.1491252428
8.46813 37.6822 53.207 29.7883139905
0.155045 45.0607 56.0015 31.6520210688
8.66968 41.2743 46.8151 32.4465852446
0.363584 37.7503 46.7624 30.1915058813
6.84508 48.1783 49.2108 29.8173010804
1.07322 37.6348 53.4003 31.0055846363
11.0755 46.4206 53.4865 31.5621290462
4.16186 45.1687 50.5551 33.1856056954
5.96922 39.5538 53.3623 29.8780035135
3.80402 45.0521 55.3871 30.0134022448
5.92126 41.0529 55.6418 33.6384623953
8.01902 40.7561 51.6439 27.8007462959
0.492471 47.6186 51.1727 32.4109098675
1.56171 43.0127 54.8404 36.201838605
6.69092 48.7912 45.942 30.142344848
11.6773 42.9222 45.8284 29.4727956939
1.3765 41.8354 52.1085 33.1959387063
11.4808 47.7146 50.9092 28.0693383127
6.32589 43.769 55.2711 32.4781020736
9.64747 41.1309 54.1444 29.7928005704
6.3738 46.7463 43.5437 29.7656531768
1.78144 47.6543 55.8856 30.5676793593
11.3919 48.7752 46.4112 28.8960554747
10.8052 45.835 48.9485 29.2681457125
11.2384 43.2698 52.9162 31.0177118887
5.30199 36.8275 53.6222 32.0986420858
8.53899 48.4875 51.3435 35.6400709706
10.028 37.5592 55.8068 27.233064999
0.306289 48.6738 44.6635 32.0047149828
11.1246 36.7977 52.6402 31.2130145581
8.84421 45.1885 43.3809 32.3850922016
12.4186 8.46807 11.7244 31.3927719935
17.7891 0.970935 11.3751 33.4020289224
17.0024 2.99088 7.58603 31.6469771607
21.8429 8.08738 14.4672 30.7402210832
24.4947 7.42919 5.84325 31.2861860322
14.729 5.36739 5.06914 34.7208351837
13.1346 6.16354 7.2476 29.9053024229
22.1974 7.88499 4.36338 29.4338524064
18.1735 8.75979 14.5616 29.1225174506
17.6394 4.98013 5.32907 31.5491856866
20.6082 3.43875 5.58147 33.576841187
23.5917 3.04765 15.6982 31.1112767429
16.915 5.14261 14.9761 32.0578467234
14.3723 8.45815 7.61947 33.637912418
16.2421 9.3185 5.19176 33.2167798367
12.555 0.437986 12.0583 26.6220438719
18.8456 7.49631 5.15234 29.8289700368
13.1153 1.08423 5.84285 31.9909537671
20.8356 8.50286 7.13379 32.61279002
24.0445 6.22284 14.1957 29.6710499055
19.1899 11.4507 15.1091 28.2118854124
22.1319 10.9059 14.762 32.2699579661
16.2903 0.494426 15.1536 34.1887991497
14.5093 1.99044 8.27117 30.264628836
17.8002 0.604913 6.97923 28.137980297
15.5039 4.84525 10.7513 29.4904723667
17.9711 3.39406 10.1628 31.2781145513
20.5949 0.815294 6.72253 30.9187243297
24.7108 10.4216 16.6912 30.8925635974
21.442 2.99266 10.9304 31.854832627
13.2587 4.09229 9.38013 31.7039629295
14.8053 7.53989 10.227 30.5882355264
21.2397 5.73817 11.9089 27.3100582548
19.4888 5.63907 9.65341 32.0994275846
16.7035 11.4252 9.43709 33.0819626198
20.8179 5.6129 7.17319 29.465107652
23.394 8.92385 8.54158 36.7256378687
17.6317 7.85979 10.2182 30.1182713507
17.7205 9.43299 7.75259 29.5386476025
20.6763 2.4542 15.2582 30.6682363521
12.6862 5.23772 14.5695 31.2577531378
18.5107 11.246 11.8177 30.6884594316
19.6035 11.6795 4.17495 31.9670081206
23.602 7.30718 10.8941 31.7993888985
16.196 12.3069 13.2077 29.3454952375
13.6128 7.97404 14.0218 30.3701956022
15.6658 10.0557 15.1205 30.6923481323
23.6687 5.55271 7.81715 33.0270305471
19.7007 11.4803 7.12933 33.4312713372
15.2299 1.53905 12.7647 34.4310998848
13.9289 2.77382 3.72094 33.7411434968
20.393 0.975407 12.5523 32.6801404433
16.9598 2.72346 16.6643 34.3804753366
23.7156 3.63336 12.7076 30.9760429668
15.0589 4.238 13.3552 29.9594941507
22.5376 1.34807 8.73035 36.4764244787
13.5351 10.175 3.56893 27.9197782077
19.8418 4.93912 14.2594 33.2500179579
16.4243 7.45961 12.895 29.5961023642
19.6167 8.66841 12.301 34.2161331355
21.167 6.39674 16.2983 30.998679797
16.5196 1.85608 3.48146 30.3281398562
15.1733 9.26352 18.1347 29.9590839729
15.2467 1.34604 24.1974 65.5861861801
15.114 2.71757 21.0352 28.4697064245
15.1021 3.96367 18.6148 31.7480735153
22.5647 0.46616 16.9681 28.6995489439
19.6677 3.71898 19.8926 32.3105075841
19.3606 10.7137 18.0456 35.1501171345
16.2361 6.60787 17.8642 33.2710843526
17.1181 10.9867 19.5066 28.880697353
19.1564 7.51455 18.1744 31.4485442668
18.6244 6.6642 20.791 28.0889277247
22.5185 4.41047 18.8469 29.3791282366
17.8362 9.389 21.6074 28.7783582498
21.8261 7.66973 19.5173 31.0900899723
15.9011 5.99031 20.7597 27.308520603
13.3263 0.628452 20.9579 32.6622383481
12.8552 4.57959 16.974 33.0628801763
15.8744 5.06729 23.5388 34.974138526
19.4239 0.577489 24.5841 77.3799978372
14.8585 11.3422 21.9631 32.8124199453
24.1192 9.18941 19.0011 31.7819662299
19.3606 2.09614 17.6293 30.5011080761
20.9428 3.3526 24.3065 80.6643452736
12.3047 4.13679 21.3597 28.3077741558
17.2145 7.32722 24.6111 110.3090097246
17.705 1.98632 21.7989 32.1955888357
17.9649 3.11562 24.4242 76.8749768634
23.522 8.17362 24.5762 127.5302983515
19.8226 5.98264 23.6825 39.7127378315
21.5703 2.45896 21.591 28.836568329
14.2063 8.27133 24.0842 54.5139165712
14.4569 8.31856 20.9823 28.0534004402
23.8821 3.00878 24.0516 87.4380248982
19.8678 11.0726 24.589 99.6027335729
20.8708 8.5272 24.044 47.4903747087
20.6252 9.80234 21.3449 31.7761278114
16.6163 10.3487 24.1897 54.8201719018
22.1555 5.53529 21.6311 29.5885734352
12.4085 0.756227 23.7655 51.3676986461
13.0984 11.0094 24.4807 90.9512869886
24.196 2.89895 20.7412 28.0547627353
24.4883 5.74398 23.5223 38.7381674484
24.5131 5.57641 17.1889 26.5346486657
13.2754 3.69414 24.1065 65.8919511834
15.8252 6.05347 37.8719 30.1112037395
15.4572 3.72471 39.2681 29.0470447088
12.7935 6.16497 38.1749 28.4924710091
14.9022 4.35952 35.4148 101.4011167188
20.2027 4.65237 35.959 61.0084103245
17.7885 2.73209 38.4682 27.1824702757
21.096 2.13767 36.0111 58.656070526
12.4876 11.6864 35.9363 56.9733311604
23.6296 1.51181 38.7235 29.8121191049
16.6011 8.57712 36.4358 38.4465789004
13.9958 7.21223 40.4358 27.8862335689
19.4006 7.72235 35.9557 74.1710907171
22.6457 6.16588 35.6962 92.2754967179
24.4783 9.0704 41.8139 28.9173393379
22.7906 6.85717 40.2484 27.9432003498
14.9818 10.8657 35.5006 100.5208286236
18.2475 10.3772 42.2267 27.3226322717
19.0372 10.6741 35.8285 58.9424845714
20.5362 3.75483 40.4209 29.2705028842
20.6704 1.67841 38.5571 26.0549389266
23.2371 8.82539 36.013 48.195388579
21.6943 10.9595 35.3875 95.7891843459
13.1697 2.23728 35.7248 64.4979618783
23.5906 9.75189 38.9413 30.0710760045
23.0607 1.67936 42.4414 28.5674368313
13.4707 10.3276 41.4852 25.7647914374
22.4139 4.83901 42.0044 25.6866236863
15.7363 5.13103 41.9058 29.3838611972
19.1892 7.72349 41.1384 33.1434656056
18.6764 3.80332 42.6394 32.5600760475
21.0816 7.87509 38.1266 25.9558452041
12.7184 3.47162 38.2414 27.8216026725
19.4131 5.34616 38.5871 30.3523993514
19.1158 10.0214 38.8577 31.3036956373
17.5274 2.90102 35.7647 71.2829684655
16.5297 11.108 40.3822 26.8214224696
23.826 2.60187 36.0499 72.2054246754
15.1026 9.35644 38.6978 28.3874128592
12.4384 10.412 38.5054 27.6340839882
21.5724 8.4852 42.8285 28.753364831
13.9021 7.1419 35.6803 74.9607421839
17.1697 7.02585 43.0851 27.9862259356
20.6428 11.5942 41.665 31.6793516847
14.4929 0.874436 40.3864 31.4164164746
21.3365 11.8751 38.2196 27.6114795408
17.9561 5.0281 45.8792 29.6855143222
20.3931 0.530486 45.7021 30.6317312587
24.1732 0.405021 54.3227 29.2372993562
22.5987 4.56024 45.7902 29.9269101735
14.4145 11.4492 44.7729 31.2251558886
14.1979 6.85444 48.1529 32.5374447793
15.2256 5.96273 45.6798 29.6346945308
20.3435 6.30158 44.5665 29.4744377836
18.2297 6.73517 47.9046 27.3854019968
22.228 6.19687 47.9879 32.9237614731
16.6272 2.08037 43.8435 34.8929389047
21.3617 3.42849 56.1979 29.3781846899
13.9272 9.5097 47.0154 28.6098173289
16.4429 8.52279 46.121 29.92339592
18.8519 10.725 46.7323 30.3871662861
20.0518 8.39539 46.7684 28.4226556984
24.0304 6.60152 43.9819 29.5231078144
14.789 5.19283 53.5189 28.4449846185
21.4644 11.9399 55.059 26.6790507915
20.2553 2.44545 53.6059 29.6788638557
13.8509 4.42501 43.6702 32.8251356383
13.0246 1.11236 50.2924 26.3760882291
13.5976 10.5818 49.2718 32.2238371026
21.565 10.5926 52.8412 28.5178015821
22.1228 1.38753 47.6989 34.6058530362
15.063 8.91006 43.2191 30.3640308812
21.1422 0.747297 50.209 30.678022084
15.6479 4.55486 50.823 27.9915011369
14.8341 2.62688 48.9247 30.7761621503
20.0461 5.83123 49.8106 30.6701641933
19.0295 6.93658 52.0356 28.0927498603
21.3027 8.0483 53.641 28.3585804801
18.2809 2.28835 46.2418 32.2001459074
24.1105 5.31219 50.3036 30.2531818516
16.5816 6.95873 50.2322 27.430568359
18.9297 9.71114 50.8654 36.1726831006
23.6135 10.0554 56.0887 30.9686079053
22.5822 9.16869 47.6862 29.0776720505
23.5633 9.42969 50.3195 28.1950339814
13.9113 1.77008 45.1359 30.5378523717
16.3099 0.910925 54.1524 32.3978556793
13.708 0.936011 53.0605 35.7632449917
17.5489 1.59274 48.8437 31.6676882364
13.0165 10.7358 53.9894 25.90695822
19.2906 3.07088 50.5274 30.7583147674
13.0688 3.98465 47.2137 36.5572604408
23.6653 7.41919 52.3361 31.0574837645
12.8998 3.42309 54.5324 32.0054057607
17.3942 5.64104 54.0526 29.8545790956
21.0807 3.00759 43.828 26.98827231
16.8911 8.23974 55.4602 30.4155603796
17.5291 2.90958 52.6903 29.5456271806
22.7343 5.91714 55.3573 34.1340178023
21.8951 4.58097 52.3536 32.202625279
19.06 12.1814 49.0147 30.3024224142
14.8084 8.80905 51.3068 28.4651197551
14.3094 7.27938 56.1482 28.7683646445
23.1599 1.82567 51.9969 33.4646516449
16.702 9.79828 52.8591 29.1296791726
13.1809 7.82661 53.1013 25.9339068941
18.4222 3.85421 56.0964 30.9012428105
21.7425 11.6901 46.7408 26.5732520304
12.908 5.37811 50.6429 31.7452846533
22.8714 12.1418 50.6033 32.7303594801
15.6273 11.6807 53.8587 25.1568092687
17.2975 11.6541 44.573 27.4367621964
19.8998 8.93817 56.1877 30.715044801
22.1669 10.8435 44.1951 28.7900026614
23.4566 1.6723 56.6094 29.72610483
16.9301 12.0583 56.2987 30.7633234804
14.2106 14.4977 8.98198 27.6580532308
13.1557 22.969 11.201 29.4135482386
18.6799 16.6122 4.78123 33.6196497388
18.8374 22.4411 11.4279 31.4679692121
22.9102 13.5186 5.4957 31.7481184423
19.6568 21.1248 16.1962 29.966982403
13.7027 17.6348 6.34063 29.0818743461
23.8723 24.435 11.5196 28.429384714
18.6509 19.2419 6.22541 29.7156649994
18.2037 13.7389 8.52597 28.3544688669
22.7087 18.239 7.93081 31.7698829338
22.3473 17.6246 5.17351 32.4274672792
24.2731 14.8697 13.493 34.3867408696
24.5173 20.2367 7.85228 26.092157714
23.9995 21.2611 10.2424 29.650192568
16.884 15.028 10.9496 28.4349162766
21.3542 22.5627 7.74694 25.7719006198
15.8751 19.4165 5.55115 28.511438688
19.5883 22.2403 4.93588 30.5434884159
16.5908 22.5211 4.39552 30.5512909642
23.1373 16.3942 15.5601 29.3279496434
21.8593 20.0156 4.07799 30.0856735365
13.7047 12.7727 6.75225 34.1759356469
12.85 19.9309 15.9795 29.6002238294
23.0918 21.8183 5.99283 26.872488728
17.2278 14.8934 6.37006 31.0321756764
23.4753 15.5074 8.63252 27.8866855952
13.7885 22.4358 8.61458 28.5714100877
12.3166 20.2887 8.11601 27.497691718
22.0354 12.8681 8.01879 34.8088003772
15.7111 16.6046 7.96015 27.8695603952
21.5895 23.9976 12.9347 28.4502409562
18.116 18.6425 8.84009 28.8164287508
19.6844 17.1089 10.8 28.8286123106
20.4949 14.7672 9.72339 29.8476679934
21.7491 18.0999 12.6443 31.0943433784
19.6463 15.3767 13.3923 30.8998941918
16.797 23.1544 7.01441 28.3006606348
15.4597 13.675 4.65363 29.0970090389
15.9263 20.8829 8.31651 28.6934094316
20.6448 20.1522 8.70955 28.9139727838
21.3563 20.8519 11.3774 30.8507016305
14.6397 22.6934 15.419 31.4645705349
21.2282 15.1319 3.85164 30.8881288327
13.5634 18.2916 9.71059 29.1067033765
12.8923 13.7196 14.9774 30.8972025627
17.0239 20.5384 11.0312 29.7841667426
22.6659 23.3087 15.5639 34.8285284719
16.7676 15.0731 13.7292 24.8731930243
13.4747 21.4822 4.39364 29.2152468759
14.8492 21.4137 12.7484 33.4415475327
20.3246 13.2205 11.9303 29.4819192925
16.9205 18.0195 11.9357 31.9541588892
13.7757 15.0459 12.3408 31.3467781758
23.7002 16.4862 11.2127 29.0289341769
23.5133 21.0544 13.7732 32.0066480787
21.7768 19.4432 15.2847 26.7031044556
15.6262 17.3217 14.6911 32.2199154873
21.4028 24.1387 4.08003 34.5314655395
18.9084 22.982 14.3463 33.1035511729
14.033 18.9256 12.565 27.6051433809
12.2154 15.0019 5.53617 27.6345543161
20.3874 14.7497 16.1071 33.6064496557
23.0429 12.4299 12.4901 35.9720665597
18.0707 18.4472 16.2692 35.8260556561
17.3468 13.5685 16.1419 28.640441863
23.201 24.1774 8.79144 27.5749224488
19.1457 24.19 8.34054 29.4687357997
14.3648 12.6348 10.9916 29.0198808676
14.8212 12.4129 16.5708 30.5299642724
18.5683 14.1342 21.3823 35.9845337435
16.0672 16.8775 18.0306 32.5898672498
15.0825 17.6801 21.241 30.1578008309
21.7718 12.4995 17.1398 34.8134895681
14.1945 13.0265 19.3977 37.6345446081
19.2093 20.7651 20.4912 25.934164063
24.4529 19.3272 21.1148 28.4679681557
13.6562 23.9762 23.8061 76.3254857901
21.5686 18.0738 19.2694 28.850373682
23.0725 20.1753 17.9456 28.7631619845
23.5376 13.7401 20.6318 30.9019201407
20.7465 22.246 18.6801 28.9272076249
14.7586 20.0477 18.4625 31.2220520369
12.9219 14.8173 23.7504 50.014220942
21.9509 24.5698 20.3366 29.5424152023
16.6973 23.2301 17.7701 28.7628549782
12.2703 14.565 20.8811 32.3840506963
20.5968 17.4411 16.8868 28.7291539732
13.4257 17.2036 17.1884 29.9298541055
20.9862 12.7382 21.6253 32.7537176504
16.7161 14.2939 18.82 33.0994850192
19.8518 16.6375 21.3138 35.0873617603
22.5333 12.2415 23.8931 53.3442222901
22.3117 15.1387 24.6941 114.9857748781
13.9721 20.1575 21.607 27.5621471739
17.801 13.6983 24.0793 68.0228364874
14.012 19.2657 24.397 88.355060776
15.1297 13.0689 24.3857 82.0912752758
17.3954 17.9453 24.4901 92.1858340056
20.0003 16.9986 24.0738 48.1321097144
17.8491 18.5525 21.7521 30.1130978631
21.5479 19.6294 21.607 29.1172754254
20.8194 19.8049 24.4806 78.5516082411
17.5667 20.3145 18.3307 29.4938791259
15.4247 22.3896 22.236 29.1468105852
18.4234 22.8264 22.0616 33.3300087516
14.9458 16.8623 23.8514 46.3622829674
16.8703 20.8635 24.1221 71.9084740968
19.7149 22.3961 24.506 101.887652455
22.2258 23.7592 23.8283 51.2598500989
24.6038 21.9822 23.8584 47.5063655499
13.0564 22.6376 18.1703 26.1818325006
12.6291 17.0577 19.8903 30.8827744524
23.465 19.2735 24.3056 75.574275628
14.9746 23.8587 19.9351 31.5518026502
24.5469 16.5731 24.3496 70.9827886164
23.9053 22.4275 21.0946 28.0854531591
24.3114 16.891 19.6635 26.9528055075
24.1022 14.3793 17.8592 29.6287083101
15.8981 13.2031 38.5522 32.8292053542
15.7706 17.5896 35.9114 82.1136785336
17.4396 14.1615 42.4761 29.2952416159
20.4029 14.8654 35.5854 90.9968601764
16.4964 18.6971 42.2512 30.9022553742
24.0191 21.8316 40.429 26.5625297793
21.5402 23.7912 35.9999 59.5295852494
13.3019 15.331 42.242 30.2728518031
17.4415 20.2475 35.8708 82.8757531625
21.6143 17.5942 35.7716 76.4733755651
21.0809 20.353 36.1336 56.6399343416
21.4683 17.019 38.514 28.1325872666
22.0975 23.9131 38.7323 28.3507235817
21.9373 20.6686 38.6715 27.2038212566
15.3265 22.064 36.0992 44.2703663954
23.456 20.1878 42.4273 29.3756852627
12.456 23.2235 35.3095 112.6183563187
13.4651 21.7617 38.5187 30.0085440145
19.1249 23.0614 38.8027 27.870033956
18.9481 22.5884 36.0665 49.8556426714
12.6433 17.2604 38.3387 30.7805458156
15.8467 21.0118 40.4436 28.452813407
20.6214 20.7028 41.3919 28.9077529614
12.6228 20.4819 35.8119 56.5545956337
23.3975 17.323 42.4135 31.8224896421
23.3942 12.7576 40.1715 31.3166930307
13.9544 17.6822 40.9353 28.647136583
20.3433 14.6255 38.4565 31.4946399149
17.5779 15.4114 36.2383 50.0859167986
23.6403 16.0067 40.0814 32.9438601598
16.3612 23.8689 38.4064 27.972815337
18.7454 16.7525 41.8721 31.5696246629
17.4867 19.7581 38.595 29.2925883129
17.8222 15.2671 39.2053 28.7439481328
22.7568 23.9874 42.6717 33.8081190817
16.021 17.4375 38.7115 29.5911687982
19.6923 18.5355 39.9324 28.3946721591
13.103 14.3458 38.5948 31.9456150541
23.1718 13.3953 35.7973 64.6874399858
23.7478 22.0068 35.8386 73.2844709032
17.1298 12.7556 35.8331 74.2510375417
12.6885 17.8173 35.5325 97.3892829927
18.0459 21.8184 42.4121 28.1708016325
24.1958 12.4477 42.8703 34.5374570576
14.9225 12.8126 42.182 26.2819461799
24.34 18.6674 38.2585 29.1486599163
13.4127 21.9196 43.0405 31.813329157
15.4 23.8663 41.4276 27.4385389813
24.4312 17.8397 35.6329 72.3208196289
18.45 24.3612 41.3439 29.2022179044
14.022 19.2692 51.1231 31.2126442091
16.2999 23.9283 53.5104 32.8321773535
21.4425 18.6951 53.7382 31.5797765886
20.6888 14.2075 46.1635 27.131332734
17.2068 21.1217 48.2296 30.0977195275
23.9476 23.797 50.99 31.3663639992
16.0828 18.0649 44.917 28.1727781337
23.6403 14.7668 46.3023 31.2571502023
21.452 15.7266 53.6962 29.7940048274
14.0795 18.042 48.6642 29.0890481578
12.6855 15.8135 49.7642 30.7785960121
21.1267 16.0047 43.4885 34.0216020232
14.0359 19.2944 46.276 30.4431466233
13.248 23.947 50.2126 30.8268641296
19.7142 17.781 47.3226 27.8161849638
17.3225 14.5278 46.8488 31.511160344
21.7383 17.6113 45.693 28.1792143177
15.3646 23.2099 48.333 29.8528742892
23.4521 13.9733 54.9982 32.0792196503
18.2561 16.1486 53.7556 30.0087097345
23.6921 20.602 55.0466 32.2835797996
14.9562 22.0471 45.4032 27.9172695801
14.0709 13.4786 49.1947 29.5407230064
17.6504 22.2347 45.0296 26.7099945032
19.3008 14.0546 55.4866 27.4215443588
13.8887 14.5489 53.4607 29.2063369556
16.6912 17.1243 47.7903 27.685358017
22.5251 17.0758 50.4826 28.8534925244
16.7026 13.8383 49.9325 29.9061556317
14.3817 15.7409 56.1119 28.3380537045
16.9177 13.7593 52.5574 26.9560748343
18.1145 19.5813 45.8405 26.4127793037
21.1621 23.3727 46.9589 34.9975630878
20.9237 14.3068 51.2906 28.5473616644
23.4836 20.0211 46.324 32.2490404766
13.4615 17.5564 53.3986 31.3076798259
16.7761 16.8047 50.5038 31.2884136289
14.6062 23.9206 55.8384 31.7635347288
20.3335 18.8127 49.6219 27.075112625
19.6112 21.4165 50.6893 28.6756724799
19.7809 15.0621 48.7083 29.1057875992
24.3144 12.7195 48.1508 28.4104393059
16.7021 20.0088 50.9403 29.4974494349
14.1469 13.8536 46.3762 31.581875887
23.8958 23.2934 56.276 30.0637516302
16.7518 17.3044 55.8925 30.1679316749
16.9302 21.1485 53.4794 33.0903673139
19.9262 21.0455 53.6166 30.6378839768
19.0861 17.8268 51.8746 27.6912872794
20.14 19.927 44.089 30.0701302507
22.8747 20.2856 49.2139 31.4080729978
12.648 13.1534 56.0056 28.6978907988
15.8243 19.8785 55.831 27.0021500014
18.3652 23.9708 47.0409 28.4463405746
21.7913 22.7426 49.5717 32.3033787355
19.2407 12.4381 52.3308 27.5450050148
15.5832 15.3364 44.3291 29.7351311175
23.7927 18.9133 52.2012 29.6395499629
24.0789 16.9595 48.0693 30.8105155341
12.8014 20.0181 55.1743 29.0528578359
22.2991 21.9059 44.632 31.9317299956
18.8447 20.0867 56.3116 30.5230559002
21.0071 23.7294 54.3827 33.4964557972
17.729 23.5343 50.3342 31.9412105168
12.7463 12.5365 51.8477 28.0943848384
19.7274 13.2109 43.6848 27.3862855611
20.0139 36.0886 12.707 29.2278544654
15.3505 25.4476 7.10987 25.6829029769
18.1896 36.425 7.05122 33.5337020297
15.4937 28.1739 7.27016 29.8177721924
18.4212 32.3775 6.39032 31.0081472311
16.9163 33.0958 3.73906 32.4021806148
13.286 30.0586 7.69311 32.1830119978
13.1029 36.7719 6.69642 28.5736875616
14.3074 32.2018 5.96221 29.0207856543
12.2649 26.8587 5.09658 31.0619413402
19.3661 28.517 8.52913 32.3347304286
18.6512 26.5801 6.66535 28.6907725555
18.633 25.3226 11.0848 31.1041459202
14.0791 34.9084 14.0293 32.5846463579
15.3863 25.9945 4.38521 28.0988349645
15.7859 31.2359 10.0867 28.8371326294
21.4006 34.48 10.8696 31.6084947481
16.2602 33.0325 8.05297 30.2599693683
22.6235 32.2488 13.5978 31.1112388153
19.9204 34.6732 5.98189 32.7706040755
20.2572 25.4533 15.7236 27.0510629017
23.5884 27.1317 7.37646 32.0124283273
22.1991 33.604 15.7919 32.3499571175
15.6134 35.7001 7.73117 32.7943175876
15.9389 32.6073 14.8906 24.8770221801
22.7552 29.2981 4.59199 32.544789696
20.9827 26.9304 5.36107 35.1113780825
18.671 30.0086 13.9378 31.7963960061
21.4002 26.2546 9.52108 28.5533467315
16.9682 29.7866 5.43417 29.7042193369
13.8662 25.5738 11.6635 30.3356165115
16.0958 25.919 10.0366 32.9189136925
16.8989 28.5739 9.69422 30.5738371126
20.6138 30.772 12.1859 30.6601915959
19.017 28.3633 16.1035 28.9423183792
16.243 28.9417 12.8617 33.3654229589
16.0861 35.7093 10.3923 32.9041487858
23.8822 33.7841 11.7033 27.8674190273
19.4991 35.2115 15.1891 27.2483890896
19.6584 32.6343 10.5002 29.465948883
22.2194 29.4327 10.3065 30.5016190595
13.1746 36.15 11.4069 28.5387731605
17.2881 33.4898 11.5237 30.3817334926
18.831 28.9883 4.12128 30.590057862
20.4609 31.3357 8.14353 32.5589027031
23.7273 27.7198 14.6817 34.1923144056
22.7854 31.1201 6.48528 35.2904469574
14.5485 30.9966 13.3495 31.2924085493
15.1554 26.6749 14.0686 31.4854882906
22.9523 35.7655 6.3866 35.2350470897
20.0328 26.8233 13.1488 32.7498705918
18.2813 32.8174 14.0593 29.9270202765
13.1809 27.7971 16.0332 28.3313087123
22.7065 27.1195 12.0247 25.7454112976
13.2731 31.2309 10.2713 29.72413532
12.4378 33.9805 5.51514 31.7101315793
16.8598 35.7036 15.7093 30.2926839551
22.1271 36.6079 16.0819 36.8815867922
20.9888 36.5641 8.75256 32.5780960459
12.4541 24.7853 7.42914 31.1545665076
16.7326 24.7876 15.3675 30.4410526979
12.4655 24.6141 14.2338 26.6099919831
21.6836 27.9081 16.6852 34.5164046785
14.6232 30.9124 3.56322 34.6306820456
14.9982 28.9625 17.7437 31.5175956403
23.0545 26.0997 18.438 30.07198617
24.6372 27.5645 20.2943 35.2232407443
21.9323 28.5593 23.7019 43.0648994959
18.6202 30.5605 18.5097 33.361337254
14.626 26.9752 20.0901 30.7684488851
24.1255 36.0436 18.1322 33.4816386772
18.3707 27.2738 20.1045 30.0562373077
13.0038 30.1958 21.4362 29.9019068738
18.8871 31.0775 21.4055 26.7744553516
16.889 34.1644 18.7191 28.8887620365
20.6095 28.9031 19.3812 31.3705006426
18.0899 33.7572 21.4785 28.0207061777
21.8866 33.4541 21.3411 27.6767452093
13.6972 30.0908 24.4127 81.9836424769
19.4174 35.0375 18.2958 28.1159474299
13.0534 26.2018 22.3793 28.9811372065
15.9312 31.9029 17.3186 31.2625729223
17.1746 27.0519 17.4777 28.5580385286
21.1253 32.7374 18.5109 36.057953584
15.885 31.818 24.4914 88.1923072971
18.3273 30.473 24.1467 50.3071907647
14.9954 27.6785 24.0773 75.8370145286
19.7793 25.3995 21.5895 30.6107860112
20.3353 26.286 24.4289 101.8610551809
17.8518 27.7438 24.1289 75.862753102
13.0324 34.7895 24.4897 85.9514732042
20.2766 35.9303 21.1997 27.171125367
21.6561 30.5254 21.307 30.6204055291
15.4672 31.5947 21.552 29.0595787467
20.7632 31.1415 24.5024 101.7678406456
14.9565 34.3769 21.8572 26.5015149846
15.6794 36.036 24.1347 62.4424372792
16.3648 28.8055 21.6086 27.9127496867
17.5884 34.3842 24.0466 55.0017155972
20.3254 35.7308 24.4058 105.7137109606
15.0888 36.1928 19.4733 28.0622527623
22.0801 33.4012 24.2651 66.6948639852
24.1663 33.7824 20.1272 30.1932027909
19.0874 24.55 18.2189 29.0546541254
13.0685 31.4482 16.9394 28.2824292573
14.1495 25.2944 35.9368 45.4759478584
13.1801 30.6638 39.9762 30.0410950797
18.39 27.0974 35.8 66.7869166742
13.6897 33.1071 38.6977 29.9911738475
20.759 28.1265 35.6385 80.2149834581
20.7353 30.9813 36.153 60.6247305776
18.7362 26.3577 38.287 31.579512539
14.3776 33.0162 36.0692 49.7961931428
15.5106 30.7621 41.4438 31.965158444
13.4687 27.9622 35.8657 84.1274308955
22.8935 26.4763 35.4705 90.7245878766
16.1761 28.7827 36.1968 57.097039024
16.4652 31.4221 36.3378 52.7152312025
20.2923 32.06 38.6778 28.721251265
21.0006 27.9953 42.7785 31.7941992827
16.8379 24.6547 35.4973 97.7371272042
13.4964 24.3932 38.5669 26.243400981
16.4124 33.595 39.6508 28.1185825088
15.4586 35.4712 35.5084 103.855660097
23.559 31.4873 35.978 90.7029856918
18.7298 33.0136 36.0726 80.7315617575
24.3742 26.3696 38.0439 26.1177301058
22.1314 30.0186 39.5997 29.2705667161
13.7178 28.0501 38.8666 31.4335072152
18.8697 34.9279 38.4109 29.3864172754
21.5469 33.6255 42.5434 37.8096325247
23.267 32.8524 39.1073 28.0634421154
16.586 28.3329 39.0695 28.6627788644
23.4129 31.2241 42.5667 32.4563151155
16.7797 36.677 41.4504 33.8419962215
15.1866 36.0563 38.6199 27.0560403536
21.633 27.3987 38.6012 30.1504270361
16.0515 27.9293 41.9111 29.2788224379
17.4506 30.8423 39.018 28.8059348282
13.5487 26.0768 41.0171 31.5132663805
23.6233 36.3748 35.8818 89.7287312074
19.3093 32.094 43.0313 31.5473618268
19.8631 29.9474 41.2096 31.9539958426
21.3658 35.2375 39.9229 31.2010297919
21.1649 25.6277 40.9676 29.9333309109
18.5388 36.174 35.9562 60.5777484694
16.9869 33.1965 42.3856 30.7048103723
13.7265 36.5484 41.5659 29.0651193628
18.4195 26.7329 43.0194 32.5923557014
15.1462 28.147 48.1035 31.6476682865
15.3603 25.7557 46.8768 29.7232276329
15.3581 35.5687 56.6518 31.9653598686
22.1106 30.9961 55.2346 31.3009478018
23.1021 25.1257 53.3908 33.0922436907
18.0337 26.6319 46.0245 31.6648007025
15.5768 34.5897 44.4394 28.6887019187
15.4355 31.6138 45.1238 29.4743203776
23.3699 26.4575 44.259 33.6938602974
24.3093 34.2294 53.5698 28.2372405522
16.4456 29.3911 45.6689 30.3774434801
18.8433 31.2131 45.6006 33.9438864285
19.3873 33.9522 46.8863 42.1556701194
24.2775 28.0888 49.9004 32.7291930838
20.4614 27.1702 47.899 31.2916966789
13.7585 31.9583 54.3283 32.3424128611
18.3454 36.666 52.0432 37.0289588365
17.8494 35.9295 45.4583 30.3995594347
16.5444 33.1424 47.2363 32.7571333922
22.9989 33.6348 55.9234 28.8763742963
20.9776 29.6319 46.5163 33.5547700682
13.1291 32.1855 49.7225 33.5745584416
16.6472 27.5587 50.3891 31.1928293176
14.9034 25.8289 51.904 31.9694449759
22.5942 25.7453 46.9678 34.2250695214
12.987 35.9802 54.8538 29.7010307289
19.5092 27.721 52.3506 28.5868268786
13.58 30.2513 52.0486 32.6535963896
16.1523 30.3849 50.5943 35.6046233403
16.9582 33.3345 50.2912 33.860160076
19.8139 33.1268 51.3313 30.2181865987
21.6481 29.2003 50.1226 31.3324694956
14.7874 27.7954 44.3355 28.5526020944
14.3193 34.4103 50.3096 34.4884852253
19.1911 26.0966 50.1639 33.751116532
14.6195 35.6533 47.5009 29.7095716238
21.8654 34.9809 52.1835 29.5136826034
22.7111 36.0487 50.0416 28.0167728233
17.3362 33.9992 53.2461 28.8381333749
15.2126 28.3515 53.3924 31.7102181142
21.1623 33.5951 48.9219 35.9214145674
12.5624 30.9605 44.8412 28.747782592
17.7687 29.8054 52.8295 31.5433171158
14.0387 28.2239 55.9046 33.0972749792
22.3005 27.8607 52.9562 35.7764781082
18.7513 25.4375 54.1092 35.2922288453
23.8057 31.7979 52.0591 29.7960021248
16.0778 24.8115 44.1156 28.8119486421
21.1359 31.0024 52.228 27.2605406691
22.9 29.2821 44.4628 29.9028336331
19.0718 33.3598 55.2721 29.2047047872
19.2112 30.5066 55.1441 31.4904843798
14.4624 34.333 53.0981 30.1934005136
22.6169 30.9968 48.2577 30.6585147081
20.6529 34.9653 56.5494 29.9371526867
16.7487 36.5965 54.7618 27.6085445084
12.8026 33.9635 43.6461 35.6469437015
12.4945 27.5975 48.1489 30.577672857
17.9154 26.5668 56.6034 34.2863028135
24.1449 34.7752 43.8115 34.2628649228
17.3741 41.1434 6.47481 30.1511544021
23.5995 38.6717 11.7582 32.4280582471
17.2894 38.4969 5.44601 30.7416951234
18.4969 47.8107 14.7944 31.1123053993
24.2131 41.1682 10.7209 30.3200588593
21.575 39.9516 4.57076 32.2822975378
20.2274 40.5071 7.0902 34.1515614899
15.2537 41.087 8.44768 36.0201921354
23.7732 38.0859 5.03292 30.8472297426
17.5572 48.202 9.219 30.6654811806
12.6141 47.6553 4.53524 38.5810084458
14.2947 42.5596 12.7247 30.078672159
21.5489 48.8013 4.08574 29.5411628182
13.334 45.8564 16.1992 31.1009874293
15.5552 46.3509 5.20215 31.152916315
18.3069 45.4159 5.79312 31.6360558457
14.5881 38.1262 4.96024 31.305149815
19.8751 46.7862 7.40702 28.1462200541
15.822 41.8502 4.0598 33.8400992399
15.3932 45.3131 12.1385 29.8672734125
23.2643 47.0437 5.54068 31.7173969014
17.9954 37.3899 11.4643 29.9343747087
17.2724 38.8158 15.2459 30.830826628
19.4445 38.8489 9.47799 33.435651492
14.242 38.2558 13.9116 26.6828946885
13.4606 48.877 9.43853 28.9647210943
18.9375 45.6319 10.0774 27.2258729827
17.1193 42.0457 12.5127 29.4238115058
14.1287 40.2134 10.9047 31.3419591922
18.7378 43.3868 7.47329 27.9769704912
21.3308 45.6994 11.3752 29.9928247659
19.5621 41.0717 15.8661 28.1043719131
21.6384 43.0712 7.43782 29.4650057979
17.2486 48.4865 4.50313 30.046891648
13.8631 45.1802 7.21835 33.7186492647
15.2192 46.8122 9.73202 32.0720929327
22.5996 48.2273 12.7874 30.4438978632
17.4544 43.3674 9.84683 27.0212346764
13.3401 40.6342 3.6772 29.3457551215
22.2494 45.7277 7.6458 29.4189175218
14.5095 43.5914 9.66789 26.0099802192
23.6195 37.8072 8.88792 31.1131455182
24.5588 48.6756 14.8023 32.7269184038
16.4314 39.4089 12.6112 26.3290630455
12.7796 40.4035 6.81963 26.200618535
21.7354 38.1514 13.6421 33.9199831171
23.4998 42.1225 3.92947 30.9279430872
22.9677 47.4997 9.81449 31.0541532278
24.4465 42.0265 6.50629 31.693430776
13.2995 46.7281 13.5223 32.2017244717
13.5388 40.9687 15.1153 29.4580548898
22.0389 43.0458 10.1313 35.6586991996
18.9861 43.4183 14.6673 31.0025162318
19.5938 41.2352 10.8777 32.9764528937
19.7506 39.7115 13.3257 29.8807102685
21.5958 44.3944 14.0509 31.9743215604
17.9313 45.6593 12.6494 32.3497042673
24.2634 43.9706 14.0797 30.1468627606
21.2198 47.1973 14.8413 28.7037421469
15.0089 44.5674 3.25111 29.5420329042
14.0075 43.1333 16.7456 33.5565166292
13.9869 36.869 16.3537 27.6286465022
22.8173 45.1695 3.51237 30.8941563408
21.9454 41.9857 16.6555 38.9680720027
23.5703 45.8058 24.0879 67.7817127007
21.0162 40.7252 19.382 30.3535969944
18.9409 48.564 20.914 33.3993893833
23.2274 46.8028 20.8168 31.8643565979
17.2802 37.7231 18.3509 27.3777957349
18.3922 41.1993 21.5254 28.8662793794
21.3477 48.5198 22.3062 32.7011446227
21.2069 44.0959 18.422 29.7819917674
22.8318 44.0188 21.3047 30.0839171263
18.4034 40.4838 18.4096 25.9528465045
12.7981 43.3108 21.2399 27.9336293656
23.0952 39.8432 21.1163 29.6169124053
20.0371 48.4211 18.2454 30.6944635014
15.1813 39.9631 17.1567 27.6882728191
13.9458 42.7089 23.8297 47.9932592835
12.8132 39.8242 23.6331 33.6481019298
15.7051 37.8434 21.8065 28.9067807332
13.7159 39.9409 20.9471 30.0793611294
12.9349 38.9419 18.4519 25.8009904107
20.5347 37.9867 18.4816 31.5138286761
15.7056 39.2712 24.3385 95.0391890255
22.5499 39.9229 23.5679 37.3279941983
19.9754 43.6284 20.9854 28.7773040911
16.5497 43.1912 24.1554 69.1954099515
15.7388 45.3231 21.4971 30.0864285611
18.4696 40.8271 24.294 88.5402774512
20.4118 43.1351 23.9108 45.7603607635
23.0566 42.7442 24.376 99.9782341494
18.4021 38.236 21.1294 28.9376665424
16.888 48.1082 24.6251 92.484303293
14.1646 47.2737 19.8799 33.6168557507
17.7212 47.072 17.3537 33.9835681848
15.6511 42.3928 20.7183 30.1931976667
15.2416 45.9495 24.0128 46.5995497986
21.102 46.9704 24.5312 95.250878481
18.3082 45.8449 21.6555 30.6355274509
20.189 38.3851 23.7243 50.6094297792
14.9307 47.8026 17.2137 33.5440397942
18.9223 45.2895 24.1763 57.9436813896
16.4785 42.5951 18.0593 31.1484380141
22.5964 46.5925 17.6356 29.103602648
18.5922 44.3873 17.2421 32.4351778794
22.8874 37.1913 20.4177 30.9605124758
12.4327 45.592 24.5621 112.148682612
14.0298 44.144 36.1687 42.5383542471
23.0502 44.7826 42.7493 31.7586642419
22.2378 48.5859 40.6826 28.3472501474
21.4146 37.3871 41.9219 29.1045368579
15.548 42.0242 35.5061 94.6863853276
15.7379 40.3081 38.0287 28.3776620122
18.4183 40.8548 36.2301 51.6338791895
18.8363 42.2606 43.0741 27.6812361166
21.6745 40.1834 38.9248 31.0422027201
16.0778 46.0022 35.9565 67.1783502531
13.9063 39.957 42.3077 30.6756824793
18.3153 43.405 39.093 27.5653371926
19.9345 45.7182 35.9299 68.9864696662
17.8612 43.8784 36.433 37.0689436778
21.4917 40.4664 35.9303 68.4102123177
20.0932 44.5887 41.4246 32.0442052044
18.9108 47.5025 41.5209 31.3689921542
21.4212 43.1123 35.8912 73.0356683415
18.6919 40.661 39.1745 28.2889017341
12.7656 45.0749 42.131 31.0969872169
19.7136 48.5236 35.8361 61.6601590887
20.0109 47.9848 38.913 26.4220047001
13.5574 37.3578 36.6856 31.0287950862
16.2191 48.2482 42.2563 29.6004909381
16.9959 48.9116 35.624 80.0726029311
13.8359 39.8837 35.4659 92.2910162328
16.4269 46.3364 38.8827 29.1868051569
24.0248 41.8919 42.2179 29.0231347295
22.7111 47.631 35.8797 73.1613580226
16.7838 38.5385 35.9783 58.6325428799
15.3417 45.7471 41.6242 25.1228315012
20.9851 40.1822 41.8042 29.7849280589
23.4478 44.3147 38.5594 29.758168932
17.6897 37.6789 39.0401 30.6988324021
13.976 43.6191 38.95 27.1485252101
23.9155 46.3063 40.3581 28.0761737676
16.0426 43.2045 40.8237 30.7882790797
20.9609 37.4043 35.8266 86.3781699318
13.95 48.0134 38.6786 27.0836182207
20.8431 44.9744 38.5622 28.1834236521
18.1174 39.4886 42.1038 29.9294343477
13.7515 39.0252 39.6192 29.6763395134
23.9639 44.822 35.8211 68.5240472993
24.3604 41.042 36.0179 56.8169354884
21.0798 48.3876 43.2895 31.5950320142
13.7705 48.5514 35.8625 68.2585593949
17.3557 49.0561 38.7795 28.7531254432
24.039 41.6252 39.3605 30.3217594775
22.5777 37.3552 38.5468 30.2315759152
17.5729 45.1233 43.2677 30.7792931697
15.7943 42.437 48.1484 28.2147566098
14.9419 39.4602 45.7267 28.4960795348
21.5043 46.2813 52.6629 29.2094138252
21.7607 38.314 45.3938 31.5494815438
13.4554 41.1056 47.3369 27.7185769176
16.3855 45.7976 54.2912 29.8553634078
14.4507 43.3771 44.4793 28.8779911727
12.8566 46.0648 44.6558 27.0243306899
14.7477 47.955 44.7347 29.4994787761
23.8715 46.6191 54.6458 29.3469792912
18.3988 46.6468 51.0 31.2982607014
13.8194 47.166 53.5978 32.512514123
16.6554 48.1512 48.9311 29.1980311205
20.3579 42.7448 45.372 29.6264311566
23.4039 37.162 47.5092 30.247140789
16.8424 47.1867 46.5772 30.5454107204
24.1942 37.2759 55.5702 31.5684501371
22.2093 41.1308 44.4614 29.3815366665
16.4778 44.5057 46.1606 31.0914774215
23.6686 46.4431 46.038 33.4829145504
21.1554 45.8558 44.6555 28.1555413818
21.0218 44.3083 47.8296 28.1220702246
20.6111 43.9329 53.8408 30.8300827957
13.2029 39.4062 51.1155 29.8470434865
15.3006 39.2049 49.2395 29.6198451759
16.4186 40.7475 53.1849 32.0807534265
17.445 38.9985 51.1934 33.0723347606
24.7619 39.5585 54.2155 31.5605530407
18.18 41.2347 55.6773 31.1835006329
21.6006 38.7089 50.4836 29.431120523
13.0732 45.3849 47.3953 27.9760059534
13.1738 42.1947 50.9445 28.9453267608
19.3775 38.88 46.6494 34.1305831241
19.6361 42.547 49.4952 31.0688415207
19.4787 39.877 49.3597 31.9343801764
21.5821 42.1179 51.5947 32.0190907499
17.7876 41.4183 46.2798 29.3342997345
24.1914 39.3116 50.3354 30.6852596035
14.4318 46.9182 50.6973 30.388910044
14.6283 44.3273 49.7572 29.0201019882
20.7967 47.0923 49.8016 26.6929017427
17.5055 43.8414 50.6688 31.9498445038
19.6281 46.8915 47.1234 31.5122741144
22.6604 44.8065 50.3363 29.6176767984
18.3132 47.6692 53.5674 30.1295685909
19.297 37.4179 43.7092 31.117210416
14.7195 38.4897 53.8159 33.283931155
24.0265 48.0726 48.4635 33.7552332808
21.3643 48.7401 53.9008 27.5210131777
20.8119 37.4168 52.9559 28.1055009782
21.9638 39.9342 53.4238 29.0509247003
19.3319 47.3851 56.2456 28.373186961
12.8075 37.5731 48.5374 31.9500756348
16.1856 41.0846 43.7265 26.1181085999
23.5947 43.5805 46.8425 32.7060073974
20.8399 41.4186 55.3666 28.2417602494
14.4596 42.8916 53.665 33.0022409139
17.6258 43.7118 53.3539 28.6946870167
16.5131 37.7745 47.1708 31.0140232591
18.2249 38.5782 56.0307 29.948435173
20.8245 37.6351 55.7963 29.0396833912
13.7143 48.2168 48.1918 27.2182332219
13.1311 37.8854 44.2222 31.2092665987
12.3812 44.4485 55.7358 29.708369533
20.2203 44.8561 56.6028 33.3183279851
23.6369 37.4921 43.4634 28.486939373
25.2466 1.77653 5.4282 31.1969687408
25.173 5.20515 10.3022 30.3746521312
30.4646 2.7262 5.94657 31.3651743498
25.1448 11.2809 8.35861 31.3440634473
36.8581 8.52118 8.85357 34.7809128522
33.1222 0.353902 9.06401 29.5919891837
35.193 11.0837 13.6954 31.7249399201
29.3041 4.8243 4.41233 35.725821425
29.6623 6.19622 14.8264 28.5428624542
36.3558 3.19692 12.9973 29.9385047144
33.0755 2.9494 4.96004 29.5296864131
35.1012 6.2978 9.09 29.9223855044
34.9027 5.23782 4.67016 29.8545523008
32.0555 7.75934 14.0107 32.9194651671
28.1664 9.36793 5.03733 32.1844208836
28.7993 8.45634 7.90337 31.1981552576
33.3882 6.94665 6.54232 33.5592628473
30.5058 7.12533 5.82227 32.4629079357
33.1709 9.9754 6.41141 28.2606580848
29.7042 11.5853 4.447 30.5346596946
25.9545 1.84482 11.9024 33.8850144053
26.9663 2.14045 9.13021 30.339764787
28.808 3.96885 7.9701 34.5014611328
31.1494 4.37475 9.25639 29.1825144933
33.2824 2.83534 8.14007 30.0092392372
34.9573 1.09415 10.8999 30.5667892095
27.9494 6.38067 9.57493 33.4923164718
27.9634 6.28899 12.3701 27.5803886617
25.7162 8.27147 15.4581 30.5059922686
32.2672 6.84893 9.74011 30.4881824485
35.6663 3.68849 9.0218 28.1203660174
36.3846 8.48318 13.0944 33.8981827493
31.2337 9.58067 8.75086 29.2761432846
25.5531 9.79528 5.95708 27.8013967024
31.5359 10.7789 11.16 27.765030437
30.3921 7.71789 11.6613 27.2978241775
25.9076 8.28028 12.5411 28.9728837055
35.185 10.776 7.95787 32.591987225
24.9809 11.6804 4.38521 29.6770475412
28.6875 3.05335 15.2216 32.4929199861
34.5604 0.638452 5.25642 33.4347923083
30.8773 2.89894 11.5798 29.5793729644
36.506 4.34323 15.6531 34.1644297386
31.1827 0.302281 11.0854 28.904715682
32.8696 5.35402 12.509 31.0176278309
29.2963 0.162799 13.8191 32.2396733143
34.4188 10.6177 4.03909 35.6718541329
33.5937 2.03315 13.4131 33.0620573621
31.4334 3.91175 14.7624 29.3562426342
28.2148 3.5772 12.6409 30.4272037434
35.5982 5.98205 12.1903 31.08708823
28.6169 11.5589 14.0986 33.0493283546
28.2203 9.75651 11.5805 27.6847471474
28.6667 9.06347 15.9217 31.7248100707
32.6007 10.8053 13.6103 30.587797519
27.8205 11.0417 9.17701 27.5090569345
24.7212 2.9088 7.77795 30.6096240599
25.1505 11.0057 11.3967 32.5591846441
26.5425 3.52641 3.71274 36.0788534427
33.8956 11.9021 10.2122 32.8762169628
25.2154 6.06586 3.4572 35.5832410993
30.4444 4.94197 18.6992 30.0996333223
36.8563 3.9539 23.4155 34.5307463681
28.7645 4.06289 21.0008 28.9550097007
29.408 -0.061442 16.7579 31.6803995125
33.7349 2.72838 20.7797 25.1440297445
32.7404 4.0265 17.1765 29.3011777556
28.2484 6.06448 17.357 26.4653963816
30.7154 10.923 17.5048 28.1546510795
28.3686 1.72325 18.7093 28.8442530396
31.0638 7.93458 18.752 27.5738781746
31.9601 5.81485 21.2 27.2632343195
33.4866 1.70303 18.1945 31.5860927656
32.15 8.51427 21.5046 27.755956648
36.3847 0.948098 17.7802 33.0887089357
28.3407 8.96309 18.8086 24.9581471161
26.1161 7.1774 18.946 28.7161623093
35.5211 7.57634 21.3597 32.8834221268
24.8889 1.53568 18.4542 30.2979031461
29.419 9.62296 21.259 34.3711546196
34.5938 10.0761 18.2589 34.8008899545
26.9655 11.2822 18.9204 26.446136577
26.8617 1.55186 21.3647 27.3964578082
26.6455 1.86353 24.0288 53.2821719356
24.9074 11.2319 20.6534 29.6093460004
31.3951 2.39718 21.9703 26.7113575019
29.2176 2.48864 24.5066 104.9145472177
34.4366 10.3946 21.2494 28.7618711821
34.2157 2.97131 23.8987 62.7044195299
27.3314 6.20769 23.6737 62.5051478585
31.4872 0.615524 24.3964 77.3904401883
29.7772 4.87808 23.4907 39.2532632959
34.6236 5.27212 19.9764 28.1595380391
27.2184 11.0157 24.3343 96.065799175
34.6857 5.8621 17.2815 35.699273378
33.0069 5.86395 23.9413 70.9158493649
26.16 5.33748 21.0936 31.585428864
28.467 8.72723 24.0618 68.1529981929
32.3987 11.4638 24.5439 112.3328146765
31.4318 8.59084 24.3125 86.9776146658
35.1171 7.71287 24.0501 62.7556776505
30.4386 0.571503 20.2224 30.0329941613
35.2026 0.356716 24.4054 93.1532161803
35.0402 10.7023 24.1263 68.0104626304
33.001 12.2526 18.1406 27.5016106756
26.5844 3.85571 17.3046 29.7284415545
24.6201 10.431 23.3484 36.2835227479
34.6969 0.162123 21.581 27.587880834
32.8782 8.18257 16.9542 32.1074245879
29.614 6.03491 37.3079 32.9199693847
31.1802 1.01668 41.4687 29.2792456452
35.4746 0.355409 38.6415 27.4822959319
27.5683 3.44575 36.387 54.2276590832
30.1645 3.8935 41.6182 30.1869302715
33.8387 2.79189 35.6904 70.9241908356
33.3264 2.65736 38.3643 27.3356941326
36.3069 3.82035 35.6172 81.7663963408
25.1965 5.03041 36.3535 41.0119276942
27.2256 11.1652 35.1988 118.9282887436
32.2718 5.4244 38.3576 30.6622386557
31.3034 11.3258 40.0538 35.8979530656
31.0823 3.25844 35.785 84.9689657545
30.3225 8.6376 35.7797 86.8762659443
33.5646 6.3442 36.1045 68.4925284627
33.1982 9.24409 35.9102 96.4261512311
29.1255 11.3692 38.699 29.3722164488
29.7427 11.2722 36.0703 37.7918215767
27.4464 6.80236 35.7902 95.0113864503
26.0733 9.05638 36.1649 36.9690608507
33.3486 7.44622 40.2639 34.4061814496
35.7839 10.9477 39.9751 27.8260487596
29.9364 11.4701 42.6095 31.3441153082
28.44 9.07153 42.9439 35.9240462566
25.1361 5.86229 39.0758 30.8344607993
35.6672 10.0784 37.2824 35.1673669352
33.6451 10.1149 41.1977 29.1208513606
34.7529 3.83669 40.483 27.80057675
29.4182 1.03377 35.7137 91.514649925
27.0347 1.16581 41.368 27.9413496969
26.497 5.41777 42.4807 31.3628389298
33.7948 0.398682 40.9327 27.5899559201
26.9284 7.89821 40.2883 30.9960764781
35.4883 6.5979 41.5707 25.7542642213
28.4211 5.45897 39.8759 30.235627365
35.7071 6.92399 37.8069 28.508349409
31.9306 6.13956 42.6437 31.4544987098
26.6204 10.0456 38.6498 30.1060430398
28.1075 2.76443 39.0665 29.4650429718
30.612 1.58643 38.7108 29.2931775469
24.9256 3.42066 40.7118 28.4800744217
33.5855 3.91997 43.022 29.4483030031
34.8744 0.205664 35.8215 63.1439117906
31.6419 7.97418 56.3566 30.0105015553
32.7096 1.22191 48.6794 30.0687753608
27.8668 4.90208 46.0126 30.2130473798
32.6922 4.0549 46.3148 29.08381848
29.8316 4.22545 48.0588 33.4219811016
30.025 0.566633 44.1635 32.0192819494
34.4565 1.80359 53.8083 37.3713784937
29.537 9.43265 52.47 40.5985207509
26.9334 7.27712 47.0747 31.1802481577
25.4636 1.40025 43.7834 29.7368685328
32.6582 6.61677 45.511 26.7075850171
30.3649 8.2632 45.4519 28.3202179032
30.9843 4.7243 55.1182 30.7941180699
36.2063 5.73187 52.6112 31.8060083735
35.5108 4.22723 45.303 28.6012403776
31.9643 11.0968 53.1971 34.3516270075
24.7746 8.74254 45.6537 28.8224743036
28.8526 9.23782 47.5028 28.253400422
26.255 10.9725 47.074 27.7474673357
31.7555 10.5643 55.69 30.3267294706
34.3549 10.5023 43.7329 29.4863364907
35.9062 11.5388 45.9109 33.0610016871
25.4326 2.95714 50.663 33.6074086772
28.8598 1.43449 48.4586 30.0730206384
34.7772 7.76939 44.1939 29.8157390785
28.7791 1.24774 51.2529 32.5426544069
31.6513 1.73572 51.1338 31.6307287307
35.0553 2.83356 48.3318 34.9935415607
29.3182 6.31265 43.7771 28.8721031758
26.0496 10.4258 43.7152 29.5957566646
34.0676 9.86089 51.7645 38.1419771307
26.3655 6.99733 49.7771 34.0863551927
29.0639 5.87937 50.1362 29.9320533984
32.9624 4.91853 49.1052 27.9285904823
32.1773 7.45661 48.1166 29.5762330144
31.5042 10.9738 44.6461 33.9788799737
26.003 9.88377 49.9911 30.4039397734
30.0802 8.21531 49.5134 34.4330689023
34.4318 9.03549 48.8674 32.851175759
34.07 11.5477 47.872 31.4374652164
26.6624 1.77889 54.7156 33.923493307
27.4103 3.26178 52.6676 35.6578430154
31.9628 4.31532 51.5714 31.2095297657
34.229 6.9132 55.86 32.0700307262
35.8524 5.54258 49.6993 31.0789729449
25.5373 3.70391 45.73 28.9563024558
32.6535 1.11138 45.577 34.8520987769
27.2548 7.9829 55.7512 34.7925783625
29.6283 7.40178 54.4321 32.9569975558
29.5771 4.8171 52.6358 29.2265145335
33.5364 4.81987 53.8981 32.1252181534
35.6317 8.12653 53.4704 33.477701973
25.4308 8.99081 54.0919 32.0744064065
26.7092 10.5087 52.4719 32.3672527858
36.4795 11.2218 52.3542 28.8049430703
36.6941 7.76319 48.1697 29.8698247748
24.683 2.71087 47.9926 29.1165820949
34.7694 0.849723 43.4491 27.8210832577
26.4598 0.637803 47.3599 30.0820338986
32.1785 1.99403 55.7123 32.2740506914
28.2422 2.74828 43.4373 29.7565647887
36.0382 23.1297 13.1023 26.768076707
31.0749 22.3156 14.4848 27.9973381082
28.2642 22.0278 15.2197 32.872197048
29.3009 17.4269 7.66801 30.4444445965
28.8652 14.4167 4.75377 27.3196253549
34.304 13.6707 4.54068 31.0804111417
31.6947 15.2104 4.59224 27.8673708907
32.7169 16.2165 7.14799 29.1904498466
30.6344 22.4845 11.7311 23.7576271945
30.0667 23.2885 8.92197 29.2577620991
27.468 20.3985 10.5598 28.555946556
27.0371 19.1114 7.26502 26.3129505422
25.0084 19.0234 11.9191 30.2722983668
32.008 20.6505 6.63848 26.4284667832
35.4864 18.9777 4.37297 32.5113961624
34.9413 17.6834 7.01095 28.7883510754
27.5022 19.6094 4.27135 29.0108068649
29.3288 23.639 3.97328 30.7609849733
24.871 18.3283 16.4964 30.279034302
32.5499 19.672 3.9123 32.0005410271
25.8024 22.227 4.79161 29.1239888447
27.8205 15.1391 7.17006 28.4461513434
26.0793 14.5582 9.34601 28.3838693179
26.8012 13.3252 11.7083 27.9829409581
29.5216 12.9124 11.0254 28.9306297092
33.1015 14.5509 9.56942 34.5770845868
26.5412 17.3383 9.8908 30.4147643832
31.3216 12.4406 15.0788 28.9308315684
31.8328 18.672 8.69487 27.2999352316
33.2134 22.8777 4.60029 27.3852351151
30.3779 19.7803 10.7586 28.6616606149
34.3204 16.8281 10.6097 30.450264241
33.2784 19.294 11.8555 31.1358210675
34.4379 20.346 8.76429 28.4745768132
35.8667 20.5527 11.8081 27.5436260739
27.9354 22.5889 12.5245 33.1162802889
29.617 21.2256 5.49411 30.0902801441
36.8146 16.9365 8.90213 26.6641617642
33.3344 22.3715 10.8496 26.2415113137
33.1293 18.8356 14.8167 31.1026986644
33.4583 24.2718 13.1353 26.3283105536
32.7698 23.1436 8.09309 26.3217561727
25.105 17.7126 5.15453 29.5595331254
35.3328 22.485 6.50066 28.0070477713
27.1078 13.9574 14.4359 31.7988706191
28.0062 21.6526 8.12728 27.6863101942
33.9993 22.678 15.765 30.4281434745
29.043 15.7077 15.6313 27.6049270737
29.0536 17.5833 11.7314 31.2031965267
31.1434 15.1252 14.1904 31.1806248826
30.6826 15.4084 11.4146 34.1841455236
31.875 12.6767 6.05198 28.8318724069
30.714 19.7452 15.4278 28.8107459643
30.5725 18.0332 5.21419 27.1445585146
26.369 19.8375 14.6234 31.7994287015
36.0408 14.6874 6.44366 32.7771591078
28.6644 18.1498 14.3749 31.769345211
35.7011 15.3222 12.953 32.4799993821
35.7453 20.5703 14.8432 29.2448880608
29.7059 12.7131 7.71549 33.1661126463
36.803 22.0776 9.44287 29.6875657649
33.8907 15.9158 15.106 28.2966189633
25.2393 15.175 6.15904 29.237270568
26.0021 23.6057 7.44611 30.5229479776
36.7011 17.6234 15.7718 27.4433659086
36.1649 12.6708 11.7265 33.0608445825
27.0763 13.3206 21.7167 28.0252163161
29.583 12.3762 20.4547 28.4025425283
27.5328 17.185 21.3618 26.3904241471
29.8506 13.8331 17.8848 28.1056193737
32.8336 24.3387 21.3868 30.3164177718
36.6221 18.1101 20.1244 29.8183741032
27.3265 14.7943 19.0718 29.0684872735
29.9494 17.5665 17.9974 27.48850135
31.5907 19.6496 18.303 27.5128194826
36.2996 14.5698 21.3006 31.507257062
33.8354 14.8349 19.8383 24.5757736175
34.4016 19.9255 17.5971 28.8062113722
35.1601 17.0144 18.1745 26.7598750187
31.7918 22.1824 18.5583 30.9491221049
27.6724 20.3974 19.0865 29.5111139044
