3.51498 6.66003 52.6523 28.3291381262
4.77762 9.2612 51.7932 30.1551650549
7.6317 9.21046 52.3501 25.1556587895
4.17281 4.00577 49.1669 33.6071310789
7.21281 7.03686 50.7688 29.8597438406
10.3192 2.3702 54.5722 29.6501161228
9.40039 5.16724 51.7272 29.6746369848
3.00503 0.103106 56.1564 28.713289543
11.648 7.14566 55.1084 29.6905002978
7.97578 11.8233 51.4632 28.812272888
8.63146 3.67591 48.0689 29.6952613935
2.28797 11.7638 43.397 29.870382734
7.09146 10.6282 45.1389 28.4200925624
4.12983 5.01154 43.6251 29.1021810562
3.97964 10.6805 54.1327 32.0443237897
-0.0496101 5.81296 47.2611 35.218005927
3.45378 1.33968 53.6602 29.4135748829
2.12103 11.5125 51.971 25.7259623208
11.682 6.6766 52.1088 27.8018592572
8.52237 2.48662 50.4459 27.7266125928
3.6666 7.78902 43.4207 31.5727048933
11.1309 3.26588 46.9355 28.933913931
8.40588 4.0838 54.6479 30.3131560123
10.5579 9.59982 51.4711 30.8641161804
7.94285 10.6683 48.0806 30.3111831811
10.4701 1.5347 51.9088 30.4274370176
10.7195 11.3903 53.8401 28.5359341507
1.44538 5.68354 54.6333 25.6060067708
6.27484 12.1308 54.4639 26.9083030722
11.7975 0.613345 48.7229 28.5850538579
3.85525 5.26748 56.1878 30.6240905576
8.51181 10.7964 55.2972 26.7043160045
11.6983 0.529646 45.5822 27.1031583463
0.146793 9.27128 52.5508 27.8921952401
8.0814 5.50602 43.5031 30.0082574347
10.5084 3.61688 43.6762 26.8464328825
8.71462 -0.0298689 48.9507 30.7576058367
0.181449 0.407472 49.2213 30.2607258864
4.90031 12.3165 46.4321 29.0156513183
8.9433 0.609489 56.1139 30.5262269162
10.1344 24.4152 10.4124 32.7374353532
5.99112 21.5165 16.3897 25.6353468226
2.99915 16.6515 5.62601 29.9910709237
9.42916 12.7061 4.4461 28.9123383884
7.62096 14.283 5.92797 27.8880270455
5.54447 13.1832 7.93478 29.6033565178
0.727912 14.7624 12.2019 28.3380519346
12.0064 19.3009 4.09694 31.1620290025
1.67735 15.2525 7.50927 31.4044766833
10.0294 22.3667 12.6927 31.8663087991
7.55141 17.2236 5.46261 29.5706109147
8.64117 19.9708 7.74022 33.066264439
10.1768 22.0832 6.5479 29.2973855232
3.93471 18.7361 15.2559 28.3758200476
1.4615 20.7045 7.10114 29.2613501615
8.53214 17.6088 15.8704 33.2069394878
11.9877 13.3353 7.35598 28.9498176464
5.5938 13.2875 3.83838 26.7551579315
6.56478 22.9463 9.66732 31.6780491367
11.1441 18.3078 14.3721 32.5681051936
10.4221 21.9254 16.2525 27.7710240623
10.6494 16.8745 4.24531 29.019290533
5.82694 20.9466 13.5366 26.4769664347
9.16444 22.145 4.01969 31.3385118597
0.853131 21.6789 16.4273 30.1047349376
4.11149 22.0629 6.96097 32.5158644197
8.26658 14.4828 12.2309 29.6489717764
2.75 15.845 9.92971 30.042293177
1.04135 18.1369 11.2684 27.5379906973
9.64195 14.6803 8.07393 29.885346158
1.0232 17.0753 14.3004 28.6531357248
2.81142 12.7977 7.23563 29.1897160815
8.74208 16.7166 10.1495 27.3626790049
9.77905 17.5229 7.26323 26.1639367882
5.42736 16.0173 8.94062 31.4752332198
10.7455 17.4632 11.717 27.3895154432
3.69325 17.8249 12.5706 28.9593677339
8.6696 24.3007 7.97202 31.8121823016
5.14766 17.9146 6.73167 31.0986333835
6.34836 16.9194 11.4383 25.2069139596
9.42034 20.0767 10.5954 31.2235651856
5.77552 20.2362 8.42621 27.7291522998
4.90509 23.7012 4.53136 29.6392484391
1.20217 18.5656 5.32988 31.279701806
3.56857 13.4216 11.5924 29.600465637
0.767829 22.5234 11.0665 27.8260331506
3.76464 13.2988 14.3315 30.3698091834
1.97604 23.52 8.6478 29.6665617071
6.79462 19.5405 11.1217 27.7080631629
6.38648 14.1309 15.0261 31.2360930217
3.57679 19.9397 10.4151 32.3774469642
2.46673 12.1497 4.46942 28.2210883712
11.3075 14.385 12.7968 28.2646117933
1.12134 20.2889 13.89 31.5030036906
8.69261 20.6926 14.7735 29.4618099358
6.56077 16.5755 14.1837 31.7698223256
6.15844 12.5171 11.0247 29.762595603
6.98667 23.3384 12.5884 26.4715075012
3.36084 21.9489 12.7099 28.2045785343
0.343249 20.128 9.52205 32.4760544313
1.9213 14.1683 16.1261 30.9732462914
3.53099 23.3587 15.1006 30.2411364686
6.01697 19.171 3.72464 32.5746231169
0.260943 24.1707 15.6343 29.9245354071
9.88426 12.6643 10.1471 29.9962107083
2.45596 22.8957 3.60418 30.4402585378
6.97066 19.2585 17.4083 28.9651704823
11.8775 16.0446 23.7188 37.62313475
1.10909 14.022 20.4269 30.9138703369
7.47574 16.0396 21.8427 28.3992210846
7.16794 13.833 17.7493 32.9609126413
5.05206 13.7133 19.6896 27.6725563246
2.53442 17.4637 21.235 27.350865555
2.78281 12.7856 18.4069 29.273644702
5.1063 17.4967 18.9 32.7908811469
10.751 12.5553 21.7072 33.4557021897
12.1321 16.8295 20.9441 29.4379606078
1.70191 24.0294 19.5823 34.0610000467
0.14908 16.7238 24.03 66.8911462978
1.5315 21.3767 21.1242 33.7303190837
8.04722 13.5549 20.7831 32.4380309622
11.9897 20.6316 23.7974 41.2389537914
10.727 20.9593 19.2723 35.267299153
4.04494 23.2951 18.6243 27.0154236893
4.16575 14.7089 23.8058 52.7522773592
1.49335 14.2563 23.2638 32.6501622171
4.90318 15.9419 21.147 24.8387210956
7.38783 15.2828 24.6171 82.1549294679
9.19671 12.953 24.5655 97.8406714258
3.32428 19.7054 20.0247 23.8729062121
2.56991 18.239 24.0245 62.3522321619
1.81503 20.925 24.0797 69.8025746463
5.23155 17.4522 24.3345 78.9789686092
6.47365 19.6526 23.7918 38.0312112326
9.54844 16.9722 24.5002 81.4851792065
8.37597 19.5504 20.0139 32.1678927143
9.40697 17.049 20.1142 31.2575530605
12.282 13.2346 23.9708 63.6138853322
3.30471 23.2225 24.2124 70.4591897195
6.09052 22.5927 19.9717 30.8117218177
5.95411 22.3849 24.8028 135.8633610819
9.4399 15.559 17.7969 35.2706528415
5.76079 20.1388 21.2003 30.7428080402
9.3432 19.6127 24.0621 72.0353303814
10.9434 23.3547 20.4473 28.2239567623
10.6679 23.146 23.1893 40.6943693476
8.0061 23.156 17.5726 28.2756895832
12.1236 14.4306 16.9083 31.7585208376
2.76709 16.8843 16.8079 31.0683626421
1.00348 18.0233 18.5185 30.8423802404
3.30081 20.7743 17.4264 26.3448677809
0.400149 18.7137 36.4933 32.9441316808
0.406022 17.4653 38.7819 28.5986048735
2.87163 17.1916 39.628 30.1972628213
4.57541 18.909 36.286 49.3757368663
8.76416 17.413 35.4142 127.8502038254
7.01666 17.9687 37.344 31.1316049483
9.37661 14.492 36.0824 55.025048447
11.8079 12.6776 41.0032 28.2502206883
5.13361 20.345 41.2647 27.2168640626
1.14146 21.2825 35.8389 80.7194380718
3.26998 21.7566 42.8289 28.2241056533
6.99828 22.2541 40.921 28.7101738835
4.01854 21.4208 35.713 84.6703286485
6.3924 22.7332 35.9121 62.458474666
1.45786 21.2679 38.7762 29.7644424
8.99302 21.9882 36.1658 48.2527306164
10.5866 19.5648 35.6297 78.7321641226
10.8389 18.5235 38.2957 28.1392633159
7.86815 13.1768 38.8031 28.6154772257
3.35497 23.1453 37.8236 27.8198821395
0.650182 21.7974 41.7577 27.5091588736
0.966891 12.7518 38.5936 28.2661867641
6.66708 23.8707 38.7014 28.693227026
1.30867 12.8949 35.7729 65.6113641216
7.44983 18.7338 41.8995 30.1174514383
5.378 12.4276 35.4749 107.0431379766
11.4187 22.221 40.2429 29.9425656029
9.84473 15.9955 38.6812 26.9206075995
3.78874 19.7829 39.0484 30.6931599379
9.14909 21.9087 39.0329 27.320218866
6.27979 16.0561 41.5957 28.9814115805
6.73201 15.7916 39.1031 27.4983904055
4.0141 24.0473 40.939 30.3808643914
4.06476 15.0916 38.4161 29.7154282657
5.05921 13.306 42.3494 30.7498841976
10.9004 23.8985 35.7125 74.8147837946
8.37994 19.1772 39.223 27.1725007139
3.44301 14.4536 35.8314 61.4750276781
10.3728 18.0556 41.5506 29.2893698569
2.49672 17.1014 35.6098 103.5358454666
3.20503 16.2236 42.3544 32.7653045312
10.0762 15.1501 41.5519 27.9934140139
3.70048 12.5272 39.6583 30.9211156018
12.0218 13.7837 35.9422 83.0388783632
9.81018 23.0709 42.441 31.9249473408
0.391667 12.7671 41.6935 32.2715023333
0.663046 23.5057 45.2616 29.6605333702
0.512718 16.1799 51.3824 26.7192891597
9.07428 12.8809 45.826 30.3587853467
11.0671 12.6858 43.7964 27.1896963487
10.8833 18.8614 44.2942 29.0859260934
9.37629 23.2852 50.8756 30.5310385537
2.42048 17.9926 46.2437 28.5802226592
3.52981 15.1552 56.147 31.4599787295
6.15807 19.3079 44.5007 28.7227764931
3.93956 21.7019 47.3394 31.6490043632
6.8757 16.9448 45.2461 28.7457973731
1.85318 21.7966 51.8606 30.808084513
0.00717261 23.7639 52.4949 29.5442199287
0.613711 15.3027 45.7496 27.4808908378
7.57156 15.2517 55.7349 26.7538434275
7.67918 21.0318 46.2571 31.7994408461
9.64656 14.0787 52.4398 25.4717931894
3.44173 22.6699 53.9658 27.8814509512
9.33761 17.5038 46.1835 29.8183973513
3.41771 15.863 50.9816 26.0679443761
1.01032 14.1507 55.5422 30.8886481275
2.98793 15.7789 47.9899 26.1030117713
2.12442 13.1719 48.7324 28.7162120789
7.94711 15.1411 49.4859 29.5067220257
0.0127289 17.734 53.601 28.8313110573
6.00303 15.425 47.309 28.8365394845
4.46036 16.2691 53.6787 29.8060257892
3.58057 19.0575 51.1521 30.3529340348
8.03736 18.5468 50.5837 31.29562656
4.95835 19.138 47.2674 30.4623323261
0.2394 16.4643 48.4508 24.0618304483
8.81682 19.3114 47.8354 29.1734193676
1.76062 22.0193 48.897 27.5314911714
9.82209 16.6947 51.4613 28.0102061529
5.40287 23.6869 49.0085 33.5678085628
10.5587 21.279 48.6862 30.89398574
6.95843 17.7364 54.6322 25.3000475747
3.33188 23.2809 45.0778 31.7784383282
11.5775 23.2181 47.0389 31.0132955717
10.1486 21.3698 45.0284 33.4261357551
3.43576 19.0661 43.7197 29.6370457196
10.3928 14.3405 55.0644 26.4920004949
0.58071 16.7139 43.3883 27.5969707758
11.6 24.3066 44.1223 33.2319100114
0.828676 13.6511 52.7439 28.580782055
9.7046 17.8269 54.3123 27.5156537472
9.98615 15.0459 47.3682 30.9806699451
6.58895 14.3756 52.7746 28.9731056337
6.00997 19.3161 52.6854 27.6689046678
10.4576 20.6694 55.0269 27.7130173352
2.90701 18.8531 53.6828 29.8621892756
5.67715 17.3744 49.5475 27.8051271117
7.52866 23.8269 47.3218 30.7262239873
9.11278 20.9015 52.575 33.1528731734
2.9354 19.995 56.292 33.9308597553
6.25544 21.9052 53.3833 28.7958268816
6.69666 23.9038 51.3294 32.2728134838
3.24734 13.8995 44.7983 30.7026144521
10.6714 24.2717 53.1509 30.3109070723
1.09942 19.0534 49.4579 26.8032644664
11.5761 13.1205 50.6283 29.1909544999
0.198214 19.5818 43.7906 28.5887270507
6.24129 12.7461 48.8554 28.206145866
4.27785 13.2505 50.9003 29.8656637387
12.4924 15.7107 43.4451 31.0915271834
6.68026 21.8465 55.9898 28.9822722898
8.00853 14.5818 43.6264 31.7995455396
2.27854 31.7955 9.51263 33.1733038593
10.9944 24.9274 5.53977 29.1062392321
11.1449 32.3984 13.1975 27.950779743
0.798088 25.5712 6.45183 32.1219611572
7.67856 30.069 7.11192 30.9197779203
3.62903 36.4711 7.3428 34.1047918299
4.07333 27.7703 4.22064 28.8025914145
6.91501 27.8007 4.82333 30.5149258738
7.15234 31.0688 9.6695 31.7830527928
4.09822 24.7468 10.0373 26.8039614573
10.271 30.3634 7.33071 29.879118839
3.46737 36.6539 11.4478 31.3576996006
11.1447 32.5975 5.68752 30.7826988752
7.16463 25.389 16.7059 29.2195045906
6.21119 27.6248 13.6474 28.4269451653
4.20338 32.1549 6.1852 32.3218149853
3.40905 34.6439 5.39191 31.3543438141
2.0045 25.9586 14.4278 27.8274175593
9.07496 34.2263 5.70608 31.3203238481
9.59279 36.25 7.55441 31.1733429457
10.7017 29.5512 16.3872 26.8262519031
1.25029 34.2926 3.35742 29.6240585625
5.29989 25.0116 7.2271 30.0501283078
10.1705 35.23 9.98246 29.0627236729
10.8163 27.8606 5.67313 26.8887408827
3.29703 30.5632 11.843 28.8256390619
3.39108 27.0844 6.55374 29.2629506785
8.60172 27.0486 7.24725 28.3590048965
6.96154 35.7081 14.9191 27.0081433958
1.86748 26.3648 11.7059 30.6545067055
8.45729 26.5385 11.5753 29.1660051784
2.00818 29.5754 7.51163 32.3021221379
5.8441 29.3879 11.2669 28.7447552593
9.30744 32.5084 10.9709 27.814577105
3.48834 27.7644 9.41437 33.1998418064
2.26308 36.5401 14.6143 31.6449145024
9.31346 29.5638 12.0801 27.9291509847
4.81571 25.1717 12.8669 28.4137022962
0.202605 31.4151 5.91425 31.3182301654
1.92308 34.5513 12.4581 29.1148532455
5.18874 35.3026 9.3736 30.1413755757
4.86505 32.6902 8.64974 31.6892271766
7.03067 33.8507 13.0321 29.0754234958
11.3991 29.2641 13.9082 30.3231046936
0.481171 27.6345 16.8956 30.7839024916
2.36425 30.3335 16.0676 28.937414156
11.5571 31.6822 9.70932 30.8845296277
1.42269 29.1443 13.409 28.5986808418
7.09727 32.4153 5.5734 32.0032756475
6.40563 27.0393 9.62373 30.1530482293
8.68272 32.5036 14.7067 30.1795526683
11.3106 36.6801 12.0081 29.3390409062
10.5431 28.2418 9.70159 31.6687492996
8.04812 25.1646 13.9713 28.0535353849
3.60011 27.9403 15.6106 28.0327565861
1.22451 32.4731 14.2843 26.8888274525
4.46474 32.735 13.2079 32.6197729972
7.83325 29.6958 14.6678 29.7056390022
7.54637 35.7127 10.8833 28.8622076605
5.01787 30.6017 15.0376 27.8192725648
11.0618 24.569 14.442 29.702444797
10.9226 36.2279 14.7472 29.7606816474
0.648296 35.9031 24.1529 90.818048397
3.49399 30.7419 18.9475 27.9194830383
0.638762 35.5514 21.2959 28.8614414767
7.55357 31.3122 20.2168 25.5583812645
4.59985 26.1691 17.6898 32.3326970715
9.2187 25.3729 19.6704 25.2884598869
11.8952 28.5186 23.9887 55.2339849489
5.94128 30.9532 17.5914 28.452571469
3.86878 34.2415 21.3148 28.5181726418
9.72693 34.211 21.2591 26.1789559137
1.38634 28.7527 19.2673 32.9188401111
0.505581 32.3458 21.1169 28.3476781851
2.27327 33.2163 19.1551 29.0879798659
4.55744 35.1116 16.6779 31.3315911298
6.83166 33.979 17.6671 27.917435653
6.69798 34.4102 20.3823 30.1890793615
10.335 34.1562 18.5205 31.8886865692
2.06205 26.3936 21.1718 28.4192025624
5.27777 26.772 23.9895 68.0592695482
2.58314 25.84 23.8617 47.4123754828
5.2025 26.5639 20.4743 27.2315540645
7.01728 24.7366 21.1301 27.5474088575
9.41014 25.6349 24.3224 100.0204065311
0.179316 28.4408 24.4253 84.8091202673
4.07847 28.8974 21.344 26.4382005172
2.72466 29.748 23.8312 58.2252615154
5.28144 31.4633 21.5361 27.0573484301
7.98217 29.0249 21.9768 28.2608317537
6.05276 29.471 24.1177 61.9967479326
6.98528 28.4638 19.0401 29.3486196593
8.91352 27.4912 17.5794 29.8805132681
9.65266 26.8491 22.0495 27.2141502686
3.28083 34.3307 24.1675 85.9833242539
1.37926 32.4073 23.8405 52.9754658891
9.19907 31.6915 17.5175 29.4338167023
7.84775 33.8076 24.0127 57.8979124033
5.56769 32.3935 24.3822 90.8903451704
10.2542 31.3908 21.4925 29.7393258059
10.2235 32.2343 24.034 64.4764971261
9.37084 29.5464 24.673 110.5966654632
7.02172 24.7726 23.7535 33.2092285506
1.71522 34.2744 16.7285 31.5537627559
8.96504 36.1218 17.0919 30.4533585527
11.6927 24.5463 17.3954 28.2003863123
8.45374 36.3691 24.1763 70.0731348018
11.7734 27.2861 18.3623 30.0870113195
12.4803 27.6513 21.1986 27.174136028
0.182178 32.807 35.728 81.0595417691
1.32121 24.6443 36.2205 53.5593858837
6.59686 25.6392 35.4223 86.6150061568
6.47706 27.9144 38.4261 27.8219149135
9.03457 25.7145 41.5742 34.6952568725
6.19498 28.6255 35.7211 67.9318278238
9.67923 28.9679 35.6318 84.1463902292
8.97123 34.7645 36.5185 35.5672700518
3.83375 32.244 39.204 26.5887184123
2.93315 33.8748 35.6668 97.6050460177
6.73858 32.2293 39.1198 28.0446196056
4.50151 31.7611 36.4411 32.3278314179
1.36677 27.1405 38.2572 27.0807161614
7.01923 32.4719 35.5645 105.2381480019
3.62156 26.2238 35.6008 85.6168864523
4.12966 26.1764 38.4055 26.7196788152
9.67714 34.606 39.3159 29.9815383061
10.3104 32.3663 35.8944 67.5225612391
0.727374 31.922 39.4057 26.6395076347
2.49749 29.8502 41.6886 27.7928137741
4.83164 35.8529 36.1332 54.1578023482
6.50724 34.9308 37.9757 27.2325154252
3.10442 29.2029 35.7761 65.3564129057
12.2505 32.6129 39.4178 28.5591722716
5.86981 29.3434 41.0319 33.2207035084
9.2912 26.2912 35.7531 56.4862227065
10.7061 30.7932 41.5043 33.4641521333
6.58549 31.4704 42.9824 29.8028639952
8.75021 25.9106 38.6751 26.0159401743
9.56876 28.8773 39.3262 30.5404328922
1.30951 35.8046 41.9875 30.0682517737
6.56837 24.7334 42.2197 31.3858045893
5.00365 27.4044 43.0371 32.0155357991
11.3462 30.4392 37.6175 25.4413496017
8.60139 32.6689 41.1417 28.3167439167
3.65528 29.2227 38.8127 28.1204999392
3.74115 34.8039 41.25 28.2044397998
8.01777 30.7106 37.2206 24.641331108
3.09832 35.4822 38.7451 26.7278970481
8.91033 34.6126 43.1148 33.4824698547
11.3526 24.847 38.5674 28.2230911959
1.85826 25.8743 40.7352 26.3406572441
0.699742 30.0529 35.6649 75.5910526996
0.705183 34.2143 37.9062 28.3829492319
5.78532 35.9541 42.7825 29.3274415796
3.99075 32.3107 42.3227 28.4982180706
9.14953e-05 31.1902 42.3668 29.8754783422
12.1031 27.5145 39.2925 28.7415939107
2.2113 27.4278 42.7056 28.0831999731
3.65776 25.9593 45.439 28.7413398049
9.80015 24.7255 48.5458 26.744968095
3.94486 30.8107 46.6262 28.35035776
10.9331 31.4262 55.7642 30.3671625688
5.03481 29.9142 49.2622 27.1121701038
9.55827 27.0601 47.307 28.3715876936
6.01516 34.0077 44.564 31.9052116109
1.55933 24.9073 48.8924 28.9601547754
4.36477 32.1264 50.7416 30.8635254784
9.57343 26.5329 44.6308 29.9792990889
4.20358 36.135 50.9067 28.2829698956
8.5577 30.4518 46.0615 27.2329418205
6.83901 25.3937 56.0104 29.3454531753
10.8313 29.5753 48.1566 30.1174907705
10.3075 29.225 43.812 34.995767496
4.54588 33.6845 47.1774 27.4184441067
9.01243 32.9936 45.5009 29.4373280606
2.26875 33.0321 48.5342 29.1612935023
11.7368 34.3507 55.2701 32.0999839978
8.04121 30.8116 56.1003 32.4597588838
5.93301 36.2443 48.5512 29.7770089338
4.39339 26.0738 48.3092 26.6767783551
1.60141 28.5949 54.3009 29.0876887449
5.22434 27.8394 51.3706 27.2921595104
5.22952 34.9081 56.177 29.7608772458
7.6838 28.06 49.9358 30.0178804793
11.7792 34.5055 52.4237 31.6334023377
7.68886 28.401 55.0613 24.5957179377
2.41738 28.344 48.0679 28.3104859483
2.58527 27.0002 50.966 28.6112342153
6.75587 33.1219 49.0761 26.1857100468
7.84433 30.5657 48.9901 28.4042043957
9.15827 28.21 52.4729 34.0262143174
6.05186 25.8205 53.3058 28.4485460728
10.8776 30.5248 52.9627 29.6754560665
9.0926 34.6145 48.1349 37.0571418858
6.66981 27.6531 47.335 25.2548409407
2.30365 31.3227 44.5807 29.9946163201
9.54802 24.7603 55.7003 28.9124452208
3.90519 36.142 53.8934 30.8866681966
1.65882 34.6463 50.859 34.8845757705
7.24789 33.4732 51.7028 31.0024069339
6.78918 36.0789 52.0825 33.4366168448
7.01783 25.5926 45.2048 30.3342659318
11.0746 32.4702 48.6718 27.0168408864
1.04758 35.3412 44.8674 34.7178490625
3.53423 25.1691 53.0178 28.5789352947
0.351603 28.8057 44.7376 27.5545826648
0.724981 33.0817 46.2903 33.0466916733
6.56672 32.9863 54.5816 35.4932443323
11.8282 33.1984 45.1174 28.9673268003
5.31075 29.0996 53.8568 32.3595371016
11.5163 27.0292 52.7435 27.4394700161
10.5263 27.4313 55.6307 27.0530570897
9.90716 32.4012 51.5578 32.6736284826
1.08822 36.5865 54.5772 26.8406784424
1.43635 32.2181 54.7474 26.7640407811
4.20972 31.8287 53.7112 30.0900255723
1.21273 26.5805 46.3966 26.1183776473
6.12683 29.482 45.3521 30.344686611
2.45284 26.0793 55.5031 28.5229719981
1.05287 31.9064 51.9062 30.0772833513
0.624454 28.8424 51.7971 31.4304556753
3.64273 36.0742 45.7198 31.1037366221
0.902762 30.3798 49.0881 30.9342961282
3.29333 30.3918 56.2472 32.4853133688
9.73239 36.05 56.5101 30.8092567016
10.2472 39.4539 11.5056 31.9244342491
7.06733 37.0655 7.81607 32.0631475068
1.41624 45.9285 11.5896 26.872234785
4.34529 43.2338 5.88499 32.6575567254
7.4067 40.104 4.40689 27.9129783228
12.2709 47.5037 6.37627 30.2935073176
1.08298 43.9302 9.85464 27.2118535242
3.66402 47.4249 10.4184 30.6564016581
10.4408 45.005 15.6662 31.1312188005
5.17753 47.8147 7.78536 31.6333841468
6.7773 41.7992 6.22884 29.6591384151
7.72829 45.7073 5.45516 29.4866495583
0.381964 38.1928 4.13705 29.4169939163
8.97488 43.3501 5.8688 28.1303678202
12.3411 38.8104 15.3334 30.8020548424
5.12826 37.3034 13.4863 28.1396583352
9.05762 42.3449 16.6309 28.1508535584
1.13452 42.7552 3.76759 30.1125543442
11.0177 38.7596 6.96507 31.8687934399
4.31632 48.2167 16.0082 29.6773238064
3.42457 39.1304 9.64264 29.3551929168
3.09921 42.7361 8.46276 31.9941012969
-0.0790155 44.6407 13.5416 31.5110760728
10.3613 40.4966 8.91776 31.2582577222
10.2694 41.0024 14.1476 28.2314384217
11.844 44.8171 6.01732 31.1714780261
0.805313 41.4238 11.3198 28.3484599979
2.9046 45.8425 7.79449 31.681601349
4.1567 43.1809 11.6221 29.7865614516
7.67188 41.2951 8.50608 26.7033127511
7.94463 47.2341 7.66655 31.1449879298
6.8415 42.9369 10.5574 35.0986447558
8.4235 45.0584 9.49808 32.7768952759
6.42759 46.2911 15.3865 28.0068187825
2.11596 42.2443 14.3355 29.7283979107
7.7828 49.1609 15.6338 28.734795642
12.1332 47.0557 14.5528 28.6053774027
4.84558 46.0875 12.3833 29.7774727226
7.23287 47.9078 12.6184 29.9881017971
4.23725 39.8755 14.8348 29.0042747603
5.40627 37.9548 5.50305 31.0618646503
3.3243 40.5773 12.1813 30.9059945697
10.1196 43.6811 8.40293 29.5476668417
6.06842 39.3713 9.25155 28.8657470604
6.87101 40.0871 15.6914 29.0077417899
1.34716 40.7304 8.03492 32.6929500499
7.86252 42.3347 13.4161 35.0380972084
4.96495 45.777 5.23859 30.3137431572
2.45552 38.5228 16.6955 31.3256031692
12.1981 46.8664 11.7546 29.7011379565
4.23846 43.8396 14.5933 28.6734428957
9.55262 46.3621 11.7419 30.8492742577
8.56951 45.1287 13.837 28.6737130014
0.692837 37.63 8.74325 30.8629708741
8.39588 38.2304 14.1155 29.1354471605
2.8743 46.3519 14.5376 30.7658579474
10.0558 39.9092 4.65306 30.3934826789
0.805877 46.585 6.18156 28.3984508378
7.186 38.3668 11.4555 30.4016629761
0.619329 46.4726 16.547 28.0611595782
6.19497 43.2102 16.6608 29.3692716408
3.41177 39.2962 3.73597 34.8735294262
11.4722 46.348 22.2204 27.2104996384
0.304727 46.4151 24.3426 87.4884406968
5.3452 38.57 21.749 26.5212504802
11.8541 44.5264 20.1084 26.9467999224
6.30953 39.1566 18.4306 28.4479399774
8.85232 38.3484 18.8059 29.4195182917
10.6932 40.039 17.5113 30.934507676
5.09666 44.35 18.9119 27.8342577343
11.6707 42.1432 21.481 31.719836502
9.26017 42.9615 19.4016 30.4838255827
10.3536 46.1807 18.2809 31.9427027844
11.0357 37.4917 24.351 75.2245459529
4.24815 37.402 18.3669 30.2962468302
3.45747 48.5734 18.6083 29.2094274072
6.08408 46.9366 18.3759 29.8109387352
11.8013 48.5845 17.6171 27.4181757905
5.11501 48.3457 21.4043 32.0230484879
8.55676 48.3624 18.129 27.8665528504
1.22792 39.0892 21.2793 31.5611505263
7.81101 40.9721 20.9924 28.2756073157
6.50829 38.5515 24.3361 87.7936573767
4.96406 41.0555 20.6479 25.599479922
7.89734 41.0531 23.9595 47.814827907
2.21567 41.5436 21.7552 28.6840608729
3.34688 45.917 21.2097 30.17318036
2.27507 44.1631 18.6668 30.8016566545
5.27014 43.5463 21.7024 26.6850212337
4.15719 40.2323 24.4749 87.6900677032
4.1279 43.2188 24.3527 71.92737297
11.2995 36.5363 21.8109 32.424632643
6.84821 43.3412 24.4745 92.1399117266
0.817057 47.9499 18.8576 29.6466841276
3.16025 46.1531 23.986 52.5232065218
10.7511 40.5029 24.0758 78.6470644615
7.82983 47.5675 24.4427 87.3215665969
5.03964 48.0352 24.3739 79.1048258887
7.64843 47.4717 21.256 28.2262812161
8.03465 44.6398 21.5287 30.302963877
9.42069 45.0909 23.9744 62.5922590779
3.96827 41.4529 17.914 29.3809096538
10.2766 39.4308 21.4669 30.7414207848
1.62709 38.5786 24.103 68.4275952303
0.152614 43.0911 20.3139 29.5483653444
7.6859 37.0397 21.4384 29.5703508689
0.92186 42.6807 24.0778 68.9912816817
3.43876 37.0154 20.8999 28.5859304374
12.17 48.1986 24.478 106.5409027887
0.233788 46.3148 21.2902 30.0723801209
1.20807 41.9364 17.014 29.1788224328
6.34407 48.296 39.276 29.9232973506
6.48537 37.2409 39.8149 31.6208299781
5.98221 42.073 40.0891 30.154261615
6.03102 40.8332 35.4418 115.3311784
1.22773 43.4595 35.8725 84.9724132756
8.69694 41.3798 36.3529 39.0783391944
9.8865 40.6015 41.8906 29.210263233
7.87916 43.6439 42.4405 32.4996927979
3.24376 41.145 35.8287 69.2206265791
3.16477 45.3508 40.6354 31.3678968943
3.59561 41.9025 38.4002 27.9689511604
9.64617 43.9782 36.3093 51.8740589736
8.81629 41.4109 39.3685 27.6280089352
9.49743 37.2088 36.0604 53.5356445469
9.55824 48.1668 42.3827 31.8526534333
8.37278 38.8514 38.2203 27.9859872382
1.5938 46.4708 35.8423 88.1871807087
12.3936 39.5156 41.472 29.6591322676
5.54505 46.4829 37.4549 30.1622836926
7.43905 45.8616 35.667 117.0658296717
6.2994 44.7457 39.9192 30.8795060844
1.97425 38.6422 35.8823 83.8950098634
5.13344 47.2829 41.6333 31.5545781042
8.8974 48.2491 35.794 73.8050621697
1.35657 46.999 38.9972 32.3463110088
2.25607 38.0945 38.5014 28.6478508167
4.27749 39.3187 39.9172 31.6272664476
11.8807 44.898 39.9415 28.3277521747
11.7126 47.7265 36.2421 39.4388236678
10.5071 37.3876 39.5777 27.4985749546
7.52932 46.5158 42.9638 36.4363865744
10.8325 39.839 35.7561 78.1434815409
8.63747 37.391 41.9166 26.3235358753
3.67454 48.4362 35.9111 82.5380744349
6.68921 38.0115 35.6625 90.3060147925
9.46815 44.5599 38.9073 29.9733578883
3.20455 44.7118 37.8168 31.0802496718
1.90342 41.8497 40.4462 28.5073168446
12.1931 47.5239 39.1979 24.8021181373
11.7884 41.105 38.7322 30.8805048473
5.62894 41.5498 42.867 29.8252275105
1.74464 43.9463 42.619 28.8789735219
9.29893 47.5759 38.5468 28.6018422342
3.43298 39.7307 42.6914 31.3180894889
0.774069 38.6751 41.2065 29.207686477
11.1207 37.4361 43.1935 32.1180613573
12.2971 47.5512 42.0448 26.6157724248
8.96413 37.803 48.3772 32.4834331099
3.02609 38.4699 47.4673 31.9983458076
9.82918 43.436 55.6664 30.8291618587
10.3694 45.9579 53.3177 31.0165248707
8.46811 39.2558 46.0006 32.4301438209
11.727 40.9764 53.3468 28.2850577722
11.8429 36.9753 51.5013 31.517443235
11.8563 43.6918 52.6449 28.6213351394
8.87483 46.9062 56.3252 28.9007865019
11.9017 41.6771 56.2541 28.1355147535
6.05777 38.7137 47.141 26.6532220708
5.58476 41.6999 47.1464 32.357303861
4.93022 43.2591 45.104 31.4556131327
9.98073 41.4996 45.9745 32.3969075035
1.64953 39.2054 53.3269 28.6668098992
1.69541 45.797 47.9091 28.0079994595
4.13822 45.1557 50.0508 30.3168515111
3.11823 41.2076 48.1841 28.5198523885
6.20626 45.5471 45.4547 35.2092896694
5.8396 44.9376 54.0798 33.5784465583
7.41794 39.398 43.446 29.0986744148
7.3035 38.2056 54.0131 27.8172334903
2.96707 38.5061 50.3032 27.7560864144
6.46542 41.9273 49.858 27.8984758363
6.97676 38.6869 50.2979 29.927808001
11.9847 43.6349 49.6323 35.2785774339
7.08699 36.8982 56.3696 28.199240489
5.73245 48.342 51.8878 31.0168024846
2.35236 43.024 50.1445 30.9095752396
4.79482 47.141 47.3101 31.231933699
8.0264 44.7656 52.2645 31.9637577312
4.42636 40.6856 51.4187 28.414360024
9.02242 40.9526 50.6101 33.5318783318
9.56269 42.7198 48.2992 29.9957794467
2.3745 44.2925 45.4913 28.3670143294
3.78656 42.1076 56.0968 30.755848063
3.39074 45.0997 52.9414 28.6991319603
6.97912 44.533 49.7451 27.1951994533
6.63264 47.4434 49.5285 27.635876952
10.1973 38.5741 52.9969 31.9054492546
8.85622 42.2558 53.0536 26.3482738478
8.5926 45.0194 47.2925 36.8062189125
3.26844 42.6111 53.2151 27.0258926235
10.6614 47.1911 47.5703 31.8221410132
0.26045 39.3223 47.3238 29.3543994211
6.37943 47.6114 54.6571 30.9431789764
4.4595 38.886 54.0165 26.4579852862
0.640985 41.9639 54.0005 30.3884307895
0.17487 39.1406 50.3871 30.6554886243
7.02885 41.0213 54.6553 33.0372718056
2.71568 47.7796 52.1097 31.6319878604
1.34766 46.528 44.1264 33.4990020665
5.0389 38.1349 44.3658 28.610422249
3.65961 46.6224 55.8949 25.569685586
0.907904 41.8252 46.0326 28.7019260791
11.5579 45.9309 56.0941 27.0932237639
11.7617 47.7868 52.0054 30.5702709907
10.2362 42.867 43.5403 31.8648284173
1.26746 45.6038 56.3449 27.3637345039
0.432869 47.7017 46.4882 26.9515823597
12.3583 46.7959 45.1071 33.8763275082
2.67693 48.254 49.5646 26.1661024413
11.7309 37.3652 48.5427 30.404849408
0.816933 40.7062 43.4128 30.9547781047
11.2557 38.0659 55.6352 26.7112282051
2.88659 48.9163 43.3316 35.4254561013
19.6376 3.48525 5.76888 28.0348316371
17.3948 3.0388 7.81368 30.7102376327
16.3047 5.30367 6.51022 30.5565798305
16.7011 5.68272 15.0998 30.037792312
14.9343 1.24135 7.8574 34.7742376215
23.1155 10.1198 11.6462 30.3964328829
12.9462 1.93754 6.22186 32.335613796
13.032 6.17984 14.9346 33.1193893217
22.8276 5.1085 5.67045 29.9661144581
23.2887 8.73981 3.7757 28.4607743172
13.7046 4.84706 5.94524 29.9872906472
21.2039 4.3418 8.12993 28.3476670823
22.0427 6.61632 11.1157 27.4315784611
16.2624 8.48079 16.0287 29.6456221
24.0692 7.1365 14.4583 32.760732978
21.6009 8.90198 13.749 30.064913171
16.4869 9.36304 6.02437 28.6742898531
23.0531 2.76629 15.2746 33.9292581803
12.9724 10.4569 12.9674 26.8524484013
18.9962 10.1797 5.63126 26.9716313134
23.1844 2.81438 4.29611 27.8725832195
12.6541 6.34781 8.17022 29.6833696507
21.8833 9.45378 8.75161 30.2292995301
20.0245 10.5604 10.9407 30.2876428937
14.3553 11.1108 6.54255 29.1036846761
18.541 0.843881 11.5445 29.2316303473
20.2048 1.79804 8.80037 26.073528963
17.2266 4.72834 9.89791 26.6080089109
16.7916 9.69372 12.232 30.9960913355
13.7503 4.16545 11.1207 32.3373531997
14.826 7.90624 12.6601 29.7754259886
17.2751 5.50377 3.89484 28.3609088896
16.81 7.73647 8.15688 29.4623851591
15.0355 6.32617 10.3266 27.2921566641
19.7168 6.1089 9.72547 25.9182020687
20.1512 3.74401 11.2978 26.568735614
19.991 6.44924 4.95509 28.7670189321
24.0779 9.26873 6.82426 35.5577713149
13.9583 8.93453 8.72663 30.1288146341
24.1246 4.87537 8.45832 29.901929264
24.7281 1.82264 10.2201 27.4463617671
24.3145 0.426137 5.97302 27.7911927057
16.0295 10.9439 9.53463 25.0341950796
20.4863 11.3598 15.0493 31.2010257555
19.0689 0.560246 6.32601 30.5834755488
13.9265 1.14098 10.4958 36.6185008879
19.7619 7.87933 7.30758 30.8919141721
22.8771 3.25383 12.1094 27.3427874566
15.474 1.26857 14.4325 33.8129724281
20.4915 4.90884 16.2233 28.21489435
17.255 3.42652 12.2519 29.9503695424
22.1257 5.55677 13.7476 24.8405292198
21.2694 0.665965 16.2474 30.7157344948
17.7111 0.934508 15.94 29.1380126088
14.7411 4.0463 13.773 33.5863986007
15.3957 10.836 14.8486 30.9081919463
15.6399 8.11318 3.76493 30.3784867618
19.0877 5.6189 13.5107 29.1986070534
19.2024 8.15868 12.3328 29.7062708695
22.7332 0.557906 8.47118 31.5499030425
18.35 12.0027 9.31402 27.852270568
18.8172 9.2426 16.3786 31.2329954676
13.0158 11.8082 16.183 34.2588316997
21.6585 0.655373 12.3455 29.5494408987
16.2171 2.50368 19.1312 31.9951436567
20.707 2.95266 19.597 28.1559720443
19.7599 0.345717 21.754 26.4580263587
23.4048 4.88379 24.1581 72.277353361
13.9689 5.90367 17.7068 32.2725847782
23.3487 10.1138 18.766 31.1846174151
21.51 6.29325 20.9887 26.8302175706
21.6773 11.6189 24.1028 69.5078638909
17.775 9.22391 24.0443 58.4137025412
18.3496 10.3793 19.1039 31.1442889849
18.8744 3.0712 17.0422 28.4624897749
13.7978 2.03678 20.6792 31.6815824455
23.6125 10.6823 21.6851 27.4819302756
13.631 1.1535 23.4862 46.3020299259
22.7709 1.99855 24.1215 55.2771333682
17.4447 2.07953 21.5048 26.977878128
16.5414 1.4313 23.8638 53.9311788538
22.6744 1.70965 21.4882 28.5992632364
13.088 9.54931 24.6719 122.6230920072
23.4452 4.35839 21.302 30.3504160065
13.764 4.15832 22.7284 30.2537718013
16.1442 4.89016 24.4202 108.534647536
16.6717 4.95014 17.8913 27.3722320336
17.912 6.42453 19.6764 27.6969718289
19.1728 4.55336 21.0963 27.407493523
18.834 4.35466 23.8516 35.726446499
20.1189 1.92413 24.5118 99.1436619744
22.52 7.52919 18.734 28.6234602426
12.0161 4.14338 19.1026 28.7844495534
16.8579 8.62946 21.0653 25.2980315856
19.6734 8.50007 21.9321 27.9261785989
14.7951 8.67234 18.5483 30.8548105237
19.3894 6.97415 24.7455 116.5698873122
15.2038 7.47282 23.7351 40.9276859653
15.2324 11.0428 20.9875 29.7133198367
19.1185 11.678 23.9287 60.7305555338
22.8926 4.21761 17.8865 32.0385135086
21.8884 7.08822 23.9321 34.4984314335
14.4196 6.65498 21.0803 30.8192344568
19.9907 7.22667 17.7817 30.2283984092
20.754 10.8827 21.1084 28.2171262525
23.2856 9.36761 24.6082 103.1518260836
15.4035 11.0262 23.6442 42.6962883228
20.1594 -0.12233 18.8491 29.4226421778
22.4963 12.0366 16.8864 31.2072639087
16.3567 7.12124 35.8131 85.1400466676
15.7459 2.73308 38.9699 31.8753318381
14.1652 11.0908 40.1731 33.8028994034
18.4105 5.09729 35.8624 79.2228837347
22.7041 3.28321 35.97 71.1192791807
22.9902 1.87242 38.495 29.9484655256
23.0545 2.43541 41.3127 32.2858485664
14.5364 10.8234 42.934 36.3506943759
22.4188 11.1888 41.9875 29.6071922398
16.7605 11.8158 35.6639 100.4135842309
20.5229 2.24533 42.5846 31.4260412365
17.7402 9.28753 36.5406 35.2908939776
20.2892 9.34139 36.0138 60.4710288118
23.1385 7.98249 35.483 87.084319199
20.9726 5.57663 35.9424 62.5847985998
21.9617 6.80602 38.4232 29.3739325761
16.3666 7.63877 39.1902 30.5490166799
13.9005 11.5456 35.8771 81.7805430575
16.9008 4.53793 42.1606 29.0905398244
13.0781 2.2993 37.851 30.7780593838
19.6849 10.0918 42.3899 29.9910993137
18.4616 2.18643 36.0092 68.6636171175
18.3712 9.75688 39.7643 30.8127084153
24.6676 0.475943 42.2644 35.1757077403
18.2302 2.39771 40.8583 24.908493221
17.4823 7.29776 41.8619 27.8241613849
13.3303 0.603001 35.5187 136.956021581
20.201 2.93288 38.6457 27.8339291155
20.3929 12.0844 35.7208 72.9629375813
23.5991 10.6273 39.1395 25.57173981
13.9057 6.48318 42.8145 31.4950768962
13.5957 7.25092 38.4013 29.3120770576
14.3384 3.92401 41.0525 28.1960445328
22.548 8.22668 41.373 29.8761548319
20.0838 7.2597 42.3145 28.5071319809
17.4787 5.26659 38.7127 28.808514944
21.2253 9.52937 38.7388 26.9418218283
24.5408 9.89093 36.6392 29.5954816059
13.574 6.6442 35.717 105.1579713365
19.9618 5.42696 39.8585 30.6901435957
12.507 2.3177 42.3257 29.3367300092
20.8579 0.833395 35.9258 67.6283300142
17.1015 0.373846 42.2107 30.5448238078
23.1814 11.836 35.334 106.1890164246
16.2758 0.343951 36.0597 64.8028677511
21.3889 10.7964 56.17 27.1208080097
14.7371 4.48956 46.3065 28.5570091885
22.062 0.726743 52.2985 28.3841310139
18.1564 1.60128 44.6817 27.515887339
17.3101 4.22622 45.0378 28.710411523
15.759 1.39497 46.8772 27.4768966689
20.8384 4.90695 43.7075 34.3176413842
15.3193 1.93938 54.5759 31.1028930943
18.9227 4.27794 52.3338 27.3612890129
19.0109 0.0473307 52.9178 31.9349479496
14.1141 1.76916 44.8057 28.0865616942
20.2054 2.5286 56.169 26.2681383192
21.2738 8.06699 46.7927 31.4136793474
17.8761 8.45445 45.9011 29.8859916369
23.0513 4.80819 50.9007 30.3404266823
18.9234 9.28302 48.9753 32.5957512267
24.0774 8.1914 45.5737 30.8623059013
14.5865 9.51737 48.2893 31.2418945415
21.5037 7.24665 49.8331 33.994906811
21.5257 11.029 46.6453 27.432345193
15.647 7.26342 47.0909 29.1212286915
19.2502 10.9615 44.9439 31.4375815872
14.2522 10.1777 54.9574 32.6045902798
15.5238 12.0816 47.0344 36.8307136979
12.9069 4.41728 53.3693 27.0036889903
15.2697 4.98129 50.4539 27.9601862382
12.87 4.63194 48.7779 29.4443742098
18.1574 2.74708 47.8595 26.1050848451
18.6353 10.4209 55.7745 30.8876855692
19.4585 5.73055 46.3786 28.0692023907
21.8345 0.333167 46.8029 30.8717403338
18.1571 0.90284 55.6229 29.1356879197
12.4444 2.91137 51.0463 26.3020864155
23.3892 5.8871 53.3871 27.3594287907
12.9992 2.71818 55.988 30.7033943211
20.9965 2.59352 48.2015 30.0165328832
17.4278 5.8325 48.43 26.9677053578
23.4082 5.43235 45.0722 33.0860596071
14.3622 7.73401 50.97 28.6646687614
23.0865 9.97702 50.2377 29.1925634155
13.3798 9.93466 52.1151 28.2861621953
22.1409 4.99033 47.7871 34.2747326635
16.5257 10.1302 50.6504 29.9046018514
13.9398 5.74917 56.1338 27.7608757466
24.5956 3.60455 54.8076 28.8951477212
14.9182 1.70801 51.735 26.8831141837
23.726 11.1177 44.8775 27.4248473469
17.4465 3.84807 54.5919 26.0401884643
17.2703 2.71765 50.4445 27.45135487
23.1937 8.76788 53.5083 35.0953530733
20.8837 4.85665 54.4969 31.6288326544
24.109 11.2694 47.9208 28.5755965061
18.0172 7.97486 54.9484 28.2057987736
15.6001 5.57193 53.4147 28.0856223223
16.9669 8.04118 52.3926 29.860509045
21.9141 0.302559 55.3458 28.783653014
20.7645 7.41785 55.3912 29.2510669358
18.6739 6.60632 50.8542 30.9484745706
20.8237 2.74865 50.8391 29.7737368932
24.0936 1.03533 49.9244 29.7787577094
15.9124 8.40938 44.0708 32.4094639415
20.2985 11.3377 50.0941 33.3875745937
12.4038 5.40907 44.8149 28.0217478642
12.2756 10.25 46.9558 29.6742721935
20.5754 0.00214091 44.4008 28.7735461693
14.8539 17.7381 6.31339 30.3136698423
20.485 16.6322 7.48198 31.3672498158
15.624 22.4702 5.95159 30.2347890657
17.2041 14.5684 5.35976 30.9229578555
18.9667 12.3986 6.59418 29.4709299622
22.6574 23.5772 10.0561 29.8343945405
24.4377 18.1857 5.92299 28.2185536305
24.2459 12.7993 12.2 31.3279326004
21.155 23.0772 5.04818 29.9671369126
16.7446 21.4733 9.04856 30.6572557169
22.5792 18.3036 7.93493 28.1886528075
19.9121 24.0707 14.5057 27.5444852733
16.011 18.5405 14.7681 29.7441833723
17.9749 22.3523 4.39591 28.8815441414
19.785 20.3929 5.76506 28.5376409204
14.527 23.1828 11.5173 27.4969167677
23.3407 20.9805 5.04058 34.6267828618
23.9579 15.7886 15.2175 32.2213714011
15.1868 13.1688 8.30786 27.1938814397
12.7534 16.4591 10.3186 29.5709258382
14.5226 12.2796 11.4889 27.0580135489
17.6091 14.8496 16.0543 27.6113882227
17.9338 14.7555 9.77478 28.1201547096
22.5887 17.18 3.91033 33.317787635
20.1425 15.4466 4.82159 27.182781936
12.3177 18.2154 7.79003 28.6140247706
16.1927 15.7757 7.77792 28.358004337
22.6109 22.6605 14.5896 32.7690198804
14.9979 17.5893 11.667 29.8256249775
17.1345 19.5997 6.87466 30.718286456
18.283 17.7189 8.55476 28.0261442753
17.7303 17.977 11.1932 29.4606824481
23.0195 17.0188 12.7212 31.8319007798
19.8601 20.2528 11.0747 32.7126859817
20.9647 20.5534 8.37001 30.604640034
18.6803 19.2046 15.1889 27.3173368877
22.3033 20.1843 15.4019 27.133647697
14.6351 20.1419 12.6984 28.178245795
18.0822 22.1456 14.6732 27.7810638744
24.6204 12.8301 14.951 28.203935045
20.0439 23.0534 11.2935 30.0824447383
14.7447 13.2868 4.45682 31.5009951853
12.9295 15.3186 5.74476 30.2831495148
16.1067 14.8347 11.8908 27.6220651208
12.6691 13.6458 10.2319 25.4607615998
24.1673 17.6874 10.0806 35.0497251664
21.8723 14.6248 12.0957 30.656431669
21.8218 14.7516 9.32693 31.048965893
17.1586 21.3675 12.2824 26.7456927671
15.0477 15.9197 14.7192 29.3959379672
17.2605 24.3575 11.1105 27.0889356845
19.4741 16.4618 15.2642 29.0168966972
21.0073 18.8566 13.2996 31.9437654548
19.3001 15.7861 12.5787 28.3496637137
14.0496 21.9757 9.06805 27.1302607596
13.4647 23.0413 14.1086 28.7841217858
21.6609 12.9495 5.10915 26.8235141028
23.4716 21.8263 8.16226 27.9929360058
12.9317 23.9514 7.59188 28.5494122955
19.2196 12.9261 13.0074 30.369491263
17.4088 17.1714 4.06778 30.5650506839
17.3865 24.0135 8.21854 27.9542803342
12.5685 19.8215 10.3294 32.904976014
23.8655 14.5343 4.85613 30.1311711797
15.7442 23.2882 15.6447 30.8144276513
16.6155 13.1966 13.9879 27.2090395934
23.9061 23.9661 16.5919 28.3638928798
12.842 20.4057 15.4064 31.7444229056
12.4208 15.962 14.6787 28.1705236421
12.735 20.8349 6.46691 31.0009222573
24.4751 18.7198 14.9211 28.7970357698
21.8929 12.2338 8.17893 30.130734656
24.6175 15.0417 8.86968 27.5398856288
24.2829 23.6384 12.1485 32.3461485998
24.4929 12.43 6.92806 27.6757330265
21.6112 15.8824 16.9698 33.8918522616
13.8308 22.6856 24.4235 94.991590512
19.131 13.3816 21.2065 27.5422628501
18.8432 12.7793 17.0616 28.6835410048
12.5044 19.8753 21.0906 30.6212399254
20.8256 22.718 17.3912 26.7144855378
15.203 17.4132 21.2795 28.2888543853
21.1513 13.7298 18.1344 27.3762467074
24.6379 20.2197 18.6815 27.3517395703
16.7528 15.8228 18.7566 32.3328451338
21.783 14.2229 20.9493 29.2284563373
21.248 17.5903 19.7837 27.5806585687
23.4466 17.0448 21.1378 27.3367817366
15.0534 20.3967 19.8343 31.8917763154
14.7848 22.4975 21.7862 27.7575473715
18.9481 19.5177 17.8803 30.7036078513
18.2961 22.7238 20.6557 29.1904757477
18.2301 22.1937 17.8582 32.3969323178
22.6598 22.4685 20.0347 29.4831646475
17.7734 23.6455 24.2917 69.9504954848
14.8426 14.5651 20.9165 27.2006927967
14.9846 13.7212 23.676 57.3687553739
17.7891 14.3788 24.0478 103.1263275258
18.6257 16.9415 23.5149 45.5070599468
22.7834 14.1817 23.6544 60.8769168574
17.6753 18.8026 20.4424 26.441384345
13.3195 18.2153 24.475 109.0999557792
16.9074 12.848 19.5918 30.7650127281
20.7451 23.9154 24.29 76.257100111
16.026 18.4368 23.799 51.9573030339
19.1229 16.2763 20.8784 28.0388460827
20.692 19.0705 24.3083 103.4715969133
21.8797 19.9264 17.9162 26.3889229624
13.9872 16.6502 17.9461 34.6756315159
16.3349 21.0191 24.3298 81.7956023917
18.4749 20.5113 22.2667 28.5616816499
22.7531 17.3678 23.9427 55.1504961032
22.2056 21.5009 23.963 53.9009541767
14.7188 19.3881 17.2038 33.7464238005
21.612 20.0913 21.3042 28.5732430606
20.6956 23.8293 21.3471 29.1663519398
12.4657 13.9278 19.9254 33.1258257233
14.2604 24.223 18.0058 31.4939897269
18.8043 12.334 40.0244 31.0612092515
13.7157 16.0168 36.2743 48.4585082053
14.9248 12.6982 38.1781 30.1699229397
16.3958 16.5805 35.6924 93.6825309247
20.5547 17.9944 42.4483 28.9373623039
21.0345 20.9445 39.4265 27.6587156582
17.2437 14.5752 38.5901 27.4135159437
24.5066 19.5884 38.908 28.1116037427
18.381 20.5901 38.8129 27.2717848012
14.5339 21.4094 36.4172 32.9603208707
13.8165 18.758 38.559 25.7281371589
16.4794 18.731 37.6372 25.3075358227
20.3596 16.062 38.7689 27.898794368
21.8868 18.7084 38.2481 27.6649223105
20.168 16.4929 35.836 67.1953511851
23.0072 17.0582 35.6994 76.0128959449
24.4352 17.9965 41.4147 32.3062308624
18.6863 23.762 36.1474 69.3153249906
12.7915 20.0438 41.0079 27.1165625171
17.2852 21.2263 35.794 83.4071838841
22.1524 23.5057 38.9835 31.3338666946
18.9166 18.7676 35.5812 82.8244978699
15.2129 21.5764 39.1458 27.751375961
14.1821 24.459 42.3964 30.1579427176
21.8194 20.1533 35.8617 77.3468228453
14.5469 16.0072 39.2135 27.6858105963
24.7805 14.2985 42.5587 28.6686368313
17.5804 20.9936 41.5488 28.8269476234
16.4487 15.5317 42.1513 33.7094550426
14.0291 24.1203 39.7227 27.1815501435
20.5475 12.9312 38.2747 29.6153622483
23.407 15.0484 38.3109 28.2696097281
13.9193 17.4331 41.7482 30.9290040516
18.6161 23.4525 42.3845 29.9131583999
13.3142 19.0057 35.647 89.7858079585
17.863 17.2404 39.7438 28.8817157233
17.7867 23.593 38.814 27.797849881
22.2279 15.9175 41.1424 29.2921435601
14.627 21.586 42.4591 31.4833841733
13.6244 23.6821 35.5348 99.6102704244
17.7248 18.3548 42.2085 26.4791232506
21.3773 22.9538 36.4125 38.5140004928
18.256 14.262 36.1439 42.860232177
20.5186 13.5325 42.0299 27.7655654852
22.0815 20.1889 41.8639 33.169655402
12.3644 14.3074 38.8442 29.2280643986
24.461 21.1969 36.3226 42.9057536389
16.5288 14.9618 47.7112 30.1478079165
23.5856 17.1951 50.1007 28.5265050112
14.6405 23.1249 55.7718 31.5172148277
24.3953 14.1045 48.1713 27.6981040822
17.3871 18.5957 44.8666 29.7101469659
22.4844 16.6536 53.8461 30.9701314868
21.4505 24.0117 47.0654 31.6678035113
13.3029 18.3442 44.931 34.1755585977
16.6588 24.0519 44.0865 31.0334243334
21.0846 19.5539 47.7012 27.9146703731
24.1597 17.9115 47.3567 28.782598395
20.2553 13.5252 47.9463 29.7875796092
12.3012 17.1992 50.3784 29.5128778373
19.2574 20.5914 45.7324 28.7845478033
21.7953 22.5255 51.1958 30.4476586991
22.2574 18.7279 45.1463 31.1877521732
22.6883 21.8228 48.7496 29.2919256629
19.9837 20.9498 54.697 32.8534882784
22.9297 18.8148 52.318 33.0708822878
14.2596 16.5563 47.2631 32.9211024129
16.6622 15.9601 54.3166 29.8135127011
22.0667 15.3661 46.5508 26.9608210871
13.0004 15.0286 55.3901 26.8037845931
22.7128 12.5216 51.8277 30.6521867815
20.3498 21.5185 43.502 27.6593866358
12.3033 19.7306 49.8179 33.4870977113
12.5571 17.6309 53.5568 27.8874329981
13.5597 24.3371 52.1211 27.2682804923
17.3176 19.6551 50.8703 29.7409706943
14.9838 19.0449 48.8903 33.5266940758
18.42 17.0615 46.7462 31.4119559745
18.7919 17.1614 51.3279 30.364963967
20.4142 19.9752 52.0768 29.0448684709
20.3126 16.9917 48.8381 29.2114756958
16.4378 18.86 53.6138 27.6582023932
17.2361 22.4246 46.5187 29.1591297098
17.4245 23.3986 52.5318 30.9853989884
19.2332 21.0468 49.5457 29.0880004401
22.284 12.6507 54.3805 28.3253092164
14.3284 17.9004 55.8793 31.4657139787
23.826 22.9677 53.1658 30.9261541645
18.4849 14.2341 43.4626 29.7831993795
21.6638 23.4206 55.0363 30.6318221399
15.2488 12.69 54.6922 28.2959583988
20.1936 14.2596 54.8976 29.7735286309
17.3559 14.9032 50.2655 30.8850581663
20.1598 16.0729 44.5859 26.6426377195
22.3542 14.704 50.0326 30.6961668252
18.3277 13.2528 45.9595 28.2195169259
15.1578 16.5511 51.4089 29.2157976844
15.1118 21.8851 48.1488 30.5221635881
22.5137 22.5892 44.9445 29.9329113886
16.882 21.4065 54.8129 31.5522968112
19.5213 16.8498 54.0888 27.2981738703
15.361 20.3832 44.968 33.2055982666
14.0936 14.5699 52.9146 27.0913157585
18.988 23.5331 48.5282 26.2601495401
12.7712 22.0947 53.8968 30.2758528056
13.8572 19.9127 52.6047 28.6936627794
15.124 22.5248 51.112 28.6238929
22.6656 13.833 44.3437 29.2668075187
18.0765 12.5416 51.5685 33.546258349
18.1181 12.5158 54.1908 30.5141294943
13.0853 12.8671 46.0752 26.6975204048
24.4792 20.6166 45.6565 29.0874461943
12.5658 14.7366 48.1507 29.0725111683
19.9515 18.7236 56.4152 28.6548881714
14.2457 12.4474 51.1051 32.2680531643
14.4403 13.8438 43.7894 33.8929096067
18.6503 33.0931 6.31942 33.2802120222
23.4147 34.1391 6.85026 28.6919885675
23.2932 26.6827 8.59447 32.4319616782
17.391 28.1355 6.74586 29.3851294758
13.1812 27.9387 9.43898 27.3344214085
24.3444 25.9131 5.38847 31.1849639735
23.8093 29.3284 8.76665 35.2212117165
22.9931 35.1783 10.5186 29.6237386278
19.3303 26.1616 5.61216 25.7730068083
13.6347 33.892 5.9284 31.4320029294
14.2975 33.808 12.0372 25.7179766601
16.0654 26.4677 9.01021 28.7960713921
15.2473 32.6165 8.17686 29.9945060385
15.4475 30.3708 6.41812 31.4706795553
21.0394 33.2778 7.84845 29.53476843
21.2438 30.7191 9.33 33.4876962377
21.2029 33.6423 13.6363 28.9037119968
14.2515 26.7819 16.5256 26.6652797919
12.818 36.3341 5.15972 28.5681150306
16.4277 26.0744 14.9443 30.794688439
14.7852 36.2427 14.3659 27.5484520012
17.5714 33.6814 9.40066 30.1690971976
17.5202 35.9217 7.27233 31.8227990457
20.2384 33.5918 10.5299 27.172733797
13.5968 31.2567 12.735 27.451178322
17.6843 26.7669 12.5025 25.9928596205
20.4783 26.6836 9.5252 31.5378874897
24.0699 30.6258 11.4553 32.2802638591
20.3168 25.8759 12.3205 27.3640028064
24.0024 30.5561 15.9133 28.8666973937
17.3 25.1367 4.12201 30.4418351904
14.5072 30.5351 10.0525 29.7867332711
22.3587 35.2616 4.44594 28.7686473926
24.2841 26.3565 11.1624 27.2451772835
17.0293 29.101 10.974 29.894408478
17.2359 30.579 13.2013 28.3726896298
13.4338 28.1116 6.7055 29.6995825924
22.5218 29.5311 13.7238 29.4337350341
19.0049 28.8773 9.05768 31.9629710976
13.2372 25.5982 3.91374 29.5173390532
16.8328 36.2072 4.30181 32.7495296383
20.82 30.9717 12.2058 30.4144742732
16.9304 33.0897 11.8692 27.6077419995
22.352 36.2874 14.1671 26.4425155486
14.5152 31.7674 4.05416 31.4801695838
17.7085 35.9283 12.525 28.7707738699
15.2601 25.8011 6.18639 27.5069308552
20.2457 36.3305 11.6443 29.5819593237
12.7371 26.9033 14.1811 32.4942544236
18.0952 30.7496 5.00262 31.4185176912
19.4541 32.6568 15.1984 28.8679054658
21.7728 25.9755 4.31859 29.4593511306
20.2733 36.2215 7.29292 30.5366636601
18.9593 26.449 15.8017 29.8879293132
14.5921 26.3916 12.0524 31.02559473
15.2522 31.3715 14.7918 28.866129477
22.8179 26.9433 13.2423 31.1816023492
19.3533 29.101 14.4252 30.9401226395
23.7337 33.346 15.3122 29.6979095245
20.1093 28.7805 5.34178 36.3746942975
16.6115 33.8177 15.3588 31.3486165574
12.9506 34.3083 9.79974 29.850685675
12.7541 25.2102 9.94905 28.0177162415
20.0596 24.5146 7.69404 30.7425441398
12.8184 29.4126 3.66926 29.4523669641
20.1834 33.9667 3.61743 31.096979023
23.9142 31.683 4.91896 35.4931852053
24.3823 36.4602 8.13093 27.306645648
12.6933 34.2585 14.6803 26.6970268222
15.0844 36.6002 9.00414 30.1627677308
23.191 34.0589 23.7383 59.9096445549
15.9851 26.2869 19.4734 29.9667418961
24.4046 34.8332 18.0723 29.4630227575
20.8047 26.4888 20.2915 34.8004760321
18.5249 27.0105 18.6257 33.4968747616
21.2811 25.4248 17.7184 29.5217262871
13.119 25.4254 23.708 42.7248819711
15.056 28.6312 20.6601 29.4501095581
19.9266 30.4527 16.9355 30.8159792706
16.7581 31.3702 20.5447 30.5626654934
17.4013 29.623 18.4527 33.6249021974
16.2723 35.7274 21.5907 30.6190598121
18.8917 32.9005 19.7813 34.5154042944
16.6569 24.5846 21.8722 29.7003288308
14.8247 33.4152 20.2722 29.4131958534
13.4181 24.7866 20.7394 25.8700023843
12.8891 30.8233 20.4916 30.4814840586
21.4722 35.5919 21.5841 26.8173358577
17.8465 35.7496 19.2598 26.3872086201
15.6813 26.369 24.4107 89.0126745762
16.8136 33.9702 23.936 67.8660422748
20.8721 32.4812 23.8268 65.5939138309
18.8465 26.6431 24.5597 89.5687505536
24.59 30.4314 24.2239 66.4965894468
21.8016 27.3887 23.2389 34.4858704963
15.3744 34.8572 17.8924 29.1845704505
15.8157 28.9889 23.5173 32.7763811545
13.8716 30.6955 24.3392 85.2108024048
19.5552 36.7659 24.09 81.711930174
22.9726 28.4768 20.9222 31.2906253027
21.7481 29.7832 24.508 101.5889430606
18.3495 29.6702 24.5796 103.7253610043
22.3024 29.6078 18.1921 32.9949960554
12.8322 33.7341 22.2339 30.3661448522
24.2124 31.3262 21.124 28.7718027048
23.2793 24.9443 23.9561 69.2341975421
14.2726 33.715 24.6462 98.0441798256
21.7351 32.7696 20.8247 32.1849847239
18.0715 31.8076 23.0945 31.7454860225
12.8586 30.7332 17.6515 28.4984916209
