19.7034 4.96388 38.4621 30.0693959329
14.1526 0.646795 35.8756 70.0485217457
12.3999 4.60642 41.0122 30.7399863585
11.8955 7.57416 36.1542 61.4329755443
24.7181 9.99285 39.0408 30.6496861556
17.6478 8.78304 35.9092 74.0223573205
21.1211 9.3278 40.7137 33.9295572862
20.3627 8.45293 36.1338 54.7113379618
17.4234 0.923201 40.4272 27.5478972613
16.975 9.79173 42.096 33.638237389
12.9406 8.97175 41.6648 27.3333363035
21.1468 5.72589 35.6951 93.8118229928
16.8487 4.78929 39.0593 31.0797055018
15.7802 2.15549 38.4612 29.4100785098
20.1737 1.61021 40.8186 28.3266014353
23.3921 4.15386 39.7418 29.1983932589
13.7635 2.1672 42.5058 31.4530627956
17.5248 9.47382 39.1195 31.1638891816
14.718 6.02558 41.0023 30.5577177324
23.7602 5.24936 36.81 35.9505046435
20.7859 4.11593 40.9918 28.5555156175
23.4413 8.00268 41.7162 33.1939726833
24.1761 1.80411 38.3978 29.4473229038
17.8764 12.2597 38.1545 27.7168320429
22.238 11.0893 38.5969 27.748626165
23.9211 12.346 35.9377 65.9700755522
13.3746 12.0403 41.3823 28.0583025463
18.4926 4.85942 42.683 32.550381537
15.6072 1.92903 46.7501 33.3417700293
14.4796 6.84939 47.9977 31.4370196679
17.5684 2.66086 44.4537 30.1403013841
22.0861 3.9287 43.5627 27.1713584018
13.6549 10.1639 45.7038 31.1928090526
19.9275 2.04395 49.3493 31.3895381252
17.1627 3.04241 48.8794 32.1029051684
20.9877 10.2866 55.639 31.4945615838
21.715 11.0555 47.8254 31.1765577151
17.3264 2.94513 54.8212 32.7656139507
17.0951 6.75564 46.2861 29.7720569731
16.9338 0.800802 50.5448 30.6088226999
22.7497 6.60333 44.1879 28.1367844654
20.9028 1.49827 52.2877 29.0701319168
12.7984 0.830745 44.8625 27.425954123
21.3537 0.203306 47.5755 31.4121607213
23.0821 8.46112 55.111 28.1044395668
13.146 3.25915 49.6554 29.5302403929
12.9628 2.90622 46.6824 26.503070901
18.1597 6.67649 54.8816 28.9435755654
23.9663 2.3324 45.8585 29.7233593508
18.263 7.51039 43.7702 32.5914537976
20.5695 8.06615 44.9253 31.1822332383
15.2032 5.3074 55.2329 32.5017064452
18.8439 4.63243 47.0304 29.8497358759
19.2602 6.59427 51.0703 29.4654619629
21.2153 10.6969 44.7156 28.1823607123
21.1225 4.60837 49.3285 28.3291734065
13.9646 0.37485 49.5371 32.090880921
15.2609 8.83744 52.5771 31.9188779381
20.0825 7.44614 47.8998 28.7328626637
17.6309 9.02188 48.0366 34.6610285681
16.918 7.78251 50.4555 29.7437572896
22.4584 8.45267 48.8887 32.219640948
23.8857 5.23268 50.4893 30.9861708573
23.302 7.83516 51.5997 32.1490518673
20.5897 2.72062 45.7525 31.7241417217
23.4085 0.958108 43.5445 31.907035056
23.7796 10.0296 43.4436 30.8748341842
18.3877 0.675396 53.2973 30.7718098471
17.8233 11.2219 50.1463 32.6326844373
21.4266 4.26442 52.3279 27.3028901166
19.4899 10.9981 52.8729 40.855884516
24.5419 0.23354 47.9543 30.882835108
15.3951 12.0645 48.5359 31.6324388898
15.6787 5.47836 43.861 29.5051624118
14.3816 6.24117 52.9526 31.0993039035
14.8709 1.11719 52.8155 32.168508512
12.6308 2.48847 53.9973 31.3976041415
15.2242 5.17804 50.4754 33.3572294037
18.6205 4.70897 53.0144 32.1565444058
20.6984 8.05867 52.9031 30.5218819761
22.2106 5.60035 54.6785 30.8214267075
13.7354 9.58304 48.3659 30.0391190103
23.9701 2.34956 53.5619 30.3223900395
17.4618 9.318 53.9757 27.5507214434
12.9304 5.39572 45.6013 29.4406139565
14.3563 11.7524 52.5867 28.5616614349
12.8078 11.7517 55.1975 31.1955805456
22.5726 4.72562 46.8583 29.3474088509
18.0353 0.121685 43.484 31.1846971463
14.684 8.41414 43.7757 30.6747828642
16.1737 22.8084 4.02694 34.6402063388
15.5249 16.4797 7.9066 28.0899238203
17.0488 14.8431 15.5547 29.8422197154
17.1729 14.7353 10.1063 29.854110994
16.9447 15.9831 5.79665 27.9843186688
19.4389 17.2583 6.63843 29.5746511669
23.1897 13.973 5.93226 31.1530805534
14.3734 18.2614 16.4921 29.0357788963
19.5366 20.1664 6.73622 30.7657926291
20.3903 20.6099 9.34249 31.6471986987
17.0209 18.95 8.50172 30.1482882291
17.2592 13.5735 12.8689 29.7757285839
24.407 22.0071 13.1544 34.9843906582
22.1854 14.6513 12.7353 28.4423524323
22.5838 23.6693 6.98123 30.800542793
13.6521 21.8452 10.2946 29.5475029828
18.5811 23.0705 5.61147 30.5799936437
16.6786 23.2629 7.50457 29.9011488463
20.7036 23.4813 9.83202 29.8789100162
22.2382 23.817 12.0713 29.8734611351
22.2422 20.9414 5.8482 29.3631010319
14.8081 13.0637 12.0608 28.9981720308
13.4913 23.9224 15.0258 26.7399339992
13.6444 18.2714 6.46378 29.5233968441
20.0353 17.2684 12.4419 29.8186683688
16.7338 18.1958 3.72204 29.1876998488
21.5499 16.3075 10.2403 29.3726128039
15.3114 21.0316 8.01947 29.8982302356
19.6012 14.8645 8.75715 29.1114227551
23.9796 15.5186 14.5449 32.4236116037
17.7682 20.7969 11.1162 29.4722785825
14.7071 17.5635 11.7252 32.4094238809
17.4842 17.7847 11.0398 28.4380791338
22.5053 19.548 12.3819 28.4400082167
14.5417 20.9501 15.1548 29.737748957
15.9 23.1765 11.856 29.6096036963
17.9592 23.9712 9.99597 32.0044210686
13.4857 19.9832 12.7178 31.7596868796
20.41 21.4433 12.9077 34.6965587685
22.4127 18.8309 9.59018 30.996020286
23.183 18.5816 6.89957 32.1700466624
12.8221 14.2818 4.21082 28.140660082
14.8463 13.5963 8.90174 30.0970242775
20.1424 12.5043 10.3455 29.5967973029
21.7333 16.5027 5.11057 31.5677381906
15.0584 20.4613 4.87344 29.719256531
16.9899 21.3458 13.7554 25.6721409346
17.6783 18.4465 14.1208 29.2245456789
22.3998 17.8263 14.5552 30.0527212212
15.1964 16.715 14.3817 27.3129435267
16.2709 24.4383 15.0036 30.7621594704
13.3745 14.5792 14.6104 25.6534627049
15.1001 13.3717 5.83071 27.4379708938
21.0438 23.5305 15.2629 32.947007068
18.866 13.8227 6.08492 30.4472034875
23.8966 14.7332 9.9398 34.6971760116
19.694 15.4098 14.8364 28.8969713464
13.2955 15.6751 10.1565 28.1499607483
18.6938 19.014 16.5255 32.8229682292
18.5669 22.5767 15.7231 30.6374961575
21.1426 12.3201 14.0548 27.2990452782
20.5996 13.075 16.7635 28.8233755875
15.7522 16.0501 18.2307 34.5407098047
15.0388 15.2524 20.9533 28.3113172604
24.3476 14.4599 17.1915 29.8135693678
19.8391 18.3558 21.3083 29.3727061286
21.5561 16.2203 21.5816 27.3841825268
13.7722 20.6329 19.3646 30.2497682125
18.1102 23.774 24.5054 99.3746767404
23.0294 18.9951 22.2939 29.3730843153
13.5225 12.6342 21.9426 26.2674979053
17.0287 17.8755 21.0112 31.3983358251
20.6865 20.0662 19.3798 27.6777376099
14.5476 14.5587 23.994 45.3662295943
22.5112 22.6634 17.571 30.3700064883
15.2911 23.2728 24.2944 93.5379267773
16.1914 19.3713 18.518 31.0791544973
12.5021 16.3084 21.4406 30.4249159
17.1293 14.869 24.6676 101.4803512691
16.9888 23.8437 21.4853 29.5370709758
24.1309 20.9221 24.4256 91.1344620378
12.7164 18.7962 24.2709 88.3274879067
20.5709 13.507 20.9244 27.6657146634
22.5594 15.8201 24.1733 60.9565415261
18.4111 21.45 18.3051 29.5324207992
18.0663 15.2683 22.098 30.5686168908
15.7446 12.8319 19.161 29.5928861495
23.723 15.9488 19.6504 28.6680919987
14.6726 22.0009 21.6963 29.9457296001
19.2377 22.3984 21.1834 31.2643182652
17.1237 17.7479 24.2961 88.2319197073
19.7517 19.0673 24.1549 53.5167566168
17.3084 24.3574 18.8284 30.2800544449
22.7259 21.5761 20.6557 27.2397136172
22.1732 18.342 24.894 120.0474227749
20.877 13.3551 23.9765 60.0173218609
20.9143 15.0506 18.4866 32.1746311653
15.2988 19.3263 22.9209 37.9944056951
20.0896 21.8153 24.1744 68.5820178155
22.3775 22.7944 23.2059 30.2824425003
20.7556 24.0687 19.6474 30.9384156444
13.2514 12.3836 18.0101 28.8802881428
12.9568 15.5069 17.1454 30.1128539451
12.2288 15.9916 24.351 80.3493292237
20.6618 17.2881 16.961 30.358256234
12.3761 24.4915 18.5258 30.3390802681
22.929 19.6965 17.39 30.2261600655
12.7377 21.8672 17.1948 30.2431962245
17.2656 16.1809 38.2661 27.9793098325
13.8272 13.3795 38.7932 29.6670546479
16.2813 12.9142 35.8406 63.3950915689
20.1357 12.7782 39.5168 29.9386952274
18.4497 17.1947 35.4495 116.9782347522
18.9832 16.7844 42.5047 29.043507285
17.6194 21.4188 42.4932 30.8843545696
20.422 15.1831 35.7466 63.4479608108
13.4341 19.4539 42.7752 31.9995246698
21.6721 20.0625 38.2834 29.1626128598
16.307 15.6318 42.5535 27.3300565976
18.6159 21.2491 39.1411 29.8142642943
15.7504 15.6998 36.2841 42.3151351359
13.5391 17.5658 35.6318 96.8472724955
19.9693 15.766 38.3223 27.8106127521
21.9111 21.1572 35.6525 93.9288426186
19.2366 20.0623 36.3839 45.348007177
24.5336 20.9311 36.0686 40.8927161154
20.9496 21.2681 41.0352 26.3087551441
18.8119 23.9265 39.8639 30.9327475966
23.7277 13.4252 39.5248 30.7815787459
22.1322 17.3402 38.328 27.8118984811
13.4413 13.1965 36.0453 54.6160141682
22.733 16.7637 35.8537 62.7593060086
14.2112 22.3418 39.8189 31.5883546068
19.3865 12.5869 35.558 89.1297400057
16.1344 18.3676 39.6632 31.1696738859
24.4653 21.3085 38.7969 28.8195889336
23.9069 16.9934 40.6263 29.3608021343
16.2943 23.9771 36.2493 47.7795464712
18.25 19.1247 40.9058 28.3147106429
14.6901 20.323 37.8149 32.0999673123
16.5309 21.3545 35.9529 94.4087672468
21.442 15.251 40.6634 25.7380756276
19.5062 23.7998 42.7184 29.9024918721
21.5583 13.5623 42.9052 29.1483458289
16.4538 13.8808 39.8047 30.8959192462
21.2154 18.2143 41.8085 32.0293758145
14.9025 21.591 42.3959 31.0276338921
16.1299 24.0753 38.9573 30.2259943789
14.1472 17.0329 41.2028 29.8878314522
23.0278 23.4352 40.707 27.4279918635
12.416 20.4299 35.6427 96.9499733634
21.277 23.9578 35.8238 62.975605533
23.8205 21.7872 42.987 31.5949342225
16.1343 12.4623 42.6959 30.7487881933
18.4318 17.2272 47.4945 28.3271579844
19.2484 12.9735 46.0064 32.2768249761
17.1348 15.3974 45.2999 28.3403504094
13.8512 23.2019 52.9438 27.7686069066
19.2121 18.3543 45.0445 27.344086149
19.9068 16.1192 49.4936 31.1222916519
19.4624 20.3671 51.9524 28.3027693848
13.5924 14.1243 43.357 27.7237401019
21.6021 20.9739 55.7529 29.861848609
16.3054 18.9779 48.0485 26.1692873873
17.2615 20.7184 49.9599 26.8117356697
15.5282 18.1093 44.3483 30.0463219054
16.9765 20.3794 45.5188 28.0502976826
21.7065 18.989 46.2962 27.8143184953
21.184 20.6408 43.7246 29.1661547065
20.5196 15.2939 44.761 28.1114771433
16.6737 22.5696 47.224 25.9810803383
13.0287 15.7042 54.7699 28.4347054669
13.1582 17.6087 45.8139 28.2398581527
19.915 12.792 48.9004 29.9281127148
23.6551 19.8164 54.0495 31.0252184117
12.5764 22.655 46.5303 36.0093515628
22.6735 13.2762 45.7946 27.7489096781
15.3618 16.5235 49.3222 27.5500259393
13.329 13.4129 50.4198 28.7711816242
17.4062 15.0448 52.2408 34.9952248504
23.1671 15.1355 54.4106 37.47746688
21.9436 24.1406 49.4747 28.1202878076
16.0311 19.9364 52.3665 26.1654119284
22.4037 15.1984 48.4647 30.7693133473
19.5777 22.084 48.7205 28.0074200673
20.4217 17.8632 51.7016 32.010254681
20.7049 19.4619 48.7131 29.3934470678
18.7121 24.2104 52.5082 28.4668788889
13.9816 24.4333 50.5462 27.1429714183
13.7442 20.8174 51.1059 30.2486908055
16.8728 12.5716 53.3118 28.6658601397
19.6077 22.3762 45.7485 31.1410806595
17.2193 23.7723 50.5096 26.7216233489
16.6251 22.7235 53.5886 29.5927437498
24.4946 22.3805 47.7438 28.7149197463
22.6199 21.006 49.8675 28.9419542625
14.8132 17.3551 51.8257 31.2116761999
12.9573 15.5988 48.514 28.3353320638
13.6554 19.2751 48.128 28.9643252769
18.9027 17.1164 53.8594 28.7506121307
23.3171 17.5089 52.4195 33.6750208815
19.4979 22.6281 55.6259 31.0190472038
14.3335 14.9106 46.1967 29.549121562
15.9594 16.615 54.6235 26.8008228585
18.1345 19.9978 54.5165 26.8546294169
20.5005 15.456 55.6268 32.6372554805
19.9318 18.5866 56.5512 30.076554089
21.5548 24.226 54.5643 26.3338497398
22.9637 16.585 45.8956 28.1674812671
23.9312 22.8689 54.0132 28.0796115284
14.1531 19.6023 54.9779 33.5315066001
23.6999 23.7859 45.1328 30.5812944999
21.145 22.6421 51.9597 28.0716483976
14.884 23.0463 44.6945 35.1218401633
24.4351 24.0468 50.6933 29.0455524248
16.3169 13.9952 56.017 30.3994016858
17.3866 14.4916 49.5355 28.9629328911
22.8751 13.1168 50.263 39.9593837987
14.2728 22.2132 48.7039 28.1409398995
24.2979 19.9694 46.9641 28.9370536575
16.3781 12.4162 45.7295 33.3932242133
22.9127 12.3262 56.3161 30.4164289319
19.1821 12.8905 56.0125 29.6310603728
24.6314 13.1267 43.4616 30.9049152179
12.3236 35.412 14.7412 28.5408212112
14.3736 26.6153 9.0137 29.4661680289
13.3592 29.6426 4.42832 33.3126960402
23.6859 36.5329 7.32945 28.7215039375
17.263 26.8092 10.6775 32.0313336961
20.9812 25.9858 8.58504 29.0138425133
21.3659 26.4053 16.0375 33.976460862
24.62 26.5662 6.56495 27.8413133124
12.933 31.3482 8.53948 27.3343685879
14.1719 33.1123 6.50722 27.8225086027
17.0442 30.1232 7.07988 30.4451487734
16.561 32.4208 5.4307 28.8805517719
18.8245 33.5914 6.53675 30.4635863263
20.7868 30.5446 4.50749 29.3612549037
21.1568 26.767 3.78398 28.8036086532
19.4579 33.038 17.0833 30.0529892822
23.0774 24.6909 4.49692 27.6570880304
15.5178 25.7259 6.78914 28.5037484997
21.1184 26.2661 13.0249 33.7386182425
18.4404 35.9498 5.11341 28.9057038847
22.9902 32.7856 13.7837 33.4290654681
14.4649 27.9392 12.2217 29.1470183583
16.2323 34.3836 15.0239 27.5656641974
19.2857 28.2139 9.34008 26.9326505259
19.0659 31.0778 10.4165 29.6843004553
14.378 35.807 6.5421 29.8171893402
21.5227 32.9223 6.2885 30.036419239
21.4194 28.5397 11.2735 28.2530918216
19.8473 30.7515 15.1296 33.865091293
15.736 29.3212 9.51863 29.015369696
14.6698 31.7363 10.8463 30.1674173981
17.9944 31.0505 12.8973 33.2738535405
20.6001 34.9939 10.333 30.6090486795
17.3726 27.5651 5.81949 28.751430277
23.2285 27.5038 9.21657 26.2829102279
22.9926 28.5294 4.77539 29.7772320803
15.9796 36.3306 9.03942 33.2157822734
16.6214 34.0327 10.6889 25.9110481569
21.0016 34.8127 13.325 34.3030250977
19.6983 29.2301 6.81551 27.9521646381
18.5436 33.3054 9.17453 28.4887950992
13.3013 34.3075 10.0725 26.8886550131
22.7401 33.4142 8.82467 29.2018241498
12.8325 31.6362 13.073 30.1615578631
18.4429 35.4134 16.7461 26.7972688073
15.6667 30.0335 16.1053 30.2983717029
24.3051 35.2754 4.98611 28.2670116275
13.1136 32.3976 4.3814 26.4943002974
22.3426 30.2333 8.00041 27.9048130466
22.1171 30.0363 13.7342 30.9597908659
19.026 28.259 16.0362 31.4582481668
22.122 31.2506 10.6075 27.1181111231
14.58 35.0937 12.8501 26.9937408782
16.5992 28.8905 13.8384 29.5806294513
13.4335 29.067 7.31079 29.3544481771
13.8343 32.4268 15.619 31.0970714453
14.1838 25.0256 4.66268 29.6137167077
18.0275 26.4003 13.8901 33.9918372853
17.8746 34.2728 12.9785 27.5277789594
23.061 36.4318 14.9767 29.8026036136
23.6927 28.2789 15.2853 31.6863357495
19.7099 25.7119 5.9207 31.6415741481
13.8835 25.3063 12.3832 28.0167153927
23.9068 33.6379 16.309 28.5677354472
16.0276 35.9637 4.00392 27.436400864
14.0774 27.8532 19.6606 28.1529273996
15.3265 25.4765 17.7215 30.3619423432
18.5164 27.9816 21.1438 30.9470153522
21.9179 30.8498 19.8687 29.7426162261
14.5833 26.0301 23.8723 46.1753203152
21.8528 26.4148 21.2852 30.2454480514
22.103 28.2197 19.2725 33.200795752
15.9758 26.8637 21.5765 30.4392717551
14.5462 30.3442 21.3242 29.0024467772
17.4065 30.4807 19.9674 29.3694379863
20.8129 33.5983 24.7388 94.2169024524
21.9429 32.9793 18.1725 30.5971117074
15.6 34.2464 18.6082 28.400412515
16.644 27.8445 18.0334 28.3336830017
23.9999 31.2254 21.3644 26.0781858442
19.0894 33.9776 20.8606 30.0912909799
16.3306 32.6782 21.4818 27.976461707
22.6254 35.4801 19.3875 28.1654665962
15.0966 35.2811 24.219 59.0184192373
21.919 33.4791 22.0658 29.1599490537
19.3226 26.3136 24.1411 64.2145542197
21.7866 27.0969 24.0956 60.2141707583
21.6965 29.9102 23.9474 63.0883782324
13.3863 31.0478 24.1717 56.0568701143
16.2064 32.5918 24.1609 66.2451071661
14.9534 28.8617 24.6924 99.8948730477
19.796 31.1454 21.7486 26.7529136437
19.4319 26.5033 18.6852 28.639817895
17.6907 28.8929 24.358 71.5251334499
13.5008 32.6123 19.4892 32.1220717118
15.0101 35.9705 21.5509 30.3912128743
12.2026 34.8066 21.4474 30.0282913854
24.3745 25.6304 21.818 30.8585401925
18.9084 31.4035 24.4169 68.5671196654
24.3754 36.7425 17.7272 30.6889910986
17.1703 31.9812 17.8472 28.3619184023
17.5308 36.1943 19.3863 27.3915570149
23.4613 34.4099 24.7158 94.6086999609
24.5649 30.0718 23.7654 54.318025967
23.5099 25.125 24.4626 82.3160091663
19.3914 36.017 23.0496 28.6159465945
13.0787 28.9041 16.9263 27.7513011534
18.6903 25.1606 35.9535 90.6578086272
13.441 27.5682 35.9571 64.7578074604
12.6584 27.9673 38.7588 31.7329024143
15.8333 28.8491 36.0047 73.3990229772
18.1894 27.8903 36.5921 41.5000863192
22.3568 28.2376 36.5538 33.9564207209
12.4873 33.2395 38.5807 26.7426245399
14.5734 35.2115 39.1794 29.9070165768
13.5454 25.5534 41.6584 35.5121816591
23.2148 25.7216 35.5459 98.2861842761
13.5966 24.7552 35.8453 89.3040615374
15.6111 32.4118 38.5729 27.6679258007
15.535 31.4399 35.9528 67.9280550686
15.7802 28.6448 38.9999 30.3585494672
20.2013 30.1688 35.9393 90.579620359
24.0928 32.9284 36.423 38.4997706726
15.8249 26.3212 40.4579 31.2038699001
17.1014 33.0528 42.0896 32.0870837356
17.4723 35.2132 39.7295 28.5935623377
12.7604 32.0482 35.8477 74.0637745502
17.7963 26.3462 42.4934 32.9334675103
18.0435 32.8289 35.9107 74.3225780123
20.7957 36.1635 35.8598 66.6609627857
18.2643 35.4256 37.1045 29.073266858
23.5496 35.516 35.5096 87.5548038366
22.4823 26.6847 39.1056 29.5707718276
19.0995 29.2708 39.0757 30.4937606566
12.9942 30.8992 40.0854 26.1237384162
21.8816 30.0091 38.5417 25.4351633768
19.3924 28.9274 41.7113 30.2243058217
23.4409 25.9805 42.0553 28.5812611629
15.5771 30.7957 40.9464 29.9946975058
18.5003 32.1904 38.9484 28.6322978486
13.9224 36.4811 36.7743 32.616026813
23.9804 32.7222 39.9111 27.2258785937
24.2581 35.4127 38.6749 30.2342452306
18.9851 31.3087 43.1479 30.1626161144
22.1272 28.7925 41.036 31.9547130359
21.1256 32.9738 39.0472 27.1990060094
20.1028 36.05 41.0576 28.0198289478
21.2312 32.9616 35.9533 65.6862515443
21.5595 36.1917 38.6039 27.1162647751
12.4216 33.9015 42.0413 29.884161415
24.2085 32.9378 42.453 25.9035977488
21.221 33.1849 42.0189 30.5359444376
24.6201 29.7625 35.7469 91.006506293
16.3679 36.2395 35.5766 104.8729000522
21.1448 24.2183 38.5467 30.5200788064
21.3865 25.4851 43.7751 27.4743241129
19.3947 31.6101 55.1409 27.5226529925
23.5612 27.8544 49.1256 31.300827633
17.0533 31.5996 49.259 30.6495841498
16.6835 26.8344 44.9857 31.9120745012
14.3626 34.248 55.484 28.1762550756
20.8309 29.5736 46.0415 30.4309852969
13.502 32.4616 44.3945 28.7993771173
24.0551 30.5298 55.8084 27.9418212442
14.7145 29.8643 48.2145 31.2837265116
15.9252 33.6087 51.2694 30.9868685359
15.972 34.1359 44.3123 30.3997114443
22.2919 35.3297 43.9881 28.3425004788
22.4041 27.3431 46.7594 28.2383553295
19.1883 34.8145 46.5085 30.3985599392
22.0118 31.905 44.6867 30.0249924923
22.3683 34.3157 53.1973 33.1863343641
23.9385 30.871 49.2737 31.7883052616
13.3527 35.1306 48.3702 31.9659436494
12.0879 34.4506 53.1421 27.4384952484
14.0997 29.8847 43.4779 31.3262035048
17.2831 32.9519 46.7988 27.3387861305
14.5678 33.0694 47.3459 28.534477156
16.9831 30.8469 56.035 28.301052397
19.5399 36.1115 44.1228 28.893227364
21.5777 33.5605 46.8961 27.6665388091
13.9546 25.8975 44.4879 32.8091891928
14.7045 26.2872 53.3352 30.926187989
17.6078 35.5553 53.8844 29.4886064185
18.9495 27.602 50.0535 32.1190680045
19.5531 27.8297 54.0596 28.7087596648
18.0941 30.793 45.6103 28.5312649853
13.4574 28.311 51.3721 34.3045901066
17.5208 28.2821 56.0479 30.662548351
16.9733 26.0788 49.2002 28.5194773234
22.6155 33.094 56.5749 27.5762073895
14.383 27.1958 48.8846 28.6681580103
24.5293 27.2674 45.091 30.0718582727
19.3059 30.052 48.675 31.4788035706
17.7594 30.6649 52.1304 34.366904127
21.5524 26.7682 50.3816 30.3589063763
23.0829 29.7093 53.3099 32.7213541692
24.2741 36.655 53.4847 32.7535270312
12.8881 33.2737 50.6543 26.9978848812
15.6155 29.3759 45.5701 29.8410505583
18.6091 33.5105 52.5669 27.0678993412
13.7254 36.0504 43.7257 30.0583608135
21.2181 31.9353 49.2031 30.5471192312
20.7977 34.0009 50.8509 31.0310016204
14.8434 27.4105 55.8239 33.3303187594
20.2619 34.3274 55.1785 27.7316157532
17.3269 26.6062 52.5666 31.690945208
17.972 24.9561 46.9248 30.4731789411
22.3598 36.2268 49.4996 27.2391304133
15.8607 36.4688 51.4489 28.5117027134
22.3629 26.946 53.3053 30.5884472562
24.7822 25.9296 54.7341 29.4793407063
15.6274 32.2534 53.9121 28.503335635
13.4426 31.087 52.6305 34.0043441411
20.3418 30.0102 52.9866 30.0652254802
20.874 24.9659 46.7531 28.8075013639
19.8531 27.6842 44.3206 29.4758383955
12.9552 27.2226 46.851 30.0169304175
12.2163 24.761 55.1741 31.0082297719
24.0706 33.9762 49.0605 29.159287237
24.4528 34.5394 46.136 29.2414777432
14.5835 39.0581 6.05174 29.8587257233
23.8275 45.0671 3.76765 32.0501212685
21.0179 37.7227 6.12197 33.0046137852
17.2201 40.3205 5.90236 31.5413061422
23.6606 47.773 14.9695 30.6834341924
23.0599 37.3086 10.4827 31.8461199261
15.3485 37.4193 11.6048 26.0927711061
20.3689 37.3017 9.28862 29.1512822824
13.4772 40.3044 8.35123 28.8696847416
14.7117 44.7135 5.66531 32.0000211716
14.8701 45.3294 9.63281 34.5637172768
16.9643 41.7956 8.54376 30.2452351932
20.6005 40.3967 4.69146 29.260713157
12.5735 37.0582 10.4639 30.2160047766
23.4967 43.4748 6.23928 34.3058266078
16.0358 48.9015 11.5215 29.068486585
19.7072 39.672 13.9412 28.5674882338
20.6573 47.7439 5.30062 31.9536890723
18.7215 43.9811 8.19733 28.0848522056
23.9398 43.8172 8.99244 28.9892893445
16.0812 38.5615 14.6527 30.71388436
24.5139 41.5687 12.7458 29.2190615026
14.1303 39.9419 10.9244 31.0486665111
19.1585 44.0014 4.56673 29.5650568928
19.6898 40.2188 7.95263 27.6335105173
17.821 37.7383 7.19461 30.628852683
22.8727 44.8598 13.9901 29.0397647227
18.5927 47.574 11.7612 29.6563683814
22.954 39.7322 9.11204 29.6142028679
12.4403 36.8994 4.63227 28.1795641927
14.8127 42.9011 14.1696 28.7186272838
14.2937 43.1162 7.84161 30.2817851198
16.8889 40.7322 11.1026 31.5125079712
21.2266 44.3417 9.56604 27.0317524662
21.2788 41.2623 10.6784 30.2950494393
14.3673 48.1072 9.48365 36.9441592854
24.3012 40.8216 5.23364 30.3157731017
18.9846 46.1127 14.3596 29.659415348
21.5727 46.6693 8.17617 30.6705127868
17.6689 44.9857 10.7135 33.3351629037
15.4021 36.6698 16.6115 26.6371866856
20.7371 42.6231 6.61252 28.7404865205
21.1479 45.7306 12.0408 30.1841484804
20.0583 36.8357 15.3307 26.793096058
24.1454 38.509 12.8851 30.7710713823
19.4147 48.2717 9.00856 30.2945555464
17.7982 37.2694 13.0123 27.6820245584
17.4126 45.5383 6.08805 32.7783970058
17.6748 40.9584 15.7346 28.2520584697
19.1894 39.2127 11.2985 28.6858311877
12.966 46.6794 13.5948 30.2859297182
13.5808 44.4842 11.9979 33.6700586412
14.7097 45.1059 15.812 26.6409437924
14.4913 40.5841 15.7522 28.7347617262
17.1359 43.0434 12.8578 31.2933315868
18.154 48.0799 6.18319 34.2202961627
19.3925 43.3095 14.6402 28.3135277395
16.6288 46.8697 15.7312 27.4425955021
21.4797 42.0893 13.2026 27.9086593044
22.3745 39.6976 14.9106 29.2213320103
13.766 40.5055 3.79209 25.4941945831
15.2552 48.8909 14.3247 27.7338794141
22.2796 48.1381 10.8202 29.9011635242
23.8691 48.5194 8.025 33.8859118492
23.248 39.1266 18.0681 30.580063271
15.6681 42.063 21.5192 27.526242737
15.2903 44.7945 21.8933 25.9837086586
23.8146 39.4633 24.1122 65.7885061971
20.9013 39.6699 21.4466 26.8235446299
22.851 44.279 16.7353 30.7057326106
17.1135 43.5294 17.6984 29.6443550003
19.9491 42.3769 19.013 30.7118193602
20.8324 38.0358 17.5642 27.2235771365
24.0065 41.5242 16.5747 29.9134364681
18.8226 39.9038 18.1452 30.9225514349
22.1285 42.4988 21.1403 29.6273791383
12.6168 38.6658 21.7327 30.3801039731
12.5474 41.2831 21.1044 26.7310126764
14.6161 48.2118 17.8654 29.4910829743
19.9144 44.4429 17.2714 29.6614116791
24.2004 48.5392 19.4822 27.6242018492
13.6533 44.3393 18.7033 26.9647335857
14.728 48.1146 21.0264 29.3436211514
12.6546 44.2424 24.2497 61.206392849
14.5906 38.7724 24.4493 79.9414989314
15.0996 41.5208 18.5358 29.3417717745
17.9655 39.0509 23.0578 28.2326460897
16.4595 41.2836 24.2929 74.2760919726
20.8792 39.74 24.2691 65.9793128427
21.6798 42.5391 24.2946 66.161493456
16.2565 45.7834 19.1561 25.8497906073
18.4994 45.3904 21.2219 28.9347704961
17.8484 45.3066 24.0712 42.3125712656
21.4276 47.797 19.3276 31.3371708017
23.6668 44.7808 19.932 29.0745308391
18.843 42.7681 24.346 72.2393426601
18.7593 41.856 21.4496 28.9890414695
20.0126 47.6633 16.6105 30.5317167654
15.0686 45.464 24.572 91.3328054111
20.4527 36.976 20.5096 28.9084926786
19.9453 47.4661 24.8776 120.0457994851
16.3329 38.6222 18.5908 29.6562391916
21.8438 45.5244 24.0051 45.9094235161
21.2194 45.7952 21.1847 29.568695865
23.6369 39.3403 21.0192 27.8620075828
15.7001 38.7881 21.3709 27.9441061479
13.3339 41.5124 23.8297 41.9345975142
21.5033 37.0184 24.3906 69.2825075248
24.5421 48.5706 24.0556 57.6871866763
17.9575 48.1398 21.235 28.6621138318
17.3249 36.9682 24.7409 107.421080284
17.5107 48.433 18.2373 29.0254329002
24.6222 45.8657 24.1308 56.6840280982
12.59 37.1489 16.8331 35.688281939
24.4634 42.796 24.2814 72.4336319243
14.2973 48.3514 24.31 69.8324896587
17.5855 48.9579 24.0012 50.0599226356
15.5083 39.8695 38.5795 27.2526355021
24.4388 38.5223 35.5337 76.805868675
13.9458 46.1177 39.0078 28.117923375
16.8067 41.4115 41.9608 29.2860407633
17.8762 37.9741 40.5359 30.6842655128
12.5723 40.5313 35.7243 81.7161482117
16.9596 38.9405 35.6704 74.5343411542
13.3069 41.6194 41.9345 28.7018716706
16.3164 47.4984 35.7317 61.8692269854
13.4632 44.8827 36.6248 31.0019034634
22.2726 44.747 41.606 29.2031129786
15.311 41.2307 35.8113 68.4012708998
19.2187 40.7882 35.6713 85.0038649928
23.1775 44.9932 36.3017 59.8734657441
21.7992 41.5453 41.226 27.8702804391
12.9776 38.6741 38.2907 26.4550705951
13.2108 43.1411 39.5515 28.5622277102
16.1777 44.7257 35.558 87.0254736169
17.8167 38.9947 43.0955 27.789424128
18.9494 48.7387 35.6063 82.1960909363
20.4619 45.916 35.5258 109.3875046969
21.4951 39.0224 35.7684 65.3342543565
15.5727 42.8023 38.4456 29.0856256295
21.6518 38.5374 41.6004 30.8875586726
14.9274 39.3765 41.0597 25.2578785739
18.5984 39.8834 38.4177 28.8412574217
12.9271 47.1325 35.5671 89.2102819096
21.9848 47.2972 40.2853 34.5791373382
21.3079 38.9418 38.6422 27.2027251216
16.6655 47.5923 38.7164 28.1222315651
16.8552 45.1141 40.0269 28.9080509729
15.9564 47.7315 41.8652 28.25925427
19.0456 41.9484 40.3412 30.9112646116
18.7284 43.8511 35.8755 55.0887908561
20.9294 48.641 42.5542 31.2539595972
22.2278 44.007 38.8259 30.4410664315
17.2757 44.351 42.5605 29.4902580602
19.1722 44.3842 38.5527 30.7858020809
23.581 41.283 39.1636 24.8461407515
23.2076 41.1955 36.3283 51.3537899273
19.6337 47.6714 38.3876 31.123151889
24.4859 38.9487 42.3413 29.3738405122
24.6154 38.3502 38.411 27.0063993914
13.556 48.7159 40.7588 25.8772715143
13.5321 36.985 41.2389 28.2340125899
20.1401 37.0409 55.6109 29.0799405206
13.9633 45.2735 51.6711 30.3583609387
13.1403 48.187 51.733 31.8312170523
15.2381 41.9013 48.3003 30.2092052176
22.9812 39.9669 55.8947 30.6816526393
22.169 40.1184 46.8057 29.9105091296
19.3658 39.4879 48.2635 27.6520646361
22.9455 37.2087 55.9318 31.5234039734
14.1984 47.0726 43.8112 27.2294425786
16.8679 44.2652 47.0874 33.9682640489
23.3269 44.3112 52.2908 32.840884462
20.4408 42.7033 45.767 30.6717983426
12.6638 39.0611 46.3381 33.444461196
22.8834 41.8145 43.9512 29.7700598515
24.194 47.2316 53.7924 28.3121561689
23.0178 46.3605 45.4718 30.0804658934
17.418 47.2023 45.4845 28.437270019
15.3396 45.4778 54.6684 32.7759791432
19.1091 43.7327 54.0974 28.8033019853
20.4717 46.4231 44.4954 28.417699632
16.1501 40.2501 54.213 27.3630804479
22.802 46.5125 48.3197 27.1265153331
19.4179 46.9719 47.2591 27.7597329137
24.6414 41.2097 53.6722 29.1645218943
19.8812 40.2846 54.6883 26.8909846892
18.5611 40.5066 45.7757 29.9196923351
21.0384 39.7874 51.4141 33.0883835208
23.7098 37.9286 51.0395 35.2505835183
20.2695 46.6343 51.2382 29.8516437733
19.6786 46.6156 54.1147 28.2530255416
15.8603 41.5608 45.3606 28.8328610765
16.5412 42.9241 53.4581 28.4099199137
16.8982 39.0488 51.779 31.3156306429
20.7648 44.4177 48.0085 30.7759302478
17.7152 43.1659 51.1193 29.558151771
21.2935 41.9272 53.5432 30.5620568123
12.747 42.5755 49.715 32.5134057448
21.7036 41.6745 49.2389 28.6882640803
13.9687 39.3942 48.6615 30.777916494
17.8261 41.761 56.4075 25.6393401456
17.9912 47.4921 49.6409 35.3101763902
16.1613 44.9133 49.7419 32.7921434641
16.3981 37.2066 44.9566 30.0927009744
24.7023 47.7295 51.1452 27.5585665309
17.1073 47.5838 55.1035 36.1712341279
22.1809 48.4924 50.3989 28.3530154655
24.4281 42.2018 49.0169 33.2751540331
13.1849 41.2354 53.7176 32.2533342025
17.4635 40.9861 49.6946 30.7895487259
19.0298 38.0537 53.2179 27.7376913334
14.8245 48.1759 46.3386 28.0010538135
13.3702 43.1174 44.2927 30.7885632213
14.6241 39.3426 44.4132 29.3054722018
13.048 46.8364 47.8054 33.7796151707
22.3772 37.138 46.9599 30.3815355827
20.6158 43.9806 50.8849 27.0759573085
20.507 38.6224 44.5754 29.7906878316
14.9044 38.076 55.3931 27.9598001339
17.7837 37.1419 47.3569 29.8661071358
24.5089 43.9974 44.7176 32.1182993471
15.9734 44.8788 44.5314 26.0022141023
19.9438 44.127 43.4705 30.6666245408
13.7604 36.969 53.219 30.9340813863
15.4573 37.0635 48.6778 31.1540580146
15.0491 42.944 56.3656 28.1960049782
14.5044 48.8786 55.5553 32.3582590677
19.6214 37.1404 50.3357 34.0108086989
21.0775 45.815 56.3269 29.419073664
21.7765 48.5115 54.253 27.2147247407
24.5893 45.0647 49.9773 30.4232966704
13.0948 46.4607 56.2987 31.9205720761
27.4079 1.97129 13.1568 30.7597236703
29.1531 2.04202 6.5673 32.3214654028
31.2975 1.80855 8.39192 30.8311278321
29.084 3.0962 15.1879 25.8424811663
25.7903 10.4886 14.1448 31.6817821274
24.5364 4.24965 10.4404 30.6204316873
26.1743 4.27596 4.24615 28.8953214562
32.0802 11.2056 10.857 29.1096013103
27.923 0.919247 9.07112 25.552540161
30.0162 10.8881 14.5569 30.5863834047
24.9941 7.3247 13.6602 29.1291579123
25.506 2.31498 8.68115 29.3566965713
28.0178 9.64513 6.94209 30.1130524443
33.5982 0.206538 8.30751 27.9261595652
34.674 11.8164 7.0528 29.3636271072
31.3602 1.23284 4.18859 30.6078711247
33.9553 7.95432 9.8716 32.2888928465
33.1636 9.11678 4.96216 29.5990879176
31.9572 11.4905 6.26867 28.8306786775
34.916 10.0677 11.1809 27.4106498066
31.0613 8.26494 10.0308 33.4204504689
26.3282 10.1848 9.00945 33.9222321818
27.4729 4.44677 7.11482 30.5214227166
29.312 1.80498 11.084 28.8076472467
27.0379 1.38628 16.5391 31.2355328861
30.4194 4.44864 11.4134 30.7769159553
35.3443 2.28287 8.88299 27.9836412647
36.4335 3.37403 6.78637 29.5230698173
26.6883 6.07653 9.42224 29.6635727877
24.8976 7.78229 8.66669 32.6660271344
26.7522 7.00474 4.63681 30.5638837026
29.7584 6.05488 9.06041 28.2810923962
31.9629 4.47457 8.26368 30.633056487
35.547 0.588 4.74939 29.9373522403
32.9652 4.12694 12.3479 30.4719105896
34.12 10.5811 13.8126 30.6499761826
28.9537 7.11352 6.37349 29.1701175978
27.3361 9.94463 11.8242 35.0812264614
29.8304 9.0557 12.2317 29.6186555755
31.1542 7.34998 4.76425 29.5339318636
30.1923 11.0129 8.27832 32.5012355087
28.2227 10.4827 4.16251 31.5141420866
31.3106 0.074577 12.4352 29.9541913902
26.0175 4.85249 14.4334 29.4894871682
36.6433 11.6014 14.3736 30.8913235717
32.4223 4.96994 5.46651 36.8392267226
33.3139 7.66148 14.7417 30.9651991734
31.1575 1.16207 15.0226 30.2762250846
34.2983 4.89885 9.81319 37.7547921248
34.9807 8.94679 7.25247 30.80726629
33.8469 1.23573 11.3991 32.2688183351
27.2462 7.15286 12.0394 30.0525097417
29.0442 5.4042 13.634 29.1460422011
30.515 7.8368 15.0574 33.0291359081
31.8136 5.04759 15.0904 28.9617985049
34.6991 6.79763 12.5693 33.4000262151
33.8417 2.21995 14.6225 26.679548084
35.4366 5.9745 6.17132 33.6270241379
35.5364 3.98985 15.8998 28.2837696134
25.071 11.0445 5.22236 30.3549458217
35.8421 3.69574 3.6021 30.25714571
33.717 1.45911 17.8215 30.8133440937
27.3596 2.1729 21.0199 32.5147463026
36.2722 10.6354 17.4922 26.6172020788
33.5359 2.26164 20.6713 28.3003497634
36.8182 9.85827 20.157 31.7914566101
35.5754 6.05834 23.6152 43.6331693232
25.8147 7.93994 18.9661 31.4001721311
29.7251 3.93332 17.8822 29.3380711847
29.569 1.82137 19.4135 30.3393753512
32.014 11.227 24.3433 75.9702711477
32.6431 4.08143 17.6689 29.0977125495
28.868 7.60284 21.2857 31.3966232824
35.5805 1.26188 24.1279 55.1081940072
31.7438 8.52189 20.475 29.7925794819
34.0083 7.15365 19.5425 28.0270312163
25.2367 11.4987 22.3434 28.6280019087
28.5976 2.22208 23.2941 32.3949696421
35.3896 11.2791 22.0312 31.0369463196
32.4379 5.07724 20.8444 37.6281811326
31.0253 0.691582 23.9225 49.7751344114
32.9792 2.71397 24.5344 116.1752721819
24.8131 7.29966 24.0659 62.2824891873
31.7611 11.2296 20.2912 29.3352205025
28.0898 5.87116 18.5879 29.7076828249
27.242 4.94911 21.2808 29.6028903315
28.0458 4.75606 24.2208 82.4343872543
27.5854 10.0351 21.3962 27.9761569184
33.1508 5.18595 23.7267 37.9250042715
28.9429 7.33167 24.2377 69.0423520305
35.4764 4.41999 18.9423 31.4466915985
29.4115 12.3351 24.3054 70.964807686
25.5963 5.10558 17.0282 33.4936377092
29.5895 12.122 21.5026 26.8596830605
33.2729 9.34765 23.0793 28.1096560509
26.7083 9.15118 24.1816 67.8867532046
36.161 7.47794 21.1977 27.3541592244
31.6539 7.40162 24.4645 102.1771970301
36.5854 1.97437 17.7065 25.8107905852
35.8565 8.65243 24.3009 106.4825551257
30.0097 8.08051 17.9508 33.2035426558
28.2114 10.1315 18.5829 29.9956069476
26.4028 12.3524 24.6295 104.901660234
24.987 0.713688 21.7884 27.081029048
31.5042 0.849905 21.3904 27.8964519887
35.1963 0.412138 21.428 29.3229088819
31.0338 11.2542 17.4178 29.68131878
27.292 0.296648 24.5319 102.4722397128
34.7699 8.19847 17.151 33.3687167895
25.7542 10.7354 17.0873 31.053869497
25.1727 4.31999 24.3096 86.611291268
25.9847 6.64446 36.1661 74.0344817064
31.9358 11.9717 39.4769 28.8891250565
29.9362 12.2215 42.2565 26.7529110762
30.8172 2.23731 35.8007 70.4558640093
28.1291 4.61947 35.8522 88.9441430806
34.5085 0.946048 40.31 29.6742061113
34.545 1.48133 36.0295 61.8986257767
30.075 6.38814 41.4627 30.1894714463
26.5095 8.14268 38.3099 27.1864260738
26.3326 4.14327 38.3599 28.8170258611
30.5632 5.72392 36.829 36.72278229
29.8378 8.95775 40.3939 30.0194391964
32.8057 4.48823 35.6931 78.8662057143
34.5087 4.06702 37.8317 27.1331774193
25.2828 9.66939 35.9267 97.8650471883
30.3712 10.1039 35.7557 126.9114056759
27.8502 10.439 41.7876 29.6485620574
33.4181 9.40826 42.4486 26.6773504038
35.2526 10.5003 36.4891 47.1941181583
32.7505 9.18182 36.5658 35.7995596313
29.3742 8.22227 37.7974 31.8000528811
32.6285 9.20275 39.5161 28.1592630854
27.5755 3.02807 41.3265 28.528155999
34.3258 7.00497 35.4358 116.6034957011
26.1309 0.961045 40.2531 34.5639985314
24.9561 0.70269 35.7191 86.8249571117
32.385 1.83025 38.0896 26.464822413
36.3956 11.5693 39.3572 30.175350827
27.5022 11.1274 36.7723 34.9050822602
27.3844 5.88236 42.3064 26.1753767495
25.5056 6.33557 40.1514 30.0326951734
36.7912 1.93705 40.8638 27.9327540764
35.7208 9.26939 40.2011 28.6394472539
25.7987 12.0487 40.4137 29.5709413216
32.5191 2.90936 41.2007 30.4402226583
30.9516 4.51312 39.3364 30.0576147215
34.4793 6.88709 38.6612 29.5834723971
34.4553 4.86324 41.1257 29.2375136286
28.938 2.68368 38.529 27.3649497532
32.6668 6.45344 42.728 32.1333411899
30.1774 0.176054 38.6212 29.4349445229
27.4276 1.7427 35.5949 83.3621609278
24.4951 3.2417 42.1664 27.3235941732
29.3415 0.065482 42.114 28.8212379418
35.4391 7.57568 45.952 35.1269656285
27.0395 3.7987 46.4473 28.571644449
30.4432 0.50874 47.1448 31.8861101799
31.4147 2.64219 43.7532 28.6733297614
35.1339 3.38574 46.686 33.5890168663
24.9704 8.16663 47.6526 29.2029032514
29.1273 5.0253 48.0332 32.5813936256
32.747 6.49091 45.6489 27.9826205883
36.5488 9.57329 51.6349 32.6198536739
35.9041 0.848903 52.6478 33.7170074785
34.0303 12.0854 46.8941 33.2568179554
25.5816 4.73154 44.1688 28.9232793302
35.8529 9.23806 56.3823 27.5264684162
31.1072 9.77212 54.6716 27.0350737955
28.6676 2.37202 43.8981 32.5430179373
36.0015 2.00822 49.0613 32.0676060475
29.8217 5.2644 44.5709 29.4534843973
32.0091 8.07494 47.7935 31.7222672445
29.8071 8.175 45.2115 28.1239624935
32.3734 11.5767 50.8622 33.6997012891
36.0633 9.24615 43.5338 34.5872911506
25.6804 3.51407 51.7988 29.5483344888
28.1692 8.34205 55.1766 27.8339377583
26.1369 0.935224 50.3499 29.9021148157
31.1993 3.02877 48.1842 30.4033798644
32.4979 3.97188 46.0836 28.4115905494
27.7798 1.28906 47.6133 30.3453058617
36.375 4.73984 50.6059 30.888504872
30.6179 6.85908 55.0809 30.1406009847
27.9096 5.26644 52.3383 30.1811118286
25.157 5.23188 48.1288 33.1495761702
29.2232 9.84528 47.5509 35.5553631723
32.0644 7.0489 50.1733 33.6466497987
29.2936 6.91982 50.2151 30.9190344848
25.0368 8.19319 45.051 29.989406898
24.8576 9.86531 53.0552 29.979814226
27.2411 8.82327 48.9905 31.525723557
25.4339 0.50226 54.8861 29.3824864657
26.3063 10.8104 51.0107 27.6021718727
28.041 0.433399 55.1574 30.1049142297
26.799 11.201 44.5132 29.2625398129
24.7792 11.3289 48.6278 31.6245851755
35.3513 6.5767 54.8604 27.2133111286
34.0948 9.01549 53.6532 30.3409779491
36.4169 3.85237 43.1531 31.1714907358
29.6593 4.18179 54.2522 30.0054247597
28.3975 2.98545 50.2633 28.3791814014
36.8201 6.77725 52.7534 28.4736384581
32.2851 2.72835 50.7388 30.7052917201
24.7759 4.63543 54.8477 30.8816981376
33.5268 4.98392 51.2168 32.3704745756
32.8477 5.25987 53.8517 32.0029403687
29.8499 2.33728 52.2612 28.5925353474
34.1741 0.681339 50.5219 30.0680386641
34.5936 9.49469 48.0342 31.5928269454
28.3089 8.99519 52.0986 30.0211599198
33.6334 9.42691 50.8963 28.2551214357
30.1716 10.9601 52.5995 29.5497341597
26.18 7.19917 53.6734 29.6013803712
35.2882 1.45431 44.6886 32.1452889482
28.7365 3.08015 56.5334 31.7103612912
34.3188 0.88057 54.9556 29.774877854
29.9002 12.4981 46.9555 30.4146102284
33.7419 11.4293 55.6813 29.8714197092
27.6689 8.23684 43.609 28.352264884
31.3617 9.91259 44.0231 30.6745574774
33.1458 3.15355 55.7429 28.9547422176
30.741 11.9765 56.1918 31.403889349
29.4598 17.5432 12.0404 29.0888346995
29.1839 14.6818 6.14824 35.3684427862
25.7786 17.5723 6.40667 31.876817467
36.6185 15.4214 4.67967 28.108093028
28.9387 22.8852 6.92292 28.605555241
31.4528 19.4778 16.2785 30.178280064
29.8401 18.7965 5.76389 28.5668901755
26.0927 16.235 8.92246 31.3775072129
26.3715 21.5211 9.30363 29.1608488953
33.6753 23.7421 5.3607 30.4197706757
35.4429 23.7511 15.5332 28.232168014
27.1815 20.4299 7.09569 29.1885534506
32.4898 17.9385 6.15942 30.3230055366
32.3046 17.3717 8.90056 33.5611549927
25.662 14.4939 5.37382 26.2345665463
25.301 19.7975 11.2331 31.5404350065
35.358 20.1686 15.9282 30.3579444621
33.5238 20.5128 6.07745 31.2434798042
35.9621 24.142 7.92709 28.9931926048
31.9976 14.2558 6.46777 30.1500664094
35.0152 21.4633 8.21003 29.7315963027
34.6472 22.373 12.6374 26.1137396935
26.2981 15.999 12.982 34.2317232694
30.2058 20.965 13.4901 31.540939113
30.4969 15.2596 14.406 28.5943881671
34.3945 12.7093 9.82769 28.1103310786
30.7117 21.4793 5.20075 30.6538651294
27.0002 17.7359 10.8147 26.2571971998
26.778 21.4559 16.1501 30.5135382257
29.2707 18.5395 8.63544 34.4071124809
31.708 18.9757 11.1825 25.3309672969
34.7505 17.7845 10.6877 30.0585129224
34.4874 15.2643 11.4361 30.3003490074
24.7093 20.0264 15.1401 27.6100203866
27.1649 22.6064 12.12 29.5306432949
29.0805 20.5868 10.7201 28.6777077533
29.4086 17.9612 14.7522 26.9126511651
35.0694 19.3386 13.1189 25.7080992943
31.8266 23.5382 10.1152 33.2547085451
27.6382 12.3423 14.6623 30.3916923596
28.6482 14.3222 12.6866 33.3969529384
29.6452 13.5625 9.94264 35.3980744999
32.2037 12.4884 13.3949 29.6530761039
28.9733 23.3707 9.36903 28.3136208711
25.1825 20.8654 5.12019 28.7364930745
32.1654 14.4114 9.29061 30.7344760315
33.7913 15.8498 4.84982 32.2406332248
27.472 13.8673 7.88895 31.544825151
28.5977 22.8276 14.6899 28.6400248728
26.7971 18.1989 14.7608 28.4445037578
25.4274 23.1708 3.73968 26.2805455452
33.4921 15.1204 14.0326 26.4512555255
33.413 21.1193 10.4427 31.1006153853
32.6485 18.1579 13.7923 29.078619415
32.748 21.7077 14.761 27.9709713433
35.9593 12.4896 5.00113 30.2397169207
36.1618 14.3952 15.0748 32.0201547546
36.5297 16.9667 13.8245 28.4631299884
29.7606 16.4384 3.73852 29.4493121008
25.0627 23.9375 8.35117 32.5573884076
32.3178 23.9551 16.153 29.2109489435
24.5939 12.3688 7.92533 27.7028124429
29.9619 13.8364 16.6932 27.9517248086
33.78 23.075 18.7116 30.0146074
27.5304 13.2889 19.9219 29.6078212627
33.8423 12.9068 19.9051 33.3104032803
29.797 14.9057 21.0758 27.4253276881
33.5145 12.2434 16.8297 30.0832935925
29.0085 20.0294 17.5874 30.1452853454
25.4847 14.3501 21.3702 29.2284416769
33.0074 15.7158 21.0856 28.5466339451
36.313 24.1557 23.5774 60.3640484508
26.7558 21.1551 21.435 30.2444001701
31.7743 18.0783 20.6498 26.4754294309
27.6921 16.8622 21.3935 25.6007361891
28.6595 17.6477 18.8374 28.3504455337
25.0853 14.9332 23.9227 51.1378686536
24.784 18.186 18.597 29.3648771896
36.0109 16.3268 18.5649 27.8567199326
33.4688 15.3572 16.9456 29.5838021054
29.5098 21.4667 20.0203 29.9118681644
33.5469 20.0326 20.1536 29.5108702893
31.8807 22.5021 20.9664 28.0435592761
25.1578 23.4393 17.3874 35.4403321121
25.5801 18.7447 21.0827 30.0537214043
36.2211 19.6966 21.3895 31.062384048
33.9015 13.1143 24.5113 98.5635161601
27.7784 16.4109 24.2483 84.1221192919
33.6915 18.5391 17.7809 29.8403939444
30.2439 14.73 23.9762 55.2857076026
36.6916 13.0734 23.8757 55.2209777073
29.3929 19.1671 24.7094 131.2802912859
27.1406 21.2552 24.1117 63.2158071989
29.4396 18.9708 21.9983 28.4306187983
32.5332 18.9619 23.425 40.0925257724
35.4646 16.9063 21.3999 27.1661412152
33.0667 15.5889 24.0652 53.9363315542
35.1493 17.5144 24.5433 104.8260812454
36.2148 13.6954 17.7713 27.2455223543
28.3529 23.8978 23.8213 37.5747572879
30.8395 23.941 24.7033 133.3766195901
32.4887 21.9098 23.4807 41.4551627704
35.2481 21.6238 23.6621 66.4811777536
30.9258 15.7839 18.5286 29.5023360655
27.9392 23.7818 19.9873 29.8317081554
36.23 22.2489 17.7599 28.9371242414
35.241 24.4859 20.9569 30.1815371007
29.5327 23.8165 17.1416 33.4015453532
24.9186 23.2813 20.1279 29.8375193222
27.2626 13.8172 17.2235 27.981056577
26.5632 16.8393 17.1333 28.8041361485
33.2737 22.186 38.9523 28.629947463
27.245 17.55 38.494 31.9746735238
29.9068 17.0251 39.5425 31.6857151095
32.0611 21.9754 41.7287 29.0130796553
24.9916 14.8752 35.6669 74.649173064
35.7648 23.5047 38.8743 29.8633474462
32.7611 14.7894 36.0863 69.3043316429
28.1486 18.7559 36.0874 49.7753780678
30.7168 12.8814 36.5355 40.0764680503
29.8222 16.2532 35.884 70.0823759807
30.5172 21.3315 36.0478 75.7597446092
31.5339 18.5632 36.0715 52.7874587619
34.1706 18.0411 35.4882 124.7331692193
34.0401 15.52 41.3724 27.0019807816
27.7389 21.5519 35.7424 71.9201919008
30.0545 16.2056 42.5088 33.242168683
24.9682 23.6421 36.0156 46.8340067427
36.7186 16.2356 39.3133 32.3863442336
35.4325 19.0196 39.4061 30.0372506486
25.6616 19.1351 40.1271 32.0980965896
33.2957 12.2244 42.023 27.1020849527
27.8959 22.1811 38.3922 29.5316504324
29.5326 13.794 40.0598 31.5839486995
32.7439 19.428 38.7463 31.2885896738
27.4635 13.1763 38.5428 26.7156647884
28.652 20.9147 40.7956 32.5663422401
30.9121 19.2962 41.1116 26.4773743587
36.3981 21.3582 40.7396 28.2918529552
29.989 23.7009 41.625 23.5337218731
32.2688 15.3059 39.143 30.9384508958
35.9007 16.0963 36.4921 36.3608429844
28.063 14.0367 35.5487 103.4034725707
34.0759 18.2104 41.9292 28.2891706784
35.6408 13.2478 35.8935 78.358505567
35.9377 12.9066 42.005 28.1029382252
36.0932 19.83 36.5671 35.864276919
34.4376 13.3658 38.4444 27.674878866
30.8917 23.2661 38.0241 28.095652238
35.9906 22.4255 36.0344 94.9773046748
33.5941 24.605 36.3613 47.9502285748
25.6147 15.2327 38.4799 29.9386886446
35.5286 23.3581 43.0313 28.2349322376
25.4905 23.8982 38.954 27.8168496922
25.982 20.2733 42.7925 31.9872967556
25.3551 18.3191 35.4965 96.7802299823
35.1726 22.9823 45.4992 29.5883671031
32.6996 13.7089 48.8786 35.4575460774
25.5608 16.696 56.2459 30.8623741837
30.4745 15.609 49.0713 33.7985635672
25.8541 12.7588 46.5187 30.6295531185
34.7838 22.4737 55.1349 27.9787502903
33.8279 16.8732 45.4191 29.1412231099
36.334 20.3778 46.6079 28.7385775362
27.6568 15.8588 44.4666 32.5672202767
25.9496 18.5601 45.0571 31.1682471495
34.3953 21.9289 50.0715 31.0804018443
29.0354 18.5006 45.4416 31.5630063947
27.0116 15.3001 46.9895 31.9733598726
31.1352 22.2531 46.0049 26.8342609336
30.6722 18.1475 47.6848 33.9736570615
32.8699 20.9381 44.2377 27.2839296004
32.986 19.6127 47.146 30.5872377055
35.3878 19.1267 43.8896 25.9981181256
28.717 21.2498 45.6446 29.9508465487
27.4521 22.6307 51.2424 26.6437102203
27.3453 23.5645 54.628 29.3909148881
31.6959 21.8829 48.831 27.6276479853
35.3714 19.5929 48.9392 29.0911881798
33.9937 12.5579 53.1975 31.7127934187
25.6008 19.4334 55.805 28.3716729981
36.6778 18.8613 53.2687 29.4387511069
35.5958 18.0866 56.0102 29.1929038698
28.6362 13.8878 48.8769 30.5484739843
27.4611 16.8681 52.7372 30.6412120157
27.203 19.5842 53.1725 28.8194653214
34.7986 17.562 51.8978 31.9627680941
32.2452 12.5239 44.9535 28.2724782081
31.7283 18.8006 55.0204 27.3322871016
26.3053 19.5128 49.1022 32.3701110082
25.281 16.6815 50.9667 29.3281552621
32.2355 21.1965 52.1933 27.6412652593
30.1609 16.2855 51.764 30.4406096458
24.9092 16.8641 48.2855 30.2605263104
25.0605 21.0987 51.3126 26.828577261
29.2299 20.0909 49.2013 30.4049168679
32.2047 23.0477 54.1001 27.5141808846
31.4173 14.4876 53.1262 30.2794058484
35.7505 21.2814 52.7666 30.5109830332
27.839 22.3542 43.3123 28.8597981007
27.6498 13.1962 51.3529 30.66684078
32.2654 16.2016 55.1574 27.0219749409
29.0876 13.1818 53.8919 27.215841466
36.06 16.4639 49.6834 30.1278811281
34.4535 15.5913 47.6066 32.1349410835
29.4802 20.6097 52.1674 27.1334833468
29.6834 22.0444 55.3054 30.5975006976
27.7317 15.5146 55.0622 26.2296924569
36.5178 16.2531 44.8147 28.9871334551
31.3551 18.4786 43.526 27.4027301677
27.5252 22.2827 48.3442 26.7083036201
32.3656 15.0221 43.6164 30.8606990209
34.8152 15.5794 53.7769 31.1929348826
30.3152 23.6658 50.7355 27.8781294744
31.8684 18.4021 52.2746 31.5321246188
24.75 12.1489 54.2848 30.4345169459
28.9908 19.4074 55.7506 29.2278493356
33.6869 20.3221 56.1663 27.3759025554
24.8587 14.0838 51.9925 29.2508132861
24.6517 16.1177 43.4151 36.003756978
36.2357 13.5111 45.9035 30.6900779491
28.9528 13.2599 44.5605 28.7535825948
26.7112 12.9282 56.1361 27.648054065
34.3405 34.1009 16.7232 33.0480811895
28.3873 26.9591 5.00497 28.1788352736
25.3978 30.9008 16.977 33.2722684785
30.3892 27.0564 7.34568 26.7651742493
29.8601 26.5111 9.90079 25.6471187857
31.7838 34.1858 12.8815 32.020255041
36.0916 31.145 5.43807 32.3011445373
35.4515 26.7665 15.605 29.1876933381
34.592 34.2374 12.1813 29.6258836331
29.3468 31.7192 11.7174 31.8460483487
28.3842 30.8807 8.95844 27.2985760614
30.9845 24.8561 5.75922 27.933511607
36.6518 35.3037 4.32314 31.0003194899
35.757 25.7523 12.85 31.8944040154
33.4484 30.9137 6.88943 29.9981954056
30.8516 36.531 5.04343 27.6586420855
25.8038 34.7249 13.732 29.1259021605
27.0343 35.4884 3.80089 29.2164322239
28.2902 34.1508 8.70946 28.4321175995
26.337 28.5686 7.18218 28.7363488946
27.9948 32.2709 6.05104 27.8383056438
32.1431 33.228 5.5049 30.129038188
33.2348 24.8287 12.0143 27.1197294248
25.3052 32.7474 6.40916 28.9621529976
34.4482 27.3169 3.95191 28.2858162378
27.7388 28.7075 13.8239 33.8993790514
31.8413 34.9111 15.6554 33.3607961591
30.3209 28.0311 12.2591 29.6809454806
33.2241 28.2889 15.0314 30.1413032319
32.788 26.8233 10.0186 26.5962541125
33.1895 25.114 7.98167 26.2736102294
27.7345 28.1397 9.73161 28.8671067848
28.5321 34.7541 11.4177 31.8364630796
26.9025 32.4314 12.9222 27.5119396025
32.43 29.6061 10.6953 31.0811379946
30.874 29.9979 8.20451 26.0685509116
33.3838 27.9221 6.54712 29.7925158633
31.0829 33.2264 8.25016 30.715246265
31.8576 25.9861 13.9655 30.691113492
25.9154 35.829 10.9903 28.0393541964
36.2231 33.9703 14.4465 27.3941530903
30.0232 30.5627 15.6311 28.300904662
32.4213 36.1057 7.49867 34.97614398
31.5393 31.47 13.6021 29.0212189486
33.6546 33.2778 9.42084 31.7591551042
25.3696 28.6494 11.1405 27.5932316146
29.3152 29.6276 5.94914 25.261999144
35.3954 31.2973 9.11881 29.1016949614
25.3118 27.2759 13.5338 35.7970882232
27.3376 25.2904 11.3686 28.4434788395
35.2736 29.8499 11.3489 28.9034640609
26.5883 36.3245 15.7763 28.7938848059
25.2557 34.7602 8.65451 28.0417145217
34.222 30.6378 13.8294 29.2911904098
36.0875 27.509 10.4371 31.9062306019
27.5609 31.6831 15.3195 29.1885198415
28.7358 25.7248 13.8308 30.1637385838
35.7208 31.3794 16.2788 28.0661221423
25.0967 30.6279 8.05674 26.2991222292
26.9134 24.5693 5.92961 31.9031039703
36.6178 28.723 4.45431 29.4870023443
35.7884 27.3793 7.62932 32.1400648955
