15.7166 14.4102 23.7019 51.0733700447
18.528 15.3949 24.1324 71.9522743157
17.2993 13.4625 21.8036 27.8808089876
22.9043 13.7951 21.5352 27.5924676759
20.4095 15.3045 21.5028 29.1898550544
16.4017 18.4624 17.2787 32.4598788491
15.9791 14.9199 19.8787 29.8806403879
13.7931 18.314 21.34 27.9920105959
15.4081 20.267 24.2469 56.3073379138
13.228 15.0548 20.8239 25.8979004314
12.7745 22.6171 21.588 27.3199298474
18.168 19.2937 21.5506 32.1231358729
17.5571 18.0887 24.3209 83.5370823601
21.6334 16.3935 23.8667 52.3639940257
22.8397 20.7996 23.9384 60.9879303217
13.7763 22.5658 24.6098 88.2293516231
21.6575 17.1535 18.0 29.8618037404
20.2576 19.2008 24.2484 76.7227983755
20.8623 22.8073 24.4625 78.3368571877
20.6058 18.178 20.3752 31.2144403792
17.9805 22.3734 21.6594 29.7716487554
12.4811 22.7462 18.6681 31.5801845655
14.1884 13.563 17.9717 27.2079483599
19.8324 12.3118 21.564 29.2641931011
15.9202 21.132 16.8733 37.4969524049
18.1829 14.1425 16.8435 31.6271429256
21.2447 23.5745 16.9667 34.9937988389
17.6344 14.3552 35.6291 84.3103256424
16.2179 17.2332 38.1107 27.2668570968
22.7039 14.3506 41.4622 26.481374812
19.5506 16.4189 38.7397 28.5942427133
17.1392 15.2361 39.7073 26.2319277089
22.3731 15.1585 35.6002 89.6623839018
15.5128 23.6112 36.124 54.8047833331
16.8229 16.7295 42.0843 30.9999064758
15.2323 16.4298 35.6578 77.3716572381
13.35 18.7243 35.4922 94.1644144136
13.4123 14.529 36.0375 56.589851994
18.6329 17.1389 36.134 45.1412121319
18.5558 19.9179 35.7042 82.7970300077
23.4691 19.9371 35.5202 105.1344960212
21.3076 17.9064 35.9441 54.3726588563
24.4458 16.7593 38.6771 29.5830904858
23.562 14.1839 38.5239 26.6414920673
13.006 12.9235 40.7986 29.2702296221
15.7742 20.6342 35.7209 80.3396602969
15.7741 21.2805 38.4748 30.780313045
20.7162 21.4183 38.72 28.3625052591
20.9185 21.3494 35.8817 69.7804280321
14.2158 16.6736 40.9285 28.4395204249
16.3868 12.929 38.4473 28.1458689318
16.4807 24.4158 38.8622 32.4509038775
22.2168 24.1939 42.1164 28.4066940021
14.3915 21.343 41.7858 29.609386661
22.556 18.8652 38.7122 26.5779978851
18.143 19.241 41.4089 28.3820612032
20.5027 13.7521 39.0672 28.2783594046
16.1498 23.2536 42.3095 25.3435461899
19.2792 23.4831 39.8973 30.1676501953
13.5372 15.0728 38.8016 27.4446802959
22.5044 21.5049 40.7525 32.3434312017
18.0677 19.8119 38.5807 27.7188400031
14.444 19.2123 39.7829 31.467841704
18.5342 21.9646 42.0689 28.4682027758
20.8502 17.9368 40.6799 27.1986568088
24.4381 13.3275 35.9881 62.6509902628
20.4398 13.5723 36.1569 44.4830957583
21.8252 24.1782 36.1593 54.7666125054
21.2418 16.2065 42.7418 28.3305719203
21.1659 19.7115 42.9888 27.6362810288
16.7292 13.9099 42.6776 31.0648455097
17.4236 14.8635 54.0443 29.5562410293
13.1051 20.5592 56.2253 27.1559989009
21.0446 21.0389 52.1712 30.0554255957
15.4376 15.7299 46.3863 28.9890791762
15.009 13.4698 52.9727 27.0333789002
20.653 15.7226 46.3311 29.1798357627
22.1928 15.4546 53.3358 33.0280472609
12.7964 15.7176 45.3654 32.1234975908
23.898 18.3942 43.874 29.0767669912
13.2708 20.2471 46.3183 27.529009531
18.4665 18.9938 44.5129 29.0864086655
19.7939 20.339 46.9323 29.7253458761
18.2801 16.2794 44.8134 27.448113467
12.4388 20.0964 43.5571 31.7240054019
20.7888 22.4159 43.8208 27.8677353922
17.5885 23.6171 47.7434 25.7427131112
15.8359 20.2414 44.5838 31.6979463908
20.0589 23.0545 46.3924 28.8585414539
22.8082 20.5433 45.5845 31.6963184807
24.3419 17.4247 47.6338 32.4333224909
22.4098 19.6952 48.3097 29.5179309682
19.6978 14.0602 43.5074 29.2448345735
23.3482 16.106 45.225 29.1438540219
21.2189 14.5371 48.8023 29.1762478734
15.112 21.9748 48.3314 27.604862176
17.4182 22.1172 54.8791 31.6050697629
18.6055 14.707 49.7694 27.1307035229
14.4351 18.0522 50.0158 26.4484215889
24.4702 19.0995 55.5088 29.4279021132
17.8101 20.7818 49.0215 27.6966728345
17.0748 16.9664 51.5061 31.005790682
23.9597 22.7128 53.3194 30.9306590568
18.4619 16.86 47.9514 27.2217000394
15.5733 15.4728 48.9667 28.8323943342
18.2521 23.3048 50.7546 25.9383597877
19.9475 23.4779 53.1618 27.6623283256
18.7154 16.9479 56.238 35.4056286016
17.0267 21.5158 52.3556 29.451907308
16.0261 22.7827 45.1886 28.8940032982
23.3063 20.9544 50.5102 31.7665540643
16.2853 18.888 47.3847 28.3421721498
13.1663 17.8596 47.4057 29.7638719549
23.3346 12.3007 48.2469 35.0506062838
20.3594 12.784 46.5513 31.3830771928
20.5858 17.6808 54.3505 32.4542485877
23.6739 23.6777 49.4938 28.7720695152
14.3832 12.8385 47.8787 26.4271585671
22.1794 16.9811 49.9776 33.827152671
24.5642 15.8923 51.9094 37.5267484969
13.0713 22.9575 54.3187 28.7137309322
22.3958 12.5959 54.9846 31.3424368017
13.0613 23.9426 45.118 29.6127313324
19.6913 14.2974 52.2657 29.2389297087
19.8589 18.6784 49.7546 27.2372208778
18.8456 18.9908 52.4042 31.3608743331
22.2098 19.9827 54.5206 30.826164202
14.7653 16.9265 53.4789 28.9525669214
15.5123 24.1046 54.2831 28.6721967713
15.7887 12.9833 45.4222 34.2546947913
14.6738 20.7158 50.774 31.1516817139
16.0655 17.7152 55.9552 29.7776608257
12.921 14.8584 53.7833 31.9125721991
12.2899 17.3852 51.3409 28.2988448903
16.3293 12.6925 50.108 27.409623537
12.7602 18.8769 54.1149 27.9482640315
20.7462 24.255 49.2988 30.1138175993
12.5889 21.0553 52.5031 28.7037174992
22.9197 12.8541 44.0612 29.4802995418
22.1716 22.3663 55.9108 25.7541910799
24.2289 24.4857 46.829 29.2315333408
19.5516 23.6211 56.013 27.7501699637
23.4773 28.3586 14.6396 26.605322908
16.3353 25.314 6.99399 29.2537930826
17.9641 35.0316 4.80326 33.9350525941
19.1311 26.4152 6.57048 27.014059478
17.8109 35.2077 9.13451 26.4568614207
17.2837 30.2924 4.99467 32.8912944619
23.3215 29.3074 6.30767 28.8190402509
21.261 30.5045 7.89084 29.2181501388
16.3213 32.1224 16.0403 30.384332521
17.9146 32.8048 6.92793 27.8409552699
15.2822 32.6334 8.06268 28.7916810029
21.2645 32.8856 6.13377 30.5021961891
12.822 29.5778 5.65584 34.4797953556
19.6538 31.3357 3.94895 32.6337603274
12.4381 27.465 14.47 28.8417207425
19.62 36.0622 11.1851 31.8267589946
22.2982 33.6211 13.6176 30.2423437267
18.5824 26.0172 3.83746 29.7794054802
24.1315 31.1606 4.60169 29.1630533898
17.5766 24.8379 14.9253 30.2292348343
24.0774 25.4261 5.04237 28.7752588877
15.0335 25.3435 13.6951 36.4265715052
13.4783 34.0413 4.10619 27.5615227085
14.1905 34.1671 16.1133 31.050073384
21.7571 27.1265 5.19324 30.5862204077
14.7137 31.904 5.56572 32.5538711622
19.4705 26.9927 15.1901 30.750167623
14.0854 27.4947 8.67752 29.3195588388
17.5934 29.8389 9.37369 29.6946528607
21.9013 24.7653 12.2966 30.5264839424
18.8411 32.4433 9.62901 26.6849986283
13.9528 25.3621 10.9567 30.1308133489
14.6581 30.2814 12.4228 28.7865367586
20.4932 34.8248 8.13838 26.355864387
16.4595 32.3769 11.4201 28.5117403896
21.578 31.6572 10.6419 28.9597926134
18.8623 29.0766 6.95303 29.9158582473
22.2494 34.4169 10.7951 29.8651513956
23.7287 28.3799 11.4773 32.8082618035
13.0799 28.1689 11.7728 29.2570233661
21.5395 29.9165 15.0643 28.8241372515
23.9498 34.0274 5.70864 32.1003319977
16.8974 25.9957 9.6442 33.3399240645
15.3014 34.8744 10.8748 31.5557725093
19.1696 27.9214 10.5041 29.0282183588
21.1084 25.4313 8.39286 29.5965424432
13.776 35.5596 13.3254 31.6628616534
15.4176 35.883 3.70806 29.5878825578
20.9523 35.9522 15.2124 28.8727819319
13.8824 35.3962 8.08978 28.5998373896
16.6037 29.9292 14.1444 29.4613161736
12.1389 31.9079 16.3079 26.9874675839
24.2373 31.482 15.0665 30.369144896
20.294 31.6697 13.1065 28.1724097977
18.0629 33.1394 13.7573 31.5678748192
18.9724 29.0254 13.1062 33.2600779453
21.6363 28.143 9.53656 30.6992525105
21.8348 25.7528 14.9706 28.8696089565
14.4139 26.9399 5.68296 28.9360431031
18.6647 35.6672 13.8252 29.2396368681
24.1706 36.371 3.88817 34.7255308308
15.1135 27.9455 15.4492 30.4290258048
23.1483 35.7308 7.98423 31.4152822222
14.7472 30.1342 9.47101 27.958680538
13.0361 32.4995 13.4807 31.6545218362
24.1632 24.4516 10.8479 30.6936672678
22.8381 33.5355 16.9206 29.2852808451
12.7531 25.6258 18.3213 32.4994165678
22.0484 31.7347 19.2136 27.6787288817
16.1347 27.5389 18.0514 29.0276240052
23.6062 29.8767 24.477 110.4235890198
20.347 30.3273 17.4272 32.0855055097
16.4549 30.4408 19.3176 29.6183668958
14.8584 25.281 24.5118 75.8875921423
19.989 27.5442 22.2462 26.5365091713
14.0798 25.1891 21.4747 28.2397924566
20.1059 26.5262 19.5933 28.4636702598
19.4252 31.9899 20.917 29.1189436581
13.5993 34.7383 18.8649 32.6952734809
15.6508 34.8946 21.4464 31.0023574493
15.4736 32.177 21.7518 28.4073975729
17.4952 35.3513 24.3704 66.9649476063
18.8349 34.5301 21.7303 26.6878286282
22.6736 33.3088 21.4909 28.8342723263
18.1052 36.2686 19.7696 27.6243930435
13.0026 28.4827 21.6294 26.8719521013
18.4488 32.2745 17.9647 31.9081199206
15.6747 28.1045 21.499 26.1374057398
22.0439 36.5225 23.9233 54.4570042661
24.2842 25.5537 23.1132 32.6936413557
23.6843 32.6693 23.9319 47.3504303322
18.8539 28.0319 17.7267 30.0801337303
20.2522 34.5168 17.5657 28.8930976821
22.1279 25.3594 24.6751 106.6921409871
16.6794 27.7518 24.314 57.603183514
16.5596 32.5872 24.4131 72.232466194
14.6234 29.7577 24.2586 59.9989954061
19.5442 26.7233 24.5186 83.4658378723
20.9405 31.1818 24.3237 64.3275279259
22.7254 26.7371 19.5977 30.9649043449
21.8067 29.5694 21.9982 29.776891233
12.8959 31.341 21.0593 27.9913752735
18.2757 29.5581 21.7696 26.5262363018
18.0431 30.4859 24.427 68.2495242503
20.1123 33.8718 24.4771 84.3079137319
21.3859 36.6772 19.0698 27.3593400122
24.2084 29.4572 20.3804 27.8539998723
14.5767 30.3603 17.2627 28.2617659631
23.4937 24.4123 20.723 30.4965295411
13.2234 32.4342 24.0067 45.2144940024
21.6504 35.7377 21.4215 26.1624486718
17.3562 25.7545 21.5158 27.4490840666
15.6901 25.1388 19.1324 29.4315629478
12.737 35.1828 24.6155 115.7857917882
24.0116 27.1344 17.0403 29.5328385797
16.3764 28.6463 35.7954 73.2843191866
17.5083 27.1148 39.8478 26.9748060981
17.1975 35.1772 39.905 30.3002040548
13.1353 28.5063 40.9719 28.0687212683
22.5321 24.6975 39.1822 27.5455229057
13.7488 32.4704 35.9917 54.8051818016
21.3215 28.8532 35.9817 65.6249553722
19.0808 33.8244 42.1326 31.0594984571
21.8641 32.7218 41.7567 26.824382943
20.3603 28.6499 41.0121 27.0850295529
18.1132 32.8417 36.4675 35.603184654
16.4827 29.6291 38.4512 33.4262828349
22.7909 31.1553 38.8711 30.7120827397
18.7208 30.1618 35.6978 94.7417838603
18.2046 25.9054 42.255 26.9361843817
19.9403 26.2937 38.8117 28.3168165809
24.3453 29.3894 43.2104 34.6984576663
21.9415 28.7134 38.5178 25.9035176576
20.1784 34.2806 35.4784 124.3739730414
17.3359 25.6799 35.8488 93.3015487532
15.8229 34.4285 35.7583 88.0875178204
14.7752 35.0088 38.5948 29.7381011159
24.3069 36.3701 36.4283 42.258278846
22.7911 33.8034 36.4911 41.6093283859
19.1912 33.4364 38.8705 29.1583703333
13.6293 29.7675 35.5231 91.817194064
21.8095 34.0164 39.3515 25.0826151026
14.5373 25.1983 40.8887 32.0796346941
21.5839 36.7991 40.332 29.1981918417
14.1335 33.0783 42.0482 32.4875665646
15.4552 35.8414 41.9578 27.6220905113
15.9467 28.3612 41.7991 29.0253943374
21.6866 30.4716 42.8267 29.8912846377
13.0101 32.8126 39.304 28.4530012614
13.0189 24.7469 35.8193 81.2630521748
23.9606 27.0559 38.5856 29.8616763229
20.6792 26.6957 42.9827 30.9341161035
20.2968 26.2108 36.0317 64.2136135881
13.7763 30.1921 38.6886 29.4879155227
24.2384 25.516 35.6918 94.816030096
18.622 30.5149 40.1036 32.7489344355
23.6495 31.2167 36.2433 58.9123532097
19.4383 36.4595 43.0392 30.932279012
12.4658 30.7822 42.397 26.8684939021
19.8636 36.801 36.5218 34.121152323
24.4218 35.2586 39.108 27.9649468079
24.3938 28.3293 35.8806 74.4834082255
17.8086 30.2682 42.7861 30.2747036168
23.5022 25.9494 52.6289 29.2317262271
14.4918 28.2839 48.4759 27.9488956184
16.8277 28.5407 46.6468 25.9012834428
20.3163 26.3705 47.4662 28.2754947521
18.9045 28.1717 44.7779 27.149168396
20.3547 27.031 54.7308 26.8857838808
24.5668 29.9165 49.013 31.1037494725
15.9072 29.8074 55.1977 31.8748119056
14.4731 29.4437 45.3199 29.8187325093
20.5499 30.2621 45.6676 28.973111692
23.3606 31.0736 46.3564 34.5639264844
19.1732 32.6711 46.1716 28.3514315057
18.4005 36.158 50.1477 27.8940400229
23.9783 35.2864 52.8706 28.1875901801
17.0449 25.6574 44.6985 29.8934101677
17.3073 35.2839 46.3903 28.6570358859
17.6468 26.5684 48.4382 25.5703447029
21.6768 34.1977 45.9755 27.6038819948
12.4909 25.5685 51.4141 27.5237578419
19.8212 34.1985 48.6894 32.1617443886
15.6215 26.0703 56.335 26.6525496749
24.2856 33.9345 47.4848 29.6128043437
22.9049 34.6836 43.6547 30.6180003857
14.5351 32.3023 44.7785 31.8208615573
14.7478 29.4489 51.1406 29.8004100508
18.7626 33.3554 53.0947 32.196677744
18.0741 26.6351 51.2387 27.1227842296
14.4402 36.387 49.815 31.2213177478
21.8061 36.4387 48.2497 27.5643886157
20.4331 25.7306 52.1555 26.9200849265
23.7426 35.2213 49.9852 28.9326511055
15.6372 32.0203 49.2095 30.4403544427
21.0833 29.0911 48.1562 34.3688087359
17.502 30.7508 47.9863 28.9413982419
18.4365 30.5389 52.2626 27.6717402064
14.8866 25.1803 48.6878 29.3824769447
17.2145 32.6267 43.9465 29.6263415954
21.2789 33.5181 51.1432 34.3246404621
16.2092 34.7883 48.7231 31.0646138416
14.0733 36.282 52.7076 27.4136046187
15.4732 24.7328 51.5222 28.1678716533
20.7489 36.1573 52.2674 27.3220456295
18.6824 29.3422 49.7685 30.1802376137
19.8908 33.9318 55.8634 29.555972957
21.8004 35.8746 55.0506 28.4730580096
14.0305 27.7415 54.9571 31.2487604318
14.8569 32.4665 54.6134 36.0904889814
16.8064 35.5744 52.3977 30.5448945503
15.3062 27.3693 52.6493 25.0328811651
22.7698 26.687 49.6945 26.8397960521
22.6041 32.912 53.7755 31.7000141046
21.5832 29.4485 55.7412 32.2196107836
21.8919 25.1047 45.3284 32.0965107814
23.1881 29.11 51.3456 32.7798023216
17.8101 28.0907 53.7096 28.8472515497
21.0263 30.591 52.7689 31.2389153113
16.0515 32.1073 52.0619 30.9145171355
12.221 29.9234 47.7054 24.448961669
15.4502 36.3745 44.6601 30.3499045337
12.3597 34.2155 53.2996 32.2375396931
22.5309 25.2233 55.3953 28.4486133961
19.7306 36.2498 45.774 28.3062882081
12.6691 27.2293 45.4819 27.0864090433
12.3366 25.5769 47.6617 24.5707807661
12.557 32.4368 48.8966 29.4128497998
14.8288 26.2911 43.521 26.5186494143
14.9566 39.9433 6.61486 29.7925910382
15.2969 44.9212 15.2349 30.4250872369
16.487 42.3989 7.52469 32.9301557131
19.0456 40.5832 4.81004 29.5695774173
22.2892 38.2872 14.5671 33.006498618
21.272 48.7472 8.5211 35.4582574559
23.3044 38.576 9.89018 30.9512284099
14.2841 44.0105 8.04372 32.3538700839
14.0101 48.692 10.0786 29.616796539
17.4641 43.6893 5.08557 26.2164523343
19.8924 44.9516 6.11271 30.6838975865
19.0866 47.8019 4.41672 29.8580445677
23.9672 45.7128 10.1692 29.631069549
15.3111 45.2077 5.09357 32.8544793278
24.8466 37.4579 13.5179 30.7954326853
22.3378 38.5135 7.01026 29.8258681681
18.9244 47.281 7.74623 32.1789702877
18.936 39.9626 8.86134 29.019293478
17.9436 48.6937 16.3593 29.7344617977
23.4571 45.9254 13.1431 33.7571495568
13.6082 41.0982 12.9615 28.8298909235
14.2104 38.1537 12.1014 26.7676318473
13.3595 39.9541 8.71201 27.5232844122
21.9897 43.5675 7.21686 30.5149027287
17.424 42.2201 10.3143 29.9392698092
14.5506 42.1914 10.3273 27.875218395
17.3249 39.1727 11.5495 28.5883503558
19.146 44.1779 11.1556 33.6682175161
13.779 39.7353 15.8327 30.6011227628
13.3409 48.8557 5.96195 28.7895662928
15.7837 37.1148 6.41176 29.4125900034
15.3745 46.1409 10.3838 30.7299557121
18.2106 46.4761 10.3073 32.2141791149
13.2226 44.4293 11.4235 30.0105253947
23.7418 48.4762 10.1429 28.8785377785
20.6817 40.9969 7.0971 33.5029194143
22.9856 43.2126 14.2938 30.7128093518
12.8809 46.7423 3.79021 28.4736202825
14.5009 47.12 13.0889 27.1124047977
18.4713 39.9117 14.7984 30.9685206735
21.7214 44.0818 9.88078 34.2876972017
18.7912 48.485 12.2396 35.4437865316
21.1478 47.6098 13.6018 31.8805068672
16.3048 40.3491 3.62283 31.8665691209
12.5817 43.8628 14.1471 26.7752057124
22.6406 47.9601 6.27958 30.2793811235
21.0972 47.9397 16.3475 30.2033598132
20.6429 38.7206 10.7499 30.4415740073
17.3811 42.9903 15.502 29.5701219838
15.3432 47.0082 7.29591 31.6083058017
22.625 42.1211 11.9281 31.9203626112
18.1026 37.7235 7.43815 27.7888528609
13.0819 37.6027 3.70689 24.4974724816
21.5442 46.5046 4.30513 29.4689011552
20.8831 43.2492 15.8401 29.8992600765
16.4818 41.4595 13.0126 31.2553556607
20.8582 39.979 13.2228 32.4970311777
19.1823 44.7634 14.1554 32.6447754974
17.232 46.8896 14.1555 29.2646694054
16.5731 37.7168 14.1441 29.0638812911
13.1084 39.9643 4.54972 30.1280242422
15.6443 37.7897 9.70637 27.8607700971
15.3197 36.9928 16.7875 29.3938771069
24.4438 40.7396 10.5352 27.8061804355
23.8979 39.0803 4.53672 34.6228916544
20.368 37.0074 6.01762 29.2851921927
24.4949 43.9155 6.57171 29.4071598035
24.6705 46.4949 7.36317 30.2098050175
18.4525 37.0131 16.8448 28.9627502507
17.3981 46.9478 18.5408 31.0850307337
16.0646 44.7528 17.9293 28.0306678036
15.4777 40.1494 18.4206 28.2465986025
23.0298 46.2438 24.3456 90.1550429748
16.3296 39.7031 21.6657 27.5880263205
17.9806 40.9587 17.5205 26.7955264111
19.6375 38.9731 18.3754 26.5056622479
15.6475 37.3968 19.5557 25.7037160756
23.3319 38.9202 24.1293 66.7765205576
21.9805 41.3968 23.9 58.3585101436
18.2929 43.3706 19.2117 27.1938882354
17.0723 42.5877 21.5705 31.7405675596
19.0232 38.5426 21.5543 28.1633084933
23.8027 42.6827 21.6337 30.7586333229
21.0064 40.3805 21.2601 28.8006269925
22.6688 39.0504 17.4704 33.3226267828
14.0624 47.5006 22.2593 28.3702522239
16.7476 48.3065 21.015 29.9580936365
13.3865 37.2927 21.4822 29.6409256088
19.658 47.9036 21.4149 26.8019827007
19.7355 45.6127 19.3896 27.9096829659
23.5233 38.9801 21.4382 27.4198078284
20.6094 43.5919 21.5487 29.6745772959
18.3422 40.2085 24.5716 108.0860789018
19.3778 37.4798 24.1604 61.1058664305
22.2638 46.4801 21.6462 28.7258691979
15.2728 39.5109 24.1472 51.2412118626
12.9534 40.7269 24.6586 94.2880702373
13.3974 43.2872 24.4698 78.5395836647
16.0799 44.2654 24.114 75.1303555327
18.4748 43.0003 24.129 66.0755483327
24.5535 47.6745 17.5224 30.3399514277
19.8715 45.5636 23.9676 62.3727565783
13.2868 40.3253 21.3013 26.6313800288
19.7345 48.3866 24.329 101.2995155772
16.8217 47.0142 23.6777 55.8028477931
13.2825 45.3252 20.3874 30.9013178453
14.2305 43.0745 21.6675 28.940846685
13.9211 42.6697 18.6191 33.7271508376
24.0134 43.6263 24.3911 81.8962215991
23.5703 43.0217 18.5589 29.3501382206
21.5097 45.5116 17.2851 29.3119804304
21.042 41.82 18.5825 27.8697455402
23.8466 45.6748 19.2351 27.4259930663
15.1223 36.8797 24.1251 55.6459487529
13.3846 46.6366 17.2864 30.5368912594
14.4156 37.2583 36.4574 42.9107451448
15.5345 39.9249 40.045 26.5447958416
13.0468 41.625 41.5846 28.9910476747
22.4011 42.9501 42.1294 29.2782641727
22.9567 38.5854 38.6107 32.0947390569
22.0791 38.3454 35.8431 98.1112515744
13.8325 39.6559 37.5941 28.8513426968
14.7881 42.6245 39.4843 27.3195669738
17.6114 40.2089 36.0641 70.5392005542
17.9569 39.7512 39.0374 29.9071373839
22.29 42.2919 38.6491 27.3929653985
22.6141 42.4453 35.6932 108.6438393086
17.1918 46.6102 40.8699 28.3788899364
20.0081 46.0404 37.0679 36.3095223487
18.7406 48.3417 36.1744 74.8851057786
17.2447 38.2632 42.1034 28.1353655713
19.8284 48.5061 40.7104 32.2808724178
19.8964 42.0432 36.6783 46.2175376962
16.0236 48.0762 35.9877 71.8979935258
19.6795 41.7946 40.0951 27.5708249605
13.323 46.7305 38.3585 28.58094425
20.1456 45.6493 39.9395 30.801473097
18.218 44.1338 37.0228 48.3125424748
22.4476 45.354 36.3674 60.6980312524
13.6176 37.7373 40.5817 30.4238121374
13.4768 48.6295 41.9743 28.7549546013
23.588 40.6896 41.3263 30.055858398
18.7503 40.5977 42.394 30.5108180909
17.7459 43.7017 39.6965 27.0813977543
22.8158 44.8547 39.3177 28.6855248097
15.2386 44.4235 41.5986 27.3734994225
15.485 43.7171 36.6715 35.7206397272
15.8098 47.9168 38.8119 28.4609821578
22.4919 37.3643 42.9674 30.4541134168
19.5329 43.586 42.4828 27.7952764569
17.125 37.3403 35.7999 87.4477165922
14.3248 45.9476 35.8318 100.1364356511
15.1659 41.2452 35.6493 101.1999503212
23.5721 48.1366 36.1372 62.6641785666
19.1323 37.1563 39.1451 28.845067954
13.6192 39.595 47.3933 27.3827204209
16.7178 42.8212 43.3494 28.03134767
15.2494 39.0778 49.57 31.3023420802
22.0585 42.7404 47.1703 31.1467842601
18.4441 45.8534 43.9963 31.4382860171
23.4409 38.3769 46.5132 28.8248814944
18.1198 39.0955 49.2565 28.2511745117
21.1916 45.5829 52.2728 30.6900963735
13.2727 42.3676 47.2292 32.6163671301
19.4698 43.1351 45.8214 31.2751276206
15.0741 46.0516 45.4139 28.7037150667
22.747 39.9375 44.305 28.0082270197
18.2518 38.9112 46.5496 32.5263439007
15.25 48.6733 49.0659 33.4316873669
23.3967 42.642 44.9704 26.232084514
20.3347 48.2428 43.486 33.4003547048
15.4195 43.4029 45.8004 31.1816139542
22.3406 47.417 47.8742 30.3733464501
22.3865 47.1211 45.2515 35.3227868488
13.5074 46.8568 47.5923 31.7368147477
21.9751 43.1971 53.5808 25.7586033275
14.5598 39.7648 52.0657 29.1399178112
18.6797 42.0701 53.4888 32.2108898843
13.6271 45.2888 53.8133 29.4290158257
15.4556 47.5557 54.8492 29.7990191923
18.7767 39.278 52.2889 29.0864071093
22.2481 40.9279 50.6892 27.9173333856
19.8587 40.5469 45.0535 32.3001352197
23.4923 40.5326 48.1015 29.86013121
17.5549 46.3485 46.8283 31.2646499352
23.0329 45.4848 55.0463 30.523588982
18.069 41.9068 49.7739 30.6453787966
22.5407 44.8994 48.9863 33.1185389442
17.7898 43.5347 47.6724 30.1999921479
23.7406 47.2384 52.0864 31.2209453155
24.6043 42.7992 51.8551 29.4397213429
18.871 45.5082 49.8129 29.3971269295
13.2855 44.4492 49.1649 33.1647736512
16.6023 42.8134 55.1739 27.9274843443
17.6236 45.9996 55.6933 28.3549878498
18.6779 46.68 53.1962 33.4987047921
23.7857 38.0849 53.1161 27.7536661799
16.753 46.615 50.9893 30.3993458237
24.2209 38.1495 50.3175 27.3721425091
24.2927 45.1483 44.4409 32.849534777
16.0246 42.1513 51.7592 31.286235576
12.7197 44.9067 43.4744 28.0322071327
18.1343 37.6201 54.208 29.7957770409
15.6837 38.994 45.7412 30.4306493222
20.463 43.0303 50.7389 27.2618193624
21.0783 38.2649 50.3128 27.0604806236
20.2013 38.5116 56.0564 29.1919570421
13.7139 42.7822 54.9618 34.1037371977
21.6134 39.6126 53.398 26.6259337376
14.8679 44.471 51.4104 31.579559885
15.387 38.3243 54.5735 27.5675009665
22.1524 40.8098 55.9793 27.8092978138
20.1323 42.9935 56.1424 31.0721797567
24.423 41.9461 54.7351 29.7393318863
20.031 48.2282 49.1961 33.860764024
15.7318 47.5997 43.067 29.1129283064
12.7947 36.9302 44.6131 29.9507884273
15.0546 48.7343 52.0369 30.1371803765
24.2918 48.8877 48.3757 29.4479447569
17.7698 48.9414 47.5007 31.0469683777
15.1613 40.3227 43.2621 30.8694091436
26.0967 0.553887 9.68506 29.4853615488
26.1342 7.82424 12.3593 28.7971675464
29.0194 0.473704 5.5904 29.6515629921
29.6749 3.6046 5.2496 27.4375496789
29.4954 7.80113 4.81053 27.6478405092
32.0563 0.35507 5.71772 25.6398241112
27.735 4.04317 10.7951 27.0985137574
34.5465 2.51689 12.4256 31.5952199524
35.62 4.46727 9.03172 29.730794335
26.1092 5.20679 6.3107 28.5870514947
33.223 0.0387095 12.3663 29.1803166736
31.2001 9.83454 16.0754 31.4309959992
24.7701 9.91139 8.89176 29.7185824196
26.941 2.43583 4.88495 29.8850765058
35.7182 2.16813 6.87626 28.1260971884
24.9593 7.93873 7.06709 25.6816975594
26.1223 6.45858 9.14502 25.9492255435
33.5241 8.51026 3.83526 31.1217934162
27.1616 8.98295 6.01125 31.2244430008
25.526 3.23063 9.45207 29.3335703186
31.1053 6.63411 7.19001 27.6605842049
32.2288 10.5448 5.68083 30.5517781334
36.1666 0.342885 4.02161 31.9204564129
34.8839 8.87044 6.5141 33.0580249318
34.2527 10.7969 8.89548 28.8974773826
27.1365 3.53141 13.5763 28.8814834968
35.8312 8.73944 11.5993 30.5546644262
29.0252 6.37072 14.1049 26.7241843333
26.739 0.446471 13.7481 30.2539986698
33.8537 2.48653 9.81287 26.923291678
25.7998 5.96155 14.3382 28.4111498186
31.8941 2.81646 6.52046 27.2221689427
28.9431 8.86901 15.2461 27.4031228028
31.308 3.26683 9.14999 26.6103834624
33.9303 4.54459 5.66366 28.1679089188
34.6481 9.67721 13.844 32.1446048656
34.1224 6.44921 10.791 30.0580903875
32.1966 8.79091 13.6779 28.7074656088
36.393 9.59399 16.1147 34.9857013519
28.7009 4.85245 7.68165 32.0376270794
30.2859 9.50796 7.64698 27.5232560019
30.5584 9.41738 11.3784 29.0248765638
33.9917 6.58017 7.65203 28.7305415153
32.2938 8.87608 9.5248 27.2296979675
31.9993 5.91363 4.14894 29.2588472654
30.4785 1.4008 15.0145 28.6836640503
31.7238 3.35461 13.0668 31.2745926143
28.5373 6.73098 11.3421 25.8491684864
27.7919 8.73962 9.37664 32.0922052551
34.6188 5.20057 13.8142 30.4451246826
27.7523 5.85606 3.81094 27.3895504642
36.157 5.07238 16.001 30.8290728995
28.9437 3.79027 15.7005 29.6370497758
29.7438 2.26648 11.1905 28.9871389157
27.1229 10.1914 13.5525 28.4372813655
31.2965 5.73118 10.1298 29.5637285408
31.8591 6.12279 14.3847 27.8711226618
26.9883 11.4785 16.2128 32.0720948404
28.416 11.7426 7.28177 31.9728592035
33.913 12.1886 12.8253 32.0836550715
24.9948 7.38488 16.5782 33.2530445302
36.7498 4.62828 4.75672 29.5410236666
31.1688 11.994 11.6363 31.4415830261
28.6853 12.3195 12.5815 30.8905177714
35.3066 0.914616 16.3972 31.530050621
25.4527 0.510941 21.2926 27.8011866468
27.121 3.6623 21.3762 25.9160673545
28.6962 1.40928 21.3701 28.2615086019
31.9745 5.15989 16.9852 28.6595476421
25.4174 6.31622 20.6527 29.6026183863
34.4646 5.47991 18.1393 28.7754983763
25.0916 4.72891 18.1339 29.1514585587
28.3247 11.7127 18.9424 31.328435575
35.3759 9.12435 21.4925 25.4115559419
32.3572 1.22383 19.761 32.3856827906
34.5538 9.67952 18.4224 32.1365193155
29.4546 5.09292 18.1978 30.8161375091
28.7351 8.96705 19.1306 29.6356050152
32.5506 1.86116 16.8272 34.1745065944
32.3708 7.94459 17.8318 30.483233959
29.4351 2.93168 24.5234 81.6830085954
25.5633 10.7122 24.5057 75.3939025794
28.9791 5.75597 24.1602 58.9087563453
25.0978 6.19196 24.172 72.7441558957
27.2255 3.15398 18.4945 30.9943309791
36.298 7.35196 18.9274 28.8991274036
32.3189 2.52107 24.5011 87.0995620751
31.1003 3.31035 21.7607 29.8084094785
26.4331 3.69019 24.1929 66.4952747392
35.2345 2.60084 22.3216 31.498664013
29.0331 5.79471 21.3474 27.5341134678
27.2575 8.13714 24.082 53.6488212697
26.9602 8.36674 21.2186 30.1213020337
32.3765 5.64273 21.1721 28.7296391431
36.3448 3.7299 19.9036 30.7823589404
34.13 4.60845 24.3214 83.1780829874
32.7027 9.48072 21.5718 27.2447627905
25.3215 10.642 21.7468 30.1892337081
35.0251 5.79854 21.4644 26.6016480903
26.919 0.308432 18.4694 29.7801362642
31.6662 6.19062 24.1443 59.2105901448
30.9444 8.03257 20.3105 27.1497670172
32.3418 8.79631 24.1927 56.8948524873
29.7112 9.78125 24.1651 68.8323201442
34.1077 0.195474 21.4585 25.5176108451
35.4588 8.59766 24.1784 73.6595359106
32.9764 11.581 24.4585 89.9250857291
36.293 0.517387 19.0609 29.7867523448
27.6841 7.20079 17.1867 28.913019182
24.825 1.17563 24.2026 78.4997136647
36.1655 11.3166 24.3335 76.8334354415
28.7343 0.340633 24.0002 52.585832444
36.7434 5.72706 23.8936 58.6210390486
30.5918 12.3053 20.7826 32.9187230125
33.1199 12.0724 19.7496 32.4735508251
26.3592 2.33386 35.6505 78.2365213361
29.4944 6.89479 38.4672 28.5679281655
28.6063 4.04734 35.7529 71.1442545358
29.572 11.1783 42.8515 29.6650691449
32.9884 6.09421 35.6862 71.5469555162
34.6981 3.79902 35.5225 101.1982317053
34.9229 8.27083 38.6435 26.4047685555
28.7509 5.17272 41.1963 26.6902834704
27.069 9.48456 35.343 125.5274508319
28.5682 6.92215 35.6413 80.9209364841
32.2069 8.69949 38.5921 29.1868592174
31.0955 7.97284 35.9856 46.0128061448
33.5416 6.20011 42.2848 26.7253950698
35.0905 8.17639 35.8755 55.7432333259
35.2177 10.8663 39.47 27.434894548
27.5073 8.81578 39.0101 30.7067290495
28.6495 11.4577 36.4162 40.1622143641
28.5009 11.3571 39.1214 30.1193242779
31.1487 11.336 39.8959 28.6965351497
31.3413 4.41246 41.9671 29.0032756338
27.1163 3.5518 42.3538 26.7619126642
31.3337 0.386933 38.3924 29.7070730959
25.4626 4.88521 39.9381 30.2501448334
33.903 2.08331 37.3657 27.3947460826
31.5812 1.88156 41.2354 26.7750060105
32.1856 5.03473 38.2004 30.9221414273
30.8535 0.301504 35.6364 88.4188014861
28.0377 7.86633 41.637 30.9485745867
28.8903 0.853866 41.1812 28.9817425086
34.3692 5.74801 39.6549 26.30723046
25.3071 6.85436 41.8623 28.7363956946
31.2201 3.1281 35.969 55.2323596218
33.0136 10.0813 35.4063 87.2827885767
34.7852 10.8903 42.4364 34.3895177882
24.9844 8.14367 36.6735 36.6837926143
24.8876 1.79594 40.8967 26.8422620757
30.9135 8.90494 41.4399 31.2654225655
33.1761 11.9719 38.1501 25.1616883443
34.0289 2.75735 40.1374 27.4677899679
27.7377 4.15203 38.6018 32.8930967493
26.4872 1.49417 38.5047 29.0701255951
35.3262 12.0712 35.4488 91.2616557494
24.7986 10.6447 43.1733 32.1544433595
35.3995 1.99834 42.5814 36.3516063624
27.0104 12.2244 42.2117 32.1542480453
36.6214 4.00983 38.7539 29.2632846622
36.451 7.02729 42.2836 28.3014680332
25.5709 0.473792 43.1234 27.5179042683
31.3629 4.84247 44.7456 32.2155034849
25.2458 9.72445 51.1346 31.7458029305
31.2064 1.2759 47.4326 32.7874410397
29.1488 2.74288 48.8592 32.065413857
35.9742 4.64991 48.6693 34.5802727747
26.885 11.9297 51.637 33.7215788815
33.4529 10.8625 48.848 26.1731062657
35.4537 2.81726 55.6549 31.7725133236
27.4146 5.50709 48.2764 30.547496975
28.9454 6.40196 44.6055 32.8244097429
28.7258 10.3539 45.2568 29.4438649688
36.3255 2.8586 50.7273 32.8867067263
35.0369 4.61784 43.8494 31.7239187604
30.2434 10.1591 56.193 29.4779322364
33.8252 5.06378 46.4975 35.5599258671
32.7493 0.850805 43.2311 36.1897949961
29.8213 0.425603 52.7213 32.0279527396
35.9382 11.0947 47.482 32.3368021811
26.4036 11.2839 45.2861 26.8989594446
25.1389 4.85567 54.3836 29.556660479
34.0862 7.81837 46.9284 28.5311603337
28.0165 1.47681 44.179 25.9593271313
36.6264 8.57042 46.2503 30.1950259904
26.6119 7.75594 54.532 29.2931193958
32.6839 10.595 51.507 27.9143210805
27.4574 3.28189 46.4575 30.3724226795
27.8385 1.02651 50.6974 35.0346696037
36.6435 9.97601 53.4873 30.2029042653
32.6358 0.442892 52.5195 36.1321146477
24.8376 6.49681 48.7843 30.2448681786
25.5976 5.13055 51.1837 30.1920484997
26.1438 1.93129 54.9803 27.5679333559
30.5644 7.97957 48.9518 32.0325832287
30.3118 5.246 49.8774 30.9609057554
26.4535 5.25764 44.2056 28.8605080201
33.9942 1.42248 50.3016 33.1806429185
32.555 3.39598 49.112 36.5933535378
28.269 8.01051 52.4274 31.451831107
26.279 8.84512 48.5929 30.5443392254
35.1237 6.61735 53.1182 32.1970738706
33.8978 9.00106 53.9974 28.7178614166
28.523 7.95325 46.976 28.1787850171
28.4841 5.32228 51.8009 29.3308012698
32.5962 6.42517 52.1468 33.8585143945
33.6551 8.1464 49.6924 28.686811337
30.334 11.4178 52.3147 29.3202581028
27.3767 10.2491 55.9989 31.2400810359
31.8109 4.80349 54.4575 32.0323530892
30.858 2.2033 44.9553 30.5839582993
29.2125 1.71364 55.2668 27.1074175028
25.661 2.0768 51.9701 32.0675688317
32.9042 2.33027 54.7221 33.2918661655
31.6901 8.8805 46.1022 28.8251495409
31.8743 11.6446 46.681 30.1240586354
28.9904 10.3207 50.2295 27.2321371464
28.9979 4.45077 54.2533 30.7962881399
36.2503 8.60512 50.7448 26.8646733277
30.7892 8.79788 53.6756 31.5303792339
31.7133 -0.0210248 55.7696 28.139515561
24.8417 2.06998 46.539 34.8247677409
29.4169 11.8702 48.1016 28.0178961287
36.4787 8.78933 56.2319 33.2150596619
32.8317 8.64154 43.5586 33.9833305693
32.9835 16.6182 5.02589 29.1074502637
30.1392 22.1583 13.3811 27.4781027006
34.8081 21.558 15.094 32.8235555161
30.7092 15.4458 6.52195 31.2956896383
32.5192 23.2324 6.73544 30.6124747309
35.1075 15.6753 6.20025 31.2458366138
35.9583 16.1996 10.978 32.0177095289
32.6986 23.0253 13.9427 28.663398863
26.7627 16.705 5.72574 30.5487647137
28.0897 16.0127 8.04419 30.8648606818
35.1796 22.7098 5.0185 31.1944962265
36.6718 17.9856 7.11195 30.4859091841
34.6125 14.9526 8.9707 32.241969073
31.6812 18.4454 6.98002 33.2140102886
31.9814 13.4146 5.0579 27.3494571696
35.5777 19.145 14.2184 28.8646566836
31.1523 18.7341 15.8429 31.484324077
29.8937 22.4126 6.28515 31.6839225774
27.1436 18.3358 12.9969 27.5873035221
27.8485 24.0634 15.6839 28.8455685893
31.8335 19.3047 11.0305 29.1222436967
26.1924 22.9629 11.9523 32.5051564579
30.1836 20.1188 4.78628 34.9741932165
26.1447 13.1449 11.4489 33.0682935234
26.0064 19.7524 15.0505 28.5114131889
29.0793 13.101 4.93662 29.3179369346
35.942 23.7704 11.8045 30.4627903495
30.6629 13.4133 9.0718 32.1836232523
27.1161 20.5093 7.10607 29.9747162158
32.3017 12.4187 16.7985 34.408101977
27.1757 16.5133 10.7191 30.8937188424
26.571 13.4441 8.83008 33.5118610374
35.6298 17.6899 16.4485 28.8032242689
30.4553 17.5944 9.2551 26.4215653148
32.0462 15.6881 10.0136 29.4404091877
28.1972 19.7084 9.44985 30.6276786945
25.4309 15.2234 13.3674 29.752993608
28.4676 20.9823 15.3541 29.6011092417
35.6333 15.0889 15.0941 29.7327637887
36.8067 20.7622 11.3556 30.0721222563
26.0764 20.1368 11.1866 30.3239109382
30.035 21.4322 10.7241 31.4018218712
34.2174 19.6602 7.10771 32.4980024656
33.9944 21.2855 11.6787 28.6963848194
26.6508 15.8364 16.0783 31.8813126358
28.635 13.6118 15.4833 30.9491689178
34.607 21.7662 8.72662 28.56563091
32.339 16.3369 16.5591 29.1106031588
36.8942 23.1165 7.44248 31.245594607
32.1724 24.3593 16.3533 31.0089836478
33.2962 14.0812 14.668 27.4596730184
28.6972 24.0987 12.3773 28.1098704923
33.0676 12.757 7.5294 29.908290446
29.9983 18.9993 13.2875 30.2471469561
28.5722 15.3462 13.0193 31.1132103562
31.813 15.7374 12.952 32.3013222493
35.5284 12.6377 10.646 32.5971724889
35.2195 19.9278 4.51439 27.8547871971
33.8291 17.6916 12.299 32.2830656782
26.875 23.2528 6.53241 32.0912355419
27.6192 19.1417 4.55303 28.189888488
24.6139 22.2185 14.2109 28.5229027715
32.0643 23.3172 9.48278 28.2227218823
26.8834 14.5402 3.95961 29.1418145871
33.9496 19.2952 19.4306 26.8975360181
26.9221 14.9217 21.4145 31.7365359126
33.8065 16.5097 18.8494 29.6681872996
30.3468 14.4915 17.4013 29.9427685657
27.6175 12.2343 24.4815 83.6777511637
36.5576 13.7575 17.2758 31.8748109241
28.4937 17.7906 19.944 31.2784616306
29.0667 17.37 17.132 33.0731084285
29.7263 15.1714 20.5485 29.9259021868
31.6072 22.5174 18.0742 27.5174288152
36.5834 19.6137 18.8758 32.3029273536
35.0218 14.0105 19.5799 29.8836585336
30.4523 12.5874 23.6305 36.1658948585
26.0139 18.579 20.5321 29.2280315059
36.9026 19.9952 24.3649 85.5593316084
35.398 16.6394 21.8624 28.8721606411
25.7418 18.3893 17.6467 31.1578975776
29.2456 21.6791 17.9932 31.1413626247
31.8196 19.259 21.6256 28.6983136519
25.3932 18.5434 24.0398 73.6733888887
34.3974 21.2277 21.4186 30.4438362572
26.3032 14.6774 24.356 65.0496901456
33.1665 16.2778 24.1736 68.3171925796
27.6857 24.1792 18.5158 28.6863413321
36.9255 14.2721 21.5035 25.114407685
30.3246 15.4252 23.8193 54.1237321984
26.6584 24.336 24.41 111.4785196358
32.2514 23.358 20.6732 33.2221423983
34.8573 14.0609 24.2654 62.3864566118
28.7564 21.4835 23.3319 34.7011566904
25.2802 23.1222 19.0699 34.5303236971
28.0988 17.0573 24.4024 82.7271314152
29.7928 19.5912 24.5785 108.521948442
32.1337 16.5808 21.4428 30.3418328865
36.1609 17.4821 24.3528 69.5114851891
26.2444 12.62 20.1632 30.103442054
26.2452 21.3678 24.0223 64.9499178102
25.1737 21.0109 21.3365 31.5867900932
32.6471 19.3259 24.2473 66.2309765228
29.5744 20.3499 20.5898 31.0509650559
34.4334 21.4073 24.269 60.9611775718
29.5808 23.5375 21.2117 30.0950549457
33.5135 24.1369 24.5928 108.1846782159
32.9895 20.5401 17.1488 31.2897214372
31.6262 18.7402 36.0867 53.3777324391
28.9039 15.7605 39.0039 35.0614925377
25.9173 20.6631 36.4869 35.4998124004
28.9657 15.8316 36.3196 58.4368307075
34.5165 17.1699 35.9132 82.8173503426
26.8457 19.8601 40.491 27.8061261487
35.7204 14.6354 36.3502 37.0012826271
33.7501 20.1246 42.6509 31.0879936016
33.1017 21.7805 38.9151 26.8134330762
26.4492 23.7719 41.3255 29.3273920916
31.0588 23.1003 42.5798 31.5717327297
31.5932 12.4463 35.8862 69.1855145773
27.6965 18.5945 35.9823 61.2608993163
29.7075 20.5553 35.3758 103.6239751258
33.3416 20.9799 36.1375 55.8862106619
33.8784 17.5738 40.6997 30.7407218579
25.1277 17.6632 41.2726 31.0713862087
25.7181 14.8817 41.5896 28.3342560137
36.6446 20.1558 41.3579 27.8621285881
31.7839 15.2496 35.835 87.1794876647
31.7206 23.284 35.4614 87.450484631
24.9279 20.5681 39.0445 25.8466430953
26.1558 23.5486 36.1216 60.4497633995
36.8032 14.278 39.1144 27.8062182036
29.5092 22.2826 38.1149 31.2334401284
36.1391 21.3304 36.6464 33.7499723728
31.887 24.2698 38.4279 27.6655739103
24.998 23.3179 39.0898 31.7603155424
26.9913 13.5439 36.2818 59.6122331449
34.8285 15.1118 41.4085 27.0586487962
31.7792 20.8895 41.1933 29.2927644886
33.4031 14.8852 38.4257 29.5767465514
35.8003 22.0745 39.4523 26.6054777237
26.6358 13.7186 39.1867 27.9448734696
31.4442 15.7998 40.4378 32.1329100715
30.6419 19.5164 38.8362 30.7602554388
28.7033 21.996 40.6568 28.5016030008
35.9667 23.9481 35.4796 113.7315637176
34.9063 18.6702 38.3794 29.9307989105
29.0011 24.0673 35.6124 74.5552930661
28.2734 18.3981 38.7406 28.8760378836
24.7799 17.279 35.8717 73.2454920998
32.7096 13.1018 41.5456 29.4287264691
30.299 15.9774 43.0754 35.6802089403
36.0902 17.7429 42.9998 26.2673287309
29.1621 23.5622 45.1944 28.0399771861
31.1674 13.3328 44.0017 33.9539259362
31.3962 17.3407 45.1792 29.3824706303
27.8338 16.9627 55.3168 34.1746111998
29.7089 15.8937 53.6162 29.4424883437
35.0658 15.396 44.9189 29.851401633
33.7619 12.7484 52.9159 32.1827705732
31.6909 22.9691 49.3522 25.5258742963
34.9448 20.8977 45.7194 27.3453403985
27.0511 18.4982 47.585 29.150443465
28.247 20.0031 43.3333 30.9217328671
33.5464 18.2043 48.6042 28.7419351778
34.2207 18.2423 45.6195 28.4050091535
25.6662 14.2702 44.707 29.1526782896
32.4483 21.7907 44.8225 25.0785473037
28.9617 23.7552 53.2474 27.5878537217
28.4663 16.2336 46.4417 29.3842670508
30.4675 20.0366 45.3876 30.110061436
33.5545 20.8392 48.2743 27.6608830146
28.571 22.4354 47.7706 28.1437472441
27.5904 13.7214 47.1662 31.0375888966
31.9209 24.0317 46.6042 28.0783073531
34.2463 21.6281 54.5559 28.8423504267
30.666 14.0501 49.1953 29.1779163541
26.6093 14.4762 50.7974 29.2634699736
33.4206 13.7262 49.0214 34.6382289444
32.5411 16.0424 54.121 28.5791593433
32.7982 14.5612 46.2251 30.2466740624
36.5591 16.6133 52.0362 30.0632517043
33.8448 15.3736 51.4094 31.0718919401
30.2831 20.4188 48.0832 30.4612371646
31.0437 16.5378 47.9048 27.4429100457
27.6889 19.4914 52.1923 35.8578038077
29.0609 17.9206 49.831 31.4557010292
33.3785 17.992 51.553 27.7946672343
26.7072 22.9565 54.3801 31.0960664517
36.2097 21.1126 49.3375 28.572432723
36.2148 17.9369 54.6528 32.2009229895
35.1806 19.8743 52.4856 26.7586259154
28.6754 24.019 49.9052 30.1254185365
36.3509 23.4776 55.0432 31.2971535553
30.8115 18.6598 52.4579 31.0160606367
33.6884 22.4764 51.4839 29.3396203435
31.1423 23.6105 54.9753 30.0349861394
35.9616 23.7824 50.1739 29.4908583204
26.0876 21.5071 51.0083 29.8674369938
33.2939 18.342 55.6101 29.0377777714
25.8626 17.809 53.4553 34.5619972174
25.2673 22.0738 45.9732 29.4790958595
33.4993 13.9363 55.539 33.7446244135
36.176 17.96 49.375 30.1260066017
29.0528 15.3529 51.1099 29.8817146578
27.0391 22.3075 43.8607 29.7623082812
26.6415 12.6787 54.4587 34.6617124479
30.4561 21.6897 52.0224 31.5809930795
31.377 20.6871 54.9667 32.8461041862
35.9742 14.9911 54.82 29.9253113014
26.4256 21.0124 48.2737 28.5826240993
26.4181 19.0294 44.7769 27.7751127056
25.263 14.6441 48.5247 31.6035276564
29.7172 13.1433 54.4724 32.093601965
35.4502 23.4514 44.3485 31.768892443
27.6147 16.3621 43.8717 31.0407738896
36.6959 12.8254 52.7005 27.4818411478
25.6208 24.5809 51.2043 28.7131190114
25.9172 20.9838 56.3125 28.6759968937
36.4385 13.376 43.1757 30.6123715449
26.031 26.2168 8.10069 31.3809572882
36.2427 36.5297 14.1764 29.1958042983
34.724 28.5837 6.32712 27.6044150158
32.1042 25.8491 6.02023 26.8766831933
28.8578 25.5604 7.55155 31.5696666986
34.5851 29.24 15.8647 33.1607116731
33.6818 34.4238 9.45835 29.8440610998
35.828 32.7685 15.9209 27.6955063999
25.6362 25.1392 14.5601 28.9890156589
33.0304 25.068 11.9901 27.2608848749
26.7431 29.043 5.41253 31.4049376151
31.1128 30.9016 4.22507 30.597686685
29.5301 27.884 5.82823 29.4140614579
33.0225 27.034 8.25056 30.2927288955
31.2581 33.6208 8.34548 30.0400297319
26.3641 31.662 8.84248 36.2662780105
32.3958 31.8506 6.55671 25.2746483266
33.9981 36.4007 15.7265 30.3338720498
24.6394 36.067 11.1088 31.6108873108
29.2245 31.6273 9.55514 31.1956124036
34.2268 30.6693 8.11337 27.6724678754
26.4498 35.7782 8.82449 32.6986983508
32.7689 29.3311 13.2395 30.7364596308
27.4521 26.7525 13.0583 27.8089837089
26.3778 36.2434 15.2482 30.1938131647
34.5748 32.5452 4.26506 30.3528712152
25.4726 28.9609 7.93232 31.6814570533
26.9308 31.6722 3.9968 29.9551436924
34.3231 26.1063 4.29442 28.5748199238
33.7452 29.6676 4.17626 27.7041359717
29.7579 28.0992 11.3195 30.4200290375
31.4604 29.0104 9.4115 27.799871341
33.8489 30.4017 10.9342 29.3126441859
35.8424 33.8726 13.5666 30.2734401669
36.7142 26.9748 16.0544 32.3532874804
34.8211 27.1567 12.7971 30.0814625102
29.5953 30.8036 12.0321 30.1133135464
31.6382 32.0435 13.5764 32.9936734036
30.4574 30.2147 7.3739 31.0183377289
33.8215 33.3469 11.8467 33.6610238721
35.907 28.8671 11.1288 26.8968613305
24.5341 31.1071 11.0211 32.2293859957
28.968 34.9399 10.1326 33.9007234403
28.399 34.0732 4.48697 33.0218226296
26.3462 28.8899 14.7106 30.60508589
30.191 34.4449 12.6595 30.5289087184
26.3961 33.5836 6.93233 33.4219893771
29.9131 25.9859 15.3194 30.8751100476
31.45 26.9265 13.163 29.7399633
33.2584 31.9297 16.0629 28.8820209947
30.1496 25.3735 9.95626 30.9130470808
36.3224 34.0321 8.18397 35.7997813873
30.7068 35.523 6.24792 31.1192866898
34.9384 25.034 9.36349 27.6817196987
27.0983 31.1314 13.1852 32.5345847798
27.8964 33.8468 14.1384 33.5127502434
25.1588 33.3665 12.8354 30.5091421224
25.9388 26.9471 10.7378 31.810349564
33.3458 34.9741 5.46375 32.3724781892
36.7373 25.4285 5.41612 32.7880493785
31.4534 36.4952 13.8554 29.6160019686
27.0047 24.5921 3.84777 29.9021755284
29.9381 24.7289 4.59924 27.6061272662
35.492 34.2087 18.6195 29.2905290932
29.2726 26.3171 20.2371 30.0930003008
29.3481 24.9772 23.7821 59.0205699005
32.9019 28.9088 20.4085 30.8388619136
34.2984 25.6571 17.5979 41.2593401098
30.2618 35.1699 17.7366 32.8738979884
25.7887 31.2324 22.3788 28.4732375884
30.0636 28.1736 22.0499 26.3878019712
29.3997 30.4062 17.7426 32.6481858772
28.3145 30.2729 20.6084 28.3808947472
29.894 27.4472 17.7528 30.6525842501
28.7282 33.4957 21.4083 28.7167747204
36.2466 24.8901 24.5685 90.2485114131
24.945 31.0563 18.0369 29.0685345724
34.7195 35.9016 21.7511 28.1174927093
25.7694 33.7894 21.2846 25.2049099726
35.0162 33.7794 24.071 55.361117845
32.908 34.3654 17.2398 29.258787649
36.2392 25.3777 21.4871 33.5369671079
33.7181 26.0419 20.7085 29.7147998908
26.6152 28.1519 20.8687 27.153605129
28.5679 33.0993 17.1124 35.2070641906
25.4937 27.9009 23.4903 36.9182718541
26.0677 33.5534 18.7076 30.6333145029
32.0075 25.8018 23.0443 27.9182861574
33.1124 28.2186 24.1742 82.430006051
29.88 36.0513 20.2816 31.1023103737
25.982 34.7519 24.6494 111.4944334393
28.2339 27.6945 24.1036 83.7202701472
30.8971 31.5563 21.6604 28.1005669528
28.5695 30.6455 24.0666 71.0242647352
24.8868 35.5112 17.2356 30.2854754521
31.9459 31.12 18.4259 30.194790205
31.3613 30.5731 24.2193 67.8567927327
33.4759 33.158 20.1314 29.7956154876
28.4279 33.537 24.0109 46.9802403505
31.8466 34.5452 22.1002 25.6278464344
32.5462 33.2389 24.5538 95.6328898155
35.6426 29.2119 21.3591 34.9785508518
26.5542 26.9314 18.4049 27.8955300736
30.3501 35.6913 24.5815 98.6577226465
36.0483 32.012 21.3628 34.7794591872
36.3486 36.5791 19.4884 28.6412202429
32.7342 27.9275 17.8368 30.9679031976
35.9588 29.1253 24.2113 71.8718003338
26.9231 29.2469 17.3472 26.0918734317
25.4299 36.4695 21.7394 27.892126382
35.8202 36.5876 24.2183 88.9282166111
26.8848 28.4005 39.0391 31.8207749271
32.2271 35.2834 35.7801 65.7816062957
29.9557 26.367 38.3959 29.9992853829
33.5832 25.4437 36.3208 38.690753296
26.2473 33.3352 38.8429 30.4249437709
35.6095 26.8984 38.3624 28.6614607734
27.388 28.4901 36.1851 59.6327573504
35.3238 32.0563 36.038 57.9025176823
29.5153 26.6219 35.7865 68.6843974702
28.6104 30.8312 36.4294 37.8119110981
31.9869 28.0492 35.7656 60.5659711383
33.9948 29.5826 38.3358 28.5972924474
34.0917 32.4361 38.6558 28.7769026279
34.9489 28.7566 35.8314 79.5997633926
34.1579 30.4653 43.0434 27.0346813343
26.8074 35.0989 35.5756 104.3802804842
26.2445 32.4411 36.0184 72.2883198418
32.6785 25.1851 41.4198 31.0528301387
31.1186 30.5774 35.2389 126.1004579583
32.6685 32.6213 35.9611 49.1662138074
36.7723 34.561 35.7849 65.2353241101
25.3669 27.3977 41.4794 32.6665435239
35.6087 36.2524 42.0223 33.0975315616
35.4808 30.0512 40.8268 27.2216035194
28.1324 26.3765 40.6682 33.4573110477
29.3767 35.1885 42.8872 29.819428204
32.708 35.1769 38.6902 27.175817765
24.7757 25.0019 43.0034 29.7084977028
34.7183 36.3587 35.6799 72.5921601352
29.5564 30.8412 38.8341 29.6088424532
27.4988 30.7525 40.6701 29.996518355
29.5296 36.067 35.753 67.1040428549
28.5348 34.0963 40.4559 31.0063048454
31.2915 28.7728 38.8988 31.4572407628
31.226 33.1155 39.9466 31.406433843
32.2545 32.4812 42.5601 31.1061170742
32.2409 27.9022 41.8113 33.9158473662
29.1699 35.9461 38.5948 30.814089987
35.2902 35.4353 39.4102 27.642710523
33.5772 35.0088 43.2464 31.5884691113
29.4516 27.5215 42.8496 33.440363856
36.8048 27.3298 42.8502 29.3116870161
24.8228 31.5916 40.9321 34.3836881111
35.0757 24.5772 40.0322 30.1054026292
29.4374 29.7882 47.8073 26.8081000033
29.0433 27.1847 48.1262 31.3467899805
28.5956 26.1129 45.255 33.3260294658
32.4921 27.7989 55.0623 32.042913202
33.2493 25.4036 44.3802 29.1801691843
31.2923 35.6811 55.9926 29.4337806334
26.5763 36.4432 49.0936 30.4614044179
36.1513 28.7764 55.0422 29.4060584939
35.6379 28.2197 49.8113 30.0879878384
27.5106 30.3083 46.1241 28.2220905511
31.9122 30.1167 46.3291 32.0378430173
33.3336 27.4317 46.7321 28.7384246509
30.5906 31.1222 43.9922 28.7651552566
25.269 36.4627 46.3478 29.8629111773
32.9949 36.3085 45.8042 29.4528807697
35.457 32.1743 44.9796 30.2944035328
31.2722 34.1418 46.816 29.2963903796
27.2324 32.933 46.0269 28.9013285538
29.6016 33.4188 44.9354 28.8927989369
33.3527 32.4077 46.8844 29.6635935697
34.3014 24.6121 47.863 29.8886147147
31.5589 36.4726 49.0365 30.1513846341
33.25 33.1406 54.5614 29.7124649131
24.6322 31.114 54.5565 28.0579357596
27.3491 28.3424 52.532 27.0407597773
28.8557 30.217 50.3354 26.6188089869
26.6179 32.1867 52.8931 31.1966446513
32.892 28.3665 49.3829 34.1695172069
35.7357 30.7369 53.4487 30.6284948523
27.1776 33.7373 48.7071 30.1734367128
32.6548 24.4301 53.3032 28.1288244478
30.5342 29.3371 52.769 28.8476184565
30.1832 32.9399 49.1223 27.3592208565
32.198 31.4124 49.985 27.0340992524
30.5123 35.1394 51.2391 29.130562467
29.8522 28.1417 55.9841 25.8927897068
25.2378 28.9425 45.7853 29.0176670794
25.6948 34.4384 44.2062 34.2012691042
34.2582 34.9788 50.5752 32.2035438374
32.6952 35.3634 53.0651 30.4261509412
24.854 28.5036 53.5143 26.7879423804
34.3932 27.8531 43.9732 26.9947120773
28.4685 30.5535 54.836 26.7406655211
30.4451 33.0314 55.012 28.112715806
27.9955 26.6971 54.4604 27.7321121721
36.638 30.6288 50.6292 30.444108179
33.1023 31.028 52.5141 32.3330819319
35.69 36.4125 46.4569 31.2040688748
36.5367 26.2525 51.6318 32.5821328232
26.4315 31.5349 50.065 30.9536811488
27.2085 26.8329 50.0551 28.4308673597
29.7815 32.3764 52.3066 27.5303007091
36.0427 27.8225 47.0671 29.0101930825
34.8374 32.3512 49.2574 32.9656765417
31.2135 25.8858 49.7075 29.7784698321
26.9734 35.1473 53.2627 31.6923648254
30.547 26.3995 52.3108 30.6245152956
25.9042 26.0536 45.3315 30.0758307833
25.07 27.2548 48.3956 28.2522399805
34.8632 25.9253 54.1588 29.3115336448
27.0569 35.9452 55.6402 34.1346047047
25.6452 27.4316 56.0144 30.7572832766
36.5908 34.6825 52.4968 28.7764535685
28.2827 29.8606 43.3289 31.7173183527
27.2128 36.5428 43.31 32.7661886179
25.5911 42.1171 8.25251 29.7023748021
26.5357 44.2799 10.442 31.3697690142
34.779 39.5808 4.27938 26.6427539882
30.4907 37.2633 9.84274 33.0417007567
34.5954 48.5808 6.27607 27.0000050229
30.7457 47.8107 7.66132 28.157177842
36.0794 47.4044 15.5434 31.9472525823
33.3743 41.3798 10.1755 31.4926759851
34.1269 37.0322 10.2132 28.1600288523
36.67 41.3004 15.1243 29.4187957123
30.3089 37.538 16.1285 28.9315997502
36.4975 37.0696 11.5378 27.4375728983
32.3913 42.5379 6.92222 30.0915044143
28.4666 43.2746 7.78109 30.1270965016
31.1345 43.1655 4.33162 27.0774787368
34.251 39.1797 8.52295 27.344883253
28.7599 41.873 10.5307 29.726349169
