11.3468 10.0364 13.8557 29.870854295
5.35263 6.87813 7.74821 29.5289579401
2.07803 4.00726 10.296 29.1090578204
4.59008 4.64839 9.59401 27.4635117223
7.72187 1.54844 5.52932 35.5285514873
10.1329 5.35501 7.55537 30.980921678
10.7781 7.37905 12.1562 29.6301762492
10.9664 2.81897 8.65307 30.6763024262
4.61527 8.53578 4.0764 26.5338070736
4.07336 7.07794 10.7996 28.9102543882
7.15376 8.68378 8.58986 27.0082042807
8.37851 8.75032 13.1387 30.2424029852
2.32283 0.0743796 6.35142 27.6852498115
9.2977 12.2165 13.343 28.3878064394
8.16774 10.6914 11.3238 26.6086290558
6.25965 5.91412 14.729 31.8586838206
2.92299 2.17371 14.7026 29.3874879612
5.93844 1.15363 10.2911 29.2468480547
5.48399 8.59165 13.4636 29.9070161868
7.24174 4.72349 10.8036 33.0387784492
11.7668 2.75881 11.4768 30.8096574335
10.9034 11.7937 6.6336 30.9794558671
10.286 5.44168 16.6423 31.3136527055
1.42375 3.636 12.9535 35.7538312815
3.09044 6.38346 13.6613 31.663500037
0.676386 6.1486 5.95306 29.871184664
0.440656 0.0410396 10.5504 34.8284870902
4.81516 1.04753 5.33836 29.9325953977
3.75138 4.6946 15.6105 27.4557628053
0.223775 1.96659 6.15837 29.4315021594
10.8966 0.477896 6.61488 36.3697525242
6.05778 3.11451 16.6557 27.1454145315
6.65026 6.97865 21.9057 26.799670239
0.77785 4.30548 21.3381 28.3064159387
1.43066 0.848668 20.3954 26.9485674504
7.93173 0.556018 24.3292 71.3596719316
0.548088 4.86459 24.0565 79.6981312361
0.831032 7.62183 17.0476 32.3468435397
5.86458 12.307 24.0172 76.2509948489
8.11227 0.826672 18.8349 31.2305198287
1.04721 8.82734 23.6022 45.3493546537
8.34844 7.21574 19.7448 31.7796586412
11.0522 7.90852 20.4376 28.935882613
5.27666 8.50287 18.0202 30.4205484815
6.37604 11.626 21.12 30.9726710998
5.19948 8.90896 20.8008 29.5653198358
3.32734 6.64869 17.7134 28.9340312987
4.54225 2.99285 18.9279 32.0534961588
7.83788 3.20408 20.9945 26.2868074395
3.00828 5.59697 20.2003 28.3037682621
1.96714 2.33667 17.6446 32.4894153436
2.73173 8.21619 21.4361 26.8109575244
8.28128 10.866 23.596 36.2333052174
6.86609 0.40877 21.8117 27.7560543069
10.3891 10.2142 21.6709 30.120742141
3.78812 2.28846 23.635 28.0672416561
3.71011 10.1103 23.9544 46.0733024582
8.56148 11.7925 17.576 33.0309013118
3.86734 0.944215 21.4546 29.026811136
5.23173 4.60782 24.2111 72.4611554618
8.18255 3.9784 18.2155 29.3092971007
10.4894 1.64642 21.5614 29.3772121621
10.4541 1.9064 24.3287 72.891862294
10.2493 5.00193 20.9213 29.2094297217
11.1258 7.90385 17.4317 32.9222816933
3.05161 6.58607 24.1149 69.0974003371
5.75225 8.08551 24.5782 96.3965388606
5.37059 4.72419 21.5008 27.2829176467
8.55455 8.06172 24.2913 80.1958167372
11.4815 9.95808 24.2554 75.2910706048
8.24384 3.90621 24.0936 69.5267460221
10.2642 5.94082 23.543 34.391384548
1.33099 2.06555 24.4792 97.5547181695
5.12532 0.428965 24.5877 103.9921998943
0.864455 8.94613 19.5837 32.4198081381
11.8792 2.89218 16.9711 30.338670042
3.86817 10.4754 16.8824 31.9991273852
7.385 7.05791 17.066 28.1230050501
0.49352 4.33858 35.58 102.5402531475
6.1359 11.8679 42.1844 28.4413387762
5.97654 5.17387 42.9269 27.605625443
6.74472 5.03909 35.5446 94.4688687314
7.4941 2.56301 38.0395 27.8692758934
4.20621 3.14428 39.6594 28.3575231188
0.040061 8.17818 38.8363 25.9408660573
2.0262 5.86871 40.6712 28.8592720876
0.622356 11.3437 35.6487 88.2207330721
3.35354 5.5737 37.9813 30.5823353339
5.8527 7.21488 38.5671 29.0303383986
4.41969 3.47734 36.0954 54.7662084579
5.78925 7.58036 35.3984 86.1001516522
11.4467 4.65262 35.9242 73.1992525956
10.7012 7.4688 36.3389 47.5128823461
6.64363 4.67546 39.4744 28.6420236334
7.71077 9.91644 41.2586 28.0340388046
9.83533 2.34511 39.3645 30.373140551
3.34489 9.39595 35.5233 94.5626769709
8.33477 11.9542 35.7444 65.0041535197
8.07121 9.12027 38.4684 27.7616559114
6.02007 0.9733 35.826 70.7893875357
3.31465 11.1332 42.0852 27.3741327135
0.0138462 1.64324 40.5337 31.2522116832
1.94863 1.54428 35.7547 73.9334605576
8.3956 9.14676 35.5624 87.5505996803
10.0037 7.31869 39.3042 31.2672213959
10.1373 11.3881 41.1424 26.2659209562
5.20413 0.281313 39.4541 28.9669761598
3.58227 3.98871 42.2076 31.3769753851
9.41452 2.41115 35.6544 87.7987932091
11.4677 4.47778 38.9975 32.7683111873
9.4032 2.92018 42.1807 32.8939168476
2.13795 1.39725 38.5519 30.825157482
2.61996 9.98005 38.29 27.9429135499
3.72695 7.4981 42.5589 29.6059396135
4.77064 9.0633 40.0131 27.11457951
1.39091 6.91559 36.4725 40.989108528
5.35468 11.8404 38.8201 28.2390799663
8.47348 5.45657 41.2377 29.9730759679
7.0647 2.06949 43.1108 29.8586888037
5.63606 11.0562 36.1053 43.9017924772
11.4777 0.594953 36.2638 35.7029798303
1.29424 8.74925 41.4484 28.1887498046
0.682991 0.205813 43.0027 32.7993657013
10.9144 11.8025 36.1857 52.2223966813
12.0876 9.66869 41.8527 30.7443500937
11.9573 3.36883 43.0789 31.772595536
11.8068 2.22158 50.5097 32.8394936933
11.4955 3.42293 54.1582 30.4880188756
6.66231 9.80699 50.107 29.0920906472
5.75252 2.12951 46.5118 28.3180874129
3.68365 10.6505 55.2433 32.5758312301
9.55664 2.10493 46.9407 30.2764896567
7.85117 0.948288 45.2838 29.1390278437
6.59719 8.18353 43.4778 30.1736480032
6.16943 9.60322 45.8383 27.6678384118
4.55852 5.7417 46.8708 27.1943066831
10.3724 10.0917 44.6505 28.2120909196
9.43126 7.41761 43.7718 27.9815049583
3.8986 8.48193 46.8994 26.6520544775
0.527406 0.31392 50.0726 28.469173144
11.2237 3.92843 45.9093 30.6992302222
0.504815 9.52817 48.8014 31.0696151281
3.70782 0.93169 45.1272 31.960778447
1.07521 4.62921 52.4042 28.5682843727
11.4619 11.9187 48.2178 27.8851643074
7.876 8.21584 47.4274 27.317168817
3.21929 6.58976 55.2709 30.4182059308
1.20304 3.30713 56.2094 29.3005078374
0.370448 8.42682 53.0952 33.0661336541
10.8923 11.0122 50.939 30.4742026672
3.63763 1.68109 55.4861 32.3246898738
0.477057 6.95516 47.1286 27.2694982353
6.48379 4.5699 45.4857 27.6175894525
6.24374 2.70662 49.472 33.7686940388
8.60524 4.16217 48.5014 30.1769178012
6.69163 7.72044 55.3738 26.9912264356
0.334244 7.06846 50.7013 28.9306611323
3.74422 3.79558 52.5138 28.7218757354
2.97335 7.07141 49.2614 27.4506016237
3.71084 4.11933 49.6432 27.6633538604
9.0664 6.0392 45.8953 26.3212500594
9.35761 9.01741 50.3917 26.7871086384
10.4451 9.243 47.4752 30.1871458606
9.7884 3.74574 51.6005 29.3554897714
10.6209 6.56831 51.2639 30.4672379112
2.79341 11.0204 47.3343 33.3235903096
7.27502 11.839 53.3408 34.0371091239
1.81435 11.1895 44.4273 28.7814838314
10.5625 6.64068 56.2038 31.100133186
2.70503 9.90604 52.641 31.8183538591
8.2192 12.043 44.7717 30.3819386151
2.72532 1.19846 51.5749 27.2487231702
0.544536 6.19361 54.6826 27.8873475699
10.2607 9.33508 53.8282 29.9987028865
2.01014 4.77944 46.0906 29.8975225097
1.61946 3.10719 48.274 28.6332922997
7.66941 6.19786 51.6491 31.5594933209
2.38893 0.427279 47.6501 30.8552443931
7.38442 8.93344 52.9155 26.8613105181
7.98922 2.52602 53.424 34.1216704879
4.48678 8.55384 51.0752 28.4131959392
6.6898 6.20131 48.9625 27.773736489
4.97783 6.43492 52.9276 28.411907535
11.2057 0.447927 48.4191 30.8025618541
1.95393 8.27052 44.7392 28.5609168711
5.83854 3.75902 54.6165 31.9765545868
7.68905 5.2647 56.3775 32.3355942777
0.39493 2.08757 53.7334 27.835658958
4.55313 0.426515 49.678 27.827942362
-0.226826 12.1361 50.2309 28.9353985769
1.76387 2.72204 43.8623 28.2392722804
11.6371 12.1417 54.0191 27.2989229699
4.72876 11.7565 44.7578 27.7374516816
9.47317 2.39526 55.8755 28.6252227121
11.7292 6.82607 47.112 28.358290829
12.1238 7.28625 43.524 30.1530157924
9.59691 23.6676 6.34116 32.4203438792
3.71433 16.8451 11.306 30.6785735624
6.93562 18.5942 16.0636 28.9580329973
5.27955 19.9645 13.5991 28.0656926137
7.14872 13.0026 15.0605 28.1391712424
10.2815 15.494 16.0289 28.1411584586
0.464261 23.6829 9.1536 31.9566892683
4.25846 22.3987 13.9791 31.2466514889
3.13682 12.338 13.2213 32.6187333547
4.14874 18.3229 4.87296 28.6007275439
7.25763 21.1112 6.39125 28.0872848965
7.03812 21.5764 15.6417 28.7865436992
10.2742 23.999 10.646 30.4067656454
9.94783 16.3527 6.78106 33.758837568
10.5859 20.8782 15.4301 29.5187106882
5.83871 22.7136 4.44582 31.6344470075
3.79983 21.1394 5.93165 30.0447017641
11.9082 17.9578 11.7371 26.0680242838
6.82359 18.4712 5.77427 31.2736729893
1.96121 14.8945 7.42823 28.0287482882
0.926153 15.6357 10.9642 30.152033393
0.742659 21.555 5.43519 34.0705734515
10.7277 14.7413 13.2867 27.0117782247
1.50844 13.1384 9.53237 27.265197805
10.8238 12.9544 16.5617 29.3359667472
6.20266 14.9838 13.3218 31.8789048729
0.317366 19.3272 10.4199 30.886827975
10.1746 20.8963 6.48693 31.0641378076
0.207462 17.8546 13.0721 25.6335753
3.7026 22.4019 8.52652 30.7746125694
5.62535 14.437 10.5469 31.6064865454
4.86371 16.2185 7.93584 27.9218897192
4.64734 19.3901 10.4545 29.9305840923
10.2421 19.9159 9.16893 30.2627110999
10.2453 14.8778 9.192 30.8154749649
7.40104 17.2371 8.13424 31.6394850708
1.50385 22.0529 13.2422 27.7248660439
11.9482 12.5285 11.5585 26.1184935955
6.4093 21.9817 8.92768 32.519577522
7.44257 19.573 10.0055 27.0789448874
11.4319 19.3549 4.21024 32.1769268926
11.0158 21.3496 11.1875 31.259317
4.20018 15.0508 16.7703 30.284279321
3.4582 15.094 13.7617 31.0845145545
7.81846 13.1981 9.47708 32.363497287
5.02959 14.075 5.92211 30.2482257863
0.774253 20.0637 14.7795 27.7478222471
7.33304 12.6082 6.9359 31.1580481459
2.81329 12.3747 6.25488 31.6086184006
9.64613 16.5526 11.3728 30.0752961022
1.14727 15.2272 4.17001 30.0365509969
12.1375 23.8799 8.18577 28.9113181623
3.28371 18.3734 7.60898 31.6505249452
7.77702 19.7182 12.5408 27.6201305231
2.34918 21.251 10.6941 31.1614549312
9.03152 22.225 13.3986 31.5742546124
10.5896 18.097 14.3985 28.1828253672
7.98418 17.2411 13.7094 27.8114904631
9.36143 13.9053 5.69788 32.9362122568
3.09417 18.1054 14.1194 30.0091557549
0.84735 17.5178 8.76517 28.7055956705
3.68031 12.2866 10.6241 30.3704106395
0.34658 23.8 15.2733 30.689921759
8.2169 23.936 8.85513 30.1772205307
11.0617 23.414 16.5437 31.1645945283
11.3527 18.5671 19.0697 28.4854118003
6.66373 14.1771 17.8864 29.1526926721
1.16072 15.4504 17.2058 29.4450575931
1.66872 15.8913 19.899 27.8553480482
8.53974 22.4348 24.3048 77.4665432232
2.85523 12.8271 18.2343 32.6986894193
3.53343 17.942 20.1167 29.4344489156
8.23615 16.4201 18.1044 28.6963234514
7.74788 23.6478 21.492 28.8873203964
5.58185 14.1664 20.5512 27.0782541916
3.58323 18.9184 22.9272 30.9043427409
5.11176 23.0092 24.4991 84.7944203802
8.52437 20.6121 21.6085 27.0183480214
10.0631 13.0766 24.2854 88.2243120829
9.38807 22.6096 18.914 28.1400501016
2.56024 20.4523 17.1926 30.7897300713
7.93881 14.2077 22.8425 28.7632206239
0.263126 23.1908 19.7093 31.3391351757
9.64102 15.4133 20.2668 29.9717370103
2.75397 13.6569 20.847 29.4450127637
0.498254 12.37 22.4633 29.2170169676
8.77895 12.3725 20.3355 27.6543156466
7.24077 18.9312 19.807 28.5210621556
11.504 22.1413 20.9683 30.6822744036
2.33196 12.474 24.635 119.9886089095
11.0348 17.5002 21.5431 27.8719946016
5.82797 17.051 21.0244 28.9361412887
5.60167 16.9157 24.0035 69.9720334587
3.68762 14.7522 23.4737 35.3390055125
8.21457 16.8189 24.539 99.9872182398
9.9113 19.0136 23.6913 31.5504159542
1.21594 19.9733 24.2076 97.411648238
1.88551 20.4829 20.0877 27.9624514406
1.66936 16.7469 23.752 62.5530749627
2.32553 22.5189 24.0894 50.9189612594
11.295 22.1651 23.7064 38.77338149
6.45529 21.6676 18.6646 28.642854392
5.54176 21.2788 22.1749 26.6693235561
6.76529 19.9914 24.3248 81.6324105807
9.27706 19.7881 17.7022 26.6222160547
11.1776 15.9142 24.1694 60.3767396612
1.67181 24.3673 17.4803 32.0750046991
4.28726 17.8791 16.9808 31.5245062398
11.5945 13.7978 19.0283 31.897255754
3.86256 22.7839 16.9898 28.3799863951
5.15511 23.6638 20.2849 28.3425953557
2.73334 22.5842 21.3006 26.7082313248
6.61526 24.3673 17.1798 25.7543316026
5.28368 16.4298 35.857 76.6918488503
6.98588 19.5838 42.2903 29.3429083492
7.95047 14.8029 35.6271 83.1842579925
8.54126 12.1621 38.6076 28.2304191375
6.7256 16.3257 39.5981 27.0969997108
4.66684 14.7814 38.7556 26.126077128
11.8362 19.3596 35.783 67.6198581409
5.43678 18.9001 38.4228 28.4625124021
11.5538 14.711 40.8381 32.0438474439
3.3593 22.713 37.9092 28.78395453
6.52212 19.4857 35.9933 48.504267782
8.89242 18.2229 35.7611 78.0369120765
8.75149 18.1831 40.9376 30.3368017548
11.5969 19.9961 39.981 29.8774646969
4.12661 20.9014 35.7641 64.3180747746
6.21579 22.5956 38.4357 28.8126531125
2.98515 24.138 35.3497 95.4905888005
3.13615 20.9417 42.3467 35.0992381554
9.67477 22.5686 38.1859 30.2758576485
7.23685 22.269 35.6785 69.1541828808
9.26588 19.7845 38.3787 32.7909696394
2.26162 16.9149 36.1583 60.9277450225
10.2352 21.8324 35.5611 78.0973680265
2.33421 20.322 39.0306 29.6929031836
1.12016 16.0994 40.8968 35.268393434
4.3584 13.6204 35.9613 71.9773009693
2.89791 13.5729 40.5734 28.8887978276
8.56372 15.0303 38.2155 33.0053960053
2.93055 17.2701 38.7394 32.1182353763
12.4757 22.8393 38.3801 28.6415330053
1.94634 19.6091 35.7416 87.7767319429
0.926684 18.8072 42.125 34.2403552575
10.0485 13.0841 43.0889 29.2152483188
-0.111848 13.1122 41.905 28.7204205629
5.93616 14.9494 41.8455 33.3595898942
0.317254 24.5363 35.8176 69.2424272529
5.11053 20.7993 40.3935 29.8415039549
11.704 12.4107 38.8916 26.6681009727
11.1626 15.1283 35.9871 73.3095386566
1.62592 13.793 36.3997 42.4759677542
1.47836 12.2708 38.8993 27.0962718267
8.77697 15.3234 42.4792 28.2649590665
3.69479 12.5687 49.8307 31.5242737184
7.21321 14.7684 56.1761 32.1517792247
8.6192 24.3535 52.004 31.0737062089
7.40296 15.7072 45.5446 27.8221470596
6.6883 12.4944 50.0798 29.4184417158
10.8272 19.4417 45.1617 25.5435863184
7.46338 22.0133 43.5459 30.7677561298
2.70848 23.3749 52.091 30.2926906348
3.40409 18.8566 44.177 31.2070225316
7.41782 13.0145 47.3991 31.2319848748
3.3434 22.5109 55.4072 29.3619228765
7.06761 17.4396 55.6809 30.233711139
3.96332 15.6452 56.4504 28.5408320634
2.72792 20.5291 47.7998 34.7123384929
0.189123 13.9704 44.7797 30.6978478665
3.41721 23.0485 44.244 32.0875465311
11.7038 14.4924 50.7212 26.9404010651
10.2385 21.8484 44.1265 33.8712403646
11.9983 21.1766 51.0004 37.3974302069
2.17312 15.8066 45.9508 37.4734561629
2.0495 15.2384 48.8048 33.3191618902
9.81417 18.1993 55.0913 32.8461957407
4.91336 14.3595 45.8391 32.013650576
9.82011 18.4635 48.1374 38.2159926311
8.01799 18.6928 45.3534 29.6275610131
11.3732 15.6961 54.5231 29.9649178308
0.916168 17.2662 50.6612 30.8787843689
1.96412 20.4552 52.3736 33.2491321153
5.79987 17.4466 43.5234 31.8244237235
5.20977 19.833 46.2857 35.4322273246
5.76141 18.8614 50.3755 38.4420706877
6.74604 17.4208 47.9828 31.4447446081
11.7896 21.7421 54.8992 32.905327878
1.2087 18.6106 46.1545 36.5042623685
4.07401 23.4802 49.8497 44.2712724876
5.66232 22.5028 45.4666 32.4232375994
1.28512 22.9259 46.2028 34.3364466553
3.05606 19.2081 50.1248 32.2398941857
11.8759 24.1955 50.9656 32.5696806528
8.81123 22.797 56.2706 33.5742434989
9.87912 21.534 52.8532 31.0896759544
3.5012 15.0017 53.3159 28.2602299469
1.16493 16.279 53.0924 26.1207774034
9.2831 13.9203 54.2691 30.4960735664
7.77988 14.5235 51.9339 32.524500588
10.9016 22.6942 46.6507 38.9917114782
5.23244 15.0152 48.5956 27.7636606887
9.42716 16.6862 50.4271 31.7993280987
2.22159 12.6374 51.9358 28.2368154869
3.20145 19.6698 54.9355 30.7473374768
0.520983 23.7742 55.8856 32.2198958327
5.2972 16.0513 51.3453 30.1457562882
5.23442 17.8821 53.7785 29.2862617051
9.11589 19.0117 52.6723 32.053562891
6.63546 20.1404 52.865 36.8807620433
11.9555 16.5965 52.1011 31.1486621465
6.97473 23.0877 53.8244 30.6135763766
5.14717 12.8982 54.5284 32.7074036014
10.0829 14.2125 48.2014 31.0218312358
10.5495 16.1953 46.1961 29.3453685141
1.14278 24.1931 48.7094 32.5733435814
0.874335 17.7762 55.2145 27.7297649469
11.8144 20.4061 48.3282 31.8627712613
10.4921 17.4165 43.2864 28.6894299363
1.34962 25.7628 6.96158 28.5102965818
2.61699 26.8677 13.3323 32.4649167054
8.68307 25.1373 15.6735 26.2052782366
11.224 28.9934 6.35663 30.3219844142
5.17239 27.4986 6.75346 29.8200719864
4.89493 36.0694 9.87398 29.1986731928
5.19246 25.5192 4.62034 32.4016412974
10.6375 29.1546 10.4301 29.0917300248
8.66134 32.8023 8.9516 31.199890838
6.29826 29.0695 4.45404 33.1524055387
1.45443 32.8581 6.15284 28.5747424672
2.1466 28.5857 15.459 27.9568441476
4.54798 30.5883 6.80645 32.9905279055
9.11514 31.7577 5.86006 29.8480805279
1.64368 32.9477 16.0746 27.8195984601
11.1607 26.0597 4.94641 37.9716893526
0.586452 30.5726 7.61751 30.3542570155
9.1968 29.2879 4.31818 34.0970936961
11.5343 32.2372 7.41 27.4527203662
11.7617 26.5943 9.96224 30.0476405664
7.07515 35.5383 5.75912 28.6564395739
0.28899 30.3487 14.2644 30.3827404033
11.9374 25.7768 14.8348 33.6746035074
4.98025 26.2609 15.5505 28.0452241206
10.8755 34.9565 4.94131 34.1868579724
2.37739 28.3722 7.68091 30.4097600115
2.07645 34.3782 8.55053 26.3742763996
4.3709 26.2985 10.8871 30.8098188464
3.68584 25.2232 8.51518 30.8654181369
8.99633 28.5298 8.24505 30.285687206
12.0146 27.6408 12.7892 28.1377890085
1.93211 31.9567 12.6338 31.6423822531
2.45158 28.4362 10.6194 31.4071211432
4.17697 30.6254 11.5065 28.5719689671
7.13625 26.2926 8.38228 31.2077602991
6.79488 30.1561 10.8524 27.6837292274
9.12811 31.492 11.8882 30.5433474511
7.3897 30.6446 7.84767 27.6670753302
0.6669 33.8833 11.0588 30.7339178135
9.09657 35.204 7.29467 31.405700186
4.18511 32.3899 9.28549 29.68674428
4.40458 33.7675 6.29551 28.882270391
7.22166 27.7658 14.1799 26.1372887367
11.1462 32.9068 16.5521 26.204278758
3.83932 30.7806 16.2981 25.9447542894
6.69841 32.9533 13.083 29.7275897191
3.08492 35.5835 4.54474 29.798275455
2.33677 36.3586 11.1911 28.9742646017
6.99957 27.3669 10.8719 29.3740870277
11.027 33.1023 13.6747 30.0390561368
9.65517 29.0733 13.7703 28.7055545445
6.20973 33.6818 10.2595 31.8496837967
5.85079 30.3785 14.1533 27.6244787157
3.86898 33.5142 14.1426 32.4522481954
0.184606 25.5929 13.1461 29.8824256699
8.31799 31.2233 15.5101 26.3833600305
5.50436 24.7596 13.0102 32.8250202097
8.38017 34.2611 14.8199 31.8007548382
11.3122 35.2522 11.8958 31.4610278973
11.1659 29.2142 16.2386 27.6657969228
2.43804 25.6691 4.44296 34.7207669887
8.23043 25.1618 12.7981 30.1076788096
2.92362 36.1951 13.7255 34.2827526385
0.0774001 32.478 23.2883 36.4617318282
9.29666 25.815 19.293 27.767638748
10.5607 36.5557 21.0374 29.1631774374
5.02529 26.951 21.6313 27.2059324091
11.8213 28.043 24.2536 86.6752850967
11.665 26.2113 19.8626 29.5145984675
11.3989 32.3362 23.8883 49.3029317898
8.06284 34.2185 17.7669 29.2221406439
2.79436 29.6002 18.6661 27.4190115882
0.840797 33.7225 20.9396 31.4731922536
5.09871 33.2327 17.4977 30.3201937553
3.22639 26.8909 17.6644 29.7701115134
3.87684 34.7218 24.3541 92.4809411591
12.1119 34.9014 23.9776 62.98864811
6.19369 28.9765 16.9383 26.9882930361
10.2347 29.6142 22.5059 27.9526996695
11.0538 32.2507 21.0555 28.80610032
3.6171 34.9407 21.3968 32.0686755851
4.37159 32.5289 20.263 28.5935004868
-0.0851727 28.1695 17.4346 29.6926520766
6.99121 30.0618 20.7021 30.5147765329
7.55169 31.3779 18.1317 25.5506817666
2.05839 34.3652 18.2773 28.6081449252
6.69179 34.4377 23.9465 61.8190526004
1.30915 25.0699 24.6359 95.664089964
5.95982 26.613 18.9997 27.9021090906
5.46992 25.751 24.3292 65.3301578034
11.1553 25.2704 24.166 74.2209434312
6.91206 32.8299 21.7518 29.4079089641
3.2562 27.6307 24.6103 102.0710740197
2.48042 25.6837 22.1603 29.8904864605
8.92042 34.2891 20.4943 30.7627473317
10.3332 30.8259 18.426 27.8178351011
8.22593 25.3839 23.8583 47.6718874379
0.678065 30.9046 20.1129 27.6106047439
2.82379 32.0747 24.1207 92.3168217819
8.24068 27.3441 21.6792 29.0457922789
8.61153 31.7617 24.3615 107.828997093
4.71707 29.9268 23.7043 42.9959805072
4.16197 29.8629 21.04 23.9807920918
7.48374 28.9337 24.1403 79.921761052
8.86661 27.4811 16.9802 28.696377364
12.0034 35.3189 16.9886 31.2785368684
1.7884 28.5416 22.2554 28.0826522348
4.43718 36.2378 18.2014 29.3938635618
11.9293 28.9936 20.266 28.2653187549
11.9867 33.8412 35.3422 113.5152542373
3.48541 25.0175 40.0512 34.8207566113
4.79541 28.7126 35.7743 60.0374431672
7.52297 28.7341 35.8284 61.0856902377
8.53782 28.4367 39.2387 28.7221459121
0.85647 34.6136 36.6411 35.4389691121
11.0372 28.7099 35.3174 123.5208019117
4.68221 24.7934 42.5164 33.6985968408
5.33282 28.3906 38.5639 27.9191275109
3.91879 31.2874 35.755 85.7880183968
7.43881 32.3356 40.6824 26.4287450869
2.56523 27.6823 39.3342 37.0686766278
10.0981 35.9426 35.6722 74.1243092526
10.9864 31.2798 36.5345 29.4863481027
8.18547 31.412 35.7703 75.321900835
10.5142 34.9149 38.0977 28.9238157581
3.41267 35.4392 35.7492 86.6337054475
8.33047 32.9967 38.0759 26.6807692341
8.84952 32.2226 43.0897 27.6979649612
1.77531 28.8418 36.6069 44.813407589
6.0317 33.3577 35.8356 67.5338941992
1.31059 31.9785 39.0634 30.4673054218
11.5198 32.5528 41.0388 28.4362625858
10.7217 26.1758 39.439 27.9242383406
6.72695 27.4351 41.1057 31.815682819
5.21437 30.595 40.567 27.870448248
5.79687 25.4994 38.2718 26.3636057348
7.47591 24.9683 35.7517 75.0426457877
11.9837 26.1648 42.4259 30.864981168
2.56515 31.0202 41.4915 29.6085924416
4.9233 32.6813 38.4072 31.7569891689
10.9726 28.4269 41.4167 27.9635157662
0.859441 31.6957 36.2419 69.5823976807
1.24843 34.8265 39.5998 29.3034014978
10.2209 30.8746 39.0652 27.9783819828
4.75218 35.2723 42.6552 29.8719013045
7.29436 36.5115 35.8273 64.5504649052
3.76361 35.46 38.5449 27.7973430373
7.10824 34.9637 41.2246 29.0811052932
9.40762 27.0296 36.9252 29.8264908078
6.7132 35.7985 38.4125 27.5241838182
9.29223 36.2563 42.3671 28.6158795867
0.645916 34.9962 42.3077 27.7804849099
4.69962 26.0333 35.4754 77.3305191374
8.22987 24.6431 39.7993 30.0472489105
4.61837 32.4232 43.1454 27.0305125346
0.541914 25.0851 38.8706 32.5258361679
7.81235 24.5017 42.5047 30.6949387679
6.95543 29.7123 42.8632 28.1072123082
0.131983 29.0044 42.2776 29.470996609
5.43929 26.8586 46.2463 32.4537286694
5.03101 28.539 48.5958 30.074275577
3.34952 26.379 44.742 32.4679114095
9.57829 29.4831 46.8678 29.1922393244
7.75175 28.0242 44.997 28.0417235693
1.04854 33.9042 55.6229 31.9242535512
2.47908 28.8643 44.1998 30.7238662517
2.32502 30.1079 49.7436 29.7012521751
0.418093 29.426 56.3173 33.4362671185
7.23124 30.3467 48.3599 29.3357768657
0.381474 26.7523 54.7979 31.7354811731
4.84407 30.5511 44.8586 29.0403381875
10.1238 33.6533 46.2177 30.9922994135
10.3462 27.0636 48.4391 31.2946428422
1.57559 32.806 43.5172 26.6924884632
2.55183 36.056 49.0247 30.2473862356
2.51038 33.4584 46.0624 30.8179033734
7.96891 31.7988 45.631 27.5740419946
6.81391 33.6218 47.6065 29.4971710628
9.01878 35.4624 52.1519 27.803540199
9.70638 29.2111 54.1389 31.0374010218
6.21239 27.3759 50.7317 32.4194026823
5.76946 33.7358 56.479 28.3715518671
2.17575 31.48 55.4588 28.4457107857
9.59219 25.1381 46.6339 30.8180320377
1.21374 29.4383 46.5739 27.6220249973
0.23348 26.6005 50.8439 32.3656427415
6.89252 24.5496 47.1297 37.284715252
1.06018 30.5668 53.1822 29.3724103535
1.94379 27.3466 48.5854 33.120256418
8.19125 32.6105 50.0638 30.8136763165
4.71297 27.7067 53.3088 32.5988881861
8.38331 31.1028 52.7525 27.891175762
8.4549 28.9647 50.5648 30.7266859421
0.752346 35.6239 47.0286 28.0824604096
7.49026 36.4419 48.6791 29.4376684494
10.7971 24.7791 55.2315 27.2220041319
3.74439 31.1823 47.5746 27.3687475198
2.00435 34.5976 53.1229 33.4086841573
6.20096 35.1971 50.8489 29.4476296834
9.71862 33.1444 53.4354 29.0367921086
3.96969 33.5603 49.3664 32.2846887268
10.6204 33.6384 49.3843 27.762053515
10.4762 36.2499 49.6635 25.1470607666
0.949403 26.2244 46.0667 33.5225309924
9.21839 26.2327 43.8944 29.9472780495
9.02207 26.2673 53.9311 27.493604927
6.60175 26.8879 55.1721 30.8052789454
12.3442 30.2202 53.6827 31.8048848974
12.23 36.3236 52.515 27.7084810034
2.06807 27.8615 52.8086 32.1313183132
10.7756 27.1328 51.6286 27.6953183973
3.16409 31.9766 51.7562 32.4196339786
6.15703 35.1589 53.8199 34.0265852348
5.69035 30.7581 53.0633 35.7971873845
4.89903 34.6225 45.4842 32.9542428359
10.3544 29.6791 43.8298 29.7285486048
10.253 36.2311 46.6963 29.2494458471
3.79259 36.4254 54.6566 30.1816804633
0.220172 35.164 50.9077 28.8874339937
4.7713 31.2045 55.6501 31.6358716479
12.3099 29.4141 50.2742 28.1460099926
12.3913 29.8415 47.373 27.7770095205
6.85761 24.8005 50.1001 37.8397224572
0.38914 24.5919 52.6088 28.7719188405
4.52396 24.5318 53.9435 30.3063527078
8.70457 33.4966 56.2011 33.3614159451
10.6783 34.3554 43.1741 27.2625934223
8.61584 37.1561 15.0624 30.1316271579
4.99515 47.072 5.36751 31.4113353203
8.44341 48.9858 8.05806 28.4356092384
9.51511 37.5613 11.5667 30.9951045988
5.83145 47.7513 12.8025 30.2885810538
9.19819 39.4169 6.237 28.7949795688
8.44103 48.0771 10.5995 29.9816543086
5.07415 39.6902 8.85805 31.7066642804
2.62134 47.7349 8.69466 27.8372619121
4.76872 37.8473 15.7639 36.3473268832
3.06396 37.9332 5.66876 30.850151244
11.3376 43.7108 9.74962 34.028183026
11.5971 36.884 14.4476 29.8394422453
11.2235 39.3629 13.1164 34.4113392969
0.678795 47.3548 4.56696 30.5843948463
4.93915 37.2726 7.35274 30.7573233063
5.09616 41.9876 3.95341 34.4027042788
6.48685 44.363 8.95883 28.8258821935
1.26476 40.3805 6.06524 33.1451621245
7.00379 46.5583 7.38352 30.1881743575
8.62549 44.8694 5.76192 34.7996298098
7.63007 41.8487 5.96588 30.037120347
1.40241 37.2423 8.01284 31.9839940821
6.70127 38.4816 13.8889 30.0574480355
2.98598 40.2165 10.5925 29.666535344
7.97415 39.6126 9.2511 28.5244277396
2.13102 42.6043 9.34563 28.6160962756
8.55876 42.5712 8.86309 30.3317442466
1.03873 37.4257 15.3392 27.8358926824
3.93581 45.0756 10.2743 31.0757053197
4.98814 42.2708 7.54354 31.09588383
7.1284 43.9097 11.964 30.0764091384
4.0203 46.235 14.1353 32.720871468
10.191 46.1683 13.227 30.6042446215
11.5193 44.3174 6.72541 32.8942985451
2.88933 45.599 5.90153 31.4267603663
10.8482 37.855 4.67477 30.4474284176
5.40976 47.7857 9.8389 27.6838887283
11.0068 41.5167 6.4014 28.0188812418
2.77071 42.6896 6.16278 30.0486832551
11.6235 44.8881 4.01544 35.0444039084
10.6212 46.4086 10.1234 32.1451966568
6.96743 44.8573 15.8609 30.6097329236
3.54418 41.3937 12.8018 29.7280902235
0.263388 43.9096 10.8119 27.8683096312
6.51425 37.773 11.191 33.7628497099
11.3347 41.1148 15.8516 34.4408140158
10.0133 37.6825 8.73386 30.5756508703
0.437333 46.6543 11.7607 31.581140208
6.40305 41.1352 13.5496 30.2059402604
1.01594 43.1519 13.5482 31.0079353494
8.50098 41.0202 11.7638 31.1898414322
6.45878 42.275 16.1891 30.1630319104
4.21582 43.9986 12.5644 28.0952449695
10.4034 43.3052 12.4157 32.7978631321
10.7501 48.0632 15.1622 30.4416428906
1.15493 47.021 14.4828 31.3362772582
0.0656773 40.691 8.62286 27.386140473
7.67381 45.8447 13.5624 26.6048714511
2.04293 39.8709 14.7981 29.175479977
0.769933 38.631 10.6612 30.565019926
7.35081 37.7779 4.10492 32.3017904134
2.57285 38.5107 19.4021 30.139177901
0.497781 45.0873 18.0412 27.2225510138
11.2941 37.7009 18.4859 28.5547430727
4.64012 37.8469 21.5449 28.404133035
9.9183 47.5334 23.7184 31.4234861371
1.75096 47.8674 18.1897 28.6072345881
4.48955 47.3142 18.5748 32.5558848473
2.938 40.2005 17.2307 29.7008574876
8.40402 42.4025 19.7107 27.8499355114
11.4386 43.2449 17.935 27.797969743
4.67587 40.9349 21.4909 30.0162012772
1.88478 42.2249 21.4938 27.0857209333
11.0428 42.7007 20.7355 30.3611020611
4.57028 44.5147 24.4999 104.2816967208
0.606928 48.0138 23.7134 39.0261398135
4.6862 42.1533 18.2911 32.2770649995
0.785587 45.2748 24.5212 102.2030559283
8.92415 44.7212 17.8746 32.5196792401
11.0218 39.9157 20.7551 29.1219642014
3.88614 37.4555 24.1956 62.3757982409
2.80305 44.2157 19.7688 29.5722311121
7.39854 37.3483 21.6067 26.5280312173
8.51699 47.0062 19.5556 34.2772062116
0.240295 40.6875 24.4283 87.5730331442
1.1973 37.9468 24.119 71.4260799069
8.54208 41.1389 17.2912 31.4964462155
8.93103 45.2056 24.36 100.2181397424
8.94089 38.4636 17.5148 30.0137787074
4.59369 40.4502 24.1909 62.5782839172
2.35095 42.741 24.1172 49.0592491689
7.13067 39.729 24.6702 110.0879192216
7.98475 40.1836 21.4474 30.5074133423
9.11726 41.5736 23.8052 50.9060903336
0.246323 46.9877 21.0788 30.6475140931
3.63778 47.232 23.8069 41.8025193513
11.8908 46.2478 17.0917 29.3215517241
5.87694 43.7012 20.8697 29.1356648796
7.10225 43.636 23.4377 32.2473809019
7.18135 46.7156 21.9977 29.0998710313
11.3164 43.7536 23.5415 50.7236782566
4.48685 46.2402 21.0849 28.1084191887
10.8374 47.8628 21.1022 31.7444536674
11.2565 39.5607 23.6907 49.5108923315
10.3929 37.1319 24.1808 83.143660106
1.00404 39.4536 21.4767 29.4052558633
4.4488 45.0998 16.9726 33.2662585205
0.617468 36.8597 17.8832 29.1532983175
7.78129 37.2152 24.1534 56.3584366699
0.622757 42.0602 17.0871 32.4526026961
7.02663 36.7995 18.8472 32.028862539
4.46412 42.1603 35.7807 78.8009409686
0.87222 41.6976 35.834 73.2327624863
7.63561 39.4818 36.0436 56.8647171402
1.39572 44.4503 41.4169 31.0306758305
0.985138 44.8496 36.042 47.9409244087
0.367043 47.9786 38.5864 27.8709305613
9.86582 43.1815 40.8166 26.6578309108
8.40948 48.252 35.9361 62.397564645
10.1687 40.9482 36.0008 59.613258835
4.00563 45.2975 38.4759 27.0135470301
11.6667 43.2394 35.8562 65.9646013315
3.60781 44.9745 35.7741 69.6130547971
3.87606 47.9969 35.7742 72.8544320717
7.39761 45.2944 35.6769 88.1748378547
7.97422 38.5782 38.7689 29.2175976097
2.19656 47.1158 42.1264 30.4690782902
11.4072 44.3724 38.9031 31.1624898864
1.00443 47.7275 35.8744 60.3930878218
10.7137 48.7323 38.7602 32.1046124319
11.6548 38.5475 35.7959 74.9629008684
6.59544 40.3681 42.4759 29.028775759
10.3857 45.7773 36.2707 39.3808577663
2.43774 37.0817 43.026 29.3671935735
4.59717 37.9283 35.5898 89.8419292026
1.23649 38.7928 35.9891 72.1258166814
1.23457 41.8069 38.629 28.9172526701
1.06519 39.1556 39.2519 28.2433918461
3.42258 43.1773 39.681 27.0433374234
5.12856 41.3877 38.2811 28.0858401093
5.26913 39.1223 40.0905 27.9680767566
7.39143 42.4273 35.7413 71.9657488171
3.59091 38.1052 38.1568 26.8736246029
10.0895 37.2594 39.8951 26.5623679872
7.82157 45.1354 41.237 30.8697774606
4.25284 41.9647 42.2831 29.3436082844
6.66179 45.3614 38.4199 29.5183282515
7.59409 42.639 38.4539 29.1439545799
3.21536 47.6889 39.6115 27.8502909429
11.0233 39.9909 41.7604 28.2372493861
2.5132 39.2814 41.396 27.8965879485
8.47457 40.9013 40.5958 27.4580738089
7.94691 48.1799 38.8165 30.4511241384
9.14245 47.0706 42.763 32.9239362992
12.0644 39.005 38.5283 30.1620601492
0.133543 45.1069 38.8553 29.281495318
0.80598 40.693 42.9936 26.8410179625
6.45988 48.6388 41.7606 30.4452668841
11.9055 47.6163 42.346 29.8795579563
6.19659 43.9993 43.1383 35.0176461694
1.1694 40.0754 49.8153 29.2785218255
0.105034 42.9739 52.7749 32.2305489883
6.37897 46.6095 55.5204 31.8439639483
8.87376 45.973 55.6878 29.5209923628
6.98814 38.3369 46.6577 31.247004344
0.577487 47.2933 46.7934 29.9526309813
9.20332 37.9975 45.0133 29.7142182112
2.47545 37.4913 51.8609 29.0275917375
2.4662 39.4865 53.8709 33.1376509038
8.13556 47.1082 45.5879 32.6036578457
0.0191265 38.4579 47.0593 27.8721392967
11.1381 37.9508 54.4266 30.4393417843
9.07485 47.9653 49.6664 31.8366726245
11.4559 39.8177 51.4537 32.8336128528
10.3888 44.3087 43.6696 31.3391900085
10.5204 42.7507 51.3695 34.2734074807
2.28704 44.7981 55.66 28.6631544064
2.72213 41.9291 44.5603 29.4747974914
6.49375 37.7075 43.0015 29.5156207904
3.41062 39.1838 48.6154 29.4676117364
10.9469 45.8162 46.2533 31.7040378685
0.361129 42.8463 55.6264 31.3171533323
4.74847 37.526 45.1964 29.736262849
1.69257 45.4862 44.7327 32.3300987754
6.63621 39.9603 51.1565 33.2451616879
1.58682 46.9126 54.0282 28.4507065255
9.08868 38.9963 50.0419 33.7305365588
8.54226 37.3964 54.2388 29.0408611778
2.18485 45.4873 48.5698 31.4654648611
4.67652 47.8327 43.5554 29.6499259315
7.35465 41.277 46.5817 32.836791101
4.6665 41.5561 47.2731 31.350548076
8.82099 44.3178 49.7232 30.9283771597
10.487 40.0763 44.4656 28.4072879034
8.43431 42.2077 44.0586 29.580449772
4.05237 46.7819 50.7068 27.372553306
6.69612 47.8275 48.3102 33.1410327659
2.48051 39.1808 45.683 28.370330276
10.9434 45.9749 49.2859 26.9670374092
5.66054 45.0337 48.9594 30.4395393573
4.86591 39.2117 55.7264 31.0659144485
2.18553 41.2476 51.8838 30.7199752596
8.40758 48.842 52.2911 33.5834803289
7.91694 42.0028 55.4276 31.171795722
7.16236 39.7919 53.7787 34.4058547229
9.15861 41.8077 48.3584 31.5819124986
3.86395 44.2922 46.5859 29.7115262689
5.40916 42.4065 50.1105 31.6204139064
8.97714 43.8598 53.6269 32.0227353631
12.424 45.9032 52.2046 29.2278977939
0.444429 39.9537 55.7324 35.2380902584
10.8151 41.9637 56.3257 32.9772427844
4.88188 44.3411 55.0091 29.1024979235
1.20421 46.724 51.2319 28.4847666577
4.18772 43.6586 52.4087 35.1040735411
6.89352 44.8367 52.0294 29.1388232776
6.25223 47.5096 52.7726 29.3293952819
4.92331 37.7817 50.6261 29.8248242235
5.73493 46.1388 45.0581 30.9311116762
0.698579 42.8891 48.666 34.8547483392
11.4034 41.5483 46.7376 28.3930804365
3.61161 48.4319 53.8055 30.3396640715
10.4731 47.379 53.8416 33.3671010552
11.2829 49.1321 56.1753 34.0909879152
17.6768 5.62768 14.3385 30.4956486705
13.4719 3.9361 7.83748 28.7094556955
21.6296 8.27703 9.72816 27.2182637226
23.4169 9.49808 5.06517 26.3994848747
13.249 11.6986 15.2686 28.976190954
16.8887 9.21969 11.0088 32.5791702679
13.7768 3.76909 5.17083 32.6605134492
15.3151 6.40485 4.82144 29.2440139886
20.8665 3.60236 5.0351 28.547273573
17.4443 3.25452 7.20442 27.3276917486
23.4043 2.65878 7.24976 32.448607095
23.0523 11.6856 13.4652 30.2940664715
15.4514 7.11044 7.33479 26.9735998173
19.6768 12.133 3.8178 27.153021758
17.9346 5.33317 5.48529 25.9144162458
15.3626 9.82021 5.31579 29.6126306956
19.6211 7.38602 5.25773 28.8068742072
20.2919 4.4251 7.94326 28.0866729888
19.3994 6.94105 8.98851 27.5815699877
24.2634 2.72459 13.9347 28.830936525
13.5894 4.94044 15.2539 32.3851467458
14.6611 1.24389 8.39958 28.9587341045
17.5608 0.504191 8.76377 28.6548412447
14.3444 11.8152 12.5831 25.9507750875
17.1313 9.42552 16.724 31.6079425287
22.8092 10.1201 7.8115 32.5242029917
20.3921 1.1952 12.2382 29.8866047399
20.8564 9.17926 15.5194 27.7666625388
15.4582 3.7782 13.3766 32.239225236
21.5105 0.730952 8.29534 30.5284084236
15.8637 4.72324 9.06504 30.3051470928
13.9694 4.63361 11.1185 27.7656045094
15.4165 7.27322 15.5019 29.6465227767
19.5689 4.30614 12.3233 34.0422731773
19.6222 2.22332 9.53046 30.2304133804
23.1335 5.64124 13.7354 25.776228466
21.8491 5.6227 11.206 30.041549916
18.3864 11.5062 15.3204 30.7715160119
13.5363 7.3638 11.3594 29.5359931814
17.9568 8.73853 7.48937 27.816751869
19.8397 10.0604 10.93 30.1702989859
15.8297 0.968018 13.7874 31.4934480653
14.2382 1.18917 11.308 29.4388746325
24.3178 8.11252 10.6481 33.4177742751
21.9424 1.19123 14.5183 29.6127104762
17.7666 1.25632 5.22478 30.0125946914
12.8539 8.25644 5.12592 27.9804449927
23.4891 8.11358 14.7045 27.7974088111
20.2302 7.44551 13.083 31.4210422255
22.3348 6.71744 5.20434 26.8429542702
13.7798 8.42882 9.03185 28.9366761993
17.573 6.49767 11.1565 30.7915434601
20.495 5.37041 15.3558 26.4946558023
23.1298 5.61528 7.69931 28.8130012639
20.7417 2.70761 16.4534 30.9804596119
14.788 9.17925 13.1498 31.8482185947
16.5513 11.4734 7.44367 27.3558872805
19.3373 11.4835 8.55295 27.7381328629
20.3887 10.5826 6.20671 30.6103009173
15.0269 10.9149 9.76567 30.8033120821
20.3237 11.3364 13.2047 30.0393303688
15.2308 0.0114627 5.74427 33.4922855132
16.2955 2.57425 16.5995 32.2085707378
24.4191 0.144403 10.9125 31.1046524893
13.9998 1.25355 16.5981 30.2581821318
23.3211 4.37165 3.9137 27.0991786479
22.4356 2.88736 18.6524 29.5733230935
19.1395 7.20576 17.2376 27.5055707422
18.293 2.99333 19.4934 29.091636009
17.8996 5.11403 24.277 71.2519078719
22.8691 5.4148 16.9746 25.6916999111
22.4141 0.263787 19.6383 28.7979620454
16.7033 -0.122659 21.6611 26.0485130464
14.7711 5.70821 19.7519 30.2733683251
12.807 3.95652 19.6523 32.9238897333
16.7972 6.22641 21.4212 29.7165436352
21.2904 2.65313 24.4333 86.9512323498
13.9184 8.10362 20.8824 26.9831016814
20.1512 1.56063 21.241 30.950396433
18.7925 0.692074 23.6179 37.2046556111
16.2828 11.7257 18.7927 25.6571925527
19.1431 5.60053 19.712 27.4752781585
23.3822 9.9507 24.4527 84.1358066252
22.4005 7.96704 17.9262 25.5385244524
16.6951 9.23122 21.2103 30.0184559888
20.7818 7.96684 20.3522 28.4916400243
18.5577 9.80853 19.3444 27.4618499093
13.2538 1.79171 21.4154 27.8617381444
13.4798 2.60311 24.4748 88.3839895102
18.7232 0.855158 17.0646 33.1037809035
14.8874 10.7145 24.7096 109.7966940087
23.4434 0.868673 24.3109 62.8229457067
16.5069 2.53151 24.1541 75.3254659471
24.1371 4.10376 24.4207 83.6717131343
16.5125 5.44378 17.4716 30.1566457508
16.1049 3.15376 21.3094 30.985567561
18.8122 9.21606 24.4927 94.3825549
16.5087 7.24764 24.4799 79.8758028895
20.669 5.27251 23.9721 56.8615405091
14.1542 10.3983 19.4108 28.527380864
13.6422 8.21037 23.5783 30.248914221
24.1859 9.07345 20.6719 26.8051396146
17.1959 11.2568 23.2763 29.795399439
23.8242 6.03826 21.5287 27.0194511019
21.2729 4.55349 20.9748 30.649239112
20.9498 7.91353 23.3664 34.2203097537
22.0067 10.6976 21.7513 25.5413985434
24.6976 6.77142 24.079 57.4930893148
20.3424 11.7025 19.7352 27.5172584173
12.7936 5.81684 24.3375 97.5152343448
13.4996 9.41739 16.8479 31.9308786724
20.5105 11.6556 24.0043 46.982985448
21.9727 10.965 17.6412 31.1269427161
17.6941 6.417 40.2506 28.7588441688
15.1384 1.13763 39.062 32.5391608266
19.2857 2.81673 35.3575 105.6519450056
20.629 5.99277 38.327 26.4549993412
16.9581 4.79089 35.9578 59.6845264251
18.0066 4.28637 38.5971 27.9393904162
18.0469 11.5593 41.3181 27.0866978648
18.6801 1.46164 41.6347 30.4181336736
14.0047 4.28855 35.8552 59.0551516845
21.0636 3.48075 41.2511 28.4948773617
20.7488 11.8604 40.6608 27.8768362126
17.7459 8.669 38.4742 25.2863041807
15.7853 5.95299 42.214 32.3472637765
15.1161 7.32809 35.6863 81.8890681861
20.4746 7.19273 35.6663 87.6105071123
23.2984 1.41268 37.9842 26.692832447
15.382 10.6604 35.873 70.4448786306
12.6465 7.92059 39.624 26.981168669
23.4166 6.1168 38.7933 30.428967225
17.8836 8.23183 35.9669 48.4962489714
18.9238 11.0511 35.5034 104.0236632582
15.0879 10.8544 41.489 34.9190883258
21.4288 9.88585 36.1417 58.1661936169
19.4439 9.34625 42.8057 31.9436071888
13.1239 5.57388 41.4315 28.8993890379
14.6532 3.96794 38.6499 33.1014803985
20.7698 2.99595 38.5431 25.8681060296
23.5801 3.9647 42.2206 28.4895910725
17.8643 1.45368 38.7589 26.7343979893
22.4901 10.4627 42.7588 28.0158263786
24.0206 6.51816 35.7873 95.6191054517
20.3812 6.24901 41.6083 27.3043788985
21.5207 4.17773 36.0552 43.9787774645
17.0494 0.437004 36.2038 42.9417859131
15.2143 7.40964 38.6946 29.7382631829
21.802 8.47389 40.6244 27.817603731
20.3838 9.63273 38.6208 29.0670942843
13.6588 10.4172 38.8646 25.865692483
14.3228 1.44445 35.6095 89.2533002163
16.5185 11.0972 38.4014 28.4942642732
15.3808 1.17772 41.8647 29.7848679393
24.1397 2.31046 35.5555 90.6326663415
24.6957 3.70069 39.7139 28.2245729645
12.9744 0.832264 43.0959 30.8020716232
12.7969 9.36301 35.945 70.6387656901
24.6626 8.41358 40.2543 28.0258199511
23.4382 12.2192 36.1706 61.8898966965
18.9184 2.177 45.7799 30.2254255164
17.1166 6.8809 44.6368 29.6199900144
14.0579 7.41081 45.6983 34.4426574934
12.9523 5.91281 49.3426 33.9442729985
16.8884 4.4948 46.4373 31.5475020664
15.9124 0.0641735 48.4739 32.3436308923
22.8636 3.85419 45.262 27.6094765994
16.1117 3.47338 43.3817 29.5561213887
22.7614 2.72104 47.9222 33.57208523
18.3671 0.868214 50.3389 26.4648585353
15.2846 9.88453 46.4332 29.4130297099
21.0114 1.15511 55.9209 32.5130572115
16.2439 11.9234 48.0606 26.3979406148
17.4475 8.18071 47.5419 31.1813491899
22.1745 6.53496 45.821 29.1035180077
19.8182 6.64613 44.0747 29.0611680837
14.1621 3.53913 46.1271 29.5484448202
24.6714 1.58194 43.3114 30.7520518565
18.8007 3.7902 43.4862 26.9886497018
13.9691 12.1033 49.528 31.2852776299
20.0325 9.45031 46.8908 31.8804234378
18.8193 4.5887 55.6542 28.7522038967
12.3204 6.35247 53.6463 29.0246532817
17.1886 2.51125 55.2894 32.66136033
21.1233 0.204047 53.0494 31.090442461
14.0482 3.31797 48.9035 30.1479290288
20.2998 4.55421 52.7843 32.0326729275
17.1539 4.57746 49.3728 31.5245285075
22.988 5.35812 53.6646 32.2231458585
21.2223 4.35894 50.0045 30.0176015033
21.5747 1.82068 44.1346 27.8922872827
14.2788 7.52539 51.2247 33.868358534
23.4069 2.04931 54.8341 29.1092200397
20.7942 6.54607 48.2291 34.1026203591
16.8994 7.44087 50.2352 29.5737396706
18.7094 6.91373 52.2657 30.745062339
23.4096 11.7332 47.6263 30.9505140485
21.7488 8.46962 50.3154 36.5948188971
23.8566 8.80626 44.5872 28.9165213678
15.6496 11.4061 53.3538 31.3475480553
17.8255 10.2301 50.0745 31.8827760265
20.1515 9.00274 53.4965 28.8775992617
20.7531 11.1603 49.4092 26.8874454069
13.4161 10.2055 51.8876 27.9120960404
13.4637 1.27595 52.617 30.4666120793
15.9401 2.54187 51.1319 30.6942411111
23.3242 8.84701 47.8938 29.6319661666
18.7441 1.8684 52.763 32.7680846817
22.4368 11.5645 55.8047 30.3422346404
13.2909 8.80112 54.4881 26.6117490595
23.645 3.89201 51.298 30.1211572252
14.693 4.49923 53.2275 32.3140962115
18.9416 9.37989 55.9821 30.6128888637
14.2945 0.719356 45.4713 26.4751882057
16.848 6.20837 54.2854 30.235571468
22.9675 7.86644 55.0745 32.405633413
19.1298 2.94665 48.6589 27.7243090095
15.9675 8.61706 55.2651 27.7635073362
23.6129 1.19966 51.8754 30.4541679546
14.2781 2.26981 55.0895 26.9810593088
22.7643 10.4472 53.282 29.9694243236
12.8015 11.3705 45.7058 32.6976819737
20.73 0.134156 48.5791 31.7787688369
18.4404 10.8537 52.5207 28.4572034919
19.4385 11.6326 45.1162 28.1794260933
16.7166 10.7209 44.283 31.3088579223
15.7118 11.9288 56.13 30.7111377383
12.907 12.7891 4.21641 29.8785769485
24.2943 20.8204 8.28663 27.5360672852
20.9478 24.4027 13.5944 30.6502404225
20.1771 15.8516 6.66779 30.926484932
17.588 16.8566 4.99478 28.605781228
20.6679 15.0213 3.91718 31.3528528303
15.7303 20.8415 9.34576 31.0825985228
14.3424 13.4861 6.6043 29.2319984383
16.9404 14.5777 7.80207 28.7011437439
17.9455 17.8327 16.6316 30.8376575844
18.4604 19.9771 5.71201 34.0634727003
23.8796 16.5956 4.8817 30.4721959811
20.8311 15.5111 15.6995 31.7016739867
23.5682 13.9423 11.7659 31.6689175329
13.1097 19.2894 15.9853 29.1846836213
17.7535 13.7343 5.04341 29.671919863
17.6181 22.9247 8.26546 31.4857915295
16.658 12.9167 13.793 30.7988254162
22.5047 18.7688 11.385 28.5110939251
21.9302 20.4268 6.83912 32.7279795539
20.7186 23.6623 10.6347 30.2575606945
13.4544 21.3326 7.75612 29.6393498287
20.846 22.0563 15.272 30.7246297654
13.8643 19.2712 13.4386 27.1066149146
23.6955 22.3195 14.2814 29.9882695372
17.9707 21.9433 14.8015 30.5383035211
16.9872 14.7441 11.7714 31.4785243917
15.6007 12.9422 16.4066 29.7617763828
20.4862 13.7199 8.72575 31.5815441391
21.727 16.0499 12.8726 27.9496911418
15.6531 18.0075 9.76018 29.8040510362
16.0277 17.8129 12.6854 27.5263609168
17.7446 17.2506 8.05417 29.1755267319
19.9317 19.3889 8.34803 27.6569035269
20.0293 17.2765 10.655 32.5039006816
22.434 17.6139 6.81093 31.1076684039
23.5529 15.2803 16.1285 29.4349784871
19.1717 21.3608 9.96592 30.6620785085
17.4479 20.4869 12.2309 29.5143815658
24.1924 17.0119 8.92416 29.3175143515
23.1746 21.4042 10.652 30.558601094
14.6636 14.7271 9.94366 31.9736615038
23.3236 14.2857 9.1155 32.2897405771
14.7186 23.3372 4.8059 31.995839405
14.9476 21.649 13.125 31.726616487
24.3939 17.5565 14.8573 26.8172792027
14.11 20.4829 5.0796 31.4850113982
19.9277 13.9443 11.5965 32.0849884339
14.4633 16.6203 15.1499 31.3864391302
16.1904 19.4238 4.03147 32.3855794496
18.2548 16.2815 13.8618 28.2289674891
21.2591 21.4136 4.2638 31.1424857475
13.7515 22.5666 10.7554 29.9625336348
19.4781 18.7393 13.1318 29.0825013319
22.205 19.5344 14.3573 28.5702553573
20.7634 24.3156 4.50104 30.02638098
15.2948 24.0943 14.5063 30.8484961591
20.7892 18.0822 16.3557 29.920488025
13.2455 15.6362 12.6886 30.1049179188
17.4329 22.6329 5.25043 27.4628756816
14.816 16.1869 5.61347 30.3931038432
23.9152 12.5054 15.8291 29.8568258954
13.0562 18.4431 9.07968 31.1611853693
24.4537 12.4737 7.39096 32.8110289747
12.4545 17.6124 6.28562 32.1153180093
12.4407 13.0958 8.8212 28.2081237842
14.72 14.5471 21.4095 29.4851633988
21.443 21.6407 18.0024 30.3049399928
14.8915 16.5208 19.602 28.4429329362
23.8627 19.6975 24.2249 68.5929322238
19.1146 13.965 19.9852 28.1688266764
12.3993 16.5658 17.7541 29.059829015
23.1457 12.8101 24.6863 97.4498450159
21.4451 18.169 20.994 31.3804227918
14.5246 21.1107 17.6622 32.8278696788
16.9591 18.0981 19.6321 30.0394956617
16.1681 15.7212 17.1249 28.0874217797
19.7691 20.7189 21.596 30.1672321985
17.2847 23.2205 20.6214 25.6203137462
22.3395 21.9121 21.7547 28.0359223336
20.3716 22.4473 24.7968 102.1384160391
16.3482 23.6366 23.4216 36.7031657197
13.7172 20.5471 20.274 28.522307179
21.8914 18.0984 23.9077 51.6495104297
23.5242 13.1109 21.4347 28.0410789993
17.2883 20.4681 17.1608 29.5133371033
22.4694 15.396 23.641 32.1869181236
23.4819 15.475 18.8652 28.6781332826
14.0413 15.3471 24.193 62.9464595755
13.8796 23.8738 17.0444 29.1115350927
16.6968 14.1622 24.4516 87.8930728472
19.8705 14.4925 24.2895 83.7842085237
23.3443 22.5413 24.3041 69.9961895822
13.6535 18.1651 21.7103 27.1378123262
24.2689 21.3269 19.7073 30.3558122683
23.0859 24.1477 18.4939 28.260277735
17.6445 16.8083 23.8832 49.9930325066
14.9938 18.0481 24.2604 62.0013012815
18.7535 16.9765 21.2168 32.1695766017
16.6448 20.5286 21.4003 27.3774123638
18.7049 13.9713 17.1827 32.3992781485
14.2891 21.4568 23.5478 36.9779681113
16.7507 13.1252 21.0041 27.7102824648
22.5028 18.8983 18.3703 27.6311870386
21.5498 15.1577 20.7512 28.5105090859
16.7424 20.424 24.135 68.1243535853
19.5387 19.7746 24.4532 81.1870355137
18.747 21.8637 18.7526 27.5797998488
12.844 12.2075 20.9966 30.1234187819
12.3658 19.4222 24.7572 120.7340082533
12.9044 12.4612 23.7937 36.5829951195
15.9935 15.0986 35.8603 92.6241832648
14.0955 20.2864 38.411 25.8576045953
18.7295 13.8564 35.9846 68.4197541549
20.9095 15.9588 36.1535 63.4065668812
14.5211 17.5084 38.7724 29.5847347919
17.0817 15.9697 38.4171 26.3056134066
12.3729 21.355 42.2165 32.487272111
24.2633 14.7761 40.2208 28.2253156305
22.0674 18.5073 35.7099 99.4481695918
14.1546 13.5796 41.9163 30.945409784
13.3027 17.0439 36.0176 59.6907299875
15.1766 19.7247 35.6621 79.5763961827
20.468 22.5872 38.3163 30.7775870997
17.8409 19.6682 35.7743 91.1118992108
12.2429 23.8486 35.6103 84.8923408428
20.7408 21.1202 35.9248 58.3312240543
14.7023 22.4379 35.8555 63.563439769
15.4873 23.7755 40.7171 29.5362994982
18.6375 13.6443 38.8043 28.8103235572
22.9264 22.8042 35.4082 102.2836713513
18.0928 21.8369 37.654 28.7764207891
19.9098 20.9377 40.8995 29.4007883602
23.893 15.0981 35.8941 76.329363173
18.9588 18.0181 37.8303 29.7582624586
12.8042 23.9443 41.0676 30.209202352
20.1801 14.8516 40.7198 29.0542638521
16.3411 15.2636 41.0938 29.0780374939
21.8756 19.8911 38.8173 31.9373547115
22.8839 16.9977 42.2984 33.5186576369
15.4537 18.1133 41.5582 27.4430476674
21.4017 16.3804 38.8959 27.8485441069
19.0558 22.8989 42.611 30.9237152884
23.699 17.6367 39.3937 24.8905439478
16.0945 21.0998 39.9091 27.9566540909
17.8907 19.179 40.3514 30.4183109121
13.7332 13.3375 36.1669 56.8941685253
18.0626 13.8599 42.8828 28.3046415614
17.117 23.8833 35.9577 64.9160495825
20.7834 19.2593 43.0997 32.4770754737
12.438 17.4884 41.1727 32.5120287649
14.2247 14.0814 38.8318 29.7314430548
24.5458 20.7766 40.1521 31.4802953902
24.4786 17.5285 36.7519 30.5795314799
22.7726 12.7796 38.888 30.3999028647
16.17 13.6395 45.4376 29.5393947922
13.7183 14.9956 48.6644 29.6556784063
17.9145 14.8742 51.4988 31.9964923475
13.2517 16.0611 46.1911 31.9806104895
17.49 17.4179 48.5469 28.7595420662
20.4464 22.5799 52.6226 31.5325348315
20.9678 15.031 46.0511 33.5983242756
15.8733 22.3333 48.3134 29.5879038636
14.2849 20.0045 47.6301 32.4222498898
16.1871 19.7568 53.2265 30.412459761
18.6603 19.9602 47.2852 35.4486752089
21.0176 19.0286 48.1824 29.4997721468
18.0436 15.6616 46.2884 30.6532683772
22.8328 20.6484 46.7829 31.9332254402
23.7485 21.0251 55.7568 30.285484304
15.4458 23.9806 54.5289 26.6228250817
15.8706 23.8512 46.0706 31.4593439191
16.6651 14.6402 49.0285 28.1035010682
24.1839 24.4503 52.014 35.6009897057
24.0468 15.8921 50.7223 25.5288246701
22.7427 21.0086 43.9887 31.4956045101
21.6611 23.4802 43.6763 36.3115416715
18.4619 18.4137 53.3072 29.5108189942
13.875 15.5207 55.6785 33.2355854393
14.9848 17.7047 49.2343 29.1699940285
