11.5303 23.1955 10.7696 29.8938580862
0.559391 27.3446 9.81882 31.8211523325
3.27755 27.1293 8.39773 27.8629492887
11.5027 27.9545 11.3445 28.5871120667
10.9008 31.1995 10.6829 29.9387669867
9.76794 25.7184 8.55567 34.243295872
11.8747 23.6354 3.56543 29.5466295034
5.7058 28.301 8.54441 31.6015501876
7.98061 31.452 10.1836 29.3183776529
4.28086 19.3768 4.57133 27.4098694013
0.0810792 27.8186 5.4287 30.489393833
1.60846 29.7852 13.6076 31.7299219105
8.79248 25.406 5.68356 28.1027778514
4.03891 25.0109 9.908 31.5524377838
8.79587 20.0535 8.40027 28.6542800243
10.0676 23.046 5.51634 29.6384548961
1.11411 31.83 4.54453 30.4797196695
10.8163 20.7642 12.3219 32.4373397411
1.64594 23.407 11.0548 34.1762381473
6.0966 21.401 12.4567 33.9275154686
2.11164 30.138 10.504 29.9800703917
6.44399 28.3858 5.79562 29.4564910343
4.72818 26.6257 12.2915 28.5188166355
9.88214 28.6626 9.13265 30.713256508
6.29423 31.4091 12.5991 29.8841004339
7.98619 27.8368 13.4222 26.6284589522
9.57932 29.6937 6.42734 33.9145819304
0.929452 30.3888 6.83879 29.6183791249
1.83088 25.7185 6.35517 30.8392551129
4.51299 31.0539 4.84383 26.921544218
9.52264 27.6057 4.34815 30.7671605836
11.8466 30.2088 13.2493 27.8723877502
7.8878 18.3794 17.111 33.8472163989
0.146758 16.2496 19.77 34.3630278662
1.52776 23.5804 22.5402 24.703439454
8.21243 20.7382 15.8862 34.0787113877
10.3454 24.7583 14.6076 30.8677380064
4.98473 16.6439 21.2524 29.6966064295
0.0926012 28.3421 24.3364 78.06314896
5.50955 21.4288 16.6037 30.9591829976
6.27715 23.7657 17.4788 30.5924093932
5.62566 24.8053 14.7579 27.8065720495
4.40715 26.8878 16.095 32.1662458206
4.03439 27.315 18.6799 27.6787862848
9.06108 18.8075 19.5417 32.0095667618
8.02002 29.8387 17.3144 30.5760883426
0.235439 20.6237 14.8927 31.8769606002
11.5152 26.933 15.7192 26.7887706411
9.97484 16.7429 21.2093 30.540680605
5.96706 18.7871 24.4952 77.1838716876
9.07297 26.3351 24.2638 83.0437575381
0.525112 28.8248 21.3316 27.5623234582
5.13641 31.8258 17.5391 29.7975937264
6.18549 28.9257 15.0914 30.2248292297
10.0936 22.2389 17.5089 32.3832254561
3.20624 20.2104 24.0395 49.264108049
4.99236 18.7282 17.4724 31.7497790746
10.8895 20.7445 19.6907 33.8608713656
10.1942 16.9101 24.1535 57.9531871205
1.69994 23.4022 18.8777 29.0737212964
2.68201 21.0132 18.1377 30.2929471497
9.13484 24.4985 18.7225 27.2905260114
7.15336 22.3642 22.1689 29.6955988023
2.43991 31.451 17.5613 30.7319481976
3.45741 29.7025 21.7544 28.8637421238
4.33977 24.525 19.3857 26.4881263479
10.4953 26.1252 21.29 28.9728277776
7.1526 24.8209 20.5866 31.1412890815
10.1358 29.1829 19.4995 28.129075316
7.42539 30.8381 24.1126 69.2144687955
3.92336 26.8683 21.6149 29.1098844728
0.95111 17.2679 17.3819 30.0942035978
0.242577 19.8635 17.707 30.2102222019
5.56115 29.6348 19.3434 28.9032016832
9.84288 29.174 15.1271 31.4573212968
2.82487 20.5674 20.8762 25.9157624615
1.86238 30.6497 24.1052 66.5122934951
11.7772 28.453 22.2707 28.6916515492
7.50086 19.4241 21.6534 29.2949863108
8.73156 19.3555 24.3736 80.1328785402
11.7183 31.7948 23.0311 28.7973124376
8.02373 23.5794 24.3659 74.185920455
2.46928 26.9493 13.9073 29.0202861019
4.18446 23.0892 21.637 27.7731860266
1.14222 25.9607 20.5091 27.8102074532
0.622062 21.7238 24.3932 102.9717405847
10.1797 22.7431 21.2953 30.3145298761
4.8049 29.7528 24.2438 77.4663230665
5.317 27.1984 24.1309 67.4597389085
10.0773 29.3529 24.1056 68.3117602863
5.12317 22.3345 24.6451 88.4141671923
7.73391 29.6037 21.0073 29.6102201156
7.47514 27.2255 22.2175 27.8155382471
4.96325 19.1019 20.3251 31.2379711402
7.14847 32.0709 15.1282 29.301243606
11.9909 22.8509 15.6223 31.5688907821
8.01123 25.7913 15.9486 31.2116691195
10.1359 21.9598 24.1698 53.629305974
10.7819 26.7038 18.326 27.6524781331
2.1147 32.0904 15.102 31.528274591
1.46837 28.1619 18.542 27.7235003521
3.35951 17.1178 16.2667 32.9221163588
1.10535 18.1511 21.4734 31.7986925746
7.40107 32.425 19.25 25.8663552771
4.45478 32.7609 20.91 28.8605442792
-0.218752 22.223 20.6277 24.9540722353
3.54196 24.902 24.486 83.7955254741
12.1279 16.6876 16.817 32.9151753326
0.392177 25.5146 24.3765 78.6999572113
2.20823 17.3999 24.0657 73.190436848
4.00083 22.193 14.1256 29.8702985527
2.29014 21.5552 36.2505 45.7476987506
5.94951 32.0713 41.2123 27.2890194648
11.7559 29.5125 35.7325 78.8658300342
7.4083 21.0966 39.0666 29.3669003614
2.76265 29.3758 45.0652 33.8843386029
9.03668 16.854 35.9299 57.1445371279
9.59875 19.8692 36.0305 56.4300732094
12.1136 25.4938 36.1194 56.8449246241
2.9505 29.3938 35.8772 67.249544767
0.195568 28.6555 35.3177 105.45624516
4.00949 32.0176 38.7877 29.4004100103
11.7752 29.2427 44.0621 31.8968261468
4.49735 23.1274 39.4241 34.525313795
1.73906 19.9135 41.1873 29.6896336043
7.84825 23.594 35.6049 88.6435438469
9.44963 19.7429 38.7788 24.5566127353
2.90151 18.4882 35.7457 84.9787533337
4.60024 27.0157 36.0257 67.7284896069
4.17941 28.9857 38.6485 29.308728123
7.4266 26.2622 36.575 34.8511150776
8.31618 23.4893 38.5244 27.1047136173
11.2761 17.373 45.8105 26.3339168793
8.58605 26.6287 38.9148 29.3512508687
10.1 26.7911 44.383 30.7432538068
11.8465 17.6548 35.8319 61.6279659205
5.2766 19.2609 43.0577 29.7769178276
6.48797 29.9211 36.47 50.2695697128
11.0217 23.3895 39.0 30.7613083792
5.08717 22.6622 35.3831 98.1939919307
3.98392 31.8808 36.0695 68.2005041246
11.789 17.4861 38.7564 26.6385741868
10.8075 22.9118 35.8442 71.9324520528
2.93522 21.0401 43.2958 27.0323349056
9.30544 28.2594 35.6453 105.3894128345
4.25514 17.1115 41.7673 30.2667793806
7.09947 20.9026 41.8462 32.0609363747
7.53232 31.3985 45.2612 27.3263379319
8.97781 18.5561 41.9718 28.6045050212
11.3284 21.0244 40.5152 32.652357531
3.65422 25.8565 38.601 30.1792546245
3.90705 23.2864 42.2428 33.5134652762
3.26104 20.7437 38.8345 34.9595535039
5.64922 26.5247 40.543 29.2244426003
8.69418 16.9901 38.8704 25.6592881102
2.60692 24.6764 35.486 89.0547093849
1.25029 28.6373 39.5818 29.9572826271
1.51854 27.8774 42.1513 29.619583422
10.3635 24.7569 41.6909 30.2469022302
3.68862 26.3267 42.6114 31.8861673593
11.6391 26.5287 38.6142 27.8828406726
8.77736 29.3338 43.7667 29.8526856546
1.3341 30.5699 42.9238 33.6381404112
10.6209 21.315 45.064 30.6438714667
7.32373 29.0138 39.0712 26.1041210672
6.4517 29.4597 41.8442 30.5632128532
10.0159 31.6593 42.6075 24.5778876038
9.41465 30.5442 39.9796 30.4877146661
3.63857 17.718 39.3588 30.5256092376
0.823974 26.1587 38.3282 31.2816110832
8.88294 18.6269 44.9049 28.4352529097
6.4487 23.2048 43.8749 30.9067572553
8.93181 31.367 36.3061 50.2938300802
11.4178 29.2235 38.3908 28.1298151249
6.92692 20.2752 36.0642 46.6289199984
7.6276 24.4224 41.2879 31.861789936
5.50065 28.0393 44.1709 31.7726137141
11.3692 22.6312 42.843 29.2041105307
4.25708 31.931 45.3857 29.2799543879
7.45384 26.6494 45.5398 33.0161473696
1.52721 25.7475 45.2336 38.302743105
0.0498295 18.3776 44.8547 29.2755786843
3.68709 32.1217 42.8552 30.2344733916
5.66085 17.9607 35.614 74.7492915931
11.5302 17.2955 41.6677 30.4788649259
0.152706 25.9724 35.7189 64.4987805245
0.286855 21.4474 44.3353 26.4438727599
-0.376352 21.6456 40.6899 32.8057268332
7.22445 16.4567 41.1035 27.8503445838
5.8608 16.5798 38.1037 27.2511656614
6.12337 17.2225 45.1046 31.4697636821
-0.0698524 17.6166 42.2648 28.7444920139
4.17966 22.3798 45.5199 32.3471333122
6.86946 20.4852 45.4795 30.0879468864
8.03341 23.5991 46.3054 28.6946240715
10.9209 28.0907 47.0896 30.7866836397
6.75951 18.4408 47.8952 30.9927110805
3.86818 22.523 54.2444 31.1481861592
9.59746 21.6955 48.0957 29.3341203671
10.6931 24.8401 46.1193 29.5810077968
11.8234 30.7933 53.384 29.1890814958
1.40326 23.1179 48.6372 29.0552154886
11.1587 17.7757 48.392 28.6517639193
6.49663 23.4528 48.5346 31.0235969106
9.1554 30.4398 47.7578 29.8549717294
1.45457 27.9138 47.3874 35.144125053
5.52979 26.0909 49.3249 35.4912863507
9.90532 27.2611 50.0207 27.8887740824
8.49837 29.9287 50.7578 30.7861171443
4.68046 30.0708 55.0307 28.4822902733
3.24613 27.8351 49.5332 32.5235398058
6.06742 31.0995 49.3164 30.7046041783
11.5056 26.2367 55.84 36.576054595
3.91264 26.7505 55.6788 32.4999355688
2.49232 17.5168 49.7148 28.2580612053
3.89923 18.8317 51.8216 29.9161797217
4.12998 19.3957 48.673 31.8734182717
8.72068 17.6945 51.679 33.4230644853
9.36172 18.9033 54.403 33.883691998
11.3543 23.2532 50.3633 29.4777284414
1.67947 19.787 47.0097 31.0938160168
4.17516 22.2313 48.6702 29.490899744
7.2507 21.9794 53.1053 34.045905688
8.38696 23.1894 50.7449 30.712739546
11.3866 23.6025 53.3186 30.1947076053
1.46216 26.6669 51.5734 34.2652090616
11.2589 21.062 54.9842 34.0586574705
5.67043 29.795 46.7748 29.6620567199
5.61054 26.5459 52.0617 27.3451672821
7.82986 32.0587 52.537 31.9426829736
8.32704 25.7006 51.5054 27.1918192536
2.18594 30.7668 55.054 29.8100526761
2.4179 31.9592 50.9989 32.0850615438
1.36602 16.7942 47.0554 28.8164847521
6.32913 28.9785 52.8517 27.2289264368
4.18642 29.933 50.9835 31.9923007473
10.3562 16.4431 55.8288 30.7579878403
1.65201 18.5356 53.5398 32.8396720802
2.5379 20.1678 55.5176 33.904610631
0.411127 28.8412 53.4548 39.7183458656
7.19004 20.2254 55.7265 31.7210899683
1.49548 23.1685 45.9296 28.2047831353
6.41376 26.4591 56.5659 26.2845877905
6.36402 17.6966 56.3451 31.0802418686
4.78401 21.4489 51.816 31.7785276486
6.53176 24.3484 54.2298 26.3645502912
2.19675 22.7978 51.4985 32.4189751433
11.4322 31.7169 49.3442 35.3953060794
8.90292 19.2979 49.3468 33.5716178013
11.8951 28.5981 51.7401 32.9833162224
8.20146 28.1907 54.9162 31.5477337007
3.4079 25.2787 53.0738 30.6446532582
-0.109997 25.2336 49.8409 34.1093204498
9.2599 30.9831 54.7047 30.7816544917
7.41381 27.7295 48.1049 29.3081995488
5.82144 17.1071 52.4483 32.9226205403
9.22318 25.3245 54.0361 29.874370135
11.7505 25.4754 48.8702 29.5802878262
12.0501 32.1886 55.832 34.6293473245
10.9927 43.8187 8.87541 30.2726818689
1.04335 34.9663 5.84329 30.6293038312
11.6053 45.3208 5.17652 32.0443432416
5.54018 38.1062 13.6743 30.0658841501
1.70312 34.6004 11.7864 29.078911758
10.0285 38.7777 5.09426 33.6251661411
11.4405 38.3754 9.32437 31.2890304205
4.13419 42.4315 5.44222 31.2871644888
6.04508 39.2152 6.91847 30.930427053
4.54227 37.3536 5.57637 30.8707877219
4.90552 33.6401 11.4474 30.724041568
6.69698 44.8687 10.1172 31.152140282
6.37195 43.8659 3.90759 33.71492052
1.74985 43.4952 7.69154 29.0836793408
0.798241 44.4067 11.2154 28.7152320272
4.95569 41.8221 7.98733 27.841965277
8.03052 40.7121 5.66082 30.7880493263
9.72446 36.9293 12.5018 30.0055195036
8.83933 35.9378 5.35044 32.5987973447
8.23441 35.0777 7.74819 31.8450575143
2.96572 49.1734 6.71058 31.1884487349
9.19362 34.1108 11.4929 27.8169772784
0.494649 44.3832 3.98639 29.1463373369
8.89885 44.2334 5.45268 28.9075211092
1.00642 41.3671 9.79853 25.9851536939
2.80462 45.0539 5.30478 27.2963368047
8.55398 44.7906 13.3133 29.4865144696
7.06414 32.5619 7.8679 28.9199808794
9.89355 43.0955 11.5961 30.508507599
11.2422 40.447 7.35753 33.9289206768
8.91414 38.3551 10.4455 30.6419420037
3.46513 40.5955 12.504 28.9392804427
3.30603 35.3876 7.02236 29.4585226388
3.1252 39.7525 8.68933 27.1860095699
6.5759 37.3856 8.92966 30.7076592914
0.601469 45.9935 8.79529 26.9204125352
8.04185 40.68 11.391 32.7475799848
3.39087 33.5411 4.02355 32.3485173599
4.57067 38.4137 10.8483 32.3425862368
3.52604 42.6851 10.2908 27.596697418
7.28049 42.1337 9.15958 29.3449492167
9.2006 46.415 10.3637 28.9654619702
3.69383 45.5116 10.4878 28.7994405322
3.36263 46.5012 7.61625 28.9739478632
6.28482 47.0506 8.47961 32.2210882159
2.01632 48.1369 10.1444 28.7586307394
9.25151 42.3395 7.32548 25.4915241197
10.7705 46.6623 8.03823 28.6026600388
11.0803 34.3541 4.42843 31.2870145277
0.866303 41.4163 13.2135 33.2793268944
0.332618 36.601 13.0027 30.8280552592
2.38623 36.4909 9.65118 31.6444510962
6.82042 40.5269 13.7887 29.0975646973
6.9728 35.3699 11.1405 29.1775733657
7.48533 36.372 14.3216 27.0472509592
2.67053 40.5252 4.28737 28.4848441618
8.64028 49.0801 4.59755 32.9437067054
11.7367 45.4887 12.4182 30.7580751968
9.16837 47.5553 13.2519 27.9014660753
10.5068 33.941 8.93444 30.9373078676
2.00268 38.8169 6.32023 28.6319094125
4.40936 46.967 13.9441 32.8230664637
5.59336 44.5313 13.0086 31.6315067117
8.32844 46.8931 6.28861 34.8017459618
11.8324 38.0568 13.8609 32.7030323197
8.35007 32.8823 3.44248 30.8353838519
12.5221 36.0682 8.00173 30.682418325
4.48477 33.2483 8.49117 31.5855564018
6.91734 49.1472 13.7807 29.3613560847
1.55029 45.7705 24.2541 77.9754559812
2.16599 36.1374 15.3423 31.4671148174
11.2568 34.8859 17.0623 28.0538364063
4.88084 32.7646 23.7538 46.9817692094
10.8119 33.5045 21.1755 31.7719380116
3.86611 38.6917 15.8889 32.8137851879
11.41 40.5143 24.3083 95.0266979471
4.5248 40.7832 18.2691 31.4898439691
5.6991 35.0881 20.1469 27.5463192528
8.58691 37.9913 16.5001 29.8992908149
6.63414 38.2995 24.6493 96.7083192736
4.63643 42.9554 16.7997 34.1182154361
9.70706 33.6297 14.2305 34.0239397356
8.45259 40.7021 15.8694 39.0031966741
1.03834 38.997 15.1674 35.2890416387
2.17484 46.2683 15.3408 31.2641396708
0.119579 43.0124 16.5783 33.8069479272
6.31803 34.5536 15.7822 27.4111550005
2.28177 35.8405 19.5383 29.2980708398
9.36191 47.7679 17.3029 30.4095693332
8.09532 35.1267 18.1309 32.2979155185
10.3453 32.595 18.5133 30.7100172972
5.78289 40.8365 24.1329 68.7074598995
4.30107 36.1802 17.7921 31.3916747767
3.0252 40.825 24.3532 73.1167571124
10.7947 37.3022 18.1532 28.8940964819
11.0905 36.1918 21.8726 29.89639938
8.03115 46.0909 21.4363 26.8001200035
2.50697 40.1855 20.0704 31.7491253592
6.53875 38.5422 18.4025 32.2692243171
7.14089 38.7712 21.0413 31.6124032088
8.73581 47.1464 24.0968 72.4746908274
11.1791 40.7802 21.1915 31.4716708723
2.30185 44.7267 17.4871 34.0010535185
1.35479 38.6262 24.2827 65.1268490597
3.23031 42.2213 21.9297 35.2799389546
1.36601 44.4925 21.6031 31.1017267491
4.07432 47.0715 24.1306 67.5564149724
6.95992 44.2494 17.6991 33.6612353564
10.4559 42.511 16.5813 34.4433622347
10.2851 42.9289 19.611 35.7291190477
2.50465 34.4319 24.5141 107.1995388924
2.40966 46.4478 19.693 30.4958518935
5.25883 46.6812 21.4939 33.3869924518
10.355 47.5109 20.1128 27.6757546549
6.84489 46.7851 18.5292 32.6670279973
7.73566 33.1029 22.1505 27.904402513
0.294081 41.0376 18.8752 33.0697886803
3.77571 36.9954 24.2827 61.3710826143
9.23047 44.9124 15.9679 31.6516290895
3.74962 34.2653 13.9797 30.5942299532
2.25205 37.8365 21.5523 29.2831606248
0.951118 42.8718 24.5206 100.892237224
0.0738606 36.2315 17.7195 28.5548857814
5.00863 37.0974 21.7593 27.8708465832
12.5 39.0968 16.6411 32.5709779861
9.90935 42.706 23.6058 59.7660684918
9.93366 38.363 20.7008 31.5148643614
9.55798 38.0874 24.5894 88.9307248451
10.9579 45.3271 23.4356 41.7705540525
7.74201 43.4417 20.2724 30.7722739303
5.88511 41.3051 20.9754 30.5715667551
7.05285 43.3495 23.4664 37.348421832
11.7542 45.1654 20.6063 34.3901121834
1.07955 48.8198 18.3458 27.9719103332
4.37875 48.1183 18.7329 28.2336834578
4.98014 49.1476 16.1187 29.335128418
11.0019 35.647 24.4598 68.5258208607
4.74344 42.3606 13.9738 30.7324220275
6.79172 35.1468 23.7033 51.1491599668
11.2771 47.5195 15.032 27.7264712167
1.89114 32.9953 19.8381 30.6381462704
9.67439 33.2802 24.5404 103.6141413098
6.61006 45.7179 24.6048 126.3335573236
1.84757 33.7378 38.9309 30.4845606961
9.92507 41.9433 35.5331 101.3145553477
0.986264 35.6355 35.6079 103.7382000482
8.39264 35.5513 41.9509 26.7343512398
8.74711 32.9053 38.7437 30.8210688366
11.469 46.6493 35.933 70.030967362
9.1728 34.2205 35.7054 86.2910690523
1.98643 37.0467 38.0987 30.1173864373
1.33369 42.8335 38.414 29.939617492
4.62072 36.8616 35.9234 75.907865732
9.63685 41.0124 38.185 29.2386566305
7.89755 39.4411 35.9156 65.6312454563
8.59457 45.147 44.7014 36.7092971191
3.05778 40.7773 39.8509 29.1423031361
7.76642 33.0865 42.8151 25.6576100521
9.52186 37.4368 45.7252 31.3674347774
7.14582 42.0413 38.435 30.2740327768
3.40252 36.5777 45.4797 28.9829560692
10.9875 33.524 44.4424 28.522530326
0.460229 42.6462 35.9063 66.978049683
3.70145 46.7167 39.0659 28.2630432844
2.62908 38.4419 41.6459 28.5159030367
6.70507 45.8386 36.1374 61.263376446
8.10054 47.4059 38.6296 35.2109923399
1.3928 38.7095 44.2458 28.8353624263
0.615187 45.9444 42.8963 29.7339016314
10.792 46.1408 38.5554 33.3826632661
0.117114 36.1737 44.6685 27.5752832593
9.25983 37.1926 35.6744 88.7540191478
0.30003 35.4817 40.3018 26.7792280096
7.84412 39.6676 45.0629 28.8207924506
12.421 47.2475 40.6617 33.4515495569
6.16269 33.8715 38.7415 27.381293045
9.00558 38.3093 39.5809 30.3772809415
0.344437 39.4754 38.8017 26.92127223
6.65806 36.3568 39.8849 28.7424010315
6.46524 38.0255 37.6382 26.6878310902
7.82689 40.7207 42.4478 31.6656804353
1.04502 34.411 42.7656 29.9752450854
1.4226 33.1439 36.3462 45.3726011643
2.84845 45.199 41.5789 29.1793660587
4.94537 40.248 38.0037 29.1384792608
4.37499 42.4468 41.5204 30.010941685
6.83125 43.3915 40.7862 30.7821793035
3.62645 40.1984 45.4833 26.5829654414
8.9966 43.362 42.65 33.671768995
5.94382 34.1148 36.0486 74.4982429214
1.64195 48.4925 42.7556 26.9861543719
10.6904 43.5214 39.0316 31.0085499826
0.283671 45.9088 35.9998 56.4724828207
10.7089 36.1843 43.534 26.8755459753
7.18953 47.2416 42.986 36.9585030703
6.03321 46.1178 40.3171 32.1101479619
3.80129 35.1763 43.1736 27.710448102
10.8345 34.2669 40.672 27.3433933157
11.3568 43.4216 41.6832 29.1367005269
6.06289 34.3828 45.1625 28.5123755137
4.45476 41.6062 35.7326 74.232291001
9.70066 38.9162 42.1908 28.619590061
4.38438 46.6795 43.4072 31.2708376348
1.15684 45.6524 38.6472 29.2324156985
3.92328 36.3952 40.4516 30.7558827995
6.32591 37.187 43.4018 29.9581433489
0.0674321 39.9442 36.2072 48.8253024286
7.08836 43.2879 36.066 60.8467543805
3.24686 42.7154 44.0622 28.6976011742
2.80975 39.2354 35.5368 94.6921915113
4.90107 39.8906 42.8479 30.1851860492
3.99468 46.9523 36.4306 48.0832784935
11.9403 34.065 36.0114 60.4727672666
11.8573 40.8415 42.1151 32.0949445385
11.2948 45.3347 45.3406 30.1029117903
11.4893 37.3696 38.9356 28.4194906491
12.3736 43.9111 35.8945 55.8794386487
8.87601 47.6813 35.6794 110.1452827392
0.505495 42.5391 43.9101 29.2637185975
3.79773 44.7627 45.6751 29.5796801699
11.9438 37.9711 36.3414 35.858887753
2.97375 44.131 35.6058 97.0264939524
3.49029 34.4651 50.0163 29.7191971771
3.48144 34.1651 47.0893 30.6779590709
5.8741 45.8716 54.5136 27.5237871216
7.77291 35.4302 47.3265 30.619307615
11.5995 40.9626 54.0962 31.4318980407
12.004 36.2456 51.9011 36.9930119274
11.3051 45.6213 50.3695 28.2291319878
4.66264 41.6932 49.7545 34.4721132613
11.7559 34.4941 48.4965 31.1880979272
8.99944 40.6384 47.5128 31.2630173494
8.59122 48.7349 47.6735 33.684405948
9.81561 43.0227 48.8333 29.0900619406
6.12943 33.86 49.3506 31.4222341871
11.6409 47.6642 54.166 29.6275397264
6.61132 43.1205 51.5726 29.2868889275
6.43576 44.5229 46.7463 33.3635100745
0.574231 33.8249 46.4529 33.0794875357
12.5066 32.884 51.7989 34.2070116542
2.02915 46.6814 47.0868 31.6502391268
1.4363 43.1325 47.193 28.5794024475
8.07877 34.4811 51.2309 35.6222854759
10.3564 46.5916 47.9045 29.3628295999
1.8349 47.4523 54.8127 31.3518257244
1.0964 35.8973 48.7154 29.5806953865
4.03048 34.501 53.8576 32.0321389786
1.81637 32.8901 53.4733 30.8141990857
2.60927 38.1809 49.2555 27.3784153625
9.95147 36.5244 49.8836 30.338482188
1.48944 42.3075 55.4612 31.0347907686
1.65674 40.2481 47.7864 28.0229320335
6.09121 40.5138 54.1207 33.3123702539
5.27826 38.8969 48.8648 31.0220926682
8.10687 39.0623 49.8374 32.4607649705
10.8795 41.9264 51.5602 25.0593296682
2.05527 41.9748 50.6514 25.7031856776
7.59758 45.9648 52.2864 27.8497518995
5.04604 45.8887 49.2581 26.8886953776
8.41936 40.9972 51.9576 32.0472448055
7.75315 44.7122 49.244 28.9670258787
11.9528 42.9675 46.045 37.5458880091
5.35648 48.3925 48.1878 31.6915542218
5.91212 41.5699 46.9905 32.9578439382
4.78382 43.3943 53.7689 31.6305510716
9.42231 33.3453 46.8177 30.2249728967
5.92229 32.3781 54.7793 29.6243331059
2.06369 46.112 52.0009 29.6040057041
4.57498 36.2929 56.0701 27.6274489682
12.0985 47.9682 51.2372 32.7165494489
7.40171 37.7746 54.2775 31.8350874369
9.46707 43.6296 55.4293 27.6242176125
8.96332 48.3592 52.5516 29.8902727296
4.03539 46.8078 56.3737 32.8474924971
2.04723 38.0424 53.7926 32.6376070482
7.65082 48.5107 54.8837 32.0293649875
5.82894 38.1175 46.3174 27.225151649
4.63367 47.0003 51.895 29.1635020799
11.0132 38.5375 47.9553 30.1751228502
9.76384 38.8681 55.263 32.7113306853
4.17886 36.7385 51.8109 33.6498661834
7.01861 36.7271 52.0312 31.6530948821
2.29259 43.4284 52.9186 30.2344445794
1.32545 39.3919 51.4653 30.5999478802
2.67891 44.9291 49.2519 27.7119788696
10.1528 44.2908 52.7284 26.8953612249
4.09328 38.9419 55.4353 31.3392971529
7.12753 35.5399 56.184 34.6477260589
7.73493 41.6108 55.8888 29.1052028899
12.2211 37.1799 54.781 33.4558109851
9.77049 46.5976 55.9999 30.5930450075
17.7682 3.77469 6.00689 32.4337841757
12.9691 4.92725 11.573 34.6297138211
23.6563 10.6369 10.1236 30.5319641124
13.5351 15.6949 5.03043 30.4296907777
22.2959 15.4006 10.7312 32.2270600033
21.8448 1.98719 4.97802 31.4885874291
19.9832 4.1389 4.37226 32.454298936
14.792 9.95524 11.0109 31.9752673878
24.14 15.0841 8.73983 32.2159268638
16.7063 6.32939 5.12498 30.1114587135
18.5612 14.4868 9.57345 29.5678594081
13.9612 4.90272 6.7136 31.0344465029
23.4276 9.46088 13.1817 29.1495641159
19.0709 7.93542 5.2074 30.9536813806
19.2452 8.02199 8.14192 29.8941004502
20.394 13.3 11.5324 27.8758795173
15.9335 15.3175 10.8438 30.7213891383
24.3495 13.8252 12.8712 29.2440876369
21.6351 6.36887 8.2136 27.3810122617
19.9229 10.8277 5.59854 30.5557084714
24.3379 12.3227 7.96432 32.069081251
18.2931 12.9608 5.58555 26.9933635643
19.3962 10.6807 8.54608 34.3243170867
15.449 10.7017 4.85789 35.949485903
13.9771 13.9966 12.2881 26.1285609373
15.4052 2.25991 6.58663 28.9888014987
13.1914 13.6259 7.30227 26.6294181866
21.3809 6.2996 5.58638 30.8122454211
13.0179 8.86455 7.66281 32.8799007883
22.7128 2.96431 7.47624 28.1207160992
21.6329 13.0665 13.9048 27.0936570798
13.9851 11.3351 8.79582 27.7998755992
22.1708 14.3428 4.14044 30.1918450761
12.9053 12.0917 4.78941 30.7436772609
20.7837 3.95648 9.29789 29.229972532
21.0266 5.87924 11.5175 32.6005890188
16.8443 11.6281 7.68402 32.2038337441
16.5415 16.1393 6.0471 33.9726080416
19.425 8.3459 11.7781 35.6238353024
22.3361 0.810195 9.23844 27.9092246355
16.0898 14.2033 8.1306 29.1145233965
23.0215 2.56855 11.6363 29.6946259067
17.6325 13.8185 12.7805 30.7344443782
23.9175 8.07393 8.81047 33.4455737374
22.5033 11.9594 5.64484 34.3325336517
12.82 5.82767 4.13094 30.193372068
15.1233 2.06949 9.43744 29.8824481254
13.3438 0.951707 5.29305 31.2168684188
21.7072 4.01185 13.7676 28.3722757961
18.644 2.7207 13.0974 32.3717148522
23.8985 6.48966 11.3066 27.7073219281
19.9908 14.4301 7.00325 33.9033588507
20.8821 10.9268 11.03 31.36515971
17.0616 6.72976 8.92888 28.2219588023
15.226 7.31384 7.10225 30.3652568476
15.2543 5.86681 12.2563 31.4356045288
18.1694 4.2674 8.86819 30.0599617968
16.7204 3.59755 11.1305 31.6068696984
16.6441 8.03196 11.2151 33.0453213349
12.7936 1.96623 11.3698 34.488496161
15.5346 11.8314 13.2352 34.2643952704
24.1606 4.09581 4.60839 28.5783391209
23.7158 6.82425 4.08163 32.0175147583
12.8584 8.9045 12.6452 37.2798956716
16.8112 0.339806 11.5502 29.7871789669
20.0459 0.420205 12.2733 31.6385777769
18.4419 8.00744 23.4257 35.2086989861
13.5674 1.56309 16.9205 29.5040877663
18.5081 14.0955 24.5075 92.4624910893
17.1168 3.17115 15.7952 28.3329365091
14.5063 3.95915 18.0994 27.8469084904
16.9297 7.57962 15.9362 32.7311166667
19.6145 4.61094 15.9396 33.4147634486
12.8791 -0.229786 21.2668 27.7374974946
23.9382 3.54253 16.3009 30.9255529889
19.6674 7.4818 16.5148 30.8581441311
23.2269 6.85759 23.2367 34.8093639257
13.6166 3.70821 23.9503 52.184374757
14.9762 12.6725 17.7618 30.1627165165
14.948 12.5756 20.6287 27.6690299916
22.9681 10.6855 18.6302 29.2612135176
13.9388 2.66636 20.9073 30.3504436046
16.4412 15.9222 14.4559 27.3226604468
20.957 8.66068 24.5143 114.8131129127
12.9022 13.5411 14.9306 31.2291663243
22.4697 6.69881 14.5516 31.7867392135
22.2312 10.8327 15.4989 28.7178512966
13.4026 14.1959 24.3875 82.1851911391
16.8195 2.24811 21.6284 27.84100501
16.4191 5.59028 19.4646 29.2965230582
12.9728 6.05768 16.5943 36.6300794054
17.7189 4.81969 21.785 28.1552108225
20.3674 8.8297 18.9502 28.3318621718
22.5654 4.00858 21.0123 31.2246195975
21.1829 2.49967 16.7386 29.5519746533
18.5285 11.3198 15.347 29.8434548627
16.5454 8.15675 18.5845 29.3713344294
18.1967 9.22609 20.9997 30.5214104069
22.6553 9.84227 21.8551 27.6783810369
12.896 10.9489 18.4234 30.6448536607
19.6425 13.7778 20.4084 28.5322476585
20.1127 11.3973 17.7129 29.0092838435
17.7493 13.2535 18.2435 30.9200362618
15.3016 10.0449 21.4689 28.8600110024
20.189 11.143 21.7856 29.6877100839
23.4787 14.1329 21.5797 29.3035568524
17.1175 13.7956 21.7496 28.6926281589
22.601 7.22585 20.2359 29.474326908
15.9014 10.3229 15.8023 29.7344287812
22.4187 13.6059 18.951 26.5513930862
22.7471 13.1292 24.124 62.1768748308
13.5797 9.52764 24.466 102.265086622
14.5418 15.4659 16.6836 28.5689153558
15.9187 2.1371 24.2593 82.1723114044
20.9648 0.380033 15.1326 26.6999737436
17.2336 2.55716 18.4019 28.3659193961
23.6882 1.6817 21.8933 29.0078357187
19.8586 5.72217 20.1097 34.6572922783
14.4136 6.45352 23.9898 68.6778574822
13.7539 5.86632 21.1741 28.4598145523
12.6652 0.903205 14.2464 34.1369407226
20.0831 2.69816 19.3433 30.6442574306
13.8926 8.31329 18.6571 31.2282444057
21.2963 0.223818 19.9772 31.0297212639
24.558 2.37736 24.4527 93.5553570784
24.1404 10.8258 24.5239 103.12112675
12.9638 8.43479 21.7167 26.0709993112
15.3494 5.37572 15.0339 34.0413662393
20.1965 11.946 24.4557 79.2550844887
22.4428 4.31995 23.9266 62.4040312711
19.6576 3.44708 24.3071 84.915584642
19.2242 0.910864 24.125 64.3225933133
15.9118 12.8895 24.3174 72.0000700997
16.3944 10.0857 23.9395 59.7105099467
23.9577 5.14127 18.7056 33.2316693757
13.4921 8.88627 15.5632 31.8210386529
20.3269 9.10248 14.3883 27.7308953265
24.3582 13.9491 17.1402 27.6061027894
22.0329 0.268966 24.0349 59.1511217333
16.6093 0.584813 14.679 28.4537845436
18.9005 13.9204 15.4348 26.3199659421
12.8938 14.0209 21.6444 26.4626339862
17.3882 5.5551 24.3633 93.8843029171
21.2648 15.5273 14.9506 28.0250697015
22.1741 16.587 24.3151 71.1743162102
18.5998 16.0776 17.8445 27.2619995644
21.296 15.7715 17.8388 27.2498321886
16.9868 3.24532 43.8712 30.6730864971
20.2272 3.93353 36.2959 48.3554832803
16.9666 1.99802 39.4865 28.8580324602
18.1558 5.92148 35.8299 63.148914826
23.7723 12.2179 35.8079 77.6614341412
13.6767 13.5367 43.1861 26.9245845523
13.6478 2.47259 38.4568 30.6222537973
23.1516 -0.0480456 35.8225 72.8926907762
14.1826 10.9195 35.737 72.502458875
20.9117 3.76341 39.4933 31.3736127543
20.8085 9.72286 42.0481 29.5237896668
15.3373 0.861119 41.4934 29.2284062153
23.7259 4.8266 43.6944 31.812941919
23.7823 10.1209 40.5537 30.0441329534
12.5048 0.547041 44.0014 33.9348611921
14.467 14.7548 40.6954 29.5846702216
24.5703 9.56016 36.2957 46.4158822192
19.8847 8.46813 38.4474 27.8482672025
15.8689 13.2767 35.9802 70.8675793985
20.7821 12.8521 35.6642 90.5770502873
17.8549 10.2102 45.0717 28.7065257711
18.5084 11.4069 38.7777 31.6415250742
16.1672 9.18314 35.9227 65.0052944537
17.4629 15.5376 36.5714 36.9785778932
19.6888 8.05633 35.6235 89.6245308485
20.0059 15.8809 35.7942 72.7098114022
22.6309 7.37416 35.9373 81.7918191408
14.0052 2.78243 43.1346 27.7548575759
16.7178 13.4646 40.0329 29.8963037711
12.7785 6.62162 38.519 26.8052399332
22.6839 13.3017 38.1829 26.8137646775
13.5542 2.4716 35.6779 86.5289882887
22.8125 0.741274 41.7233 28.8987699673
18.7711 2.91174 41.4743 30.6789382458
18.0442 0.377604 44.3695 30.5798582273
20.9555 1.10323 38.1556 29.0141352646
13.6734 15.6854 45.1629 30.7155894939
18.7318 12.9055 44.2918 33.2937467486
23.5359 3.52953 40.6254 32.6685066583
16.0786 7.80833 45.072 32.0650579974
16.4555 6.04162 42.9029 29.4001419569
15.8339 4.44045 38.4929 27.5887033878
17.317 7.02418 38.3236 30.1166088247
21.6466 6.45391 38.9591 33.4082746103
23.2281 7.36216 41.389 28.9864816784
21.32 11.1178 39.4138 30.0855572155
14.3268 11.9755 38.5604 29.8285434762
21.0396 12.3218 42.9206 31.1125043576
16.3794 9.82923 38.9859 26.6029469082
23.414 0.223458 38.4219 26.7548501634
18.8845 10.9027 35.9612 61.5476705646
23.6865 15.8201 41.8732 33.6007704052
18.1446 15.7399 39.705 30.7421926443
21.1796 15.8839 38.2812 31.7773043093
19.549 15.4108 44.6374 32.5444821551
24.1185 9.89135 44.6103 25.948189565
13.8074 12.0219 45.5465 31.5656237124
14.6155 5.2849 40.8669 28.6909483789
13.1865 14.8718 38.3063 28.6313058585
19.094 5.87205 42.1184 33.1194191107
13.104 6.96592 44.6265 29.268612545
13.7695 15.5849 35.5785 95.5646347677
18.4008 1.9681 35.3746 97.6491832843
22.0086 8.06895 44.0961 27.8698422765
18.2217 8.51324 41.302 29.3899030107
20.9524 5.42586 44.328 35.2615348708
13.5633 4.24274 45.7618 31.5478557134
15.9522 9.58355 42.5579 30.9286904096
14.176 8.53993 40.4672 29.7677921786
16.1541 12.4603 42.8091 33.7982992482
21.5879 14.2906 40.9992 31.3653603213
23.9786 2.03508 43.8189 30.2427339341
15.9686 3.4862 35.706 63.4771455097
23.4003 15.6356 35.9505 70.6445649633
20.1056 0.508046 42.1862 31.4657939203
22.9217 12.4133 45.1146 29.352776912
15.1661 6.48157 36.0076 50.4301650204
19.6122 16.5194 41.7579 32.6920178572
23.1042 4.52388 36.1746 63.2176356806
12.294 1.74009 46.6726 33.5541463388
22.7663 7.38515 54.3776 36.224611649
14.9931 3.07734 47.9204 28.7540015967
17.5761 3.99685 46.6227 27.0660846272
23.0701 1.20439 46.3061 33.9722926335
12.6616 2.6595 51.4107 31.0486763465
20.7666 2.14682 48.1419 33.5093758257
23.1216 1.13165 52.8513 31.547677542
16.9512 1.04311 56.2385 31.1948432798
17.0148 6.57089 47.8659 31.340882929
12.541 14.1431 47.3454 29.2911113361
20.2431 8.93173 45.8655 33.0695425735
17.3517 0.900516 46.8867 29.6066223032
21.993 10.6979 47.283 32.697194295
24.1253 2.52911 50.6502 32.6880698136
15.9611 0.490341 51.0466 30.4830956221
14.2583 15.0799 49.1946 32.2977626449
19.7243 11.596 55.5331 29.6145281207
17.2015 10.9582 53.0537 29.264321166
22.7609 15.3725 53.2547 31.032729586
14.8655 14.8839 53.5729 30.8519878665
22.0449 14.8318 45.9526 29.9371234158
23.5881 9.31593 50.3489 28.2275491827
12.9313 10.7216 54.1942 28.6312159447
15.4076 3.14201 51.8156 26.2338814876
18.9843 13.4414 52.8153 29.0877835279
19.21 2.84484 51.1785 29.561949783
21.6345 4.17857 50.211 32.8069324807
22.3802 6.70836 49.3112 32.6707138485
20.509 14.5545 54.9347 28.0498328292
20.2656 8.52094 55.4077 33.1892373086
13.1092 9.09164 48.2428 33.2054015692
17.0987 4.05935 49.8313 26.7059810803
16.0499 9.36172 48.0189 29.0299611818
19.929 6.78801 48.0264 29.5669868391
21.7218 11.4161 52.709 25.7786711244
19.4877 9.53832 52.8413 27.8726604047
16.5226 3.34045 54.4718 31.9366858117
18.0911 13.1392 48.2603 31.0009416086
14.1279 9.48803 52.034 32.0370215958
20.1922 12.8789 50.1392 28.855041385
20.9945 10.4218 49.9272 27.0853732404
16.2504 10.4773 50.5334 29.1622925291
18.639 6.61316 53.8547 31.6683329121
13.2111 0.384582 55.4895 29.5429917246
16.2604 11.6873 46.5986 29.9968693269
23.6791 13.3872 48.5146 28.0679935728
23.8397 9.74717 52.9423 28.5423136829
23.1999 13.6508 51.3226 28.3860693705
14.2584 4.97962 54.8303 28.104627425
12.5864 2.70911 54.1744 32.7368950207
18.3185 15.6534 47.7959 26.0475646974
17.2031 6.26843 51.364 31.7917774539
20.4919 1.7892 53.4586 32.1669614299
23.1449 4.82774 52.9215 33.5334342033
17.1024 12.5438 56.2181 29.752752088
19.051 4.02611 54.8027 30.8293271192
14.3085 6.33702 52.086 31.2245237995
13.2246 5.06676 49.819 29.6572855543
16.3591 7.10859 55.3722 31.330645052
15.7414 15.0711 56.1104 29.7416790551
18.6521 8.64066 50.2436 30.5534009115
16.3102 13.4485 50.3038 31.2361999364
15.5345 9.72422 55.0244 30.3017909357
17.3411 15.3822 51.9002 28.7863880647
23.3235 12.7703 55.1441 30.1518313732
15.249 0.0795107 48.5459 31.8217953027
12.3082 6.57419 47.7307 31.4741979169
15.3855 16.4285 47.1396 28.8138560041
21.127 15.5826 48.6866 31.7577019271
20.0635 4.36591 46.6413 31.5980867436
24.7059 6.91784 47.5806 33.6079460617
15.5467 30.2248 4.39179 28.7858075929
13.3374 19.2664 8.40382 27.7690672439
20.643 16.7466 5.75403 32.4556558392
22.882 30.4739 4.49147 29.1968335214
23.2103 22.0729 6.30359 33.9746078907
16.294 32.2711 13.386 31.635841249
15.2979 18.9918 4.16656 30.1672778817
23.632 16.6144 6.08576 32.9991454371
20.5867 21.393 5.64486 37.6239760734
16.0539 25.7404 3.69538 31.2694608813
18.4617 28.044 7.85363 29.1599654044
19.3946 23.9122 5.34743 33.5562800431
15.7642 18.7792 7.04094 32.0668113788
22.0669 25.7857 8.99255 32.0855149889
21.6017 25.1135 4.6496 30.2493547243
23.9665 18.3991 8.48026 32.2250714447
23.0242 25.4197 11.7696 26.3509795682
20.8811 32.2818 12.1713 35.0299926903
14.4447 23.6668 4.49928 31.5009008974
14.558 17.509 13.1181 27.180605406
17.4018 22.7417 9.18284 33.2853193122
14.1516 19.8722 10.8678 28.9130637102
22.8858 28.5453 9.35322 28.6278683774
18.7718 20.799 11.6286 28.6694162608
23.0398 20.0467 13.2827 27.6163302643
21.2865 19.1656 9.63995 30.8102428243
22.3751 21.6286 10.9797 34.4640976747
17.9166 28.9502 4.81136 28.1562256235
13.1158 31.801 9.30885 30.216465284
20.9591 27.6815 4.2748 30.2675584215
20.063 19.1752 7.27095 33.6116273107
18.4585 23.8383 11.5612 27.9896810806
12.5898 25.0143 8.85709 33.161168572
14.9375 24.1546 7.21216 32.5321918376
23.2337 24.696 6.85075 29.9173091206
19.7598 31.0657 5.36564 30.6320155936
13.9652 28.8519 6.41392 36.8636722182
13.8488 27.4458 10.1561 31.8290874227
15.9579 27.1349 6.26656 28.8780709215
17.8993 24.9521 7.39593 29.3273536118
19.6767 27.8154 11.4645 28.5774757399
19.3193 25.8687 9.49234 29.4981388021
23.716 17.4434 12.5542 29.2190990082
19.6771 17.1789 10.5541 29.1761904106
17.6014 30.1941 9.45322 30.1791205501
20.9578 28.7921 6.83697 30.0507957647
14.2705 28.4935 13.3331 32.2556252175
13.0549 20.8959 13.8607 29.9654299879
14.9043 29.6015 8.84759 29.6626686342
14.5988 22.6783 10.1291 28.5368387202
20.3233 32.6435 7.73392 32.3416605484
15.5479 22.2032 12.8777 31.2030592913
16.869 19.7063 13.3062 27.8568788909
14.6407 25.6058 11.9336 36.4580704733
16.9347 24.6723 13.7275 27.1438686524
21.023 23.5384 12.3759 27.1412385545
13.1365 21.4724 6.90473 29.3142381307
17.0165 18.0361 10.5435 30.0263152921
21.5168 31.0673 9.66071 30.1913333479
18.755 30.2392 11.9814 28.705330495
22.2897 27.9979 12.4063 29.1636350131
17.5703 19.9196 8.35815 32.1804013623
19.7711 17.7146 13.4361 31.3170608711
24.5924 29.6873 7.01767 26.9612429739
12.0574 16.4341 12.4367 29.8046593389
18.3862 27.0077 13.7777 28.6688929572
20.342 20.515 13.8645 26.3346793691
13.6031 32.0156 14.0104 27.9832338565
19.2129 29.8591 24.2901 73.8640377346
13.0791 29.5152 16.184 28.0999285034
13.8772 24.1017 16.9231 32.61030391
14.4302 32.4845 24.3116 81.4087457725
13.9714 24.6569 23.9354 46.2042609209
22.1308 31.8072 14.8426 33.9604917322
23.4004 22.7561 16.7117 34.2070319145
12.9054 22.2094 24.7996 136.1538107562
18.0409 23.647 16.3467 29.7232929226
16.1497 19.5578 16.6231 29.0289331692
18.1523 26.1429 17.6974 31.6672490602
22.8877 23.4649 24.1871 64.3267153713
13.3497 25.7956 19.1457 31.4979804869
15.2959 28.0309 17.0921 27.672321409
23.5144 27.1978 15.975 33.3374848504
17.0048 29.4226 14.5244 28.7949919386
20.6281 32.594 24.5219 83.4546521781
16.5388 30.5237 17.3936 29.4440369403
23.7784 16.7532 15.5021 27.2028521685
23.5626 32.1095 24.6274 98.0986319034
20.0686 30.0581 15.0172 29.8518380474
19.1178 32.2093 17.0078 32.5064344716
18.1328 22.9873 24.321 95.1726185712
23.9192 27.3179 24.0181 62.5508902278
12.2099 30.6147 18.9231 30.3376795145
23.8295 27.1062 21.2765 29.3739988576
17.5468 17.6392 19.9846 27.7250243907
14.9227 17.4324 18.6283 31.6855417215
17.9674 17.5061 15.6199 25.1290308427
19.0871 20.5015 16.2921 29.9037104254
22.4706 18.339 18.3782 30.3606059407
23.4405 20.981 21.3788 35.6088393941
15.971 27.0053 19.6536 30.3896109737
16.0807 22.1492 17.4641 31.8281824802
19.5285 25.5784 20.0016 32.2169737621
17.0805 22.2485 20.0636 30.1831479445
17.3681 32.1857 23.8956 54.3276536084
21.3379 23.3715 18.8757 37.5237396984
17.4673 31.0669 19.9375 28.7084288761
19.9312 30.0912 21.4951 30.827687252
22.1292 32.1337 21.8358 28.8404282928
13.4753 30.8925 21.2403 26.523211375
22.5857 17.0187 21.7036 28.4561823397
13.4273 19.4821 20.3585 38.3202192851
21.4061 31.4797 19.0785 28.8325312528
20.6477 23.219 15.4254 29.5606013523
14.389 26.1901 15.142 28.6485017066
12.7831 27.1866 24.5749 105.2132390757
18.4676 20.0757 20.6071 31.2620792387
16.8454 28.0916 24.1637 76.2902322784
16.4919 18.3756 24.3361 102.6417743054
20.229 27.8761 16.7258 31.8913413329
16.1654 16.4794 22.2365 30.0329537966
14.6628 21.7297 20.9978 30.5797015088
15.4374 21.0627 23.6219 41.1947398533
21.3037 19.2546 24.5473 101.8306591817
20.4642 20.4213 18.6377 32.6160196986
18.7118 20.1266 23.4158 35.899160288
20.3906 24.898 24.6018 103.1268669129
23.4281 20.6304 24.1495 53.4491037748
14.3857 29.7232 24.2325 67.1775326512
22.7067 23.6796 21.449 32.8897498686
17.1482 24.8497 21.1473 29.9964884372
16.7041 25.4176 23.6276 40.2233640306
15.9113 29.1019 21.4049 32.3464733755
22.0988 28.7618 18.7589 32.6719355546
23.8466 19.9453 16.2816 30.5885751899
20.8675 26.0736 14.4435 28.4681240131
20.9554 27.5198 21.1431 29.7039350867
21.1857 27.6404 24.1099 62.1197801515
13.6321 18.7912 15.6211 34.2505868906
14.6676 32.1388 16.498 31.0319172255
13.0398 16.995 24.3832 89.8035835266
13.025 24.1593 21.4043 31.3352926783
19.2105 16.7561 23.7035 36.6055894631
13.3194 16.8005 21.7313 28.3397325461
19.8496 16.6796 21.0873 28.244890844
19.4947 29.1622 45.0735 29.0717826431
21.898 30.367 44.2008 25.9223902504
15.4327 30.9357 45.7376 31.6094913458
13.1858 19.8934 38.4926 30.2886204846
15.9798 18.881 38.9459 31.4284360508
21.2449 19.8022 35.7159 67.4335345471
19.3021 24.1662 35.8012 47.7254987365
21.887 31.2112 36.253 43.6310866013
21.7913 22.7064 35.5881 81.9048688386
23.2968 26.9391 43.7852 31.5454235368
15.038 21.0737 43.9333 29.0488101549
18.1129 21.3837 38.4981 33.4578373784
17.9242 21.2869 35.5969 68.4977151675
24.6114 20.7352 39.8401 30.191900174
23.532 18.2705 35.9987 46.5562673448
20.0526 29.1228 35.9731 56.0366244397
13.3933 28.165 42.2643 29.2051130623
13.2189 23.7776 45.2696 30.6950911912
23.7453 18.7638 41.7736 29.7151996745
18.0257 25.2915 40.2399 31.5060122654
23.5581 16.6913 44.5786 31.8142756817
12.9845 25.9072 40.9846 27.780015856
14.2687 23.5594 42.5568 28.3393263664
13.172 31.6295 36.6618 37.1375009781
14.7213 24.5711 36.2642 38.9411550534
17.8102 17.5396 45.5188 28.9287881295
15.6346 27.5499 38.0402 28.7355829709
22.2728 22.7184 38.4633 29.3566125401
16.2892 29.2592 42.1293 31.4220538539
20.5837 28.792 38.7523 31.5919055344
15.6563 30.796 36.1136 50.6371972469
24.4744 22.2408 44.447 27.3169856885
15.743 17.5578 36.3303 45.5660030972
13.9267 27.7292 35.6989 81.0645427267
23.0921 18.2878 38.6243 28.6020441592
13.1449 18.5894 43.7824 32.6658838294
23.5989 19.6704 44.9459 27.5851456667
20.3151 19.1577 41.4345 32.3504539296
16.9368 22.9489 41.97 30.911726489
12.7312 32.4932 41.3136 29.2366085535
17.6447 20.2051 41.5162 32.657714109
21.2402 23.1334 43.855 31.9502731287
20.0501 24.6941 38.3791 29.6436590609
15.2543 21.9469 35.5764 86.4011919665
15.2699 24.8263 39.3647 29.7443761011
15.3637 22.1253 38.3315 31.2024451428
21.3599 26.9607 41.817 28.9350264905
22.3446 24.1734 41.5173 32.6631170783
21.9542 26.4583 39.1573 29.0725186364
16.1538 30.6583 38.9489 30.1453552833
13.5533 30.1349 40.121 29.9510558041
17.8571 28.1394 39.7394 30.6379747629
22.3624 29.6429 41.6785 32.6080555007
14.4046 28.3877 45.5385 31.4286225787
17.3975 30.9157 43.9782 30.0072969401
18.3607 27.2138 42.7639 30.5625392994
16.0007 17.1492 40.758 30.2824229485
16.245 18.3638 43.2637 31.2338123888
22.0566 31.0147 39.1755 26.9659699555
18.5991 18.6254 35.4323 95.9742260105
17.182 25.8188 35.6915 75.9137284872
20.8812 26.5793 35.2615 103.4444583507
18.5488 23.491 44.4589 30.5926727795
21.0883 20.261 38.8951 31.816006686
17.4788 28.5312 35.8946 60.8939428717
21.1699 20.0808 44.1472 34.1305739681
12.767 20.4969 35.7615 71.3584148422
24.39 30.6305 45.1849 28.5659701442
15.5762 26.1477 43.391 30.0249820808
13.7846 32.478 44.2424 31.4926673419
18.9124 19.8433 46.169 30.2607216969
17.3465 32.6436 35.5751 98.3050852838
23.3085 25.4244 35.627 63.8135917303
18.36 26.0102 45.8595 28.0651150848
15.4758 19.3204 46.9263 28.5445289232
12.3119 20.6453 48.7905 31.2474389886
15.5014 30.5941 52.0431 28.7917285348
23.6343 20.391 47.9217 30.319598854
17.0891 21.9014 45.9765 28.9082430997
15.3282 25.5211 46.2928 29.6254526968
17.6403 17.0876 49.7839 25.8819264354
15.7891 23.2833 48.3644 28.7127504308
20.4777 22.8592 48.4808 29.1189016383
20.6824 19.9068 48.0709 33.3995216424
15.8461 19.1096 49.6157 27.0692328625
17.6493 26.2481 50.7868 29.3776350436
18.2133 24.6293 48.456 30.7107243772
21.1963 26.63 45.9768 29.1680427348
23.4527 30.504 47.9248 29.7924479886
15.4386 31.8272 48.575 32.8073592575
24.4812 24.054 46.8334 27.992312543
12.6797 18.1957 56.3212 28.0900226344
23.4657 18.0132 49.3819 29.3394644827
22.3688 18.1659 52.2151 33.1943507975
13.6065 17.0812 52.7363 26.9769213482
14.0158 19.5683 54.0506 30.3487726994
13.4381 17.6983 50.2409 29.9830978207
14.5608 30.3735 54.8621 29.0689350324
16.5777 17.7945 53.2823 28.4102169701
20.2991 18.0217 50.0423 28.9390666918
20.2531 18.814 54.1802 32.0115060752
13.5308 21.4725 51.6103 33.3812747231
22.0479 30.1135 51.8245 32.4765392463
18.1408 22.4965 51.9909 28.3072295236
16.0915 21.5309 50.4423 28.8905908152
21.045 22.8963 51.2665 29.8808462243
14.6256 25.419 49.7089 30.2453504738
14.1912 24.424 52.2171 29.027251019
16.8489 24.8222 52.8911 27.8413370489
21.0393 25.5945 51.616 28.6977917705
19.9174 16.9922 56.0114 32.9010998207
13.7469 27.9181 48.0928 31.6911822489
19.1011 30.8424 51.5693 30.4775781763
18.4378 31.149 48.4882 30.3361499569
20.3728 27.977 50.4281 28.8381987751
20.1637 30.7872 54.2938 30.7397316756
20.753 32.0702 46.3418 27.7187911351
22.7921 21.0174 52.4534 32.0698065615
23.9486 25.6833 52.2955 29.9541653412
18.5417 19.6674 52.0844 30.2651817921
22.4313 29.1159 55.0325 30.6717416837
21.2655 31.985 49.2696 29.5013341467
19.0752 28.597 47.8173 33.7047399672
15.4029 21.4237 56.0748 37.3867820432
18.1071 21.7439 54.7239 32.4058777387
22.2617 25.2644 54.6199 30.1829578393
22.2664 27.962 48.2172 30.8694365518
20.7242 21.2187 55.7798 34.4999338057
23.846 26.0136 49.5656 30.1378684751
15.2665 27.528 54.616 29.3433660637
13.0422 26.499 53.5401 30.2044051097
18.2063 24.337 55.7068 29.0314741128
19.5294 26.4095 54.1468 28.7835725426
22.7748 22.5315 54.8309 30.7129565462
13.7887 29.959 49.9848 28.5304118703
21.6154 23.8724 46.523 27.8911278101
17.0988 28.2968 52.4361 29.6369651426
18.5676 28.7153 55.006 27.7079552393
23.5794 23.0155 49.2425 25.1035721008
17.1489 17.3716 55.839 29.9912967883
13.1261 20.8617 46.1148 26.3099989184
21.9158 45.855 10.6565 29.771826752
23.5015 48.5588 4.01462 28.1932983271
19.4962 46.0197 5.31157 29.6065562744
23.9873 38.7531 6.44509 27.8499492933
21.4602 35.0695 6.62221 29.3367367842
13.9484 43.14 5.15483 31.4157643641
15.794 38.0834 6.14475 26.57955252
21.0178 41.0984 10.7272 31.0834158755
22.7765 48.0908 6.76037 25.0294392577
13.127 36.2352 4.04957 28.4146864957
14.9141 41.8122 10.8119 29.6154964133
17.2446 41.3825 12.0817 29.3909757232
16.8993 45.9949 12.1661 28.2996545283
13.3982 42.7973 8.07195 33.7981498039
16.5272 44.253 5.03243 28.85749021
18.1495 42.3309 6.21772 30.2318261624
23.9503 32.8598 10.311 32.7360683332
12.936 38.352 5.81947 27.4784789475
16.837 48.7418 5.8437 32.4430221533
18.8512 42.023 9.44906 27.5114415356
24.5999 42.0424 7.97432 29.4587150679
15.8198 32.4993 10.7137 30.8331751849
13.714 48.7004 8.9301 27.1049770132
15.0191 44.0886 12.729 28.7865742735
17.3011 36.4415 4.55694 32.1672884831
15.2113 37.0713 8.40281 30.691470679
22.1764 43.5271 13.3828 26.5319091778
19.0433 37.7664 8.4463 28.4566290945
17.7276 35.2928 9.4709 35.4266574949
24.3042 47.3556 9.51189 27.2857183397
13.5528 36.1105 12.6515 27.4036323083
19.4543 44.1515 12.3979 26.1443597575
21.242 38.3032 9.46245 25.9803784452
13.7546 34.463 10.4422 33.1319918104
15.8828 38.848 10.2654 29.1129948905
17.3587 40.0358 7.96933 30.6465513867
21.7276 40.3084 7.45097 25.4989522875
23.7154 33.1645 7.4892 27.9786632958
14.7395 47.803 13.6544 28.3562449842
20.0304 37.1834 5.83149 28.4988045231
15.4073 44.5402 9.07697 29.0731262291
13.0423 38.7634 11.3136 28.7764394511
20.6301 43.154 4.63446 26.4227473131
22.7769 43.0376 10.7378 25.6490967381
20.6971 46.6417 13.1139 27.15331481
15.477 46.2404 6.7258 29.1887911536
14.0582 46.3251 10.797 30.2394941716
19.6141 49.2482 9.15615 31.4520496753
21.6752 43.0984 7.84046 28.7962470039
19.7726 49.1534 5.97043 30.9994982575
18.3833 44.78 9.69979 28.3953789057
13.0485 47.4332 6.63789 28.3521715645
20.1118 46.5289 8.23076 28.0395719394
17.1421 47.673 9.28726 28.8930896214
19.4727 34.9746 11.5947 34.274422435
16.0641 37.0256 13.7221 35.5546031976
14.8024 40.2864 4.83733 29.5207105955
22.614 45.3839 6.01901 27.2946003047
12.3614 41.4154 12.1855 34.9594107305
17.7973 38.8155 12.4883 27.3888658926
20.1723 37.5902 12.0248 29.6356564571
17.2165 32.661 7.86874 36.1648764532
20.1031 40.1936 5.13884 28.4302951604
23.1027 36.4272 8.58659 29.9876165232
15.0235 32.5193 5.72699 31.3390778154
23.3051 41.6992 4.90757 27.7687186223
21.6784 33.3514 4.30458 30.6193028025
17.494 40.4974 3.73316 30.6899684706
15.5206 34.5247 3.76244 31.1718379665
12.5543 33.1035 6.51706 27.8491850963
17.7483 34.8708 13.8276 33.1507306853
24.0723 35.4169 11.3277 36.6185065841
22.3752 37.7346 4.1614 25.3493758382
24.4579 39.7593 9.82151 32.1599616237
18.5233 35.2223 16.4861 33.1187229877
21.4607 34.5708 15.7622 31.6111243823
15.5397 38.1681 17.7834 31.1671724063
20.2458 37.8319 16.4122 31.5510425016
23.079 38.0021 17.7213 30.5102405155
17.1051 36.1498 18.9243 27.8547585869
17.2939 40.6071 16.9911 29.9559175341
13.763 45.8493 24.4117 96.5829714389
18.8024 40.0251 24.4416 95.4017182983
12.9985 48.0492 18.2614 31.9095914911
23.651 39.8485 15.0231 28.6389791329
24.7935 46.6953 21.0954 28.7912996761
17.4095 35.3235 23.729 52.7584689373
18.6227 45.6181 15.2418 25.8845817398
18.891 33.4068 19.938 31.2776698947
22.4747 48.0758 17.6864 31.8616438688
21.0929 42.7607 16.8676 30.6086995905
18.0325 46.8995 24.0306 76.2964230159
15.6635 48.0952 23.9667 52.2132426048
12.6875 44.5253 14.9533 32.0037893251
14.8478 46.8096 21.6212 29.2906251671
22.54 34.1473 18.1955 30.6293495992
22.7988 46.0374 14.738 23.987206019
15.6775 32.7246 21.4449 28.6646118939
17.0218 39.7199 22.3923 32.6100056779
22.3627 40.2388 21.6889 29.475315067
22.6667 36.6583 20.2285 29.7077912978
14.1167 36.6477 16.0842 29.0674744305
15.6911 42.5759 16.4041 35.5866871557
18.8826 42.0588 18.6245 30.4313817188
21.4278 41.3588 14.656 28.411693403
18.8808 38.7839 18.9297 34.0147690692
19.0171 39.8783 14.8823 29.8828887215
14.385 46.8427 16.1927 28.9007483
23.47 48.8282 14.8672 28.3738740837
15.4209 37.5796 23.9162 62.8350898211
23.5509 42.8555 18.027 29.0800149633
21.9011 47.2809 21.7823 29.4939358484
14.7753 35.0252 20.1253 29.2296004207
20.7681 38.1318 24.4058 73.2157544187
17.0787 47.0123 19.8894 29.9381119542
16.501 45.3139 17.3381 30.8939550361
13.6809 37.1272 21.3661 29.0748490774
22.3096 43.1984 20.8777 27.4408003956
24.4789 41.964 24.4148 100.9179869201
13.8199 34.3692 17.7763 29.7369928063
22.4656 43.8274 23.7298 37.3640970037
20.5212 37.8996 21.5067 28.5343710555
18.5839 44.4842 21.2305 27.3096311942
13.7652 35.2537 24.306 78.0381130078
13.4579 39.0415 19.4537 30.4806621395
14.3846 40.2758 24.0062 64.8102752915
14.1333 40.8364 21.4237 31.1211844514
17.5072 43.1482 14.2614 27.5578312202
19.6892 41.8951 21.4868 28.1534731967
20.69 34.5027 21.6514 29.3888125093
18.5384 49.0916 21.479 30.2095213899
23.0713 39.4981 24.2977 63.7052842872
16.6329 43.5412 19.5844 33.0923513644
15.1046 43.4336 24.4041 92.28552215
22.0297 37.1215 14.118 30.655166016
17.707 44.2934 23.909 49.8107020702
19.9936 42.5419 24.2587 80.3965948488
20.7639 45.4828 19.8972 31.475901277
20.0367 35.4089 24.1981 66.4483610868
20.8494 45.6379 16.8477 29.2007767423
12.9856 41.8042 15.0581 34.4742401374
