18.926 42.5349 20.2229 29.8188940268
20.1588 43.5021 17.6005 35.1692380015
23.9526 41.0781 19.4643 31.0946265563
22.3768 41.5955 16.9139 35.3174206439
15.2907 45.2672 19.4429 29.2388748244
12.6168 46.7897 16.9365 29.1915703924
17.4429 47.1099 19.1467 32.4414024681
19.6924 47.635 20.9402 29.9287930388
23.5008 45.5467 20.3615 32.8173531382
21.6403 48.4616 18.3794 27.3824323026
21.7654 45.8732 17.9649 31.8515157716
24.5319 47.892 21.1142 33.7472081716
12.8586 39.3581 23.6151 38.4532986215
19.7719 40.4424 21.4962 29.0320831675
16.7029 39.4194 23.9885 53.7403780938
19.2365 40.6897 24.3906 80.8845073767
24.2315 40.6644 24.0155 74.3433775588
21.5474 39.193 24.0224 57.9111594736
14.8049 41.1234 24.5743 117.0028175784
16.1888 43.5585 23.8785 42.0370363684
18.897 43.3414 24.6888 105.1255238798
22.6855 41.4846 21.8636 31.6896945499
22.368 44.25 22.2425 33.9306274257
12.5084 45.1939 21.3975 32.1192517724
16.1368 48.7412 23.6025 43.4908089958
14.9947 46.0092 24.0838 81.5520631979
14.6094 47.2461 21.3071 27.5156755565
18.9272 48.6603 23.714 41.6524399737
19.7683 44.9679 21.968 31.2135970121
20.0906 46.1349 24.526 89.4402550676
23.0809 46.2954 24.4867 113.3144086777
13.283 39.6131 35.9402 79.3008926044
15.9935 40.0834 35.8268 69.9900994636
14.6311 40.5772 38.6925 29.4262535037
16.7052 37.4034 36.0292 61.8203756472
19.0911 38.356 36.0183 51.5370757408
20.4906 40.6475 35.5129 89.9770731563
22.8276 38.7432 38.0933 31.7076504582
23.2609 40.513 35.7454 84.8160369573
14.8519 44.7258 38.1652 29.055861137
16.0606 43.0449 35.5914 81.3762845561
12.498 44.5132 35.7635 65.4325258844
12.6415 42.3931 38.3682 30.8984654334
19.0233 43.2352 35.5138 80.9006990278
16.7702 42.4092 38.4877 27.3608526071
19.5242 41.7881 38.6189 28.3201997496
21.8993 44.2113 36.0132 75.2706342727
24.1979 42.5578 36.7953 32.3560405802
14.9085 46.2058 35.6914 86.3630169015
14.6208 48.2521 37.6363 28.3781413176
17.7543 46.2129 35.9549 60.747944007
19.3036 45.2523 38.006 26.8552368531
17.4136 48.8765 36.793 31.1981835632
20.3896 48.9804 35.3503 117.7017537469
22.2546 46.9693 36.2481 49.6815686512
12.573 40.4515 42.1069 32.0038058412
12.368 36.8061 39.1744 30.7918321836
13.8302 38.6501 40.3363 30.9938740124
16.0282 37.3505 42.0164 29.4334817227
17.3733 39.0772 40.4361 29.4216250632
19.6409 39.1068 38.8883 28.8527451849
21.4038 39.3705 42.7916 29.2545810181
23.178 39.4276 40.8251 27.3048871673
23.3666 36.9089 42.5129 28.1309286655
16.8536 44.3342 42.6259 28.0157968296
20.2751 42.023 41.5478 30.3362145605
17.6852 41.9073 41.4135 33.0146397915
21.8183 43.8362 39.2754 29.3427703526
21.663 44.008 42.8137 28.6074023724
24.0978 41.9247 39.7871 29.7504365296
13.581 47.666 40.9515 30.8956769606
14.1374 44.9784 42.4706 37.5386086696
17.1693 45.3659 39.9068 31.915221503
18.0582 48.0705 40.7097 30.2852744771
24.4132 48.6452 39.1254 29.8701256224
21.1596 47.132 38.8196 27.4865504252
22.7055 45.9621 40.9044 29.9249471931
13.1445 37.5197 45.4845 33.0419901916
15.7056 38.0798 44.9146 28.3382857616
19.6897 38.7052 45.9532 33.1222181375
18.6488 37.8693 43.3865 30.640638083
24.4666 39.5211 46.5628 28.4802269052
22.08 37.7475 46.8672 29.7748296744
15.3015 41.037 44.7706 34.7758769816
13.0395 42.4996 43.9015 33.8603376821
16.168 44.8937 46.8593 27.7668585121
17.117 42.8541 45.1456 28.1319747229
19.6576 41.7024 45.915 31.8913700408
19.8423 44.5107 44.7044 30.6652010121
22.1701 41.0425 44.9189 31.9776082242
23.7953 43.3279 44.4915 32.4557756355
13.8317 45.5125 45.387 30.8973849371
13.1308 48.3531 46.1082 28.0800355725
16.2184 47.8048 46.1181 32.7417246694
17.7065 46.3774 44.2911 29.7766370329
19.154 48.4591 43.2585 32.7913247724
20.4984 48.7188 47.4679 31.5617906564
21.3242 46.6307 45.9712 32.0394300835
21.7852 47.717 43.2664 35.6758108975
23.5417 45.3147 46.5682 33.7289056673
15.4566 36.8854 51.0912 28.0786423873
12.7825 37.4382 48.5353 25.5661736172
15.8769 37.8752 48.256 27.6285100038
12.7527 40.0826 48.8976 28.4568624102
17.0163 40.4583 49.7444 28.8681328191
17.6899 38.3157 51.0284 31.3828417607
23.0859 38.1739 51.528 32.1492298389
24.054 39.8988 49.5335 30.9788217809
15.1108 40.8686 47.9819 31.1957184877
16.2691 42.3996 51.897 30.9340238405
13.7758 43.8393 48.4179 29.3522353404
14.4936 44.4701 50.8281 28.0415156215
13.1356 41.7345 51.3415 26.9467942551
19.5807 44.599 49.7891 34.0502689656
19.1781 42.0255 48.7156 34.4930211944
21.999 41.8215 49.6846 33.2198545401
23.7036 43.7312 49.117 32.1536889032
24.5793 44.3385 51.8501 30.7085272011
16.179 48.1308 50.1009 34.0858783136
12.9045 46.478 51.2653 26.0323936668
13.6197 46.9327 48.5274 25.225433754
16.9653 45.4601 49.3848 31.6904368387
21.784 45.7044 51.1968 29.5190702625
22.0759 48.1361 49.6673 31.6340494201
12.4374 39.3776 55.6685 30.6311600103
15.4942 39.9067 53.9761 28.8915241175
13.8742 38.9096 52.0703 28.341541521
15.7041 37.6803 55.4782 29.2726208357
18.3202 38.4264 56.2456 28.4605370386
18.4463 39.8513 53.6652 31.1442924892
22.8004 40.3955 54.0215 29.4662166927
20.8378 38.33 53.3554 28.1475160276
13.1601 41.9985 54.3101 29.941258666
15.456 44.3516 55.0288 34.0816490482
18.6807 43.9752 52.3683 31.240878504
19.3648 43.2587 55.562 30.3419758013
20.7182 41.8801 52.2379 29.782967472
22.5573 43.5553 53.4196 25.9727744722
22.9755 43.228 56.2325 27.7988964351
16.2039 47.7522 55.3547 30.2601586367
13.8369 46.643 54.0793 31.7735467474
17.5088 48.5208 52.9081 37.6436986157
17.7285 45.3962 56.0903 30.3037328812
21.3157 48.4655 54.7597 29.5685754138
20.5685 45.797 53.8495 32.7338612142
23.8558 48.5535 54.6285 28.3533379739
27.4426 0.806421 6.91892 29.3633715629
27.5685 3.55597 5.7029 29.7389627074
28.1793 1.02561 3.85791 31.4333017813
32.0057 2.74166 6.84863 34.5222390037
34.5258 3.79437 6.77198 27.6301054447
35.2153 1.2377 7.4715 30.6040336091
36.5838 0.84171 5.11708 31.8981620437
33.3415 0.796376 4.54494 26.040849912
28.492 8.10496 8.10578 30.1917735219
28.6956 8.14915 5.49442 30.9626246302
24.8863 4.58545 5.50594 27.4021759243
25.971 6.81369 4.13891 29.8271936562
30.747 5.52769 7.4817 31.0928196407
29.3596 5.57331 4.83843 28.1030547936
35.0016 4.98903 4.27548 26.4967197017
36.3556 7.90489 5.47242 27.8908871449
33.1749 7.02298 4.29755 36.2821003053
36.8848 5.73831 7.17773 29.5278502075
25.6596 11.7026 4.01412 28.2413182239
25.9295 9.54785 5.36645 28.4888977366
26.5406 10.0349 8.00256 28.6009620314
32.0472 10.7804 5.08387 28.6400458802
33.7734 9.01071 6.1689 29.7214739302
35.7184 11.9256 8.10194 29.7823860989
28.6992 3.67712 11.6384 28.5854006648
28.1718 3.8961 8.62336 27.4131373576
25.8377 2.0444 8.90138 28.2136405379
26.5657 2.29252 12.0415 28.1489526238
30.3351 1.82758 9.33105 27.1238076477
32.6806 0.84036 10.8652 27.6893082186
36.3203 0.301098 11.7639 29.3857967828
34.2642 3.21486 10.8021 27.4929178252
36.7874 1.93384 9.78727 29.6457759948
27.6429 7.98286 12.4444 30.5896611274
26.6785 6.25501 9.53741 31.1970594722
24.9495 7.25183 12.0474 26.9661608302
24.7573 4.77423 8.27657 27.8095876152
31.4834 4.56427 10.3352 36.7830529196
32.9797 7.3967 8.20944 30.7954809566
34.8856 7.71482 12.2826 26.9868892669
36.7764 6.73213 10.0841 30.3787999148
34.6134 5.44165 9.14561 25.4696589721
25.1305 11.2732 11.5167 31.383235823
29.7021 8.83568 10.4736 32.2240161709
30.0856 11.6011 9.52712 35.5013771487
32.9287 8.58649 10.5636 27.97596118
33.4506 11.0576 9.41519 28.9101595536
28.6075 2.44049 16.624 26.2540152207
26.1031 1.48574 14.9084 28.5916815564
29.0856 0.107039 15.0679 27.2939771517
29.8348 0.974354 12.569 28.4696126587
32.5413 0.987488 13.6723 28.1398934884
31.6437 2.17681 15.8552 33.827537788
35.5856 0.624063 14.732 27.9114437553
34.7773 3.24977 13.5627 26.1758243505
24.9164 5.60243 15.4082 31.674802259
27.7438 4.85737 15.7257 32.9281381247
28.8152 5.77492 13.3844 30.145051179
31.0751 6.59416 14.4508 32.7494882703
30.6191 7.60101 16.881 29.7125616139
33.8253 5.65842 13.7028 30.1806231081
34.8875 6.41489 16.2632 30.9154405442
36.8746 6.83537 14.3998 24.9082112019
26.0237 10.2788 13.883 29.2940246946
25.8729 12.165 15.8428 27.0887016053
31.4493 9.05853 13.0133 28.0397900859
29.3139 10.5099 13.8131 29.1568964433
29.2395 9.95755 16.5516 31.3634090618
33.2563 10.5865 14.5324 29.9780671153
35.6097 10.2804 13.0126 35.2433081006
26.2669 1.31438 17.8984 31.4099508286
24.9523 3.37848 19.2222 29.8283839386
29.7866 2.71496 19.032 29.656680657
31.3509 0.733307 18.4542 29.2166706325
34.0467 0.821073 19.7036 29.4485400643
34.2634 2.28013 17.0466 32.2253525349
34.2288 3.17082 21.0445 30.1853132366
27.1501 7.42278 19.1606 29.3488801954
24.6955 5.91328 18.0088 29.1862260576
31.8844 5.05352 18.9234 29.3909838029
29.0947 5.82964 18.2349 28.8163657758
33.0793 7.90996 18.3206 27.9360209598
34.6588 4.62236 18.4921 25.7964906745
35.4125 6.22355 21.2421 27.6379629783
26.4982 10.634 21.2135 27.2247431203
26.9442 10.2361 18.0724 30.8903905871
31.0778 11.7479 17.7236 27.6498434629
29.4306 10.6351 20.8892 26.4435755788
32.1042 10.1483 20.3576 25.8392531433
34.0094 10.2125 17.1612 30.5748888738
36.741 8.8802 17.5503 29.1964151423
34.7626 11.4286 19.9467 28.4389348044
25.9701 2.65806 21.8518 29.9087013486
27.2036 3.79647 24.4619 73.0468532427
24.7203 2.05244 24.2968 70.7090833519
29.1791 3.52201 21.8271 29.585923959
29.2931 2.11989 24.828 106.4934161233
28.9416 0.605765 22.2859 27.3560450251
33.8179 2.79595 23.7298 48.0888644473
36.7067 3.25625 24.2292 77.239293869
26.5965 5.7042 21.3953 27.1258452472
26.2953 6.53438 24.1093 69.8759862801
28.8538 8.00196 21.5246 27.691498197
30.9528 5.9128 21.2955 27.4637528248
31.5094 4.19826 23.8983 41.317904381
28.7445 7.92561 24.0969 54.9967107119
31.2143 6.63044 24.8051 119.6339804644
33.134 7.61576 21.4726 27.197045438
35.9379 6.25583 23.9998 64.195413568
26.8161 11.7637 23.8039 55.8849129044
29.5071 10.4779 24.1212 63.691129311
32.4397 10.434 23.4497 34.447403771
36.3077 10.3825 21.7101 28.9290177071
33.5301 8.22237 24.2025 61.5025738985
36.7545 9.12237 24.325 80.1001824147
35.1447 12.0664 24.469 96.0174214875
26.1199 3.21371 36.8063 31.8943385272
28.488 3.62254 35.2524 120.338619
26.9179 1.5365 38.7068 33.908939247
29.6195 2.42454 38.5593 27.7972665886
30.4203 1.95103 35.8536 48.6224474055
32.4605 3.90868 38.4597 28.854068249
33.0389 2.69916 35.5957 100.9023852471
35.5046 3.95586 38.3505 29.1591811669
34.7625 0.375059 36.7247 32.851897108
25.1631 5.38493 38.1764 29.3448377112
27.2114 7.81071 38.268 25.9292488878
27.6718 7.93914 35.4485 91.0321301898
29.6214 6.25552 36.0994 34.3713371819
29.162 5.26922 38.6777 30.0195759255
32.2955 5.80928 35.7962 65.2136092666
35.1065 6.50315 35.815 63.6035869896
34.5542 6.55935 38.5248 27.0850408225
36.7153 4.30254 36.0264 54.1692238159
26.8529 11.215 35.3817 99.4515391085
31.7211 9.19946 38.3414 30.3627222831
29.5215 11.1787 36.1117 40.8235181789
31.1354 9.00627 35.7532 62.0433853692
29.126 9.87462 38.7376 29.8080797507
33.4451 11.4185 38.4373 26.8116897342
36.6087 8.88586 35.7242 60.5966799096
35.3844 9.56227 38.3824 29.3752368992
33.8322 9.97276 35.3554 91.158615398
28.1081 3.84452 42.7227 26.414054253
26.6703 1.61593 41.5823 33.6240063849
31.3312 1.41374 40.2652 27.0741550556
30.6721 3.37226 42.2184 30.3034747734
33.8317 0.771529 39.4077 28.4793046619
35.684 2.2815 40.9684 32.0470336688
27.1231 5.47404 41.1003 28.3842648422
31.8776 6.44847 39.2035 25.8079352409
31.647 5.91947 41.9915 29.638285555
29.42 7.65546 42.8454 30.6370404526
36.3254 5.33723 41.3239 30.2228192224
34.049 7.41119 41.698 32.894793208
25.3731 11.6487 39.8902 29.5037215432
24.9108 9.27274 38.8081 28.051956676
26.6398 11.9131 42.2485 27.4918913938
27.2644 8.53371 41.3099 27.3603851833
25.2227 8.61792 43.1606 28.2450906238
29.1291 11.2085 41.4171 31.6224358265
33.1761 10.0284 43.0533 34.0691712248
27.2873 2.60923 45.6089 31.9927207322
30.5124 2.01977 44.7736 27.2420093695
29.154 0.865056 47.2667 31.0419299814
33.2459 2.4675 45.4521 25.5648483235
35.773 2.10399 46.1483 30.498107538
34.0284 0.610087 43.2303 29.6663722186
28.4565 6.00563 44.7636 26.4999625632
27.7789 7.64447 47.1306 27.2952024899
25.5639 6.33624 44.7355 30.0772303583
30.2071 4.59283 46.1532 26.6444960288
32.3144 6.05323 47.1496 30.3346248314
36.0615 5.69292 44.0861 31.2021311421
33.2243 5.17276 44.4371 33.927673792
28.6624 10.8886 45.4033 29.5875436738
25.8801 10.6332 44.8456 27.5105062073
30.1377 9.26573 46.9927 30.6146252625
30.4814 9.9275 43.6624 28.3468930034
36.7125 8.32474 45.0368 30.8112291939
34.4992 9.87357 45.8993 30.2143403589
34.5509 12.0552 47.5169 26.9706467316
24.912 2.70399 50.2728 30.5718109447
26.0642 3.9363 48.0044 30.1253816104
27.296 3.07077 51.8992 33.7913531854
31.325 1.0987 51.8812 33.3714465731
28.9501 1.11594 50.2684 29.0567289104
32.3384 0.995775 47.7873 30.4082372086
30.7941 3.15772 49.081 28.3454098497
35.1331 1.24266 48.9733 32.7398665523
25.3153 7.66141 48.5108 27.8838950874
28.6221 5.40816 48.6758 27.1298434601
27.9397 5.6349 51.6896 26.479209054
24.7774 5.95551 50.4355 28.9053715286
32.7364 4.44893 50.6521 28.7781243104
30.8091 6.98126 49.7686 27.1831757262
34.1979 4.18909 48.2458 29.5519899775
36.3549 5.61231 49.545 28.328173103
33.5579 7.41683 51.2798 35.2710570303
24.6316 9.59799 51.0013 29.5469164941
28.2932 8.75932 50.1211 27.8597377442
26.3789 10.6867 48.6168 34.7093109891
31.2781 10.8444 49.1762 30.7750605627
29.6788 10.9378 51.4733 30.6185607974
32.9904 8.77498 47.8641 27.3557455639
36.7471 11.2663 48.9882 29.9591730905
35.489 8.60373 49.3819 32.1840418804
36.4816 12.0713 51.7132 30.9736264482
27.2282 3.14035 54.7656 31.1879020298
30.5399 2.15726 54.7677 34.5675413539
35.5388 0.159146 52.7464 29.3220564115
33.71 2.42065 52.8309 29.3585924226
33.319 3.13341 55.4531 29.9679820564
27.9177 6.18855 54.7463 27.8479905936
26.338 7.99091 52.352 28.9293755993
30.9772 5.03835 55.2895 31.3733836166
30.5152 6.23818 52.6405 30.0108410124
36.6935 5.7736 54.3486 31.4802504768
35.7689 4.38015 51.9969 30.5156039601
25.0219 11.549 52.7818 35.883161766
29.723 10.1753 56.3009 31.9237417139
29.6207 8.82464 53.6605 32.7147650575
32.5099 9.24069 53.0201 31.8402329723
33.9025 9.80618 55.2741 29.8349914127
36.4961 8.57476 55.2156 32.4999399912
33.4797 11.9541 52.1758 30.6134207523
35.3357 12.1489 54.5199 30.9171936206
26.3189 15.1272 7.46657 30.2622955476
26.5937 14.6535 4.57204 37.0796021112
24.8029 12.7215 6.51856 29.1223445804
27.5962 12.5023 7.84802 27.7086040445
29.4214 12.9841 5.84721 27.3358295305
30.6277 15.0268 4.41322 27.1771696764
28.8086 16.3139 6.65362 30.8620729515
31.79 12.3185 7.58911 28.7094714483
33.1802 16.2404 7.63611 34.7987250935
34.1112 13.5844 6.48912 29.7373563947
33.0083 13.2803 3.75171 29.5783426401
27.3015 18.4327 5.9646 30.9014478487
24.7472 18.1299 5.20088 32.7654010782
28.836 19.6547 3.96692 32.540362358
32.5206 20.2664 8.10164 29.6305394524
32.8269 17.0947 5.01923 28.8983359536
35.4618 16.5356 4.28702 28.6492296815
33.5395 19.7438 4.98092 26.9879514798
35.5523 20.2239 7.01622 28.2873361916
27.8025 23.08 8.02216 31.7888553656
28.1114 24.0859 5.03488 32.1241277219
25.0993 22.1069 7.34528 32.5486704153
30.7465 23.4676 6.04232 27.6279127552
31.113 20.7615 5.5981 32.4182157427
35.8989 22.6567 4.68696 29.3341913168
27.4963 13.0679 11.1055 31.8401542108
26.8583 15.5856 11.3855 28.0025689107
24.844 16.2362 9.71226 30.1894997192
30.2252 15.6352 8.8014 34.6257741123
29.4297 16.2363 11.6047 26.1831023395
33.7813 12.498 11.8454 38.1578914742
36.5333 12.2985 10.6135 34.1306703369
28.6205 19.1817 10.3663 31.4927103093
26.7626 19.9032 8.33924 30.7791745171
31.2506 18.1875 9.72892 30.6879499004
36.3864 18.2906 11.3818 28.294020356
35.5547 17.4854 8.43835 33.7578974579
33.1659 17.6853 11.8022 30.6875097626
27.2851 23.3322 12.2546 31.1950498643
28.8552 21.9551 10.3682 31.1081355718
31.2237 22.7057 8.78533 30.7779026409
34.3661 21.4004 9.86798 28.8523706136
33.4053 20.5043 12.4516 28.3196259288
33.5956 24.1622 9.15031 31.4001629448
27.7138 14.1544 15.0447 26.2711154599
25.3146 15.5732 13.6791 26.2507457928
31.4105 15.6504 13.2107 28.8192181217
31.6852 13.0424 15.2768 27.1614886102
31.595 16.2306 15.9089 28.6879377962
29.2598 13.2549 13.3353 27.650746983
34.0969 14.2969 15.4868 28.7700461436
36.5429 13.4293 16.7323 31.1320506013
34.756 15.2973 13.0408 33.4708796756
28.5414 18.7774 13.1304 28.6466142975
27.4586 17.2027 15.3751 30.5564262996
24.6546 18.1961 14.7832 27.1629279533
32.7043 19.0257 16.4883 29.2533667511
31.2987 18.7839 14.0044 29.4449775939
35.8184 18.1266 16.2879 26.8000032344
35.6121 19.8388 13.5314 26.9761160759
27.7333 23.2162 16.7353 33.8045302001
25.9271 21.0647 15.8322 29.4935507821
28.3695 21.3845 14.0984 32.70700797
32.6498 22.1487 16.258 33.4555139741
31.2954 21.8712 13.5816 31.457692503
32.617 24.3494 13.1964 29.6352969699
36.5264 22.8859 15.5748 24.6003125794
36.7483 22.2498 13.0024 26.6054022553
34.3083 24.391 15.3747 31.6191397152
25.9786 14.8972 17.7842 28.2301656097
28.475 12.6029 19.0101 26.0955341425
25.5293 12.9642 20.1621 25.9386281971
32.6813 12.7996 21.2377 26.6091374696
29.1724 14.8102 17.3442 25.2699612752
31.7569 14.5493 18.7427 27.8849842945
34.2282 15.4798 21.0757 28.4458104762
34.4226 16.1778 17.7236 25.2404227416
35.8439 14.0529 19.2946 27.0559930201
26.3799 17.3651 20.0974 26.657391685
28.4341 17.432 18.1738 29.1245790387
25.8144 19.2405 17.8062 29.3364331141
30.3038 16.7853 20.723 28.364519797
32.7814 17.5682 19.7285 25.2656955897
30.7509 19.5598 18.7045 37.0849161862
35.7852 19.4359 19.9021 28.2657577044
26.0014 21.3755 19.7447 29.022813844
24.9214 23.3695 18.0928 28.5191331691
30.7052 21.9632 20.2714 29.1724058618
30.3961 23.2549 17.7992 31.6033325749
35.2666 20.9333 17.467 30.8163184587
35.7578 23.5891 21.1652 28.7990635457
25.1926 15.36 21.6707 26.9108313606
27.3795 14.4234 22.8296 29.5417815584
29.8765 13.8509 21.4084 28.5060330434
30.3724 13.2614 24.5351 87.171815306
28.8906 15.7516 24.5779 102.4723999843
33.1707 13.9236 24.2978 73.7290915995
28.0144 18.7545 21.6736 28.6079370432
27.2068 18.2224 24.2706 70.6466437378
30.7663 17.538 23.4459 37.1005683278
29.763 20.1179 24.154 62.3871506503
33.7068 19.0693 21.8904 28.5771989446
33.5166 16.6091 23.6279 40.0126167581
35.8755 17.724 24.436 78.891658564
34.5591 20.3167 24.6013 90.5063756684
28.3283 21.8585 21.7082 28.5248372508
28.3228 22.6566 24.4578 81.3158978152
25.6933 22.4009 23.9843 43.7852187656
32.1019 21.9613 24.5729 88.6038929518
32.6964 21.8745 21.8793 29.5492557631
36.4424 21.7933 23.1998 27.1546853143
26.6576 13.9389 35.7319 63.601796939
27.2755 12.7395 38.2004 29.4606989863
28.8654 15.6366 35.4447 83.298271242
32.6829 16.1978 35.8545 62.7622616076
31.6617 13.7928 38.4766 30.0795321347
31.1637 13.6908 35.6826 68.413608087
33.8669 12.4771 35.7159 55.5522251849
35.2987 15.9371 36.6621 29.9508450274
36.6148 13.3499 38.3866 28.2274719018
36.4299 13.4468 35.6633 74.2904542159
26.0292 16.7821 38.2553 29.4978156348
24.7795 18.8316 35.8827 74.720217366
27.5271 17.9495 36.0849 40.9833853834
30.6247 18.6174 35.4551 85.0490463476
29.1987 19.8566 38.2417 27.6532679723
30.329 16.821 38.2584 26.7418302262
36.5383 17.4331 38.618 24.5762492389
35.1991 18.6779 35.5421 85.2713974759
33.1731 18.3468 37.9694 27.3723470669
27.8911 20.8235 35.5943 80.898263573
28.3361 22.7159 38.2938 33.035030033
25.4587 22.8614 35.8627 84.5065270947
28.9228 23.7291 35.5767 88.2310390334
31.6529 23.8021 36.0324 40.8473081625
32.5495 20.992 35.625 66.5821732357
31.7717 21.0351 38.0643 27.6557501888
30.9301 23.9146 38.6814 26.1703492553
36.0654 24.4222 35.6772 57.6839573239
35.4104 21.7494 35.3558 85.9673308642
35.897 22.4359 38.1937 31.7878548928
28.0831 15.1697 38.9151 26.1850748334
27.0265 14.7396 42.0078 31.7948778471
29.8986 14.046 40.822 27.28020712
31.7685 14.8162 42.6204 29.7707840915
33.7833 12.4005 41.3845 33.2045585079
36.6229 12.4239 42.7236 34.0219655193
34.3973 14.6589 39.4004 25.7465526103
28.3142 18.9788 42.3447 30.9655044362
26.9083 18.9541 39.8004 33.5286741215
31.0023 17.6724 40.8365 29.2737923438
29.2884 16.4557 42.9164 28.24782493
33.7924 16.4413 41.3041 28.9330442277
34.5399 18.8768 40.1836 26.9645128073
32.8507 19.5124 42.8621 30.4899018156
25.5435 23.437 41.3209 31.9270429268
25.0628 20.8198 40.6637 33.5430674585
28.2429 24.2319 40.6985 30.5184554408
30.3907 20.8642 42.2402 31.8152738055
30.8802 23.6511 41.7798 28.5008136932
34.8105 21.5097 41.9507 28.5325388164
33.5799 22.6011 39.8143 27.8308195898
25.7022 14.0111 45.1034 31.0098866606
28.0011 15.4388 45.2536 26.5089653342
30.0512 13.2916 45.4438 30.3071186144
32.678 12.5357 44.4397 29.3266775995
34.9005 14.1681 45.294 29.8143595868
27.209 17.504 46.8575 29.0829007044
27.2361 19.8361 44.8081 30.7996645583
30.6891 16.7696 46.354 33.2284387832
34.696 18.4185 44.7962 30.6634406677
33.4273 16.3878 46.1657 30.1929320088
25.9217 22.2046 44.0789 31.0477625605
27.8146 23.6162 45.6144 30.0628059724
31.4222 23.767 44.9732 29.7612956388
32.2798 20.7784 45.8077 29.6166218058
29.6465 21.0918 44.9248 28.9412453488
34.6313 23.854 43.7 28.9850686259
35.78 20.9379 45.8385 32.002619762
33.9417 23.0747 46.2615 23.6674198382
28.0218 14.2244 48.8014 31.6644160391
25.2325 16.2411 51.7333 36.1118570279
27.4489 12.8072 50.8771 29.8095490046
25.7677 16.2339 48.9163 29.252675458
32.363 15.5058 51.4277 32.8349080531
30.7233 14.0836 47.9595 29.944997477
29.9606 16.154 50.3851 31.5737864786
32.9236 12.9388 49.4593 29.1859134588
35.8117 15.2144 47.977 30.6203001089
36.8438 14.8124 51.0174 32.4904745073
28.1983 20.2155 50.2873 34.4465925389
25.5339 20.0501 50.4111 29.6885332563
29.6853 18.1105 48.5145 29.9685700243
31.5635 20.3441 48.6026 30.689429065
32.7325 20.258 51.409 28.4482118025
34.6601 17.5994 48.5325 33.3984564706
33.7415 17.8055 51.337 31.2394982603
28.1171 22.8427 49.7105 31.2213616055
25.9853 23.1294 48.0687 31.1505990568
29.9676 22.5837 47.7757 27.536773306
31.8678 24.1175 48.4003 26.9561741593
36.463 21.6244 48.6687 35.0398410301
33.5617 22.3437 49.8634 30.5137649106
28.2767 12.4272 55.8972 26.4947704965
28.6401 15.9312 55.0438 32.6587398902
27.9441 15.4205 52.2799 31.918301241
31.7518 13.6228 53.7898 29.6201509882
29.067 13.2128 53.6404 27.5932429574
36.7862 14.247 55.9265 29.3665773026
29.867 18.3648 54.5277 33.3811887999
32.041 16.5387 54.6774 28.8582246275
30.1222 20.0678 52.4308 32.6169620627
34.9105 20.2507 55.361 27.1468618543
36.6513 16.4367 53.2727 29.7857421562
34.5411 17.8192 54.2799 28.6201123961
25.2642 22.3817 54.7538 29.1264432695
27.9187 22.1729 55.7089 32.1834481246
24.9627 22.2613 52.1094 29.8104283859
31.7986 22.2155 55.3545 29.643885712
29.75 22.4618 53.7359 31.7592928647
35.9095 23.7101 54.3346 31.3826882002
33.6769 21.7922 53.5298 33.8436567188
25.7697 27.6117 4.73135 31.2835333446
26.3836 26.855 7.93424 34.283782872
31.2565 26.7017 6.56565 29.6343729833
29.744 26.2736 3.91199 30.9058203663
33.6676 24.8021 5.88505 31.4251715126
36.8785 25.925 7.16298 28.6803819419
34.0301 27.5542 6.94149 29.8156227968
24.8203 32.211 6.25342 27.8013264146
27.1976 31.4243 7.32082 31.0328021022
28.4143 28.9753 4.30136 31.0585257565
25.2189 30.4657 3.88364 30.6136192558
31.9216 29.733 6.5952 35.4901474953
32.6457 32.1943 5.29367 29.5558458718
28.9022 29.0007 7.24082 30.629334934
36.5523 32.1927 6.05369 27.7012468402
35.97 28.6303 5.08383 29.4433884749
24.7282 34.5237 4.09544 30.0566060899
26.6949 35.6056 7.46074 29.0845104695
28.6504 33.6422 7.9222 29.9330099257
26.554 36.5173 4.70957 25.7155556782
32.416 35.5153 4.02803 27.3431271563
30.3763 34.3738 5.69691 28.4872158306
34.9133 34.7123 5.11377 30.7335098465
33.1788 33.5415 7.60844 25.6692350184
24.8345 28.158 10.3598 32.4838421301
27.1384 27.7169 11.8702 29.6893216788
27.9785 25.3294 9.7709 31.6987019251
30.8018 26.3097 9.44034 30.4358786456
29.1194 28.5302 9.99907 26.1713517029
32.8669 26.2317 11.1312 27.8550291349
35.6701 24.5416 11.5606 27.4617771252
34.4963 28.545 11.5562 27.2576192832
26.5553 30.6199 9.78575 30.5705820769
31.6459 29.2502 11.0747 28.1389874018
32.5711 30.9356 8.992 29.6697378365
29.4397 31.5546 11.0623 29.8904649864
35.4338 28.9992 9.14574 29.8682677678
35.2177 31.3796 12.3646 32.3098756618
35.5088 32.0715 8.49983 29.0799493462
28.6314 35.4545 12.2447 29.2962743572
26.9296 33.2167 11.5766 32.0437479337
31.6384 35.0896 11.9995 30.2658153554
29.2619 36.2937 9.66681 28.4771552191
31.0852 33.4267 9.72203 29.2726678734
36.1021 33.6012 10.9051 27.8374123499
33.7676 36.0431 8.70688 30.4877892341
34.7128 35.5182 11.2204 26.6585854264
26.8969 25.6318 15.7741 28.1475708996
28.2792 25.6826 13.4337 30.6579565668
30.9844 25.8815 14.5036 29.0848487981
28.7429 27.9897 16.1207 33.1706910577
36.3847 26.6782 12.6537 30.4159417932
25.2151 30.0289 16.229 32.0851602367
27.6327 29.5153 13.9933 31.5717772781
26.3841 32.3968 14.3566 32.2018257494
29.8429 31.0226 13.9176 28.8264976867
31.5021 28.7037 13.8911 31.4448505225
35.5668 29.9563 14.82 29.8287456984
33.2559 29.5374 16.0344 31.9756029641
28.1335 32.7607 16.6299 31.9461378456
25.6895 35.8902 15.8338 29.0632473553
31.4515 32.8381 15.0122 26.5484655776
29.7123 34.741 14.7801 29.5728771378
35.0387 35.4582 16.1358 27.965950048
33.6588 33.5996 14.0819 30.4549835444
36.3991 32.6805 15.3684 29.8004310047
34.8035 36.6192 13.733 27.9095521065
25.4957 25.9591 20.7797 25.1976818949
25.0856 26.1665 18.1924 26.9685922567
26.9189 28.3246 18.302 30.9494663376
30.7628 26.0941 17.3289 31.4776398479
30.3604 25.3542 20.1433 29.5644441779
33.1195 27.0058 19.9151 27.8640755899
35.9715 26.973 18.8497 29.2961555756
33.5222 26.8566 16.9109 31.9545519047
25.0044 31.0787 18.9571 31.1645342015
28.2438 29.6243 20.3612 29.8160433808
29.3828 32.0606 19.1645 32.8325743503
35.5534 31.7611 20.1372 28.1508665529
33.5819 30.4247 18.7766 32.1069003441
36.9042 29.5923 21.0397 26.153081086
28.3182 35.5324 20.9489 25.8519132678
27.2152 34.9488 18.0607 29.2338150226
31.9956 32.7117 17.87 33.5555937431
32.7142 35.4237 17.7539 30.3276028038
36.4764 35.5193 19.455 29.4825548629
33.6563 35.8655 20.1693 26.3604349131
26.7217 25.7556 24.2537 62.1251293721
27.9278 24.9214 21.7392 29.1082328325
26.0465 28.2752 21.74 26.1012647873
26.9321 28.4767 24.4126 72.6807974937
32.8108 24.8622 24.0229 56.0360969871
29.8348 25.0721 24.0906 56.8310729784
29.7259 28.2731 24.4146 87.2681687604
29.7632 27.8632 21.6303 29.2684375166
33.0235 24.6261 21.286 29.6928293365
34.5765 28.2923 21.8346 25.0290847306
36.8153 26.9417 24.3996 77.5176263621
34.0525 27.3156 24.3115 73.2346504271
36.7714 26.1408 21.6451 27.6444258598
26.5734 31.4675 24.4758 70.6373219192
25.7422 31.6908 21.6789 25.2914768595
31.8929 29.7554 21.2804 29.6862754448
32.2896 29.7778 24.2634 63.0336754178
31.3259 32.5918 21.6104 26.9615011973
31.2235 32.5385 24.2936 69.3879493202
34.7044 31.4907 24.0984 60.9440200918
36.8538 30.0612 23.8379 47.5354128975
28.0524 36.4374 24.099 59.553296485
28.3493 33.5128 24.3769 76.961113654
28.3212 32.877 21.67 25.9923045244
25.251 34.6332 21.7277 31.2350361521
32.147 35.3984 24.4258 71.8798745416
31.0493 35.7683 21.5141 29.5188653017
34.1669 33.6321 21.6639 29.386119357
34.8331 34.2273 24.4263 76.7214480558
25.4908 25.5312 36.2718 58.6019592598
27.0181 27.5766 37.9765 31.1532637657
31.466 27.6295 36.3841 39.8257532854
28.73 26.6884 35.9968 70.3768249144
36.6348 27.664 35.956 57.3977936457
34.3687 27.0424 37.8746 27.1767990531
33.674 25.5255 35.3531 98.0301963101
26.5708 31.2205 35.6775 86.9482935819
26.3126 30.3496 38.3891 27.1695970335
28.7963 29.7001 35.8669 77.8207639094
32.2874 30.3143 37.0063 28.4131854271
29.7394 30.7181 38.5758 26.3357999002
34.2717 29.2149 35.4612 97.4606571429
35.6542 31.683 35.8702 68.4961664784
35.6969 31.7506 38.6196 29.2368524354
26.5799 33.8684 36.1706 44.2358882362
25.0166 36.0628 35.541 108.4340101479
29.7058 33.2899 38.5021 25.5496038757
31.3264 32.8766 35.5876 98.3749146885
29.248 34.7152 36.2127 56.1753275026
32.5001 36.4597 35.6067 82.5317926208
33.9549 33.8892 35.8022 74.6281855231
28.6703 26.7694 40.0149 28.6498664399
26.9189 27.2505 42.9348 29.2008983677
31.5348 26.8347 39.1351 26.2723933342
35.898 25.3183 39.6695 28.6637366573
33.2117 25.3561 40.9967 26.9617612419
28.3395 31.2432 42.8095 27.3202487375
25.0591 30.8135 41.4426 28.4332762333
28.1475 29.5455 40.8162 27.0201418954
32.172 32.4174 39.931 29.4952581009
31.4921 29.3061 40.5454 29.6793845532
34.0898 29.6839 39.5451 27.9995041382
35.3615 28.6076 41.8855 31.3754084185
28.1801 33.7555 40.7168 31.87002225
26.0522 33.6553 38.8586 27.7609181961
26.1831 35.636 42.153 27.2408837266
25.9697 33.0204 43.0632 26.7526556269
31.0118 36.6259 42.1445 30.489351994
31.8751 35.4992 39.4119 28.5817322494
34.3538 34.0038 38.8742 27.8338809877
36.0148 33.9393 41.5045 28.7729321292
34.864 36.4423 41.2195 27.5478341757
32.9845 32.7517 42.8215 31.1088132993
24.843 25.3444 46.9281 25.5312293753
27.3585 26.5844 45.9989 31.7819884822
25.1227 25.5719 43.8782 26.4253149695
29.4466 25.8895 43.5639 28.7776606521
31.6696 28.5492 47.3877 31.3244165986
30.9594 27.9128 43.2941 33.1042862083
32.9709 26.445 46.5996 31.7459126849
35.9206 27.2223 45.7402 28.9081661133
33.8076 26.7 43.3827 29.3079035585
27.0216 29.6103 44.3718 28.9053214887
24.9189 30.4719 46.8246 30.5585153695
29.6756 29.1508 45.5654 29.1359616036
30.646 31.7979 44.4586 31.7478419312
33.3856 32.2334 45.9925 30.8022433559
35.455 31.2071 43.3513 35.8669503843
26.6704 33.1886 46.0004 30.1209709056
25.5499 35.2518 47.3341 31.0151837893
28.6195 36.0152 43.7652 35.5618272353
32.2531 34.9649 46.2497 33.0387186004
29.5327 33.8646 45.6633 29.0308043894
35.8577 35.5728 44.6007 26.9001629953
35.8682 32.984 46.4089 28.0186257656
33.1449 35.4248 43.2647 24.8828213297
25.4172 28.4628 49.3254 30.2329926461
24.8003 25.8088 49.8807 30.4948914628
30.5889 25.3899 50.3689 32.0895484173
29.8088 27.9941 49.5534 39.4022842507
35.583 24.7997 47.7672 27.5115809399
33.1841 26.3988 51.602 32.4689893184
35.1543 24.5507 50.4116 27.7405969816
35.5429 27.641 49.9731 30.5897293703
27.0798 31.5565 48.4015 31.0747464142
27.6737 28.598 47.8502 27.5603140409
25.592 30.3079 51.362 35.7224103305
31.924 32.2981 49.8498 30.4174058548
32.1048 29.2005 50.7748 29.7746941946
35.7711 29.11 47.7769 26.5044823081
33.62 30.3511 48.0684 26.423915785
34.5015 32.1814 50.7651 26.4376731483
25.7477 35.0045 50.6629 29.1441734255
27.4405 32.8355 51.1068 29.6273461145
28.4461 35.8297 49.2513 33.234968034
32.1185 35.0594 51.0589 28.7456040028
29.3799 33.3458 48.3728 31.3651906762
33.3112 36.3646 48.6959 34.1384009806
36.5353 32.8797 49.1278 29.4315194126
35.9054 35.5304 49.2282 30.4163928287
26.2014 24.6737 51.9765 31.2945574171
25.4076 25.0196 56.0527 31.5362210977
29.0529 24.9537 52.5071 31.1926123841
28.9332 27.1886 53.9984 33.2616633752
32.3563 24.9656 56.0591 31.7984475385
36.6358 26.7251 55.8239 27.0811575893
34.3069 26.0487 54.3235 27.1798641129
26.7263 31.9985 54.1779 28.7959557795
28.6688 31.8101 55.9492 30.3469402612
26.3858 28.7313 54.0399 34.1032392677
30.4867 31.1724 54.1401 29.2288703049
31.5011 28.8269 53.7794 32.9570088164
34.8922 29.6515 51.9524 26.0350409645
32.8309 32.6731 54.9446 29.126505082
34.1736 28.8307 54.4112 29.6932012601
35.0961 30.8956 56.2806 28.7359310452
28.5207 34.6543 56.143 27.6586801674
25.8325 34.4475 54.0284 26.9803267189
30.8112 34.6393 54.2963 25.7236367652
30.0731 32.7027 52.0288 31.0460379746
36.556 34.8826 53.9278 30.0315002001
34.0668 33.9703 52.7465 28.2113735881
25.6599 40.4949 4.9125 29.5727768095
28.2155 38.2579 6.15318 28.2577905144
32.3652 38.6092 4.8219 26.8386790751
31.0922 40.7042 6.80178 31.0660824159
30.6287 37.1679 6.40307 27.4177191288
34.3182 39.7499 6.43483 34.48902954
35.7471 39.9464 3.98683 26.9907806663
35.3976 37.2014 6.66908 29.3730295333
28.5232 40.8858 5.16685 25.6914117765
28.0227 43.3918 6.64101 30.963830188
25.6189 43.2349 4.82158 27.8123721638
31.1119 43.526 6.2995 29.3661746306
36.0891 44.3593 7.13501 33.9401530844
33.366 44.7843 7.91945 34.9613506398
26.2971 45.8774 5.27402 26.5942611291
27.1902 46.4124 7.97972 30.3544335204
24.6668 48.8569 6.46922 28.5343145987
29.9183 48.5031 7.91211 28.8027986117
30.3207 46.5245 5.60692 27.9688745662
30.8614 48.5269 3.99174 28.9073362566
32.9466 48.7373 7.27708 28.8834693066
32.9785 46.0553 5.29835 26.9999857821
35.7928 45.1076 4.64497 29.0547343843
25.6906 40.739 9.59166 29.01138214
26.9223 38.1868 8.91799 33.1044910737
26.6634 39.8949 12.2264 28.6480422751
31.0953 40.7441 9.54522 29.2295463512
31.4891 37.7373 9.03043 27.0476761744
31.7938 38.1582 11.8729 29.925572601
29.4401 39.8908 11.3901 32.7502425527
33.5786 40.3334 10.7251 34.1281189806
36.387 39.6106 9.86401 32.9189031595
26.6892 43.3432 9.1889 35.3939444132
31.2198 43.699 9.87133 33.6771391652
33.039 44.6738 11.6649 28.5014204246
34.5282 42.549 12.4636 29.6292073743
25.2319 45.5412 11.908 27.7325902876
27.0252 48.6099 11.6309 30.3863200528
30.3124 47.6756 10.6285 29.2106193687
28.7299 45.2674 10.4076 29.3840305909
35.5853 46.801 10.9713 31.3590864652
33.1399 47.1858 9.86561 27.8322429549
27.1204 37.2781 13.747 32.3517211953
25.9635 40.4168 16.3993 28.6478659578
28.6927 38.9627 15.3503 29.2241133592
32.385 39.1369 16.2927 29.879772458
30.4597 40.3579 13.8831 32.1049348811
30.6625 36.8655 16.4445 28.5525263505
34.0641 39.2445 13.8523 31.8979819876
28.2031 44.7537 16.5347 29.8275923435
27.8934 44.8806 13.1408 30.4515556364
26.6094 42.1679 14.1213 32.8609043515
30.7088 44.9255 13.2142 28.3171158215
31.7117 42.9997 14.7707 29.8859466504
36.3633 41.5538 16.484 32.4521133474
34.4318 43.385 15.4436 27.8166096082
26.986 47.5764 14.1675 27.1348219329
31.4484 47.037 14.9277 31.5756382986
35.7669 45.0707 13.6276 28.100765617
34.1775 47.2707 14.8665 30.5762808414
25.3535 38.6816 19.2002 27.6031632213
28.0594 39.5001 18.329 29.772661537
30.8446 40.5134 17.9535 31.3117449652
29.0601 36.9402 18.4708 30.0580914676
34.9224 40.5289 20.4755 27.7476613458
34.7494 39.6862 17.9509 32.2316677261
25.4592 43.3053 19.8941 33.9443791544
26.0854 43.3206 17.2643 27.9633972635
32.0935 41.3134 20.35 31.2473785906
31.3867 43.9602 21.098 26.2811969289
30.3244 43.2695 17.0672 31.8545332122
36.2576 44.3626 20.0353 29.2133470622
34.0525 44.3783 17.8913 30.1278376446
27.929 46.4533 18.7049 34.0646074499
27.0335 48.729 20.2354 30.9061684419
31.606 45.1305 18.5638 27.056845347
29.0571 45.4602 21.108 30.9486368436
30.4194 47.3123 17.6186 27.7867737874
33.8924 45.2474 21.2015 28.8457776975
35.4291 46.8478 17.4218 30.4980361605
36.8535 48.9397 18.8275 31.9965650238
25.4402 38.2083 24.3454 73.7477895709
26.3783 37.734 21.6468 29.9458016693
28.143 39.7697 24.3599 83.3612831762
28.4171 39.9372 21.5465 30.1997163843
30.6611 37.9567 24.2771 66.8644051172
31.2573 38.8535 21.7226 27.6399725781
32.3314 40.5099 23.8989 53.6951420171
34.0376 38.081 21.4843 28.5233376557
34.1001 37.8634 24.3403 68.2157290344
36.692 39.2018 24.2222 62.5346406904
27.8458 42.6379 21.7278 30.7927548053
26.5696 42.2761 24.1187 82.9523459641
30.3542 42.5543 23.525 38.4841403469
36.3412 42.4568 22.074 27.0387562451
34.8926 41.5764 24.4011 92.5684340926
34.1587 44.5068 23.8525 50.1020294656
25.2063 48.4031 24.1617 52.5536511301
27.8137 47.8514 24.54 89.5365869794
28.038 45.0712 24.014 65.162186254
30.9333 47.8439 24.0387 45.7942835158
31.2925 45.0062 24.4338 102.477623277
30.8575 48.0774 21.318 30.7788097188
33.884 48.0737 21.8474 31.4637593018
36.0985 47.3183 24.0736 57.5467039932
33.5607 48.9874 24.4109 94.0398536031
26.0656 38.9708 35.708 77.5949217113
25.9267 40.1376 38.3904 28.6802321306
28.7643 39.5601 35.6828 97.0401584855
30.0232 37.3041 36.5872 34.8192430108
34.4004 38.5292 35.4363 109.8698500189
33.0914 39.9366 38.6628 30.372016161
33.8458 37.2595 38.3056 27.8761626462
26.5935 43.7833 35.9778 95.4399949599
28.4849 41.5021 38.6543 30.2080236493
29.0083 42.2185 36.0239 58.9438027302
31.816 42.8895 35.692 93.3722959936
32.1478 43.1325 38.6064 31.0472506097
33.9949 41.1316 36.3666 34.2491102656
36.7276 44.3853 37.9746 26.6787249221
36.1389 42.6233 35.6802 92.3785152133
27.3176 46.6598 36.092 63.1337499469
25.0187 48.0814 36.1632 61.8769357952
27.9172 45.6303 38.7908 29.6801825272
30.067 47.2601 38.6113 32.0490447313
31.7453 45.9484 35.6135 78.1884917576
29.7494 48.017 35.6654 89.4513058262
32.4903 45.8329 38.4175 27.4536185848
35.0645 46.8284 38.4729 30.5250013473
34.4043 46.971 35.4913 110.7077718276
27.013 40.7269 42.8611 31.1575856891
25.8139 38.6688 41.1446 29.878313604
26.8548 36.7877 39.3723 28.7895231147
30.488 40.1773 39.8649 30.3153660579
32.3026 38.7802 42.9518 33.2763784485
29.5584 37.4955 39.3621 30.8949902136
30.1339 40.6162 42.7273 31.887624341
34.461 40.3513 41.263 30.6348845263
36.7659 37.1295 39.0013 30.9095946671
27.3959 43.3887 42.1968 28.554184521
24.8699 43.9702 41.2401 30.1452840126
29.1491 43.7951 40.2148 28.6725704739
34.0887 44.0729 42.0888 28.7070217287
35.0015 42.9298 39.7153 29.1149334724
27.5205 47.9032 42.0279 36.3080899823
25.9858 46.4845 40.3386 31.2670585352
30.2654 48.1475 41.5948 27.3925287349
31.4526 45.4398 41.5308 26.7056638225
35.5348 46.444 42.7146 29.2053643307
33.4089 47.6518 41.1949 26.0332451134
27.4237 38.3466 44.9369 28.2624846357
24.7846 37.0763 45.0293 30.8872181186
28.895 40.441 45.9188 29.3235922204
31.6246 39.6654 47.1075 33.0299951351
33.268 37.5369 45.5414 28.6753116591
35.6053 38.6412 46.2785 30.5638671137
25.7942 41.4273 45.3517 27.113518094
27.804 43.2323 45.9025 27.671532308
31.6317 42.8396 43.7083 33.0814534208
32.1485 42.5536 46.3448 30.6645615681
30.2261 44.5445 47.2195 27.5842944152
35.2813 42.9732 46.2683 31.6069019868
35.5467 42.2089 43.5698 30.273556754
26.1483 46.1005 46.3352 31.6025734203
27.9923 45.6975 43.8505 32.849898094
26.3777 48.7121 46.9759 30.3080117243
31.6062 48.5525 44.1519 29.6369033623
30.7169 45.7413 44.2952 29.1409308448
31.7751 46.9833 46.895 30.1666202935
35.8405 46.183 45.7226 30.3296269114
36.3508 48.8566 44.7157 26.6868849826
27.0979 37.6899 47.6185 31.6522300687
31.3738 38.8583 49.6812 28.7619330282
28.7894 39.8252 48.7806 30.3343221823
30.1496 37.047 51.4067 26.9105060462
36.4404 39.6302 50.5426 28.4345116822
36.3397 37.115 51.3723 29.209701637
34.3964 40.5677 48.4198 28.8209255041
26.486 43.3604 48.2826 28.7298977576
26.7583 41.2069 49.9682 29.7910378801
30.091 43.8654 49.9115 32.9256883953
32.4677 43.7723 51.4975 30.9036184509
33.1259 40.866 50.924 28.9086126924
33.4146 43.7743 48.8417 31.4781111263
36.5389 42.2419 51.9171 28.4759995746
26.8782 48.1874 50.7289 29.5837760113
27.4798 46.0434 48.8084 28.8649277479
24.6727 48.9694 49.1955 31.4128199873
29.9431 47.3296 49.2657 25.8553749118
31.8202 47.5124 51.1679 29.6498899787
34.3313 46.1927 47.8718 28.9277420068
34.3419 47.6158 50.2916 29.0406959008
25.8466 37.2059 52.3426 29.4007737189
25.8529 37.8677 55.013 27.1017663397
27.1653 40.3436 54.5249 25.694809071
27.9763 39.1884 52.0126 27.6123251383
28.5632 36.8882 54.2848 26.7653685633
30.9976 40.2143 52.6881 27.7006830418
32.7601 40.5752 55.2081 27.7902715493
29.615 39.2416 55.567 27.2807910537
31.6354 37.3992 54.0062 24.9641843694
34.2301 37.0891 53.9492 26.4926760327
36.085 37.0935 56.0408 26.0713172669
34.6882 39.6186 53.3372 27.3474490668
24.9988 41.3158 52.4483 29.2213031575
26.2167 43.5164 54.7488 29.8639389349
29.1903 42.8156 55.6283 24.9954009223
32.0097 43.2922 56.0399 30.9492269002
29.321 42.5953 52.8033 33.3824228143
34.8826 42.8937 55.3467 30.0662342582
34.75 44.3693 53.035 30.5328422238
26.9769 46.4532 54.0625 31.4683222182
24.6396 47.3624 52.1274 31.9075719895
26.0131 48.3183 56.2637 26.6784418501
28.7803 45.988 52.0653 30.6104111819
30.6527 46.6071 54.1517 32.150321485
28.8133 45.326 56.1543 25.6583663363
33.2688 46.1276 55.0112 27.6769553778
36.7954 46.4379 52.0362 30.4676336138
34.7444 48.4609 55.1765 29.0738120441
40.0798 3.80205 4.51774 33.9843976523
38.8761 1.60865 7.63557 34.4478243427
44.8187 3.51548 6.20098 34.2227136339
46.8659 1.91351 4.97865 32.3364523593
48.0005 0.688505 6.87746 30.234828501
48.9637 3.64138 4.63623 27.0066748892
39.4593 4.32183 7.03112 30.3838970974
39.796 7.51248 6.12292 29.9337460284
43.499 6.87815 3.87787 33.7011723578
42.9315 4.17739 4.23541 33.8923655971
43.7831 7.24783 8.11043 28.0087476265
46.028 6.24312 6.73205 27.5642321698
46.4181 7.07121 4.19524 34.1408368993
48.6174 4.94585 7.53568 33.6650746692
39.2874 9.2817 3.94722 28.5570968748
37.527 10.2635 6.6139 31.6354776971
40.9857 11.6712 4.07032 29.9708968199
43.8389 10.7018 5.06036 26.5686186675
42.3315 8.3904 5.95834 29.5539290801
43.5612 11.9308 7.24848 31.7429558207
47.5891 8.47844 7.55946 29.7528297485
47.8366 11.6334 6.85597 26.6358479799
46.3945 9.93692 5.10546 28.5420431922
43.7599 1.13337 9.80024 28.4852123111
43.819 3.78867 8.79993 29.9007846266
44.2734 0.699366 12.4946 27.3193432828
41.025 1.50091 9.81308 31.1521282318
46.7054 1.93605 11.9335 28.757424901
48.0545 2.72847 9.22106 30.8858249689
37.9806 4.40352 11.1949 32.7891665854
40.8683 4.22248 11.281 27.9780470755
41.0451 7.9699 9.85603 28.0787890664
41.5274 5.43257 8.71133 28.5849057091
44.7225 7.37614 10.821 27.3598979759
47.5052 7.14559 11.0412 32.5699404893
45.798 4.32258 10.7622 31.4622844955
38.4805 8.54654 8.56807 29.0867441631
38.48 10.1796 10.9155 29.6791231299
41.0353 11.4554 10.9699 32.1748966318
42.8438 10.1082 9.37138 30.1921428172
47.7688 10.0232 10.132 30.7486526467
45.2849 10.3359 10.944 31.2654476492
38.017 0.427463 16.1247 31.3406461193
39.2067 2.86799 15.6854 30.6599358563
40.3801 1.48112 12.8474 31.2744491014
41.9184 3.23486 16.1681 28.960973807
43.6084 0.651112 15.2928 28.7111482461
42.8908 3.10958 13.4068 29.3405779378
49.0406 2.84 13.4116 28.8649097703
45.7068 2.45337 16.0819 34.0287766209
37.2506 4.26877 13.9827 30.2523040095
40.867 7.59196 15.4412 29.1613211319
38.5289 6.91001 16.4874 29.5526698254
44.8444 7.28246 14.4276 27.7237330339
41.023 6.93961 12.5183 31.4592851736
43.5237 5.78547 12.729 27.4433505758
47.5248 4.42325 15.0089 30.1693407491
47.3908 6.92271 13.8635 31.7481147706
39.7649 10.6676 14.7525 29.3735688283
38.553 8.64101 12.9672 27.6741478454
44.5515 9.71363 13.6947 29.6816141882
41.9129 10.0618 16.6286 32.8081482789
42.1411 11.4143 13.4122 30.9981585065
46.4654 11.1372 15.3705 30.7518891583
48.8556 9.77594 16.0122 33.0228582402
46.765 12.2291 12.7116 29.2789240146
37.1134 3.32718 20.6777 29.6097716378
40.4461 0.228799 19.7837 28.9398349718
42.1162 2.14055 18.8204 30.3286456415
43.8041 0.438039 20.0967 33.8418967325
47.7392 2.56152 19.5607 29.8521253452
47.5477 0.475188 17.2501 33.9006875973
37.7713 4.39521 17.7728 32.637347962
39.18 5.36627 20.1447 28.187089295
41.9397 7.52572 19.8264 31.6226504891
44.4035 6.69995 17.2606 29.449559081
43.0245 4.72271 19.9356 26.7986522203
41.9346 5.77829 17.1967 27.8562474574
45.8228 4.53823 18.349 28.3447184865
48.6208 7.8343 18.0356 29.7911126361
48.4802 5.00872 17.5867 28.1625287131
38.9332 11.0776 20.1264 29.5519540603
37.072 8.18097 20.1802 28.5825012259
38.2506 11.1349 17.2648 31.8306172448
44.6402 10.3191 17.6037 32.014574728
46.0257 8.50124 18.9769 28.9749300964
37.7485 0.709893 24.6391 92.761887669
40.5675 1.48691 24.6883 95.9957300568
40.8012 3.63505 21.4508 29.8048643214
38.8208 1.57063 21.9703 29.5685865806
45.8428 1.69906 21.7067 28.4521334976
47.4091 2.32224 23.9627 45.9343966884
45.121 0.251681 24.5086 91.2691694905
40.9544 4.228 24.1609 76.2961114744
38.6765 5.66522 23.4697 36.494222229
39.7051 7.91885 21.4972 26.3743637032
43.9785 7.86454 21.7415 26.7110341825
43.2075 5.86194 23.7023 42.5771779279
45.3197 4.44026 21.5125 27.127166394
46.4977 6.75814 21.4227 25.8480981759
45.9722 4.66751 24.6521 125.1282365193
46.9934 7.37036 23.9741 53.6791491253
39.6466 8.61815 24.1589 67.5720844718
40.3127 11.301 23.9969 62.0927566515
41.4071 10.2837 21.5341 27.7232961707
44.2606 10.9556 21.7973 28.3403128545
42.609 8.8545 24.4491 88.4718675537
44.3231 10.9149 24.5346 89.1659853495
49.0893 12.1322 24.4366 99.7524932202
47.194 10.5209 21.394 33.7212707665
47.0139 10.4009 24.0742 53.3820790132
39.9772 2.93978 36.2384 40.7719827936
37.427 1.21856 36.0374 70.8407737568
44.5015 2.39445 36.6211 36.3264244694
42.1609 1.2208 35.4617 113.510291706
46.8008 1.63739 35.4378 109.8032622357
48.7557 3.58796 35.8375 59.0920194447
47.7272 1.96379 38.4305 29.2663086755
39.1644 5.59838 35.438 105.637130483
44.4661 5.0177 37.2404 31.8402113925
42.3943 5.99932 35.5726 107.7943644644
41.4201 5.79465 38.234 30.7682784841
46.305 7.08105 36.6198 37.3304202651
48.7083 6.55335 35.6417 84.6158383212
38.178 11.4927 35.5097 85.8602556402
39.2551 8.22313 36.4651 35.1324088061
37.9738 10.5971 38.6264 26.769265567
42.2472 8.89709 36.2086 46.5900401507
43.9061 9.98092 38.2745 30.9977331921
41.0476 11.4629 35.9302 63.4333143576
45.3332 9.5888 35.552 101.7924741209
48.8995 8.4994 38.4244 29.2308333862
48.164 9.99124 35.8814 65.2467801628
40.2 3.08942 39.3108 29.819617765
37.813 1.11796 42.3355 29.5530237317
38.0113 1.59014 39.0039 29.4673487287
42.2428 1.75798 40.4209 31.1135524463
44.9999 1.18469 39.5453 32.6331065792
48.0805 2.99124 41.0685 31.945197894
45.6725 2.43019 42.1961 32.5318981976
37.2435 8.07437 40.5946 31.9943412926
40.7773 7.27217 42.0292 30.9397992889
39.3995 4.96295 41.3739 31.8245591042
44.0393 6.20092 39.6794 29.9919592033
43.7363 4.38758 41.6795 31.1807895721
49.1475 7.96462 41.8771 27.7958458908
48.0917 5.4286 38.9004 33.1590426084
47.9728 5.66912 42.6762 31.8359450281
39.8306 8.17978 39.1169 27.018507559
38.4774 9.29511 42.962 28.1162394162
38.7097 11.3738 41.2915 26.5429686057
44.6255 8.49892 40.5941 27.7790524808
42.7482 9.68478 42.3348 27.0711995222
41.4566 10.2737 39.8385 25.9471295381
45.9569 11.9048 40.907 26.9530728534
47.2771 9.45829 40.5504 32.6980803381
40.9883 0.662822 44.5981 30.3626974442
39.3671 3.06043 43.4779 29.3204852658
44.3811 2.69364 46.0294 31.3587719013
41.6807 3.24617 46.1655 31.5683605382
44.0668 0.388393 47.4267 29.173988353
48.6119 0.319453 44.9317 30.9501630623
45.7739 0.771304 44.4389 31.0811676021
37.659 7.88299 47.5058 29.8774487452
37.6962 4.10002 45.2895 31.315662251
44.4515 7.14002 46.9338 30.3721846192
42.077 5.38617 43.8779 31.4080893017
41.4497 6.47927 47.08 32.8327165766
46.0849 4.91191 45.9372 29.8585740757
49.083 4.65083 45.4585 34.8709834083
45.3022 6.32146 43.4155 29.475634817
37.5775 11.5024 45.4152 29.931909587
40.2402 9.93312 45.1587 29.3664332586
45.0234 11.3549 43.7936 28.7030498604
41.8845 12.1056 44.4071 28.2265306131
42.744 8.18188 44.8587 29.1558634633
45.8562 8.91166 44.9497 30.5051104714
47.8161 11.4462 44.9119 26.3029207709
39.1176 0.7683 49.8131 32.6996503358
40.6786 3.1623 49.0155 30.69562568
37.4695 1.83917 51.7778 31.5587604537
42.9957 1.5627 49.7407 32.7909439839
44.3852 4.07992 50.1626 32.4465948278
48.1342 2.16083 48.9871 33.322390553
38.5857 4.92458 47.7015 32.4205947241
40.6903 5.16431 51.1228 28.3260432291
38.3275 6.69991 51.3097 33.4918493031
43.0518 6.42035 49.8125 29.1936601308
45.5856 8.00494 49.7076 26.7763850223
46.7504 4.44927 48.5746 29.5795625863
47.9414 6.1646 50.4342 28.2946557554
49.1393 8.01412 48.6776 30.4716518845
39.2119 9.45155 51.3117 33.3619882343
39.9856 9.1686 48.0938 30.9519699596
39.5737 11.8718 47.9698 28.1373118276
41.9887 10.6125 50.4032 33.8889624553
44.9318 10.8812 49.6288 32.0554949165
47.1206 9.27058 47.5577 28.2212403091
47.4838 12.1095 47.7431 31.3991207231
47.2457 11.4625 51.5261 29.3466398871
39.0676 2.2865 54.035 29.3352237216
37.4023 3.30466 56.1225 31.4862160532
43.4478 3.20572 54.3597 33.9287525935
43.2696 0.588518 54.4059 29.3669707571
46.8891 0.134504 52.679 30.4052638859
47.9081 2.74189 53.2113 30.8802931058
39.4437 5.7094 54.8691 28.1891572938
40.8231 4.15052 53.3682 28.7858312356
41.2576 7.81481 54.9697 33.553050476
41.801 7.93598 52.2035 31.2557030742
46.688 6.70303 53.1571 27.4588140951
45.7087 4.25969 52.7242 32.391743438
48.3868 5.51488 55.2588 30.2887901153
37.9975 10.6419 53.6629 30.5535606781
44.4486 11.3415 52.6218 30.2427589085
44.7048 8.44936 52.2222 30.9119703364
44.4005 11.9908 55.3792 29.0322669973
47.9075 9.42103 53.2572 32.2524103302
47.9039 10.9374 55.6089 29.992535786
36.9678 13.9807 6.19128 30.2490820212
37.7983 16.2112 7.76209 29.5164701168
39.5862 12.3803 6.1353 34.7290467391
41.2507 15.4409 4.84119 30.3541910978
41.6276 13.9377 7.3939 29.7208706442
46.3316 15.2777 5.58752 32.0024306371
46.0126 13.3224 7.83444 33.8932255666
48.907 13.6736 5.01232 30.5882561516
39.7961 17.5244 6.2038 32.6750012581
37.2911 18.4719 5.1418 30.6935777579
43.6721 16.4231 5.68986 30.7967521507
43.9262 19.377 5.93569 33.7353866368
