31.4603 4.67134 7.40742 30.6281419712
33.7082 4.59451 10.8551 27.8837302147
33.6433 6.79057 9.13805 27.1639680617
35.3552 4.21996 5.78881 30.2251050922
26.0736 3.80515 7.28044 31.6550194599
29.8942 11.0644 13.0151 28.2476043429
26.5415 0.642377 4.26648 30.9269275969
30.0147 6.93879 7.72268 28.4700364003
33.8962 6.40061 6.41766 30.8511816323
27.4431 6.13842 6.24185 27.9862560326
36.7863 5.81474 9.777 29.4854427063
32.6565 9.69228 1.75648 26.725076228
35.6213 12.0646 1.85519 28.5550746788
26.4435 7.8121 12.5075 29.2789059952
33.0144 11.4491 12.1594 27.3212784837
33.8703 9.46073 6.87988 26.2632845856
29.0983 7.86041 0.564449 26.0259841262
36.0051 8.5462 10.3024 28.1954250808
36.3604 9.87248 7.72444 32.1134609447
28.624 7.50801 10.0077 26.2783128455
33.5345 8.79948 12.0458 29.2924048479
36.6306 0.281948 12.8428 28.24568064
30.1629 5.92204 11.7292 29.932166087
25.0352 5.14802 9.6661 26.6247388113
31.6875 3.93249 13.873 30.7195859185
27.5901 10.0264 2.00181 26.0486220147
28.5705 3.72791 14.5536 28.7913274828
32.3163 1.50859 12.4134 29.5817821405
32.0735 0.817381 0.616516 26.0757708495
26.3881 7.44787 8.89806 26.5573805815
30.827 9.36306 15.0476 27.0315042481
34.1701 5.42878 2.31413 28.8271075726
29.7377 -0.176701 8.18607 30.8337073579
27.2593 4.16066 11.6342 27.9688510866
32.0194 7.37321 13.8485 27.9209907262
30.1997 11.3693 1.79404 29.3289992508
36.0593 8.08613 13.7178 29.3351319127
34.1737 9.95652 4.15623 27.5555344864
25.8301 1.02598 1.2741 27.7198589064
33.269 12.1263 7.05512 30.2972411328
34.6904 0.847362 11.0679 29.6526806137
31.82 8.95414 9.09807 33.4322130979
26.7316 5.23274 2.91865 29.4575513532
34.6997 4.27588 15.1199 33.3556495958
35.9862 12.301 8.52797 26.9349774599
34.6056 0.938118 1.2828 30.748357798
25.2376 10.0141 9.59104 29.3734660369
33.8469 11.8062 14.7637 28.7327930381
26.5694 11.7834 7.75944 27.8626700384
37.1498 7.58366 1.00699 30.2619127458
25.1735 2.12625 21.281 31.8535616997
36.0594 3.63205 17.3976 29.6910509827
36.4331 5.29238 23.7215 97.682466343
30.845 2.91697 16.6469 35.197496503
32.5431 2.39957 20.6471 28.2846311309
28.4785 7.85434 19.7968 26.0476625434
28.9824 1.89179 18.7823 33.8516740007
27.8644 3.79694 20.1606 29.5928232361
36.0465 2.44333 23.7409 57.138156923
31.7576 5.99043 18.4554 31.1504458564
26.1542 9.21513 19.9287 28.7514531971
36.3717 5.84629 19.0949 30.4431975677
24.6778 10.7216 24.7128 132.0130064478
29.7143 12.0119 18.677 29.7442814691
34.9125 8.73552 16.1156 27.0733987202
28.425 8.70626 15.7516 26.9884648122
32.412 0.726542 17.592 30.0669753158
31.7987 4.71356 20.7587 29.9385769028
32.5563 10.1365 16.8505 26.5404284621
27.6007 0.557714 15.9972 30.9887973445
34.1017 9.52064 20.8973 29.3272434359
26.056 1.13908 24.1688 109.4958063131
29.0276 5.87133 21.3491 30.652091744
28.525 5.21247 24.4528 118.7227641938
32.4407 3.25905 24.1087 107.7094701157
35.9382 8.51683 18.6335 30.184384222
34.2708 1.14714 23.3416 37.3505928622
29.1011 6.62779 17.4087 30.0911551913
27.5308 10.4974 17.7328 30.4528860811
25.9917 6.71642 24.0885 101.370361521
33.7336 5.62283 22.942 33.9413082973
30.9059 6.2216 24.1236 93.8671285161
30.17 0.290565 20.5734 25.4733415748
35.5408 3.46974 20.6774 29.9400642814
35.0615 8.18135 23.2696 52.823508238
30.2926 9.76395 20.468 28.2002321421
26.2385 9.3794 23.0107 33.9727471591
30.815 1.43893 22.9612 27.5492859467
28.5472 10.7062 23.9795 94.4277154574
30.7631 9.11909 23.208 35.9194601152
34.817 1.10113 18.5131 28.1813099653
32.3046 8.63974 18.923 28.2968770709
33.0931 10.2608 24.011 106.7363118899
26.5872 5.31336 18.0074 26.2452477778
28.0308 2.7001 23.1389 35.0686979949
24.5914 3.59108 19.0925 32.0066028761
33.2685 6.60678 16.0087 28.3484671732
25.0628 12.0667 16.84 28.8733588897
31.9422 12.1071 21.414 28.6269472974
25.0943 7.44007 18.4175 31.3279111526
35.1667 11.8911 20.9295 30.1298564299
26.1099 4.41451 15.546 27.305444333
25.2362 1.80357 15.7872 29.4751067394
26.2747 2.70464 37.4291 27.6677655607
28.3294 1.71783 35.7695 114.7102308089
25.1693 2.15974 40.0696 29.1619914424
35.709 5.57148 36.5508 66.9448301876
28.5272 6.42744 37.1048 45.9379702766
29.9461 1.02672 41.2966 30.6545454196
31.2217 5.9631 37.0706 49.6731921145
29.0551 11.2179 44.1446 35.391792097
33.2 4.28891 36.4803 80.2092727546
35.3092 8.85609 35.9742 118.5539371322
28.2685 3.38327 41.7098 30.4604651307
25.8688 4.93136 35.8318 126.6055105543
28.2027 7.97137 39.9903 28.2709627813
25.0845 0.525037 35.929 96.5126541816
30.3173 10.1816 36.3548 99.1758528869
31.1394 11.034 40.4655 27.1779223225
32.376 8.51111 36.7436 54.7921485031
33.3413 3.2136 39.1792 31.7283360133
30.7435 6.47158 39.8298 29.1962402371
25.2244 10.1134 35.8611 110.8645476358
30.5071 2.23754 37.9315 31.5940400111
27.6735 9.03087 36.8317 44.4748270129
28.756 10.7104 39.1228 31.3844790715
34.4123 0.762562 40.8332 29.3927887056
36.669 1.37883 42.0781 29.6200696672
25.5331 3.947 42.3714 31.0096000625
25.5395 8.01417 40.2655 29.0408921697
32.7144 8.28211 44.4412 32.9995401463
29.7479 4.97971 43.2749 29.8133249794
31.0002 9.0887 42.4047 29.6952243509
25.0577 10.4696 41.0768 28.3550392039
32.0621 4.78962 42.0792 30.9559872071
35.8186 1.19706 36.0232 83.9823103173
32.2288 1.93189 42.4468 31.5248949642
34.7195 10.7421 41.5877 31.847719593
35.5122 11.7615 36.8294 32.6953615519
35.1926 4.98424 40.0429 32.0355403931
28.6509 7.46545 42.6888 32.1396517614
36.3852 11.5479 39.3798 31.8070943232
28.4716 3.90531 39.027 32.242062219
35.9791 -0.0184507 44.5175 31.2716834042
34.1734 5.89415 43.8752 31.761616365
33.3957 1.49449 36.2241 63.9913599695
32.3067 8.7546 39.5072 29.2400273374
25.8876 10.9586 43.6769 31.3228118627
26.3286 12.018 39.3614 30.2732383225
34.9814 7.91611 40.3346 34.7304404967
35.4799 9.62411 44.7288 30.6422367521
36.5007 6.11011 42.8796 29.0557050733
26.5543 0.929675 53.0939 31.0660302801
32.6627 9.13842 56.2522 26.2205699481
31.7308 7.95948 58.3977 27.2662173986
31.6487 1.70191 48.7261 28.3194835505
31.3483 5.44271 47.5483 31.6749924184
33.856 6.24132 50.7619 27.2628484195
34.1397 1.78101 48.6469 25.9573379149
32.5593 1.5272 45.1285 32.0712177473
25.9993 6.29041 56.99 27.0803241892
34.2391 11.3511 55.6944 26.5507268164
26.3187 5.53191 48.8278 30.2734017361
25.3112 1.93906 55.7895 28.3493238398
30.6858 3.37413 50.607 32.7336334139
32.246 8.33231 47.0681 29.6631928833
36.0815 6.45688 47.6602 31.1314220319
34.2768 8.59395 48.6343 28.6334805018
33.9009 4.92868 46.5345 30.4329053118
28.3608 1.05826 58.9701 28.1235259209
27.1159 9.13173 46.8141 26.1144468301
29.9667 9.88299 46.5409 34.6552894622
31.1722 5.91108 49.9589 28.3022240077
35.3574 10.444 47.2601 28.5627894412
36.7647 5.43928 54.1692 31.0833902972
31.4753 11.6639 50.7426 31.6087575671
28.1839 1.56409 56.3003 34.293337942
25.6445 9.8301 53.7506 30.7556322033
34.8334 3.64668 50.4735 28.3962742995
27.8747 1.05937 49.5875 33.0974327015
35.0139 2.2006 46.393 27.2581566624
25.2558 8.5154 58.4243 31.4515342937
30.5403 11.1842 57.4354 30.3226488971
28.8 6.48066 53.513 29.6066525678
27.6099 3.93655 50.6638 34.0567236517
32.7777 1.9534 52.5512 27.6676675856
33.1913 5.64561 53.8984 30.3221615549
33.1611 8.30242 52.7059 30.4362067765
34.8786 3.38504 53.5345 28.1532347145
27.3247 7.91542 49.1077 29.906325066
26.0827 7.31304 54.1418 31.1251993308
25.6791 3.31403 44.952 25.5954581821
29.122 7.31624 50.897 29.5884425355
29.6568 9.94707 52.0682 34.8487780533
30.7245 8.41138 54.2284 29.9170409743
34.0306 10.7 50.7664 28.8333802851
35.8757 9.56461 52.9669 28.4946153459
29.591 4.02196 45.9519 29.9616425962
28.1751 4.43542 55.3904 29.9077466504
29.266 1.40832 46.7533 30.6686421747
27.2892 5.06786 46.3253 29.3512829256
28.0253 11.6379 53.6347 28.3665275716
26.0605 11.259 58.6829 30.9581356226
26.8941 1.1928 45.2951 30.4711169101
36.4234 2.89589 57.7601 28.8549491831
35.1531 1.5493 55.7283 32.6222296989
26.0053 11.4752 47.4082 29.4602988605
35.2153 9.61547 58.6993 29.4690123296
28.0533 11.2958 56.3811 29.9233688134
25.8508 3.86678 53.0742 30.0149561963
32.663 0.446659 56.6077 29.8197541576
30.9449 4.47938 55.4325 30.4731884064
35.5679 0.354981 51.9699 31.1482166775
28.377 8.59033 56.4806 30.1852169451
31.2566 1.99127 54.8071 28.6724158814
32.1482 5.10109 57.8916 31.7249916602
34.6775 6.99458 56.1798 27.6268338463
26.89 7.44648 45.0138 29.7141249376
36.3784 9.1568 55.7784 28.100515009
35.2711 5.27007 58.2373 29.1923066501
25.213 9.07735 50.9079 32.0922850252
31.2534 11.6774 48.1177 29.6073933141
28.131 5.28847 58.6236 31.3072277163
24.6477 0.490576 50.7416 31.1902072623
24.7805 6.06576 51.3643 29.3441452654
29.1899 0.178381 53.6831 28.8110153478
27.6365 15.2001 3.86571 29.6326607096
26.1212 24.0396 2.65817 32.5658736762
29.8556 21.379 12.5489 30.8106626157
31.1235 14.8373 12.6418 29.1967840597
30.899 13.6293 8.23009 31.0945530273
33.7842 17.5964 1.97536 30.0843965849
31.1603 17.8019 13.5103 29.1083339848
27.3942 20.2557 5.33619 30.3855781712
36.5967 14.4163 6.86347 30.0114907702
26.902 21.9272 1.09239 27.8381005158
29.9016 18.8202 2.01314 27.5409296842
31.8012 17.214 3.69784 28.5772186816
28.0695 16.3078 1.43895 29.1134044373
31.5145 14.3861 4.31928 28.7203719763
24.7276 16.9497 7.87356 31.430485717
34.9647 15.3063 2.23438 27.1751861509
34.2274 13.3271 4.72478 32.3537815591
25.2808 22.4061 8.96618 32.1353957379
27.2858 19.777 2.60339 28.0744760661
28.5143 15.0596 11.0203 28.6759457243
31.9265 23.0077 11.4895 26.0379111582
33.5731 21.7578 1.6418 27.4599711065
26.8057 22.7336 6.65158 26.5625996676
27.0607 18.3474 7.28377 31.6952559642
35.1588 17.2293 5.20452 29.5927271518
25.1884 14.1086 1.31943 32.0181413083
30.2413 18.7419 11.0154 27.9915377644
33.0132 13.1943 0.991563 30.2195915284
35.6779 23.8361 6.93011 29.0222326391
27.1896 21.309 12.4612 31.9145107256
25.1223 17.8832 2.45553 31.0879425374
36.5928 19.3088 5.90136 26.9753991463
30.4918 16.2754 7.49927 28.8171565356
34.9345 15.0206 10.9565 29.2439645851
35.7922 22.1978 11.3039 29.834038081
30.1734 22.4703 4.94713 31.443841659
29.1757 17.1392 5.21973 29.246390142
35.542 12.3101 11.1376 28.6830258074
35.3733 16.1391 8.58715 29.0927555746
32.9412 17.3564 7.53632 29.7820966813
32.9612 21.5757 8.50559 30.0638803918
32.8194 18.9206 9.88295 31.0894239625
30.8129 13.3182 14.6197 27.2335860607
33.5715 20.4756 11.9863 27.3079494498
35.925 18.8382 12.5197 30.1240860104
30.0459 20.2091 6.33858 27.6741073774
32.8795 19.6272 5.68507 29.2901921195
34.3145 21.6155 4.32422 29.4271235735
26.7905 20.5899 9.77603 28.4754897805
29.7472 20.9571 8.97839 29.0353689905
26.3614 19.8901 14.4269 31.1901160099
30.3862 23.8198 9.2344 30.4954444907
30.8291 21.359 2.12283 31.2360362371
35.5647 20.5306 8.23106 27.0155419956
30.3306 14.2176 2.00093 32.9667444147
28.7487 13.1208 5.41251 32.6096282272
32.5565 13.7682 10.7165 30.6991983718
27.9302 24.187 4.76395 28.5897239727
33.0766 19.901 14.8297 27.824300626
25.5898 15.6532 10.5527 33.4063054051
35.4549 16.1724 13.1363 31.0202956393
28.4938 17.6585 14.076 30.5984407399
27.5288 15.1902 13.8237 27.1020642046
24.7091 14.8486 4.9697 30.8179959714
28.7759 17.2277 9.31066 29.7330536221
24.4813 15.6525 13.5841 30.2993548609
28.5904 12.6675 9.27268 30.7988334833
32.572 24.1033 4.99916 29.3391588848
24.7807 18.5288 10.0949 28.3134505873
36.8682 22.8749 14.2969 31.8362856594
34.0255 14.6681 15.1507 29.3029041241
35.0989 19.886 0.694075 28.3889273499
26.3562 24.0979 12.744 27.9548086615
36.8152 18.5047 9.44718 28.3567189611
32.7924 24.6822 7.615 27.4284984443
25.3505 12.5965 11.101 28.6913135446
30.3532 21.7982 15.4935 28.0218343619
26.0801 16.4232 17.6008 27.8859900763
32.3171 18.2339 17.1754 30.5443249937
26.9381 15.2266 20.0165 30.1997743925
32.9158 24.0491 22.663 28.1435347672
27.874 23.6027 19.3845 27.2199965173
33.3907 20.6083 24.6319 98.6388445601
33.4663 14.1116 19.5512 26.5716293444
24.7368 13.7625 20.6947 29.7303637852
24.5012 18.756 18.0396 27.573354696
25.1564 22.8324 20.911 30.2729078349
25.9984 19.6297 20.5333 27.6721877105
32.0849 21.3953 19.0614 29.1966049958
30.1891 19.8778 17.237 26.409347233
28.0251 20.7973 19.0844 27.8765611673
34.7186 22.687 21.1818 30.5052058856
26.0546 20.6403 23.3317 33.2551348296
35.5426 12.4181 24.0098 61.9390342081
27.9499 13.8563 16.2453 30.2068212739
35.3454 14.5445 17.6313 28.8921157054
35.6816 20.2634 15.6942 29.7263317252
32.0373 12.942 17.506 26.9951920229
34.7895 21.7044 18.3623 31.6817450635
26.5598 14.3831 24.311 103.0140314701
27.7924 23.4466 24.3465 109.8414632076
29.317 14.144 20.7619 29.7432275087
36.6806 19.1861 23.8609 41.9703558064
28.9328 13.1731 23.544 43.4316808437
32.7197 16.2367 23.2726 28.3173395114
31.9634 16.1629 15.6654 25.4658843463
31.5446 13.8119 23.6692 69.3288284269
27.2605 17.5252 21.552 25.5485916873
28.6339 18.6865 24.8085 135.1712156037
26.3956 17.2024 23.8383 42.6465616588
29.6911 18.0146 21.7477 31.0711624446
31.3911 18.3734 24.4182 79.7746841589
31.4599 15.9064 20.6187 29.3031308813
34.9034 15.1101 24.5046 100.0377772279
29.9771 15.3398 17.4959 28.4221647914
34.9909 18.0099 22.0938 27.9478135695
29.9854 20.724 21.2138 28.7238334547
29.0221 21.3128 23.7255 29.5136772938
25.4415 23.468 23.593 48.3229853285
31.4622 22.3681 24.2879 80.2187337949
33.1705 19.9932 21.8392 29.6074376377
25.9076 20.8138 16.8957 29.6214269718
34.2544 17.6707 19.3846 31.8470727621
35.9188 21.9686 23.9303 50.8409554014
35.6672 15.0105 21.8831 27.2967108915
28.5005 17.8418 16.8057 29.7801806067
29.1664 24.0308 15.9201 29.6761504154
30.5952 23.7875 19.6024 30.4338109325
26.7309 24.4693 17.1808 26.8519557977
36.6831 16.9073 18.4802 33.4867542022
32.9153 22.6574 15.6626 28.7935891695
27.6969 19.0811 37.9242 28.8759703865
26.1724 16.9554 36.3185 58.7986005415
26.0971 14.5829 40.3924 32.0343498531
29.5786 16.8488 37.0853 34.3551044823
30.4387 19.5975 40.482 27.8499754367
28.8626 15.1073 39.188 31.7310296097
32.1975 17.9332 36.8556 54.4710523218
33.8198 22.7995 35.3673 133.9172516056
36.6844 16.1273 35.5701 132.3431416787
31.18 13.7244 39.404 27.4193192323
33.388 21.5873 42.7378 27.2416168203
36.1525 18.4341 42.484 28.9012293545
32.25 20.7093 36.4241 54.6710001002
25.4293 20.9484 38.642 28.1537746555
32.6615 17.9968 39.7131 28.7094557697
27.283 19.6212 40.7918 26.8784505729
34.1719 15.9223 36.8398 36.3882246546
27.0714 14.3684 35.4355 124.4664481695
26.217 22.3456 36.4019 54.8516505829
28.7121 22.0013 41.4244 29.4794884439
25.6526 12.5573 36.6423 34.2721357071
29.1163 20.739 36.4299 82.3343704319
25.8184 23.4168 40.7576 29.9520884266
31.3966 12.7694 42.7786 33.1265821056
35.174 20.264 37.0602 35.8250235426
36.5161 13.8952 43.089 29.9262572866
26.0518 19.3685 43.2992 25.7530082834
28.8042 23.7273 36.2 53.9857729856
26.5634 16.6975 42.92 27.5086843861
34.7397 16.294 43.205 29.0603100523
28.6835 16.8018 41.2721 28.8073181764
29.9749 24.2485 43.1602 30.8494924714
33.6521 14.6112 39.0845 30.4625842104
32.5876 16.0792 41.6111 29.1481455497
35.1752 18.9734 40.0337 27.9764521882
27.695 21.6332 43.9899 29.0547242184
30.2586 15.6248 43.1887 30.4140909004
31.8009 21.8932 38.991 29.6433715471
35.8296 22.2567 38.3946 26.7826931554
31.1038 20.0398 42.9106 28.7945667034
33.5398 13.4399 35.9205 103.3182521904
34.2256 21.5399 40.2797 25.7488573881
31.2336 12.6 36.9164 31.0696524927
36.7484 22.8895 42.2191 28.9786579644
30.6061 24.0579 38.6989 27.0767613792
29.691 14.6704 35.5944 121.0451840784
36.3024 14.0746 40.3652 31.2981781133
35.3377 20.5166 44.0888 25.7094997156
24.7836 16.4544 38.4501 28.9866404436
35.3939 24.5542 37.1653 25.9599483149
34.0354 12.7771 43.5924 31.6805024428
25.5881 23.4399 44.7762 25.5202054292
28.903 13.9801 45.2834 30.0089857699
34.5407 15.1918 56.438 29.617224194
36.4261 13.6991 52.6189 33.973617882
27.3544 15.9967 45.2553 22.9862186754
28.814 18.0826 46.0406 28.1501809605
35.9921 15.8284 49.4311 29.3955811207
36.137 17.1378 54.7026 26.8993213097
35.8551 12.9728 49.9855 34.7083405915
24.8716 14.8133 55.7208 31.8031794689
30.4498 21.8959 45.0698 28.2308841202
29.9183 23.1668 52.2441 23.2685887089
35.3912 19.4158 53.1341 28.2085057165
31.6462 15.0794 49.4403 33.6590654676
36.4397 12.284 57.1621 29.2593297501
32.4204 13.4575 56.8405 28.8808045356
29.4348 13.8856 47.8711 28.9957009951
35.3132 19.1392 46.3958 27.9816909382
25.0603 22.2932 57.4595 26.3253378582
26.4403 20.7162 47.6946 25.132433511
35.4913 23.8894 53.166 27.0217199462
32.7814 17.2265 57.6159 29.462990272
31.9306 23.4175 50.2338 30.7553019032
29.0074 20.9888 47.0442 29.2581888981
32.5964 21.2325 49.1561 33.443484275
25.8059 20.0289 55.9969 31.9920900349
36.7518 15.0112 58.299 28.5514011262
27.4656 23.6738 56.1244 28.1625844483
33.5508 12.5383 46.6609 35.1190176766
27.1621 18.271 57.6998 34.0129695239
30.2675 18.8711 57.7955 29.6087272014
33.9335 12.5633 53.3799 30.5401572729
33.2855 22.6349 57.4726 25.4409404264
27.5157 16.1721 52.4601 33.9648003898
35.4418 22.7036 55.8491 28.3406843121
29.3941 17.1901 48.5643 31.1123805232
27.1506 16.7393 49.6281 27.9491594594
30.9758 19.9569 52.3419 28.4394904712
31.9944 14.1777 52.4207 31.8569296266
33.7125 15.1628 47.3991 35.5113279956
32.2463 17.514 51.4259 31.1607055898
33.0056 20.8606 54.1072 27.7978702705
28.4612 22.2819 50.3715 27.6718022494
34.212 19.2237 56.402 28.0583109672
27.7268 24.4142 48.6799 28.0966245525
25.8913 12.9597 45.1673 27.5080684897
35.2508 19.9666 48.8729 31.2784205628
30.0049 19.7633 49.6202 31.1794958783
30.9811 18.0876 44.7433 32.2509986918
30.6629 16.8149 55.8647 28.4914531678
26.3425 12.5106 51.826 27.4102097181
27.0593 15.3237 57.2731 32.588235633
36.1078 23.0563 46.7822 30.3624912952
27.3391 13.216 49.2894 33.0034676807
29.5573 14.4229 56.3377 29.3438572543
29.4026 22.4486 58.6571 30.3327059729
33.595 17.0617 45.5666 33.5165255605
31.2318 21.2951 56.6812 28.2992346876
27.4962 20.4779 53.8664 28.0779097646
29.3941 14.2483 53.5775 32.7583848908
29.1574 22.165 54.6082 28.2211544926
34.805 18.0693 50.8328 28.9768091679
29.1421 18.1479 53.7106 33.8888676851
33.2304 16.9452 53.9188 30.3271276112
32.7484 23.4115 53.5613 29.0727944722
26.1098 21.1383 51.7888 30.7378463509
33.246 21.9608 46.4973 32.0675300125
25.9191 23.1378 47.2448 24.8787320775
25.5998 19.1479 49.6515 31.4058142911
25.6308 14.8098 53.1462 28.328245553
25.2754 16.4373 46.5932 30.9453103165
25.1666 19.075 45.9128 26.5189802689
26.1015 24.4186 53.715 31.1408112151
34.8859 24.3165 50.7424 32.2453122868
24.9966 15.0096 49.2734 28.3043846226
36.5647 29.3079 10.7823 31.1150941456
27.8116 24.8377 8.42846 30.9228267812
33.7163 33.7331 11.6287 29.3294413075
27.2903 27.8854 9.15674 29.6880092973
29.6953 26.3634 2.9677 31.526673737
32.0455 26.9217 4.39923 28.0635628393
29.2762 28.9918 2.07072 26.5109339752
25.6027 31.3988 7.27078 33.9172564947
30.5683 33.2915 9.35812 30.3855722397
31.966 34.5999 13.6604 28.2444904119
30.3811 29.4322 5.5309 27.3057460597
36.0462 26.6136 12.6808 28.4159315673
33.7546 36.1427 14.7062 26.8320432129
32.7339 31.8732 10.1512 30.7539454321
33.0041 31.402 3.36409 34.0198197051
26.4832 28.4469 4.04488 39.9258296181
33.4476 28.2683 2.43925 29.2066778917
25.3505 28.5035 13.5003 28.9874327856
31.9904 32.3434 15.4306 30.450021457
26.8562 35.0557 4.86977 29.7928062259
27.181 27.7001 15.114 26.9724856315
34.7313 24.8901 11.0865 31.2625206658
34.9954 33.0184 3.46494 30.1866897758
31.004 35.9221 2.63515 30.4870419254
34.021 29.0423 13.1183 33.1467911325
27.4847 35.0645 10.1046 29.905090816
28.3919 34.0266 13.0208 30.3221847488
36.5909 32.0621 0.966977 32.906294777
32.7825 24.6147 13.3227 30.3120392228
26.0039 25.3758 10.5061 31.1607203915
35.8441 35.8934 11.1611 26.3778634051
30.9545 32.8992 2.08881 33.633830479
34.2192 24.7156 2.44303 30.1855438344
34.9093 28.3451 5.15771 30.7597431414
33.739 29.2633 7.25792 26.7255003384
36.3983 25.9472 5.70946 28.1271949304
28.1948 25.4826 13.7127 30.7663976707
25.2695 34.4524 3.14094 27.0660184197
36.8476 33.1981 9.68596 33.3306353776
27.5691 29.3836 6.463 30.6672287112
28.9768 31.2984 3.19844 28.9464668449
28.5688 26.5136 6.1072 31.4083975774
32.1609 31.21 6.16505 30.0310460209
35.1431 31.0897 8.95705 27.8050408429
34.6158 31.8029 13.2676 27.2362794059
29.4268 33.9364 5.01321 32.5135657049
29.4287 32.1718 7.12137 33.4384133609
34.3181 26.6281 8.58623 30.8496792462
26.0534 34.4253 7.48918 30.6299692965
34.7901 35.5448 2.47475 30.5825127361
34.9565 32.7735 6.23822 33.8458696256
26.3263 33.0193 14.8993 28.9231450359
24.9868 25.8867 1.03297 33.4075218495
31.5888 29.4935 11.7209 36.0945877461
26.3986 32.2106 10.0787 27.8864254878
26.5358 29.6268 10.8925 25.9869348743
36.6838 24.5017 3.33298 29.0885987632
26.2474 31.9797 2.59436 31.1786470962
30.3504 25.8105 11.7737 35.0286444153
30.6051 36.1469 9.56434 32.7645407181
31.2562 27.5029 7.75379 30.3426090793
36.7481 30.5546 5.43448 29.5510436471
28.8617 29.7675 12.5631 30.0010973582
29.8965 27.8577 10.0764 29.4221921591
29.1669 32.2423 11.1937 28.8839100191
36.169 25.7649 15.0712 28.4350490744
36.7703 34.7482 7.1854 31.8986112886
31.1801 36.3576 5.49796 38.6255361386
26.0995 36.6833 11.9893 32.8598121847
29.5093 27.7753 18.3329 30.1989291291
26.3261 27.0508 17.4621 28.3891505797
30.3768 27.9937 24.1611 94.9817395019
31.8453 28.0182 20.1165 26.687472056
24.9472 26.1409 23.3221 33.3897750168
25.2191 33.763 18.5523 26.8588192589
36.7052 29.5396 18.8826 27.2246586499
33.8773 28.7618 15.9004 27.3314186837
31.0684 25.8134 21.711 29.4998120203
30.1981 33.029 17.9224 31.052714873
27.852 31.4956 16.6089 27.9691147216
26.2498 30.9521 18.557 32.4164643898
34.5831 33.7625 23.7652 84.3780021948
32.0754 33.2753 21.01 31.6078699216
32.7604 36.526 17.1131 29.6750825868
29.5391 34.2935 15.5723 26.8036092287
28.9668 29.6539 15.2522 30.2881240911
36.7806 28.8953 16.5182 28.4387577899
35.5586 31.7379 20.1224 27.8155028479
25.714 34.6462 23.2273 41.6337997492
35.68 24.9887 19.6029 30.5776589473
33.0891 30.5494 19.1415 30.0053788121
35.1393 31.1351 22.8416 29.7990607225
31.491 30.1093 16.8486 28.4847937202
26.8698 27.9124 24.4442 121.2561186988
27.6053 26.3008 20.3852 26.4335285404
25.8085 34.8518 16.5847 26.2968310039
35.0763 32.4178 15.8346 29.0074972499
33.2144 27.6081 23.7516 58.1645660381
27.638 29.4556 20.6319 32.0856699296
26.1993 29.9963 23.1351 32.2405089768
30.1278 29.7802 21.9255 32.2994787801
34.3765 27.5924 18.9849 28.3571182451
30.4455 32.081 23.558 63.4093408832
34.695 28.4772 21.7766 27.850214355
28.3247 26.0519 22.8875 29.1626410392
27.492 33.2374 20.3079 31.7731145431
27.5226 32.4135 22.9421 49.6566907464
24.8016 25.6469 20.4428 27.231590378
31.3285 35.988 20.9291 28.6194362219
32.118 34.4657 24.0718 90.4383164111
32.7805 30.7055 24.4562 123.6625003305
34.8195 24.6723 24.3047 117.2492581348
33.3238 33.9046 18.2764 28.3190325614
35.0022 34.7989 20.3875 30.3200251589
30.7608 25.6426 17.5781 27.7711628402
28.9573 35.6089 19.6821 31.0818431741
36.607 25.2967 22.2488 27.2928182344
29.5968 36.5298 17.1412 27.1601234703
34.4292 24.756 16.9471 28.5557103969
32.6123 26.406 15.7223 31.1288139402
34.931 36.4651 23.1946 42.3222366806
35.8959 35.0316 15.8113 29.3934935855
24.5462 35.2175 20.8272 32.230029446
36.5746 33.303 41.9146 28.542373152
36.5324 36.4019 36.8089 41.8283134686
28.3591 26.9418 42.7515 28.6712008638
25.5589 26.2857 35.5549 124.120743403
32.2369 25.8544 39.7098 29.0295382359
27.9575 26.1158 36.6316 31.6558953851
34.3633 28.2385 35.7882 110.6822572311
33.8975 35.7221 40.5443 32.1970987307
31.4321 24.4376 35.482 111.0671571097
27.3229 30.4994 35.8469 103.0717169139
28.6771 32.9712 36.587 39.1026881585
29.4724 28.5397 35.9235 93.2966935573
32.1596 29.3601 36.5591 42.5668296907
32.3762 32.2865 36.9329 33.4144408575
29.6208 32.229 38.9782 32.657607301
35.0316 33.4243 39.4038 29.70706771
36.1166 29.7876 36.839 27.7039140368
31.0146 35.9937 39.872 28.905422848
27.294 28.2468 38.6029 30.5047884419
35.7841 26.3028 39.2673 27.3000764837
27.0481 35.047 36.3465 57.5796110702
31.2962 34.132 35.5406 148.1295440478
35.3232 26.8245 44.3081 26.3807144294
36.598 31.7323 35.5118 131.5907515607
34.7924 33.8928 36.3156 63.6889160047
36.2622 30.8659 42.8301 31.8071486849
24.8931 25.43 42.5188 28.3995411802
24.978 30.2032 36.8269 31.2830442952
26.3684 27.4198 41.2261 26.7938568123
31.5329 28.5679 39.0437 27.7891749595
29.2267 29.5693 39.8521 30.3794130124
33.1424 25.8804 36.9954 28.3374639842
35.9122 28.919 39.3129 29.0302850093
31.3446 33.6056 42.6428 33.5008983431
33.3525 30.0071 40.478 29.4406709194
27.3748 31.2922 43.5124 30.1460505267
32.22 27.2288 42.1586 27.8858177343
26.8471 35.7052 38.8146 31.7343656378
27.6439 33.8277 43.0934 31.1835435876
29.4278 29.5318 42.7885 29.9811666064
31.9149 30.9193 44.023 33.8413148548
24.9937 34.883 43.2182 31.6786075786
32.5774 32.5733 39.711 27.8806400786
28.1356 24.9297 39.5867 33.9713179079
33.5989 35.3078 43.5511 36.3879091975
28.922 34.523 40.4974 31.3044062233
36.4357 34.977 44.2215 28.7440697787
35.2525 25.2758 41.6335 29.8422093105
34.1611 29.4098 42.9784 25.3582795274
25.3332 30.0671 41.9951 32.3300659197
31.4214 36.3513 37.0841 31.7841008352
32.7911 24.4667 42.9112 26.9741116552
25.3216 27.3361 49.4229 29.1713741003
27.0936 26.1071 44.989 27.8279732738
36.2299 33.4126 53.4473 27.8087044918
31.4179 27.6778 44.8986 28.8186637007
35.1715 33.7258 47.1773 34.066009259
33.4035 24.7615 45.6876 29.245781237
34.3371 36.0457 55.9838 30.3204352117
28.6903 28.5898 46.656 28.5480271821
30.2678 25.5584 58.9261 28.8634323611
30.6973 30.773 46.396 29.7838432741
26.9231 32.2847 47.6886 29.7124205191
30.3375 31.0205 50.3309 27.1084955787
29.1008 36.1101 54.8978 29.7678292756
34.3965 29.1627 46.2489 30.5582110028
33.0511 26.6882 47.502 28.6707438213
26.6446 34.9111 54.8533 32.5182661918
30.2094 35.7444 57.2861 32.0161052687
28.7222 25.832 56.9517 27.6681588615
27.7879 29.3674 58.5628 27.0493814966
36.181 29.357 59.1815 34.7520017178
27.0807 35.1039 48.2379 28.5836612436
32.5705 30.1038 48.4783 32.0091667755
24.94 26.7148 46.7117 27.3782047767
26.4197 25.3248 51.0124 30.7970935432
29.1073 25.6474 52.3371 30.6224280524
30.616 25.4474 48.6546 28.7264748658
29.7668 27.2618 50.2726 28.3453140628
26.7907 30.3161 45.8731 28.5535797039
34.7335 26.8412 49.7612 34.7724829257
31.9832 30.2034 56.7291 30.9581669474
27.8937 28.5235 49.1458 28.0192837016
27.5569 31.3425 50.0774 28.6887217666
30.5888 29.3239 54.5154 30.4188016497
34.0854 28.5509 51.9045 33.9059928068
31.3346 29.027 51.8592 30.3006054935
35.3237 31.0856 52.186 32.3521380974
32.7008 34.2101 53.8232 29.2987255359
36.5641 30.1021 47.5222 24.7637959124
35.2733 31.8559 56.6769 30.8155015845
31.0486 33.9315 50.0338 30.6229810383
32.8631 33.0955 56.3658 29.9354984258
30.5608 32.4178 52.8439 33.2735582258
34.351 32.122 49.381 30.593796282
36.3502 34.2772 56.0622 27.9278804837
25.0816 34.286 51.2925 31.1922025791
34.4128 34.59 51.4454 30.201567893
30.18 32.6063 57.8158 34.8081119258
30.0747 26.6508 54.6263 31.8321824775
36.6777 30.1893 54.3683 31.9246893678
24.8921 26.515 55.5971 35.3585077199
29.8405 33.3018 47.3016 29.862814996
32.5933 25.7033 55.1776 31.7757598047
28.5292 35.4966 50.5967 35.018846499
27.5433 36.7879 58.1946 29.4363624821
26.6512 27.0661 57.7287 30.8406384904
25.7822 30.0083 51.936 33.643375435
28.3171 30.964 53.8481 34.6587081709
28.1267 31.0538 56.6151 30.7851705006
34.5002 28.8715 56.961 28.1681285006
34.8327 27.8488 54.4258 28.9103910127
31.5246 28.3952 58.7419 31.1288528337
26.2027 32.9629 56.7714 33.7386099881
32.67 25.0684 57.6849 25.4474513498
32.5459 35.0881 46.9033 34.50584545
27.5324 33.594 52.3872 28.0845059311
34.5322 26.4806 58.9379 25.8813523002
31.4897 36.6694 53.3353 28.7643250178
25.5061 35.1799 58.8796 30.716497952
32.9588 35.5547 58.354 30.5182519546
36.7705 25.8946 54.5539 31.100949496
36.8766 25.6328 46.3116 28.587660387
32.9076 36.416 49.3381 27.7866034189
29.5185 25.4228 45.9823 29.0047592967
36.5849 25.4188 57.0954 29.721293168
36.8259 35.9884 48.367 30.6429968261
25.4001 30.4907 59.1902 28.7269419201
29.4948 34.4802 44.7223 29.4134662763
34.8616 37.9623 12.5855 28.1178949002
28.6135 40.5188 7.21042 28.6984327371
27.9812 38.2066 4.67947 30.4012062343
33.6067 37.0183 4.82679 34.2884424465
30.3435 36.9392 12.4717 31.6403387142
33.9113 39.0652 2.85525 29.9854924704
25.9429 44.6671 11.2342 29.9973834845
28.8842 37.2792 2.16443 32.2462562573
26.0649 41.173 8.8421 29.7272001482
27.978 45.0526 7.00184 30.5420647474
30.2394 45.2625 3.64169 26.8432608843
36.9272 38.5602 14.9765 29.0881503515
32.7284 41.4161 3.75255 35.9283292709
31.7344 44.6911 9.1756 29.6600163328
29.343 41.8947 1.93785 31.0900121305
29.6909 47.8277 1.11113 30.6810389465
35.1512 45.6095 12.1676 27.1504612707
35.3406 42.9691 3.05117 32.2463401006
33.6586 43.9665 0.614081 29.0179549737
28.0678 46.6377 3.20906 29.4670703565
26.1205 43.8822 5.35834 28.0468502932
34.4061 42.7277 12.5699 31.6486539178
34.7411 47.6417 2.19412 29.366292791
32.4275 46.9953 3.91703 29.9212819508
30.5299 40.9826 9.14702 30.6435735335
25.105 38.9311 10.2871 28.6636381328
29.6935 41.6382 4.81526 30.6458533423
29.3372 37.9562 7.56024 34.9801609681
36.797 39.4719 11.1833 31.3231701906
34.9868 36.9799 7.26825 31.3816662585
24.9795 37.9612 5.84294 31.3728073465
28.9924 48.8101 13.8344 32.5062703624
36.2969 40.1213 2.67012 29.7301397674
26.3498 37.3382 8.29816 31.1470554569
31.3142 46.5178 7.36525 29.6790790735
30.0023 43.947 5.76767 25.4514481363
32.1326 42.4384 7.26938 28.7063001893
33.4134 37.0294 9.46615 33.0111385969
35.9452 40.6163 8.84288 25.0584520876
34.2592 41.6543 5.99646 32.6938583479
31.6627 48.4917 13.9766 30.8675729711
28.0456 47.5577 5.76536 28.4882502585
31.0978 43.9134 1.37482 29.8077573238
28.187 38.0649 13.4044 30.7129823406
30.5525 46.4472 11.4636 31.0455066761
31.5058 48.9102 10.1845 29.9458889857
33.8675 46.2897 5.9024 30.8717952881
26.0288 40.9917 12.2901 35.2436908512
34.8533 48.659 7.08578 28.4488478056
35.8277 47.4527 14.6296 27.930781065
32.0547 39.1319 12.7909 31.4424569589
26.6938 40.4184 3.84589 27.8805398797
25.3171 47.6496 6.61619 34.7860901965
26.0842 44.2463 2.60257 33.5526038013
34.0945 42.4813 9.78954 27.9771428229
25.2709 41.5159 6.11429 28.9684063116
35.5005 45.337 9.53222 26.1497070594
29.5517 43.1578 10.7275 29.3428621339
27.5876 47.2331 11.9568 35.0257325329
35.4794 44.1281 6.89622 27.3799667897
27.642 43.4655 9.39642 28.8536297552
30.8404 43.4389 13.9488 33.0766280341
32.9462 39.6311 9.86043 32.0098602584
24.9416 47.3031 1.86627 31.3368936911
27.0814 45.4884 14.3758 31.9633944331
32.6461 45.8342 13.0834 29.3288312748
33.9844 47.611 9.3526 27.4604802789
29.5542 40.7792 12.4845 33.1923729886
30.1242 44.0475 17.4047 29.5828374618
25.8141 38.8676 19.4515 33.1092572135
30.7137 39.9534 20.2032 29.4227815341
30.4439 39.3724 17.1631 34.3292165132
25.872 41.089 16.5697 28.8933573127
35.4945 39.3769 17.16 31.5831229103
28.5875 37.8835 23.3873 39.1882750479
25.1845 43.9098 17.4545 29.2670373326
28.5221 43.4885 15.5077 29.8384447737
36.8342 43.0023 20.64 29.2207661608
35.965 40.7225 19.6964 27.0354062005
28.8307 48.1818 24.2666 89.3100111812
35.1666 48.7714 20.9076 27.2034931263
28.9938 46.2729 18.3277 33.2170732017
32.812 45.0455 16.9042 28.681694586
29.5149 42.8537 19.7311 31.7957658444
34.9062 46.8233 23.7484 80.0129493185
33.3514 47.4785 15.8107 28.7442838831
26.1798 36.9065 24.3011 147.8543013637
31.0854 36.9211 23.7207 61.1317442668
28.4591 38.3145 20.6925 32.9332360694
32.5106 38.1248 19.6772 27.749342946
33.0485 38.7343 24.0981 121.9564205218
28.2406 40.6173 23.9122 99.2746065627
34.9323 38.6095 20.6935 25.4777272792
33.8674 43.9676 24.2359 97.8981498287
30.0154 42.3127 22.7093 30.4005960248
26.5891 42.9949 19.3616 29.7712592955
28.0552 45.594 24.2097 85.6758784693
28.5375 45.0525 21.2356 27.5705636834
33.3002 41.8703 20.0921 35.1045241512
32.8194 41.4269 23.0065 33.7220453931
34.3006 44.2523 19.0771 29.0296917268
35.8911 40.0414 23.3964 54.9021204715
31.1214 44.0054 24.5757 123.7322345222
28.1969 47.7947 21.5281 27.7097907513
25.2623 45.6457 23.652 42.5564877269
26.7661 47.104 16.6528 28.8797500463
25.2156 45.3772 20.86 30.8439921811
25.6533 48.087 20.2173 32.7953700522
31.3902 45.9161 22.3696 30.5986737673
33.471 46.5672 20.4083 29.8734210456
31.614 48.0644 23.9412 74.7101437588
36.0052 41.9642 15.5931 29.4512086855
25.4232 41.0563 23.4464 39.8400614267
36.5618 45.8743 18.8329 28.2560102244
25.0473 41.3591 20.9372 29.587127226
24.7257 38.4298 16.7984 31.7118563743
36.6693 42.7129 23.2149 35.783137769
36.6477 48.2457 17.2972 29.0465579366
31.5259 47.553 18.8796 27.8276216332
32.8428 39.4987 15.7507 32.4819456079
36.8211 36.7429 19.9328 27.4504032728
28.2937 40.4362 15.4083 30.4350526132
27.2883 37.3111 16.1444 29.6224088384
36.8878 44.5041 16.1697 29.5547776862
33.1612 42.7219 15.3495 31.3507237962
26.6032 44.7539 43.1455 33.8481902052
26.5975 38.7492 35.8587 98.9283328088
28.518 42.1246 39.7633 27.5078133665
30.3531 39.9283 35.868 106.8165065219
30.7526 38.5014 40.5186 29.3875128103
32.1078 48.1585 36.0558 76.4856045632
33.2484 39.823 38.9938 30.2909335804
36.2772 41.3359 36.6423 35.688260497
28.9191 36.9279 36.0176 68.9656696585
29.376 39.8196 38.7267 26.0511292091
27.6047 41.3138 36.1682 58.8640118743
26.3217 42.1479 38.5354 28.3180836471
24.9453 46.093 41.207 30.2776480191
31.7403 43.0325 39.2553 28.7798861815
31.1155 42.4406 36.9423 32.1266133121
29.0717 44.3306 36.2757 76.5977598419
29.1849 45.971 43.1754 32.8474103421
33.9392 43.0041 36.0705 91.7971042063
26.6336 47.1264 36.5023 38.2533020228
26.1547 44.2122 35.8158 95.2866308157
29.9885 48.5836 38.8857 29.2330986792
29.218 48.2661 35.9249 79.8635781774
33.6198 46.2819 38.1227 26.4910042171
36.1387 44.7183 39.2279 27.4929753335
28.6545 41.1658 42.2982 26.7532827567
34.1778 47.4042 41.9635 26.7005763895
35.3875 37.4315 39.2677 29.571370516
34.1933 45.6688 35.8023 103.2777686186
28.2896 38.6488 42.2346 29.5703953576
36.3001 39.8213 40.5981 31.5142510682
32.4762 40.4083 42.1419 29.5592098423
30.9139 41.292 43.6785 28.308356285
35.5792 38.7937 36.215 101.1214712643
26.2386 48.4055 41.2436 27.5344678997
31.3473 45.8484 39.4827 26.5160639375
32.8804 43.8197 42.7908 28.9586693361
36.4771 46.2866 41.7671 27.4124823169
34.4335 42.7058 40.3957 29.9675703176
32.728 38.6396 36.678 46.1878006191
27.0104 38.4021 39.1791 28.5187277967
35.3046 44.6922 43.9935 30.1922619707
27.5698 47.5901 39.0212 28.9876679962
28.9984 44.9591 39.1988 31.1481687115
34.7872 40.059 43.6916 31.5625824741
31.7971 45.9682 42.1879 28.1628697919
25.654 38.8706 42.4674 31.1518149352
27.1702 42.2294 43.9414 29.3219820652
28.3308 48.6388 42.9386 33.6409440767
35.1551 48.397 38.2776 28.5244607719
36.9264 37.5864 44.1437 31.7803796262
26.213 39.4912 47.5852 29.0347656339
27.1104 37.0666 46.4398 29.8753115917
27.5953 41.4555 46.6776 29.4007665464
30.1555 42.3834 47.4018 27.4641509882
31.144 39.7226 47.7958 30.3379197394
32.328 40.066 51.79 29.9881969719
29.9944 39.165 58.9638 30.5442651474
26.1044 46.6258 53.7058 33.271522594
36.1916 38.2944 49.8536 25.4010986668
34.2532 46.3498 58.3833 28.1074737599
26.7099 43.7153 47.6291 30.9026787062
31.643 43.5175 45.7354 28.1841162135
32.2797 46.3097 54.082 28.4706122211
31.2038 47.9763 46.6988 29.3078421841
29.7772 45.8292 45.9519 32.7856715235
33.7201 43.8839 47.1151 27.8672277237
35.4523 46.1775 46.3614 26.644338604
33.8677 42.0377 57.1639 28.9115168824
29.2007 46.123 49.8902 31.3595358457
27.4671 46.1726 47.9504 32.6252526934
36.1812 37.4734 53.951 30.3789404863
27.0961 39.1059 57.2168 27.8659599999
34.6331 37.5412 51.674 26.1224935565
35.2951 48.0134 48.602 28.9133131902
33.2793 47.7994 44.6757 29.8238497879
28.7458 38.9181 49.3644 33.3569925934
33.4331 37.6096 45.4947 31.7404256793
30.9621 37.6082 50.6833 28.4290036242
25.1978 36.9517 44.5972 28.5977073825
33.8528 39.2411 48.1244 28.9597310456
30.4643 42.1854 52.2103 28.422808525
26.1231 42.5306 50.1855 32.9569620923
26.127 43.828 52.7944 27.9900809339
31.9779 46.8927 49.0332 30.0743452423
30.7812 43.5048 49.7489 30.5327587436
31.7626 43.4228 54.1034 29.1515716162
28.7405 44.7548 52.4501 31.0621248137
28.1724 40.8363 51.2427 30.4305186507
33.6056 43.4596 49.7788 29.0445928829
34.9971 41.3691 46.2549 32.087671141
34.4511 46.1304 50.6543 30.6282245158
29.4443 46.6239 54.4309 28.7764647373
36.9281 42.6657 48.4356 31.3604041678
36.6211 42.793 57.6225 28.6000586922
30.0593 45.7635 57.712 31.6291900569
26.1607 48.5212 47.6615 31.6256803874
32.3141 46.899 56.5927 26.9594380822
24.6316 44.8867 45.7637 31.5243874203
28.8087 38.7078 55.0876 27.6640791312
36.4325 42.2413 51.8968 28.0217389648
36.483 39.1124 58.618 30.0744813666
31.0582 38.9075 45.3482 29.8234229847
34.3126 39.5192 57.3125 25.8509986577
32.8214 38.7539 54.2824 26.3269947599
35.4047 45.605 54.7446 30.1644331403
26.0381 41.7263 54.7129 28.021584205
26.9961 39.5101 53.2962 33.6890973056
27.8454 42.4501 56.3602 31.5526742578
34.4282 41.067 50.4663 25.8441601068
30.9951 39.7543 55.9363 29.5920594975
27.2366 45.5625 56.2608 33.1989718047
30.7633 42.7474 56.4467 30.8432579576
34.4948 42.9843 54.4508 29.8350630448
36.4929 45.5011 57.3477 26.3893993063
36.6336 48.6202 54.462 35.7915869519
35.6672 40.0476 54.3655 27.2398945541
25.1568 45.7459 57.828 27.8618540199
32.4668 48.0697 52.0744 29.5505841888
36.8169 45.0549 52.2028 30.6656536698
32.5326 38.4444 58.907 28.523935655
24.7394 43.1676 58.7698 29.1988623747
24.6031 48.8396 57.4908 26.1502451808
29.9097 48.8546 50.959 28.0281479103
27.1813 41.3547 58.9503 29.2347413928
29.195 37.1668 44.6231 32.6999928051
46.7962 9.70238 1.28804 27.6191648315
37.4107 0.151504 7.46705 29.4469854296
46.8122 2.04137 15.1654 29.7965420541
45.3167 11.5657 3.1331 30.2300113897
44.1964 0.670757 6.58002 29.0683870881
47.3707 2.05484 8.42306 31.7959892594
47.5031 2.211 2.68146 29.5213037985
44.8274 2.96327 8.70968 29.2715755732
47.0796 10.4564 13.8449 28.9819121547
42.8777 8.42525 12.4559 30.0514397308
41.8094 3.34377 5.54126 25.6468137908
41.2075 7.83242 4.02759 29.303489051
43.8213 2.6458 3.5125 28.0024743501
43.9712 8.29306 1.89872 27.8697742921
42.6578 6.50094 6.54903 27.0909377413
45.3215 4.48515 1.5427 29.9172432723
40.7918 5.20986 4.1929 26.218089125
46.8632 5.05833 4.61139 29.5043350835
44.2481 8.2105 14.9889 29.5749723529
45.5197 0.572987 3.94759 27.8615847419
38.2207 5.558 7.55964 29.8006361705
45.0624 10.8247 6.50609 30.124653451
40.0753 1.68013 13.2335 30.4991597557
44.8834 7.58051 4.37346 28.0196879248
49.0206 6.04074 6.36431 32.2553482519
38.5893 11.483 3.79106 31.0559837513
37.8955 0.454367 4.64316 31.3101559689
47.256 9.27909 11.0887 27.7683541844
37.6808 2.34491 9.44804 27.0973891809
44.6324 4.27373 6.08602 29.3097731369
42.0381 3.33509 10.2496 28.1550106771
40.493 0.89814 4.96531 30.326598841
46.6429 8.83307 5.66638 26.6435728247
48.288 4.98716 11.1806 27.3778029374
39.9178 2.91046 7.63973 28.9029472111
41.0902 5.64486 8.90998 29.7935762211
47.3595 6.75403 2.30585 28.9777704931
40.7557 7.23519 11.3423 27.7408106633
45.6899 6.26067 11.4624 30.4145921166
45.2492 6.05602 9.04475 29.41401406
42.1812 10.5472 1.72048 27.3147696066
40.7118 9.04303 8.68049 31.0937581674
40.67 4.70101 1.50801 29.7792772949
39.4059 7.9659 6.58192 31.148186071
43.8266 8.73969 7.98325 27.9077396668
44.6466 9.42201 10.547 27.4559617247
47.3741 7.48835 8.22659 27.664945918
41.4598 10.6183 12.7379 27.7754615447
42.5135 4.0609 14.9481 28.1874732936
38.1532 5.0714 4.55902 28.0513280753
42.752 10.1445 4.70006 29.0308230406
40.8815 11.7907 8.08619 32.9429666661
38.898 7.53893 14.2312 30.0504770589
37.7526 4.07063 11.9807 28.5402763891
40.3233 4.61512 12.443 26.9544546852
45.2003 1.53697 12.8056 28.02685134
38.4778 8.83431 11.4066 29.4241480213
43.9722 3.78702 12.2899 32.7966001012
39.5568 9.55228 2.04177 29.3848443748
45.0677 12.1715 14.1653 31.7380512157
47.4504 1.4927 11.1531 28.6986075875
44.0315 11.9065 9.86144 28.7445048327
38.4244 2.88238 1.13173 29.1665256573
41.3948 0.562032 2.3531 29.8078468845
38.49 -0.0690727 10.8426 27.4957599517
42.4026 2.5839 1.02888 27.9668646991
37.2038 2.36224 14.3361 31.3216123185
41.1544 0.840488 9.42311 28.7834077436
43.858 -0.0460863 10.0715 31.5424115425
39.2949 11.5724 11.3277 30.5281731111
37.2406 2.48221 3.52998 27.8573115777
37.1056 9.36955 4.88502 30.635650162
47.9165 11.5714 3.65162 26.0387667475
40.9481 11.3751 15.2007 31.1374718349
48.6078 12.0377 11.0455 33.9555953761
48.3139 7.07357 12.7099 29.0674893649
41.3011 0.995531 19.7823 33.8629063852
42.3602 1.96504 17.0245 30.8147756111
43.601 10.7864 15.9086 30.2171761937
43.9335 5.65563 15.9425 29.4031914311
47.2132 4.07236 18.6807 29.1680798247
38.6029 3.31824 17.4852 27.9251596305
39.6262 1.41321 15.772 27.1996482896
41.2549 5.82814 20.1498 26.9232339741
47.4171 9.39727 18.1638 30.5066111412
45.0474 4.48148 20.2288 27.9567940467
48.7178 1.53675 18.5215 30.8489036178
38.4467 8.85355 18.5115 29.0565414034
39.0063 9.58937 15.6672 27.9477843786
39.0451 9.92157 20.6968 29.8584910351
37.9849 11.4006 24.1383 112.1303001682
41.7106 7.66519 16.9082 31.2812242484
41.9747 10.2218 20.6958 30.219718138
45.4334 11.1379 18.2245 32.6605262623
38.5661 2.306 20.1473 30.8338698752
41.4719 1.40054 24.1659 124.2354338214
46.3325 4.303 16.2881 29.0567101889
44.6408 2.55266 22.073 27.7385358987
42.9262 4.15143 18.7533 31.4600175773
40.2264 5.6399 15.3305 29.66460639
47.3029 7.64873 20.3524 31.5294050839
43.2035 4.0248 23.4967 59.0758686025
37.7287 6.32124 21.5492 28.8793544817
46.8 2.04594 23.5375 54.8009129634
45.0385 6.09058 23.7978 55.4738797329
42.4675 10.2014 23.4289 41.0579619585
39.2318 6.00747 18.3898 27.6372669206
39.2298 3.94384 22.4168 33.446961602
47.4719 4.96195 24.3305 116.3323183755
41.3221 5.75453 22.6978 32.121595858
38.1822 8.83392 23.2204 37.4605584612
40.7824 8.14524 24.3079 146.8260579588
42.8206 8.0112 19.4965 31.8125731255
38.3974 1.42229 24.1746 107.2270421539
43.5365 0.218852 21.0176 27.6913421801
46.9405 9.88944 23.8798 77.0234804093
44.8444 6.84229 21.0103 28.1597757027
44.7065 8.59966 23.9068 69.024025155
48.7069 9.14836 22.008 31.0647739527
47.0042 8.61097 15.597 28.1091866428
37.6979 12.2844 19.7606 28.2912535619
46.0191 12.4222 24.3927 99.5098319627
43.5204 12.1089 19.8335 28.3760899755
46.6769 -0.120163 17.2056 29.7665656607
48.0093 6.2653 15.4701 31.1688980217
43.6056 0.771923 41.485 28.1402829754
41.2551 0.423024 40.1677 26.1515382811
39.9358 0.902078 36.2791 58.5077105183
37.434 9.2405 42.4444 28.2655772231
44.7498 5.1274 35.2301 141.3788781777
46.2276 5.55344 40.8164 25.8492624132
42.3365 0.533079 37.7922 30.8441967021
48.7986 8.95479 38.9573 28.1477888043
47.2022 4.42179 36.5952 33.6176382308
43.6584 4.02056 41.3063 29.5619360285
40.5405 6.65481 36.5503 50.6172579242
39.6543 6.86225 39.0871 30.158230566
38.4994 8.60554 35.9598 104.8190531287
40.8356 3.62438 35.8721 107.3615941545
43.3118 6.99678 36.4968 34.254564924
46.1301 9.9989 38.9767 28.2553167772
44.3866 9.17803 35.5925 103.8743412766
43.5203 11.0724 38.7617 27.7071683832
41.8985 9.40936 44.9841 25.9687722916
40.4243 0.221272 44.5665 30.3926143556
40.4106 10.6837 39.5335 33.2023445411
46.8334 3.21569 39.3036 29.3634246181
44.3651 7.17431 39.3016 34.5374914482
40.1174 7.4926 43.8416 30.1818554047
42.6976 11.1492 35.9894 69.9525051597
40.5939 2.98375 43.6439 28.9194676309
46.8648 10.299 36.0692 80.6309409738
37.9085 4.66165 39.1698 29.255213642
40.7706 3.45748 40.8348 31.2494215295
37.61 3.38318 36.3992 62.0516402539
43.4442 3.30191 36.7247 37.001219035
47.4464 0.535731 41.8444 26.2523135579
38.5171 11.8079 43.1337 33.2660860278
48.6301 6.44876 40.0196 29.8307344399
41.284 6.59601 41.4532 27.7445159818
45.9588 8.85267 41.9474 27.4417185626
46.1602 2.83686 43.0131 32.4548024549
45.873 6.44841 43.6175 27.627814389
38.0692 8.99794 39.7678 30.3028617996
38.6016 1.70009 38.8856 29.6675431804
48.3633 4.32744 44.1584 32.7249501376
37.9795 3.58593 41.976 28.0898937763
39.8989 10.9447 36.3088 57.3631762314
42.5877 8.81644 40.5448 26.0249559719
43.1837 5.79378 43.2331 27.6533942587
43.5059 9.98497 42.5356 30.481219718
45.9103 1.64257 36.0843 83.0400739535
45.0438 1.25535 39.0362 26.9021611436
48.0591 11.3796 41.4085 28.9457919446
49.0716 5.85722 35.6224 106.0747252384
49.0904 8.46843 36.5165 37.1756743241
48.4964 8.29301 42.761 28.7375780898
43.492 2.32896 44.5956 30.2962513988
44.2056 12.1205 53.3875 29.4879786076
43.0428 6.77551 46.2341 29.4147530278
39.1863 9.6604 55.772 30.5178131353
43.8399 1.70729 48.6759 31.1807346927
44.0787 3.92313 46.8221 34.4184060205
48.0901 9.02869 51.619 31.9415592385
40.2223 5.06561 45.3617 25.7875242089
48.3647 2.30299 48.0164 33.1148342632
40.3753 5.53044 49.4877 28.7387357445
37.4576 7.71711 45.7003 27.6912167474
41.1679 4.01083 47.5955 29.1615630265
45.5569 7.61504 46.1115 28.1284092977
46.8297 5.94039 48.0074 28.9089157215
39.5053 9.41883 46.7701 27.8731655776
38.0173 11.2327 48.2899 32.2551530641
36.7946 6.84039 51.7285 31.8478495173
40.9473 8.27089 48.4864 30.5710228263
39.9041 12.2001 54.0175 27.2323737847
42.3712 9.67515 57.3783 29.1707386012
37.7928 4.61672 45.1522 28.2296003307
42.5047 11.5605 55.2866 31.6637287672
37.4803 3.12349 47.2996 28.2428681991
39.9513 2.0705 52.0006 33.378393781
37.6883 4.82159 49.5645 28.9110192106
43.7803 3.12772 51.2147 31.832914722
43.8426 11.7582 50.6155 33.0494219293
44.4506 2.1177 53.6615 26.9087566461
47.0787 5.00415 53.3671 29.9055980386
46.9289 2.37738 54.5669 26.1762301012
48.3548 3.46449 50.6235 27.774634335
48.3086 1.36856 52.2868 30.3096196588
45.2851 9.70002 57.4635 29.2510214659
41.5114 4.24205 51.5411 27.537340368
42.0701 6.45275 52.7408 32.5241896458
45.8058 6.83462 55.1111 29.5924319492
43.3382 3.09154 55.6374 27.9211284921
45.7529 5.14645 50.5645 30.2117762844
44.3036 7.2876 51.1928 33.8571990023
45.7409 9.00324 53.3395 34.2213583594
44.0905 10.4245 46.5645 28.9045442124
37.6727 1.87103 50.692 29.0693334821
47.0877 8.53841 48.912 31.9495412241
40.9388 7.39654 56.8327 27.4930407337
39.4509 7.86773 51.8786 33.0727856641
45.4806 12.6211 58.415 26.8598904374
49.132 1.91171 58.7902 31.3627886091
43.6149 9.30752 49.0364 31.3303222695
40.4391 11.7052 45.1169 28.3812408601
46.9155 0.315537 58.056 31.4544027736
39.0881 5.88584 58.0686 29.5375598541
38.683 10.7681 58.3374 27.1343034176
39.2909 0.270498 59.0275 32.4910309791
46.279 0.552317 48.1193 30.5049362078
44.6077 1.98739 57.8537 29.1222277366
40.9684 0.523981 56.7832 29.8889892785
46.9786 10.3965 45.4371 26.957897232
47.2649 10.6344 55.3552 27.56782351
47.0242 4.22724 57.3691 31.3201006265
40.3223 2.71138 54.9399 33.6672527952
38.3043 4.16432 56.0481 28.8753947814
37.9922 11.1433 52.6 29.0606692155
39.66 10.4046 50.3144 30.3294727788
39.6268 6.72509 54.4277 30.006256334
43.1834 5.73917 55.461 31.2230112478
47.2478 7.08031 57.5679 29.3132559046
39.9014 1.15622 47.279 30.6706038914
48.909 4.74112 46.8068 29.7560205267
43.2855 6.13845 58.6191 32.8619935056
37.9487 13.8259 2.62175 28.860668675
38.0172 15.305 13.3655 31.9654879077
43.6915 12.7796 7.56786 28.3649858748
47.3923 24.2893 6.29832 27.159238793
46.822 24.1078 3.86217 29.6065706226
45.3816 20.5484 1.91277 27.643808702
46.487 14.2625 6.92206 34.4204162838
42.3922 19.2711 2.31735 27.2476897629
43.8166 23.6264 3.59286 29.49153095
41.9973 13.7103 2.26099 29.837019231
43.5126 16.8036 4.93545 28.8705183792
47.5666 21.5582 2.62233 32.2067469195
45.0807 16.7875 7.4799 31.233908592
45.757 16.527 3.3239 29.6311163684
48.5298 16.2294 3.95634 32.0954491517
42.4686 21.531 4.28833 29.8775337867
40.3376 15.7077 1.60085 27.0226592845
48.0961 22.5729 9.18624 29.4832982574
45.4724 19.1245 4.69004 27.9971118225
37.6017 12.595 13.0066 28.9123155416
37.9245 18.3347 1.07621 28.4578884368
47.6628 19.5099 6.00891 24.7134319259
44.7488 14.1762 2.00516 35.0925438044
40.9239 12.5487 4.95517 29.4392312888
41.8571 15.0467 6.32723 29.3649078032
37.6541 21.2498 1.55895 29.6618724765
38.308 17.5217 7.30233 25.9997822687
39.0598 15.127 5.5942 28.0630376534
41.5676 23.3398 8.751 28.3083607616
37.3665 22.8363 8.9198 27.6560966307
38.8091 21.2299 12.5593 30.5381168514
48.5923 13.8064 5.07468 28.7272114906
47.8121 15.8425 10.7083 29.7129209938
39.6523 21.579 8.58813 27.7307596775
37.1187 22.0635 4.36207 27.8670372991
46.3064 18.9301 13.7604 27.9630696086
41.045 17.3063 3.6151 27.0211003191
42.8176 16.3849 9.54312 31.1729155989
40.3194 20.429 0.830754 33.7687898324
42.5148 18.924 10.0284 27.2989727832
45.0077 20.3626 9.38822 30.4674673499
37.5312 16.8857 3.34729 27.9371670139
43.2011 13.0008 12.3629 35.2905383167
46.8681 18.5873 8.29432 28.3587181573
