35.2052 0.0761062 47.7735 26.6367151728
26.7346 4.04353 58.5599 28.6342358906
30.9893 11.6456 53.3112 26.1854136393
31.3255 10.0484 51.567 27.9497141057
31.4223 3.46921 57.2777 31.5808160015
29.7663 4.17199 52.1064 31.2408345058
30.3783 10.6421 55.8325 28.1076772693
25.4329 1.49445 50.9388 33.2418241766
29.207 7.94288 45.5364 32.7572156623
34.2496 9.92597 47.8103 31.7282637035
36.362 2.94384 51.522 31.8553581215
29.9517 5.65794 56.6937 35.6641820676
35.6386 4.78768 45.3837 30.0297775238
36.0668 5.76526 56.1404 29.5103925185
35.454 0.534726 54.3551 27.4006512071
27.0793 10.4766 59.1677 29.2132696181
35.5883 14.9265 7.72897 31.482753175
34.0233 22.8778 10.5784 31.7047685238
32.532 21.1702 14.8678 32.3623757742
29.8919 14.978 2.16722 30.4395219676
30.4105 16.8359 4.46013 32.3458275935
36.0482 23.0217 14.5145 32.79663336
34.9491 15.8365 3.52539 30.7789262247
31.1543 16.6855 14.7532 32.4643710578
24.782 13.6034 7.19099 33.6438225345
30.0508 23.8573 11.2192 30.8465474982
26.9756 15.7446 3.93421 32.3933579301
32.653 17.1662 2.75596 30.0513258917
36.013 22.2547 6.81448 32.7248727974
35.3659 14.2805 1.0126 30.561382771
29.327 21.1921 3.83948 30.0234570748
35.012 12.605 11.7047 29.7660674978
27.037 20.0727 4.92305 34.6728713441
27.944 17.5627 6.01209 30.3373683782
35.8971 21.4208 12.025 28.8212176677
26.8285 19.5295 10.4225 26.9185027145
32.9922 21.6169 6.27026 30.024309452
29.6106 14.0768 14.4979 27.1651705693
35.6296 20.0112 3.10803 30.3668830532
25.0613 21.9178 5.6793 30.9888303753
33.5887 22.0401 3.13663 28.5351308479
28.6986 22.7353 2.0194 30.8879876816
26.411 12.3557 12.2774 31.3791006513
27.2633 15.5138 8.1331 32.2997299162
29.0698 13.6657 7.02563 30.2657273244
33.7924 14.3319 5.8643 31.7807132737
26.4375 21.9013 9.09417 31.5220924071
36.4017 17.3674 7.19849 28.9101135094
35.9591 24.4339 2.78003 27.2976597358
30.4224 18.3069 7.48237 31.6642415052
30.5805 22.8639 5.52423 27.7092522479
33.2533 19.1824 7.1617 31.9502882116
31.9958 23.343 8.37452 28.4462073384
31.345 15.2989 6.60969 30.2529143605
34.9593 18.0409 5.12546 28.6908553552
28.6842 23.5714 13.7144 26.9301920072
32.7583 12.8351 13.4384 29.5322638241
31.8713 13.4835 10.521 32.3122221951
29.4382 20.1237 9.28859 31.4425792807
35.6147 15.2013 10.5663 30.2163791539
25.8598 15.7893 12.7793 28.0875325121
28.8572 22.8418 8.39394 29.6176111542
25.1815 17.2878 2.23341 31.5172536931
31.5528 19.8616 2.67964 33.514171799
26.3258 21.0852 12.8616 30.5636784529
29.4037 13.7775 11.9118 27.0656905575
28.8391 15.7003 10.4367 28.9905673703
24.5068 22.9181 12.6388 24.8338804915
31.4218 15.9845 9.45572 30.0139393563
25.2185 19.4547 15.1591 32.0420419733
27.9598 13.0383 4.3726 32.4875891677
25.6192 19.948 2.06693 36.89138601
28.9598 18.1262 14.4565 30.7319607233
27.6541 17.5219 12.0 29.0620974939
35.2541 14.3464 14.43 30.238887704
33.6162 16.8794 10.8082 28.6742509819
31.0475 20.9397 11.0627 32.1021764484
33.6191 19.4516 10.2634 30.091002796
34.4639 19.5974 13.7726 30.1414672141
33.5521 16.6714 13.6057 31.0828109395
29.8991 20.8395 13.6527 30.4615135444
36.3648 19.3136 9.08343 31.563701238
31.1615 24.2439 1.14044 30.1218432368
25.4357 17.7057 8.8692 30.31502748
24.7659 23.6382 10.2003 28.9926697981
27.077 14.3836 15.1521 27.0740627691
25.4069 18.282 19.2001 37.331263939
33.87 13.3306 20.4428 28.5762907762
31.1168 24.3204 19.7823 33.1982073364
32.4791 16.2539 17.213 30.7104019046
35.4872 24.1939 23.6666 78.3520285951
26.108 23.0586 23.5248 40.6019342308
27.2826 15.6809 17.6221 28.3279245779
29.2529 16.3241 20.3916 31.919754961
34.3307 14.4023 17.7412 27.1338326759
35.9827 16.8865 19.9184 29.6357561749
34.3869 19.2815 18.854 31.7809560118
31.7292 19.6307 17.1288 33.3044562574
31.7115 17.6559 19.6569 25.7581371462
29.035 20.7355 17.5339 29.5579044239
25.3909 24.1764 15.8851 33.2958476313
36.1808 19.4009 15.8938 34.1682252838
25.8578 14.2335 19.7469 31.5057351662
30.8786 23.2836 17.1989 32.9108938363
31.1257 12.9965 20.2753 30.5335965816
33.9487 21.2258 20.9606 32.7164276769
30.0333 14.5599 24.5698 132.3977478378
27.984 13.1956 21.0768 30.5149899483
27.7568 13.2869 23.7827 67.8602646385
32.6582 14.1049 24.4307 109.5245259231
27.492 18.1712 17.0142 30.176542054
33.525 16.1835 20.8331 27.0751436963
26.2394 23.1684 20.7801 35.9520425453
33.6174 16.4713 23.3583 30.9389083584
27.7035 19.1728 23.7578 60.0747047056
27.7012 18.8907 21.0244 32.8608541982
29.4987 16.9443 23.4467 40.3412812513
30.1313 14.615 18.2111 30.1975249525
31.8266 18.2328 23.7171 59.3732004102
32.9915 20.8843 24.2747 110.6886589359
24.9008 13.6633 23.8573 102.3500636552
36.1329 16.8091 24.4606 131.762161117
28.3908 21.3286 20.1353 29.0642359088
35.4401 23.3355 18.8792 31.0303127607
28.4082 21.8931 24.3373 105.1552620271
30.1628 22.1617 21.4343 28.4589583643
31.559 19.8668 21.1791 28.6376599945
30.9961 22.9912 24.3484 89.7801463954
33.7633 23.4065 16.5592 29.8590591655
35.6415 21.2873 23.2202 51.2124339553
24.9516 18.4869 24.0778 112.0172652387
27.389 21.653 15.553 31.3664407705
33.3123 12.2904 16.5395 27.9475802773
30.1473 12.1988 16.1985 28.0756647866
25.9803 23.595 35.8819 89.3020222522
26.5209 14.5 38.9008 29.2514332235
36.0582 21.386 44.6946 28.9524772519
34.1145 12.8743 40.1014 28.3289690005
25.8351 17.5499 43.2316 30.3982900448
27.6242 14.6089 36.3041 50.2342236233
25.2961 23.8999 43.4979 35.52997859
33.3762 18.6008 42.7449 27.7193487357
34.7984 20.0605 40.7177 27.0921686725
29.9253 17.2542 40.8327 28.3198486392
25.7991 17.7824 36.4238 44.2793536167
28.7284 17.3052 35.5988 109.7683266118
30.2028 22.1489 35.6208 112.5857030527
29.3245 19.8198 36.6738 33.3168343444
26.0317 21.0737 36.021 69.1280055022
31.335 15.8071 38.5002 28.1082447785
34.7235 14.9214 36.8916 37.9581639454
25.6105 22.9659 40.8589 27.9718758739
33.2282 16.9251 35.3287 151.2224216673
25.6731 17.4191 39.0249 26.9351472458
36.5342 21.8748 36.9896 42.7507013093
27.9366 23.5596 38.8597 29.8993363543
27.1891 20.6988 38.2329 29.5396159172
27.4714 18.6872 40.6042 30.9472722078
33.7981 19.6903 36.3124 66.1155198392
31.9101 19.5757 40.0289 29.4896403367
31.303 21.8743 42.5747 31.4409607001
30.5002 12.5996 36.1542 57.455559281
26.5044 14.5418 42.5196 28.4330092619
30.5903 18.0965 43.101 26.9119165428
29.179 14.895 41.775 28.4982618668
30.7695 15.4777 35.816 59.1652579065
29.3691 13.5717 39.3525 27.9925346035
33.1724 22.3493 36.3011 62.3031328321
33.4641 14.621 43.967 25.7874288937
31.8697 22.2171 38.9849 31.3120309202
34.7612 12.1925 37.3891 28.9495798425
30.9313 13.809 43.7032 27.4766771713
26.476 20.805 42.0543 28.3055263193
31.6101 18.5542 37.7126 27.1812922019
29.3784 20.4651 44.1277 30.5517725264
34.2307 23.3634 43.3777 27.9282501553
34.3961 16.2945 42.0436 29.0329124081
33.6075 15.2786 39.6481 28.5579760927
29.26 23.3286 41.322 31.3857849019
34.1864 22.8498 40.8026 29.7978496638
36.9159 23.5144 39.2825 28.275311005
35.8335 19.0819 38.3831 32.8974179461
36.7847 20.3487 42.4574 25.2129258028
36.8038 16.4429 38.2181 32.4310097248
24.6506 15.1839 35.8869 137.291219557
27.0461 16.1702 46.326 28.5796972492
25.1975 12.6744 56.1036 34.7082671304
31.361 16.7828 47.104 27.4844216786
27.3184 21.7577 53.7979 30.1068989694
33.3701 16.3047 58.5606 30.3395150853
31.6308 14.1892 47.4872 33.2771571053
25.2334 17.435 56.2968 32.3228691114
27.0331 19.526 45.2266 26.2099900032
28.5342 18.8949 47.3461 27.0098661375
36.4542 20.1475 58.8516 28.8435586329
33.2554 18.0513 45.4071 27.9072089913
30.6266 17.8219 49.8155 28.5771475014
31.3892 20.8556 53.2415 28.6564158565
27.7651 13.4655 55.2933 30.6573764527
34.4831 19.5505 49.2751 35.753068378
33.6879 23.3377 59.0307 28.0577919722
27.3602 21.2292 58.0609 30.6431812253
35.433 19.3351 46.4369 29.5205122772
26.3074 13.5612 45.1255 32.4859512769
31.0369 20.1525 46.2409 29.8254967627
28.547 22.1466 48.0386 28.398306086
31.4029 22.0202 49.4971 32.1221475118
35.1895 23.8599 48.6075 28.7696524239
29.8083 16.3825 45.0367 29.7666649268
27.1344 15.2279 49.0039 32.3924283906
33.9484 21.8606 47.6343 26.96584054
25.2924 16.1722 52.7716 30.7822664889
25.6004 24.0938 53.3527 29.6447185095
29.2433 15.7186 50.9622 26.5051662599
36.4715 21.9643 52.1319 27.8237446874
30.5914 13.6856 50.268 28.6417361185
34.9806 18.3923 57.6668 29.9640806831
32.297 14.1336 53.7912 30.8843228269
33.3134 14.3806 51.3241 29.1375471727
34.5004 24.3256 55.7431 30.450307666
27.6264 19.0839 52.7825 27.544575677
26.7947 18.469 49.739 29.6583433633
27.9244 16.3572 53.3556 26.1070431173
29.6577 20.1054 51.1214 25.1156645671
30.7606 16.2888 54.124 28.8790129214
33.2423 17.0968 50.449 32.5298446141
32.4406 18.0626 52.9853 29.8256719291
31.4556 24.2866 56.4166 26.2217702886
26.456 23.8948 57.5793 30.4362476224
28.4654 19.3116 56.0805 30.4247809286
25.4786 21.6444 51.2977 28.0220073593
30.6267 21.796 55.6219 29.046813238
34.6635 21.8822 54.267 28.342895794
36.9433 20.0994 50.0287 28.1209515875
25.6882 21.8194 45.2237 32.2725043831
25.6641 12.7317 58.9026 29.4126991873
32.7236 22.4533 45.3457 25.4708499279
27.144 12.4138 48.2745 30.3877920783
28.544 12.8736 52.6738 31.9440608368
33.7985 12.4902 57.7627 32.1943065979
34.8923 13.8095 55.5056 30.49908205
34.6352 15.113 46.0124 33.3290772421
34.9868 16.6175 53.4332 31.4088458967
32.5495 22.9881 52.1874 27.3806241107
32.7242 20.9549 57.1622 30.6040555739
31.1867 14.3634 58.1108 30.2103343089
30.6185 17.039 56.7543 31.5016401903
28.0179 16.0545 56.6816 29.2437783707
30.2341 19.7708 58.4376 36.1359944743
34.0297 19.5044 55.2431 27.3607502922
36.4948 22.981 57.8608 28.1619658098
35.3883 13.4803 50.2111 28.7346175905
26.0778 21.5877 47.8698 27.693391302
34.6581 12.7073 47.6076 30.6387782266
28.322 22.3214 51.0389 29.7715102003
36.6988 12.4244 53.9989 31.0108372858
25.3959 20.4039 55.8538 30.2575419463
24.5955 24.4231 55.8033 27.6095099913
36.4236 16.364 55.9788 30.3667328783
36.9852 19.4796 54.9645 28.9777083889
35.0244 24.0891 51.11 28.0016427908
29.1181 24.4908 46.8878 27.9187353379
29.1978 12.3094 57.4266 29.9190191502
27.5954 14.9737 59.2444 31.9506976603
29.6098 30.1767 4.03336 31.4475507651
35.8009 24.9948 8.83275 29.5192351814
33.0356 28.3015 3.35102 27.7051449978
33.4288 26.0868 5.71396 27.4388897063
29.9849 27.3339 3.107 32.273393915
36.4497 34.0047 11.0057 27.0087974567
35.0018 26.6889 2.36584 26.9020404259
29.4642 34.7069 10.8926 31.605964841
29.4794 32.3545 2.3281 29.2504189518
29.5798 26.8666 8.04571 28.529624699
32.6079 31.5882 5.76329 29.900578835
34.2251 30.8584 2.04 25.182269555
26.4983 25.1073 13.5125 31.0676573406
31.5252 33.5327 4.52734 26.5265722133
31.5594 29.0419 5.96354 27.5895104967
28.5738 26.4612 10.5418 31.9178020183
35.8797 34.3968 2.05284 28.7973944431
26.3968 33.2567 4.55499 29.046900077
26.1046 28.0317 13.9152 29.7822326661
24.8352 33.2299 14.8318 28.1775301882
29.4726 36.0067 6.87082 32.9633841194
29.3084 34.6876 4.38559 27.9201062804
32.293 33.3427 13.5486 29.7164631145
26.6674 33.459 1.81154 28.1160439807
26.8011 36.5384 8.05362 31.0398405856
25.0682 35.7746 1.18093 30.6219814967
36.5508 26.0665 13.7235 30.7477148782
25.8723 26.0109 9.72414 27.467277347
35.9431 35.6226 4.27663 29.3991755017
30.107 29.6002 8.30224 31.4513658844
25.3878 35.9174 11.3621 26.1134193647
34.8096 28.7801 6.21467 25.8563493795
25.7172 34.1355 7.366 27.8854831934
29.2678 29.041 11.4712 29.9211925589
29.7434 33.6544 8.36997 29.9457974779
27.3869 31.2553 5.50851 27.8880334104
27.9177 31.7871 8.08136 28.5729068905
32.6665 30.3491 9.53968 28.5209728936
35.8778 27.9346 12.1646 31.4447858621
27.9321 24.8737 3.83056 30.8717684452
32.3711 32.8518 8.32406 29.1823510002
28.8751 31.9317 14.647 31.2373992977
25.1384 32.3849 12.0351 27.7835429536
32.1115 29.0724 11.8167 29.4488708642
33.9082 31.5926 12.3557 32.710693872
27.2826 30.7418 10.7961 31.9696672014
33.2581 35.6926 5.25969 29.7592232047
33.7097 34.1422 10.124 27.3887673887
28.4146 25.0323 6.58117 29.0529615771
35.1132 29.7287 8.55039 28.6931296455
28.5777 29.2313 14.2559 28.6353294252
31.1178 35.6505 12.6654 28.6408072455
35.9799 24.9097 5.74648 28.203654354
31.9105 25.8938 7.97115 27.663886092
31.9372 26.3245 14.7656 29.2260602092
27.1301 28.525 1.71545 32.7563891938
33.0472 33.2944 2.01708 31.3955487998
28.4815 36.4073 2.70538 28.8438824604
27.9952 33.4973 12.8148 28.9029265901
26.4614 35.2647 14.3721 30.8838947477
33.2764 26.8292 10.5169 29.4177179809
25.5419 29.0953 6.06404 34.9572889748
31.2909 28.7687 14.57 27.918678628
25.5337 28.2132 11.0682 29.5190020847
36.4935 35.7803 13.3874 29.5643740447
36.3052 30.4089 13.4754 28.6575011478
25.9084 26.356 7.13873 29.3015466667
27.6674 36.786 10.5984 31.0645105568
35.464 31.0441 4.66513 28.3510618279
33.9589 35.1259 14.8709 30.9977010154
36.4527 27.5774 9.45291 27.0418620893
34.4177 35.6837 7.87682 33.1011749474
24.8525 29.3086 3.51809 29.9440561267
25.1734 24.6409 5.08722 33.1140801788
32.6167 24.9644 12.1238 33.7874751558
36.9404 28.766 2.9561 27.7343067674
26.4737 25.6921 1.49476 32.0802430791
31.6639 29.8679 0.948351 32.9871567854
33.0684 36.6095 11.0589 30.0824729945
31.9798 24.5214 3.8725 28.8966016691
26.2357 26.4931 16.8835 31.9485927872
29.7489 28.6341 18.8072 33.3379174638
28.6332 27.3986 16.7015 31.281769329
30.0207 25.1795 15.4982 29.9168972656
26.693 34.113 23.8228 46.9709701129
25.7373 27.8484 24.1095 89.4278956374
34.7642 26.9918 18.9726 30.6832396032
27.0288 32.081 16.7885 31.6883771934
25.0771 27.13 19.6015 34.7574302012
32.3932 29.162 18.6591 31.9694235178
31.1641 25.3876 23.5521 34.2651374774
28.9549 32.6459 20.9835 29.2039586012
32.8548 30.8063 20.7224 30.9861390704
36.6013 28.7784 17.3912 27.7329604803
35.4362 30.8047 16.0318 28.9396375707
29.2407 36.178 17.4784 31.2454660539
27.7125 30.8788 19.1779 31.9931098847
35.7361 33.1197 17.2734 30.0572108235
31.085 34.2057 17.9018 30.210960277
27.3183 36.5996 24.4161 111.7368562405
35.475 35.4234 19.8099 29.1389134118
33.5611 35.3881 17.5758 27.1600305997
27.2517 25.6956 20.9226 33.4515096703
27.288 25.9596 23.7123 56.8228238213
29.4654 27.3752 23.8302 78.752906211
26.2508 30.2239 23.1804 30.1239400698
34.183 31.6078 24.116 89.0578587535
32.6733 29.749 23.4407 44.0113784949
36.6648 28.0035 24.0916 80.3636221911
33.6437 26.5445 24.2805 110.2448255392
29.8459 26.596 20.657 30.191187735
29.9742 29.9107 23.1412 36.9245368173
28.1 31.7275 24.4195 125.1624506596
31.3078 33.1571 20.1949 29.3449309205
32.7681 34.1647 23.9733 68.718678761
36.6529 28.2233 21.321 30.0243334222
33.2662 27.5946 21.6287 27.7801560924
35.5292 31.0092 21.5112 30.471909696
27.4751 36.3852 21.197 28.7887365739
26.8377 34.9136 17.6629 29.0877607667
26.5606 34.0919 20.3863 25.9842011033
29.9397 33.7159 23.6729 47.473652886
32.9316 30.0687 16.1585 29.1307152059
25.7167 29.6992 20.4988 30.455037208
33.2251 34.8963 21.2296 30.0910840558
36.4845 34.0268 24.4526 118.7163934338
29.8157 36.4981 23.4733 37.731246953
34.3454 25.7992 15.9482 32.0635162981
31.48 32.351 15.8292 31.3282878853
34.3687 36.6233 24.276 73.8727274531
33.6498 24.8258 20.9276 30.7116887312
26.74 36.1767 39.7545 29.1292469345
26.2873 26.6539 36.7092 57.7690253336
33.8774 34.0281 37.0383 32.1190132766
31.4155 35.5497 39.3195 28.9301302094
34.8958 27.5116 43.0988 28.2658674439
28.682 28.152 36.6885 62.915712627
32.9107 25.3595 35.8248 126.9243072804
34.5347 36.8943 38.9719 28.1347765712
31.8151 35.9382 42.0927 28.4066428624
26.2409 32.3593 37.054 54.2306263066
26.2669 30.7898 39.1445 26.8625153949
26.1404 32.603 41.1559 27.9461788235
28.87 32.8294 37.0231 28.4129679024
30.9235 26.4232 37.2771 30.6287280849
30.248 33.1925 39.1635 24.9704690516
32.4092 29.9071 37.0346 34.3320144004
30.0028 30.6113 35.9822 130.6727132989
31.7681 28.5601 39.4195 32.467260968
36.6142 28.7939 37.0781 33.2461854407
35.4769 26.3865 36.7615 40.2951082391
34.7939 30.0422 35.6876 118.2262736026
36.3954 35.1051 37.5981 28.8035624475
28.3701 34.3648 40.9485 28.6630433971
35.9235 25.5767 44.4045 29.4863085664
35.1773 32.8863 40.6735 30.4069379644
33.2186 26.5074 40.6714 27.5140611673
25.8704 26.083 39.3369 28.0831625658
32.9037 30.7263 41.8243 26.1389274604
28.5085 29.4487 39.3128 27.2257742245
27.5572 27.5625 40.9642 31.8558091547
29.3887 25.7276 42.5239 29.7980743726
34.9292 35.5872 41.5974 30.0533681786
35.4985 26.0072 39.4602 30.3828049688
27.1682 28.6468 43.4759 28.6363544835
35.4898 30.4243 41.8573 29.7317205699
32.9878 32.0539 38.9149 30.1348731373
30.2405 31.174 40.9033 26.1203107803
29.1628 34.9834 35.6023 132.3270501456
35.5485 32.4611 35.6518 103.025457002
28.7862 34.9956 43.9289 28.4895456217
30.9231 33.378 43.0043 30.6628070364
32.0533 35.8311 35.9008 91.1292875639
27.9163 31.2114 42.6789 27.3439479966
31.7732 26.3412 43.2495 29.9791432544
31.1469 25.0694 39.535 29.8185477572
25.2452 36.5308 44.3545 29.5102956479
33.6119 36.3004 44.189 27.8443866429
31.8889 29.2089 43.8033 28.0524837552
27.6949 25.5308 44.9166 34.7693066001
25.0056 36.8093 35.932 88.0728237348
28.862 24.2881 36.1847 64.7602874636
36.1586 32.2898 44.2667 29.9426781985
24.6417 32.3734 43.6973 27.5964743732
24.4784 29.4478 42.8035 29.21652874
29.5043 25.5284 50.6396 30.3751926456
24.5873 26.7684 51.9163 30.8596215247
30.4893 33.4116 58.357 26.8993506396
30.2784 28.0973 48.1883 27.0431244634
36.1886 26.202 47.0135 30.8208234593
28.6907 34.2162 53.6874 29.7816923894
33.0279 34.0227 51.633 29.1723613698
33.305 33.9911 57.228 27.4777452123
26.0468 35.218 52.7643 25.0678395849
27.8679 26.3119 53.6494 27.9174569894
27.9712 26.3971 48.5051 27.270075734
29.7396 29.3682 45.7577 30.4762175062
24.7523 35.815 55.049 27.993698525
36.1549 32.7558 56.7272 29.5170904259
25.837 31.3457 54.8536 28.2388437414
35.0631 30.9527 46.2919 29.1045668048
25.2907 25.7048 49.2593 32.1455197894
35.4076 27.1676 58.1329 26.9235353558
28.9056 30.8266 49.0695 27.2117032405
26.79 35.1633 49.7012 27.9256906491
30.9031 31.8561 47.1529 28.5948463883
29.6196 31.2981 52.5658 29.4740808556
33.6909 28.385 45.7197 30.6290994849
26.0938 28.4633 54.6761 30.1479282186
32.3879 31.6418 52.7188 26.7416742883
30.8568 24.6327 53.4052 28.3808603395
32.5049 26.366 47.6385 27.6234510046
28.6414 25.1698 55.9985 30.8040269167
33.4991 27.1646 51.1303 27.9109092671
36.0899 26.5089 54.6078 28.8756051543
25.9428 29.4034 51.7048 29.1840700114
29.8521 28.1798 53.7838 28.6786073005
28.5153 28.6846 51.1363 27.334015539
31.3992 24.4915 45.7515 29.9452192678
31.617 29.4473 50.3315 29.3445386676
33.1081 33.2296 48.6204 27.9613765529
26.4698 33.081 56.7958 30.9613123776
36.0413 36.2405 52.4169 32.5045553348
28.399 32.9374 50.6703 27.2718958967
25.515 32.6062 52.292 29.934760189
30.7276 34.7985 51.1391 28.4298941121
31.0848 35.7366 55.361 28.9638135073
33.9442 30.7163 49.2607 26.0799044045
32.0643 32.5331 55.2865 27.9206283198
33.7215 36.1083 53.6819 29.5417424819
35.2565 31.035 51.6803 28.5643825068
28.1878 27.6032 57.4677 29.7524081829
28.7363 35.5829 58.2958 29.4304610268
32.6893 31.9168 44.974 31.6431092116
33.0249 26.8785 56.9362 28.9416492667
35.042 30.1588 57.9061 26.7904723158
25.3326 33.3296 48.117 28.558605508
35.8105 34.9567 44.8335 28.5053701023
36.6193 33.4206 52.1897 31.4862772896
29.1518 34.4937 47.174 30.8158116773
26.5087 28.0542 46.3068 27.1534441759
26.2089 30.8433 58.6437 30.5295621133
32.9061 30.1453 56.3985 29.0446818614
36.7763 28.8831 55.7321 27.9696220556
32.1903 27.06 53.7435 27.7204978364
35.6899 35.2554 55.631 29.7723180529
28.6813 29.7619 55.9835 31.1706014504
29.3661 32.6012 56.0553 26.2783253254
33.9808 29.3076 53.9568 29.3684366996
35.0696 28.2893 49.1643 29.5663641205
26.6242 30.5642 47.2457 29.7432728659
35.4556 34.712 47.9202 32.7606278524
30.6963 27.108 58.7342 28.6810529862
32.0148 25.1464 49.7355 25.4225779764
25.9377 33.8802 45.3496 27.9496899525
28.2537 32.0435 45.3428 26.0792650187
36.5045 36.2381 58.1933 31.1291746852
31.5782 35.4987 48.525 27.6276996405
26.1723 36.6865 57.3682 29.2660613109
31.4385 36.6814 45.8911 31.6900009944
32.0345 36.4947 58.1084 28.2518267032
30.8787 37.9824 1.91242 32.8176054211
28.3124 40.217 3.94762 28.4943660873
29.1889 39.6102 6.40409 32.4207312192
32.9436 38.1176 3.59291 29.9521713426
24.952 41.2187 0.927501 31.9687555293
31.6074 37.8588 6.59779 30.4270155793
29.089 48.3255 3.7919 35.681914461
32.642 38.1004 15.1029 31.620732672
33.6356 46.2048 15.0955 30.610215433
32.8441 42.4626 0.951095 29.1450024296
36.4684 42.3375 8.86426 26.8614806335
32.3053 40.8127 4.58778 29.3135973417
30.4894 41.2737 2.37072 25.828820091
27.9271 46.7927 7.78252 30.5837234144
36.3514 37.7245 8.10831 26.7424337226
27.2111 45.8811 2.94842 37.1976683131
29.9431 37.1066 14.8728 33.1187094114
34.4765 44.278 6.67428 27.8241240417
32.5089 44.7941 3.27407 27.2739901188
31.9452 47.1345 7.73242 26.4450593819
25.2922 38.9459 6.97572 29.4974758436
31.7768 45.0677 5.9262 27.2534268333
36.0119 46.4405 4.6581 31.5234167292
27.2173 40.1353 8.46472 30.0411963724
27.4281 40.5597 12.8208 29.1000057083
28.3169 39.5201 10.8343 30.5972631207
31.3635 39.9308 10.3111 31.4529634303
34.8356 39.3953 6.35365 30.4872463813
25.0071 42.8546 14.4435 30.7205368406
37.0076 40.6674 12.583 33.4702158758
30.4785 42.4698 6.1935 28.1810146599
31.4232 40.7152 14.5321 27.0001010784
29.7621 44.0159 2.61556 30.3430938911
29.2999 43.5922 9.50858 30.1527189042
31.8473 42.1416 9.18496 28.0070130696
34.1967 41.6906 7.83109 26.771627421
34.1703 43.0093 4.14512 28.2979261544
36.2792 46.9586 9.1103 28.9469843131
24.6257 44.5672 3.18499 32.1913068722
29.7955 46.1126 9.42314 28.4309266445
33.0185 43.6667 11.2546 30.2627512795
29.1168 46.0643 5.5624 29.5143459162
30.1694 43.3595 14.0619 31.3265492997
28.0787 42.8996 4.5559 26.4194008976
29.8253 47.715 13.9983 28.7542183995
32.8796 46.9214 10.5637 29.8499563061
25.577 47.2418 14.2838 29.3656393535
36.9781 44.5516 12.5334 26.5145767326
33.0841 38.4761 8.97993 28.1703278762
29.2048 39.5856 14.7568 31.3932016157
25.4091 41.9648 3.6477 29.421103851
34.698 38.0944 12.8313 33.6107289696
27.5077 42.8527 7.45615 28.3905511603
36.1008 37.9197 3.06553 30.2885184101
31.6726 48.5049 2.52967 32.664550989
28.2972 43.23 12.0911 32.3026812555
26.3275 44.9597 12.9097 31.7087205038
35.3985 44.3559 10.0403 27.3896054847
34.4405 47.2776 7.00615 28.8045963805
32.8774 40.5688 12.3771 30.063560902
31.6134 45.7744 13.0973 29.7772245236
35.1223 42.6779 13.3029 29.0250838115
28.1165 47.345 11.5866 32.9359894428
35.9282 46.9487 13.4952 28.9137280386
26.7848 38.262 2.73639 27.674680565
35.0115 48.5949 11.8005 32.6888406884
34.1892 46.9847 2.25614 28.4518431064
24.7415 37.4848 13.7736 33.9500225839
24.7318 42.581 8.16214 29.8380423892
25.5364 45.4747 7.56729 33.4759291761
36.6365 39.9137 9.95254 30.8654984412
36.2727 42.0333 1.89879 32.4769316982
26.2828 48.1997 1.5284 32.8278939214
32.0891 37.51 21.4567 31.4261952501
34.4082 48.9103 16.0154 28.2078911249
33.7666 37.9862 17.61 32.3351851281
35.7874 39.2797 24.2598 88.4367925242
26.4033 46.024 21.5175 29.265048693
27.7019 44.6095 19.2957 28.8631657087
25.0517 40.6384 23.8154 37.8745198382
34.0043 47.7807 20.4552 29.7283884079
25.808 42.6947 19.8857 31.5806389288
32.0172 46.5383 18.5159 30.6281947078
29.5601 48.2968 23.0393 48.2632659025
27.5164 48.1588 18.0704 29.1385009793
32.7035 43.4686 19.455 29.6892741048
24.7833 39.1704 18.3367 32.3361722106
32.0503 38.1057 24.1817 93.186752455
25.6053 38.2835 21.093 28.1477835364
34.1093 47.5328 23.255 42.8900667997
35.3779 40.7081 20.4392 34.692448265
25.8696 45.8917 16.7489 29.2980640836
26.5706 43.181 16.5 28.442907876
31.9984 42.1146 17.1384 34.0103244576
24.9455 38.0254 24.3018 87.1775032262
27.2676 40.2981 16.9801 36.832790667
30.9516 40.8724 23.5662 48.090807059
32.4257 39.535 19.5497 32.7406049855
28.7745 40.0611 19.3713 29.7494369567
34.3901 43.2191 15.802 34.5502512857
28.0885 41.5312 23.6982 58.7317255746
29.5558 37.5861 19.6407 30.8560350947
28.0436 44.1754 24.6815 137.8485684317
30.2146 41.6748 20.8614 30.3366301863
30.2072 44.5355 20.6061 30.7604558443
29.8655 45.4797 23.1029 31.3463803956
32.6891 42.8465 24.3964 112.8035628419
35.0293 41.9537 23.4242 30.5302563264
35.077 43.3492 20.9816 30.3071133965
26.9245 40.7281 21.3972 26.8155104136
36.1408 38.1614 18.5567 34.4497574927
29.4717 46.9416 16.7729 29.9882443907
27.8437 48.3448 20.9028 32.4402501321
34.1716 45.4194 17.7055 24.2968821582
32.4435 45.2976 23.7253 72.7780673245
29.4832 43.9199 16.5952 32.5329146616
36.6207 37.7195 21.6086 28.9054002679
36.3449 46.0052 23.2482 34.4465376883
25.7934 45.955 24.4066 85.2462610178
36.1405 46.7169 18.9237 26.1648148097
25.1499 48.8297 24.2185 87.16925868
31.8264 49.0794 17.2712 29.9555590141
26.387 39.8382 36.5267 66.5044252251
32.9725 42.428 44.0287 29.713168607
35.085 41.4621 35.9229 101.2105517641
34.3023 44.9022 43.5446 27.6204301569
29.349 41.2008 40.069 28.1277751382
27.5349 36.8131 36.7914 34.0221359473
26.7425 43.0567 38.7202 29.9839592166
28.4786 38.7002 40.1326 25.8820951442
25.9731 42.8297 42.769 31.6427802602
33.3373 38.2761 36.1955 66.0121696955
36.3196 41.0155 43.8675 25.0153564358
35.3526 40.7875 41.2376 29.9940041319
28.3766 44.7367 40.4304 27.7959292484
32.3978 41.3316 36.4157 45.9783209773
32.1725 41.5856 39.5755 32.410767009
28.5198 41.3392 37.0264 39.7027751483
30.5307 39.566 35.9657 108.081514887
31.13 48.3719 38.7312 31.6657723576
29.6397 37.9334 42.462 31.5000262378
26.3291 45.1712 36.7707 37.4712670575
36.6444 39.0375 40.0266 27.8430799818
30.5976 45.7462 39.4122 28.2282306481
28.6304 46.5597 35.6942 124.1780912318
29.7114 44.1789 36.6092 54.1100867168
32.5809 44.3801 36.2974 59.7174423195
26.9161 48.4493 37.1438 36.762546605
32.4919 38.9262 39.1659 30.1185694105
26.7554 39.7223 44.2643 28.5317590344
26.1516 39.7918 41.2198 25.1924734213
33.1471 44.3791 39.021 32.6991122082
24.8682 37.5879 41.4409 28.5508314634
32.7904 40.2112 42.5631 29.8836042164
36.5034 39.3608 37.2595 30.7085947558
36.1383 44.7554 38.9612 29.1703556187
30.8544 46.9657 42.0952 30.3552470366
35.0638 48.7723 41.1329 27.5909542463
30.0952 37.7778 37.9782 25.5972663847
26.5999 45.3886 43.7763 29.2381279088
33.5587 46.3624 41.3927 31.2993803791
28.8267 42.5129 42.2715 27.0028302851
28.3767 48.9559 39.5989 29.7058019453
35.0304 45.8819 35.435 110.9856606107
30.6853 44.5049 43.1931 32.9560054699
25.0554 40.5234 39.0936 26.4626411439
26.8526 46.7855 41.2876 28.3306694029
33.878 48.4036 35.4679 108.9088639223
30.3817 40.2886 44.133 28.9151293681
36.5249 47.3509 39.1859 30.3623370716
36.5575 43.7744 36.4856 34.6515882929
36.6164 47.4531 43.5489 30.3683295189
36.5416 43.6696 44.1226 27.0545628077
31.082 48.2386 35.8672 79.5355352331
27.84 48.7019 49.2638 28.194734166
27.5889 41.3909 46.2782 26.5713989593
34.5991 40.6214 49.4571 28.332193987
29.8675 39.7368 46.7502 27.1016517798
35.5189 42.7752 52.7659 28.4751309332
36.3955 46.3077 54.1953 30.1071275022
28.5584 38.5764 50.8597 30.2771615879
35.8117 47.2108 46.0793 24.9831864505
25.3147 47.7663 50.3606 34.21223092
33.5785 47.5828 57.3443 32.5277171371
24.8191 40.1478 54.3439 30.8842601716
26.7349 47.2177 56.0253 31.4093199307
25.3806 43.3439 49.8003 28.3763535226
25.9812 45.5264 48.569 28.3905819175
28.2356 37.4745 45.4618 26.976169291
29.0394 43.6353 45.5537 28.3301606395
34.5035 44.2572 48.2428 28.4902913548
35.7187 39.9461 53.5482 31.5809168153
25.7252 43.3784 52.7307 30.5807327817
30.4423 45.0896 58.2839 31.2759421985
30.083 37.1445 52.603 27.9905606443
25.8977 41.5865 56.325 28.6363381726
29.5043 47.0866 48.0261 30.2593071047
33.5931 45.8911 45.9574 29.881004203
33.1679 37.7239 49.1516 32.1239513342
27.8623 41.4654 52.4621 30.8075054743
27.9015 37.5668 48.3273 29.3588115513
25.205 38.5203 49.1073 28.2725758705
32.5254 38.3403 52.7627 28.8105587113
36.4833 43.1327 50.1988 29.7612277719
33.8951 41.574 55.7503 25.9591312752
31.9739 40.7496 51.0196 32.3290471068
28.0039 37.6441 54.9468 33.9109412281
26.6166 41.2413 48.9877 28.3589572356
26.8798 39.2473 58.4747 29.112891497
30.5439 42.8435 47.7753 29.332772279
32.6315 39.3443 47.0776 26.8809728777
30.1799 42.0683 53.8546 27.2244924062
33.0962 42.2307 46.9246 26.5005299643
25.237 45.5137 54.8213 27.7787845707
31.8437 40.0738 54.8855 29.6837207717
30.552 44.9862 49.7035 30.8412100674
27.0855 46.2945 52.2279 29.8891997187
35.1733 44.2322 55.9245 26.2005005447
29.0575 44.5161 51.8366 27.5847548374
34.2005 37.7248 58.8446 32.2309799165
32.9577 44.9964 50.4657 28.1931905634
26.099 38.1607 52.2278 30.0757396873
34.1444 44.9302 58.3855 26.9946281514
30.3747 45.16 53.966 27.4785151696
29.1279 40.6498 58.3486 31.4929103061
31.8385 47.8279 46.4209 29.884065043
33.0593 46.2686 54.5303 30.5605562201
29.3238 41.537 50.0249 27.493571248
32.6996 43.2118 52.4417 28.3076415852
28.3294 42.4251 56.4391 31.037953503
28.7123 44.9316 56.254 31.6640692219
31.9918 43.4046 56.3433 27.8862026463
30.2391 38.632 56.3024 30.337924569
35.9218 37.2269 49.5113 30.3642045882
33.3084 48.5548 53.2735 30.0038816251
34.4553 40.5926 58.0846 31.2322343316
34.1408 47.3401 50.8422 32.5867778768
27.5218 45.5167 46.5547 27.7947645664
36.7772 39.8735 51.2118 29.2962280898
31.087 47.8105 58.1409 32.9141556926
28.602 47.7328 53.7366 31.6510115278
35.941 41.0933 46.9161 30.8710917514
27.4295 48.3516 45.2126 29.9904325744
34.455 38.8411 44.7314 31.9428457814
32.6578 48.8647 48.7107 31.4808769404
41.8207 1.75726 1.94746 29.087162579
37.987 9.63874 2.08106 28.9084665094
46.3241 4.28456 1.50421 32.9440328553
43.7627 3.75095 2.43257 27.9108300711
47.9827 4.88245 3.67589 30.0369312551
39.759 4.08652 2.56027 28.5173653805
43.3923 3.03337 10.08 31.0076686293
38.9385 3.67422 5.4632 34.5000597793
40.4565 10.7924 10.046 31.398296866
44.6356 6.29853 5.02815 30.3960088224
40.532 7.53216 4.39755 30.6151587628
47.1893 7.48335 3.90458 28.5222228531
48.0634 2.91206 11.5355 32.911481039
45.8991 5.35826 13.8968 35.2486593582
37.4242 7.23008 15.2103 30.0259690649
39.1165 6.95572 13.2978 28.4934382784
46.2722 10.7542 1.10796 29.9622400958
42.5315 10.9114 3.408 31.1596052894
37.5228 0.0785261 10.1276 27.7866108893
42.8673 10.7362 12.9714 30.4361104359
48.5834 11.3716 1.8134 30.0961028673
41.2313 5.23771 13.1167 28.7277400559
47.979 10.518 9.85705 28.7706228266
38.0529 6.44528 10.8656 29.6669620076
40.48 2.03434 7.74012 29.7544295294
42.0733 5.05031 4.17348 27.0080120679
42.4986 3.54772 6.49441 28.9538581171
38.5881 1.52435 13.8824 31.5075362947
47.5865 1.07579 9.29755 34.838609131
47.1552 2.86236 5.30207 35.1986847694
39.3562 6.73731 8.03682 28.7175533402
46.6068 6.66606 8.88013 31.2722839714
38.0428 7.20853 3.29298 29.7407723245
42.5913 8.09045 6.72819 28.2231567095
39.7332 9.62688 7.77582 29.4855298679
45.0641 9.97479 13.7432 26.0652150867
41.7214 8.18205 2.13111 28.9740195401
45.0547 9.39124 5.51358 31.6140912725
45.4488 4.56374 7.18675 29.7787902159
48.9685 10.6607 14.1784 31.6576891455
37.1841 11.8361 3.12753 35.2678327741
41.5303 11.2233 5.81445 27.6145109393
37.3022 3.33088 1.95654 25.6733193266
43.8821 0.457825 6.33098 30.9083351428
45.1767 2.19536 8.38244 29.2142605148
47.1809 10.0914 7.36295 32.3155033123
45.1133 1.84295 4.14153 29.5840906038
48.0993 7.51895 6.51306 33.3463927347
42.2396 0.929296 11.2827 33.4693293536
37.8488 9.23331 10.643 29.0057078567
37.6041 6.17585 6.33098 33.2290609184
40.3184 3.01976 12.2484 30.7466779474
43.8887 7.8865 8.89359 31.3737944443
43.9791 7.40962 13.4985 29.7696429744
37.3771 10.9207 7.69264 30.4324704122
47.5306 1.3027 13.7418 33.1196085955
45.7598 4.73734 10.8549 31.0559442518
44.8354 9.24661 2.48548 28.4086081918
41.5599 5.39874 8.62092 28.9497254644
39.1187 3.79449 9.91724 30.0410295517
39.5949 9.70817 12.9555 30.5951626033
43.2039 6.13391 11.0748 30.4518341204
43.1603 10.6225 9.92881 33.495063937
47.4534 8.38415 13.4664 30.6015427888
48.3673 7.86489 10.7925 32.8813655613
45.8318 11.9921 10.7554 32.9250479938
37.3168 1.45764 4.31251 33.4911370099
48.1459 6.37196 15.0223 30.3083883755
47.3147 12.1511 17.4942 26.7134431642
37.9231 3.12519 20.8677 29.1666450043
40.8106 6.60636 20.9713 27.6557937175
44.5633 11.8278 24.0911 99.026648297
45.6697 4.35567 17.861 28.8198988571
38.3303 9.3827 19.2695 27.7317106049
41.6646 5.12122 15.6296 29.8319494756
49.0319 5.86426 19.6814 31.7491043083
42.8027 7.90295 15.9606 29.8946427977
38.8314 9.43759 16.7213 30.2550620483
37.2353 11.5925 20.3794 29.3297102553
47.2853 6.68488 17.9248 30.1001306751
38.9235 5.37083 19.531 29.6248577475
40.5716 9.20002 21.0094 31.2357016706
42.3481 4.01172 20.91 32.2325326516
42.7461 10.9205 17.3922 28.3849119287
45.2603 10.5886 16.4065 29.808322796
37.1497 11.7477 23.3388 42.1210607057
39.3087 0.497088 23.9964 77.2282044584
37.5498 3.24799 23.7059 54.5729762074
42.2011 0.958235 21.3779 28.8644453968
39.6823 1.97985 16.5148 30.1134484747
45.2798 3.49659 20.2832 32.2421189904
42.1055 1.12337 23.9418 52.3239671307
42.1466 4.09992 23.9633 93.354360255
39.9761 1.72961 19.7864 32.6934783642
45.1911 0.820479 20.8098 29.3030250049
46.7838 2.91117 24.1174 120.0269930513
46.1807 0.428547 23.5891 44.4563676892
39.6687 5.61203 23.3795 42.5044761733
39.2401 4.5008 17.0171 31.4268952772
40.6032 8.21218 24.1084 111.80675155
45.053 4.85677 22.845 36.0273102508
43.0075 6.182 18.5886 37.7603364141
43.6005 7.29794 23.9558 98.3072727182
45.2462 8.33514 18.1489 31.1182475614
48.0181 5.90939 22.5195 37.4800039841
39.6826 10.9791 23.5601 61.5034056569
42.6864 10.8387 20.0909 33.1129954807
45.1692 9.74343 20.6537 34.8320404787
45.3426 9.40161 23.3459 32.8097476154
47.2584 11.5079 19.9023 30.1787500417
46.288 0.374094 16.534 27.6521225442
47.7706 9.44499 24.1313 113.1392305464
37.6972 8.12723 23.0895 34.1795544447
48.0021 0.469587 20.6535 27.1790241753
37.4031 11.6178 15.7508 29.7162326802
37.3874 0.45935 17.7788 29.5383058883
47.7432 2.03038 18.0076 30.8568924988
43.5774 0.982251 15.5321 35.0417975161
48.487 11.97 23.9933 62.7505038359
40.9875 9.82658 15.4124 27.2278527863
37.1033 7.2574 20.2879 32.4697227575
44.0774 3.52884 15.9566 35.2510196637
45.1677 4.99951 44.3416 28.0737759946
38.493 5.58952 41.2639 27.7286465007
40.4604 4.81358 39.2467 29.9510307894
38.9459 5.46436 36.7767 45.137007073
43.3474 7.90807 42.6411 30.0029924657
45.977 4.53363 39.4537 26.6623200708
45.7238 3.1471 36.6175 33.2458243263
39.6922 0.187976 39.9194 29.3403843423
48.6954 4.82774 36.0104 56.4927937591
39.5204 8.48425 36.7551 43.2950476905
38.7318 7.93324 39.3677 30.2201126879
39.2072 2.59528 35.7872 136.7686025439
41.7931 11.2756 36.7241 32.4221783881
42.619 8.69457 35.6956 129.9931311078
43.5584 3.58886 35.5358 126.5886759319
42.4648 5.87531 36.711 39.2518373148
46.4552 6.52545 35.7024 97.9152675344
47.6106 9.41647 36.0361 67.4295344035
42.2062 8.88211 39.2593 26.461142461
47.4571 10.4561 43.6747 30.9076229676
48.8955 1.24098 39.7442 30.2130301125
39.2441 9.39058 43.1944 29.5979410548
44.8085 9.89908 36.6497 29.4282626315
44.1637 10.7348 39.2899 26.8022532543
37.4516 11.125 44.2678 28.4816152614
41.5744 2.31406 42.4302 29.290537143
41.8059 1.94107 36.3689 39.1538301726
37.0613 10.6092 36.7217 39.3060768991
46.3681 9.20381 40.1495 29.2516383847
41.7103 2.17607 39.089 26.5825255626
37.7774 1.27716 43.8932 30.9884895401
45.8762 0.865645 41.5295 30.8303323147
47.3731 5.58097 41.5756 27.3679921969
42.8559 10.2857 43.878 29.0584427542
48.5131 8.26823 38.5724 28.7309681898
37.1757 1.57839 37.2126 30.3257735015
43.462 4.21122 42.0666 29.0080054936
37.4228 7.43778 43.031 26.8595194676
40.5173 10.2761 40.8945 28.1158598412
46.1894 8.05711 42.6682 28.2425839995
44.2848 2.58673 39.7678 26.789564559
42.7366 6.56725 40.2525 27.3160554321
45.1873 7.05212 38.1586 27.8630400143
39.141 2.70452 41.8692 29.176065256
47.6452 2.72715 42.4021 29.4995004351
46.0036 0.454073 36.2182 72.8587958609
41.015 5.7814 43.0493 32.2716499635
48.6075 3.48568 38.6545 30.448465066
36.9866 1.75148 39.9221 29.5193334974
36.9406 10.2113 39.6168 28.8953325684
39.1048 11.9017 36.5087 58.8229084163
47.2115 12.3062 40.138 31.0917384399
39.325 11.9877 39.3293 31.3393299924
39.4811 3.92304 56.6546 29.072425454
48.7717 4.55239 46.0861 26.9674630081
42.3948 3.51899 56.6923 29.710085123
46.6209 2.36724 48.3655 28.8025090914
44.7648 11.3842 45.4242 29.7347481139
46.8737 7.52294 45.5397 28.7473322903
46.8532 6.85527 54.5005 29.3997120461
45.0389 4.94651 50.7012 29.0042990543
46.812 7.07533 50.3463 26.4320828008
41.6608 3.45615 49.2708 28.6784029366
42.9931 6.01419 57.4431 29.7438691404
38.8151 6.28769 49.8316 33.8879357119
40.1702 5.12458 47.941 28.9357684192
41.2379 6.4312 45.7402 28.622261464
44.1411 4.18854 48.2314 32.0482741968
44.0184 5.9888 46.2405 29.465646793
46.4775 9.96106 47.3533 25.6669882506
41.2542 10.3687 47.7528 30.7481928482
39.5228 0.00635258 58.5133 29.0433924048
45.2125 1.64665 58.7802 28.9207585109
38.0609 8.44421 47.0726 29.0890121
38.9343 2.24782 49.5474 25.5695428797
41.1543 12.3489 57.9135 28.5163981035
44.773 11.6058 48.9944 28.4869932399
47.7678 10.6563 49.9808 29.8155718811
36.9485 9.8059 55.7462 31.7881811976
38.2532 3.02129 47.2376 29.6267206808
37.5237 0.221483 52.5681 30.5198902442
38.5846 10.9619 48.359 32.0932274792
43.1797 6.11114 52.4641 34.2559352724
46.6259 1.50128 50.8348 31.7431738804
41.6053 3.66394 52.4108 32.3662603343
44.0181 6.88033 55.0815 34.0045421606
45.7071 3.36128 52.7376 28.5254170524
47.7195 4.36533 53.9177 27.5131048124
42.6601 0.939891 45.0804 33.3596875797
40.8914 7.76657 51.0853 31.0288804026
45.2475 0.635291 46.7767 29.2331869078
41.062 8.92789 45.5911 28.0876008823
42.6584 8.87156 49.5461 29.0688537527
37.9831 6.25283 45.3595 30.0328605923
44.1013 10.0077 51.486 29.5692121512
46.6855 9.10297 52.2969 28.3814423413
38.2396 10.4881 51.0076 32.0471730189
38.6935 8.10117 54.7459 35.1391440401
47.7207 4.2338 56.8797 29.2255716661
39.8342 9.40158 52.8924 27.9901217819
41.9308 10.7676 53.6877 29.6228010687
45.0492 6.93155 59.2095 30.5698808185
41.8365 1.04912 48.0713 28.4060512065
44.948 8.01895 48.3708 28.9339139634
43.3783 9.97194 55.8606 33.2045705058
40.1065 1.32153 55.2603 31.7259093119
39.5899 1.00164 46.1187 28.9000657975
43.7842 2.4429 54.3894 27.9912800059
48.4247 6.41861 48.0441 29.4461403118
47.88 10.0977 54.454 28.067380477
48.9519 5.9682 51.7889 31.1399636857
47.431 7.01018 57.3047 28.4895293859
46.0328 1.95783 56.3816 32.2492973557
38.1013 5.07448 54.389 35.9403433813
46.0808 9.36648 56.8122 31.3108658641
40.7856 8.22185 56.925 33.3016233112
38.8793 4.43305 51.841 29.272802567
40.63 0.869444 52.4023 32.6673060548
42.6884 1.18156 57.8938 27.0051295044
38.0726 2.29431 58.14 25.8689098313
48.8859 11.6003 46.4505 31.4513110328
46.5684 2.95864 45.1386 30.4423631128
40.1051 6.19417 58.7285 27.5265763415
40.3921 10.0998 59.157 30.0840255432
37.309 5.94867 58.4415 29.128641008
38.124 22.8729 2.19788 27.7350852156
39.6007 13.7174 9.78691 33.4908311357
38.948 14.3347 3.07282 29.6502884623
37.6546 12.2609 13.1656 32.7324868604
45.1886 17.6999 1.83698 31.6089881315
48.4141 15.3395 3.32784 32.2032773549
37.8371 13.4627 7.66004 30.319914448
47.0155 22.1556 12.4449 27.4204142403
41.953 20.0511 3.81702 30.4663154077
48.8267 14.7616 12.9035 29.8923136262
42.0173 23.1614 7.12396 30.7218063068
37.9405 16.6453 3.61831 30.9044184801
46.0418 18.4684 4.08158 30.7290760801
44.6474 16.289 6.59839 29.3741494573
37.5033 23.7835 10.1252 29.7637659957
43.5153 21.9602 5.26979 30.1797115572
48.563 23.2877 7.13456 29.3729294704
46.1174 23.9971 6.6293 27.6377693669
48.4231 20.3042 8.53143 31.604163838
43.658 23.6199 14.4531 26.6334318249
45.3013 23.016 3.70113 31.374148364
42.8279 22.2975 1.42975 36.284987264
42.714 13.5362 2.17782 27.8705601178
39.0021 21.486 12.5704 27.3658284307
41.181 21.7053 10.5373 31.5481404325
45.1506 20.1887 13.4499 27.5388787716
39.5985 13.1815 5.58835 32.2944250418
41.8184 14.4487 8.43054 28.8872740999
42.5041 17.6214 2.45169 30.6138467432
38.6627 19.0003 11.055 35.111940813
46.1363 14.641 9.97174 33.3944046216
48.4661 14.1072 8.28666 27.1723485735
42.6534 15.2929 4.07715 30.4694986467
41.3133 16.2551 6.53969 28.4074886562
41.6257 18.7181 8.00701 30.8523281824
44.3489 19.1789 6.52848 31.6869755443
44.8848 17.5686 14.1861 28.8950667649
45.0077 18.608 10.6858 28.9050722448
43.897 16.2795 9.43128 28.9879758979
45.5309 20.4168 8.75292 32.1671393836
44.5683 23.0934 8.58292 29.1246519243
40.3904 21.2468 7.61044 27.0003899266
47.6023 21.6602 1.95484 32.7462654853
47.1893 16.4263 5.47771 28.470424177
39.9085 20.784 1.58301 29.6856236522
38.1777 21.7136 8.83558 28.354582613
42.8321 13.2793 14.298 31.6627318925
38.9784 17.511 6.18473 32.2273751713
42.6447 21.3823 14.8203 29.570362352
37.6108 21.5352 4.43838 29.3416099311
49.2248 12.671 4.07938 33.0093726099
45.1052 24.1771 12.1568 31.4902012961
41.5284 15.1826 12.7403 35.5823106337
39.6559 20.1386 5.02677 29.0255277084
45.3054 14.3891 14.2854 28.0511553013
40.6238 14.5584 1.06164 25.8487985331
38.4967 24.4675 12.3242 31.7556098395
40.2042 19.9742 14.1367 26.9536948059
42.2357 17.399 14.0353 28.1090184805
48.5062 22.5029 10.1774 26.8976211615
46.6392 15.2416 1.37013 32.316237652
41.3862 17.4964 10.6929 29.7632928993
44.6639 13.2769 5.62266 33.2623351664
42.3771 19.6614 11.9088 26.6905858297
48.2742 19.2326 11.4286 30.7770432774
46.606 16.5963 12.2346 28.5117398985
38.6859 14.694 12.2974 32.191413247
46.9632 12.5776 13.3154 28.078294365
48.7756 23.1138 14.2686 30.9533879916
47.3142 12.5699 6.30954 31.8714465498
42.5752 24.2322 10.491 27.9376596974
36.8753 16.7269 12.6495 29.7061598573
48.4392 19.8348 3.69885 32.2135962365
43.1269 12.439 7.25846 28.1224508609
38.5695 18.2772 1.51045 31.7724214461
48.876 18.9088 14.4582 29.0499484431
48.9557 16.2038 15.2908 29.2817876595
48.8766 16.4474 7.4034 32.4707658978
37.7006 17.0782 15.3192 31.6140039844
38.6252 13.0079 18.1004 31.7889934549
46.066 18.8887 17.9057 28.6818620193
39.9976 14.9851 20.0749 34.8442990404
43.8994 14.8823 17.866 30.2035369856
43.8064 17.6477 17.4291 28.0819212212
36.9926 14.5005 21.1451 30.7685990631
40.4662 17.7915 20.6319 33.5619763952
47.7383 22.6793 16.8698 29.0868267215
41.6298 19.196 17.9955 35.3790361918
47.7597 16.5635 17.9079 29.17644944
48.7618 15.296 19.8961 28.559338853
37.5503 19.1254 23.1925 36.1600199691
42.111 21.8602 17.2197 28.8550856803
39.705 23.3436 17.9222 27.8624839479
47.7921 20.0265 24.4886 99.8121816253
41.6767 13.3298 16.9031 35.8947837994
44.2116 22.5999 18.6178 34.8210544892
41.8537 12.7284 23.6871 63.0437139916
46.8898 20.4304 15.7985 28.637993492
46.2792 14.478 16.6887 26.6657960714
41.9004 13.5109 21.2981 28.7286020375
37.082 21.0429 18.4403 36.1859971744
40.3406 15.2392 23.8759 91.2357062089
44.0391 14.7143 20.4907 29.6438060229
42.8863 24.4513 20.3657 32.5845049261
46.2632 13.355 23.3327 27.383042613
46.5006 13.868 20.78 28.252531159
37.797 18.5868 20.5488 35.2811537562
39.8782 19.9924 24.24 142.0357997694
41.2681 17.9205 23.331 39.0180861396
43.8766 17.9054 23.3585 51.3125317727
43.5984 17.7407 20.3043 33.6045799911
45.5388 15.8434 24.2189 112.7850690552
48.1139 17.1272 24.1528 68.4926647687
46.3837 19.1859 20.8368 28.0501293774
48.3756 17.773 21.5867 29.5461628934
40.9854 22.3151 23.3969 49.0805598513
45.3347 23.972 16.6917 33.2086473208
45.5453 20.0261 23.2514 35.2616922658
38.2323 21.6184 15.8409 31.9127482003
46.8966 21.5797 19.5897 33.623091684
43.8084 22.4708 23.5525 60.591484718
40.3778 23.8523 20.4808 35.6108856593
48.6011 23.139 21.4285 31.9784098931
37.6188 14.5405 23.8758 71.8518644902
46.5996 23.1651 24.9083 160.4867760361
37.0246 15.0504 17.1233 33.239654354
40.2926 17.713 16.023 35.8159580176
38.2746 14.6651 36.1555 111.6664178721
37.8353 17.8776 42.9044 27.7693892515
40.3204 16.7114 36.581 45.4177484117
46.2789 13.8089 38.0982 26.9651233211
42.4462 13.8966 35.553 139.9491900959
44.4586 18.1338 36.0912 83.8991487884
45.0558 12.4879 36.0058 90.3532504317
44.0486 21.7648 42.9386 29.938633808
48.7775 19.7687 35.8102 113.04605335
43.0697 17.2608 42.7959 28.4871483908
39.4645 21.0443 35.9351 97.2014692618
41.6715 23.0487 44.5794 34.6656991569
39.1644 17.8398 38.6627 28.5884406703
47.4876 17.0443 36.3354 73.109521613
43.078 17.1179 38.6874 28.5290065945
46.02 20.2186 36.6353 30.2352240939
48.4697 14.2099 36.5327 74.4374449947
40.4174 14.1795 41.1991 28.6199817423
46.8603 19.7287 43.7418 33.1009805065
38.6667 20.547 38.7932 29.5693120102
40.9082 23.3358 35.7422 107.981770119
45.1536 22.5264 35.7637 119.6864187029
41.5287 19.2939 35.6588 112.9485928616
42.0799 20.1586 38.2756 29.9421619877
42.9215 22.937 37.4593 33.3312098019
43.749 13.2743 39.1948 25.955235109
47.9857 13.3144 42.7857 30.4706144283
47.3086 22.4455 40.2355 26.5558157551
42.286 12.5605 42.4643 26.7517863727
37.7839 13.984 42.1447 26.7932058488
45.6713 24.0918 42.0237 28.0506834529
44.8242 13.6423 41.7658 28.6435148433
45.521 16.3136 41.5999 27.8680709873
48.7558 20.9825 42.032 26.2673786854
46.9521 23.7786 37.6869 26.6024332213
40.5018 16.8978 41.2479 30.1441453986
41.7208 14.8733 38.3877 27.5261772369
44.0533 19.4794 40.5299 30.1938661599
45.9199 16.5181 39.0301 28.7914895952
40.5661 19.2667 43.2268 31.9680692086
48.3189 18.416 39.0318 28.2538631495
38.7004 21.586 41.4992 27.2523577744
37.0823 16.3004 41.0911 26.8936392407
46.4662 20.3431 39.2602 27.4414979998
48.865 23.0229 36.0436 56.062501547
41.8506 21.5158 41.3062 28.1032676448
43.9177 19.588 44.2029 26.4221287534
47.4315 17.0484 43.3621 25.7677836053
49.051 18.3506 41.5925 27.1346562426
37.733 24.2942 42.4387 31.5270182977
41.6949 24.1345 41.2264 27.4201371541
48.2757 23.1186 44.1118 30.9454651976
45.4757 14.5053 49.2651 31.0496765869
38.8992 15.6838 48.0928 35.3844016925
38.731 12.263 56.2213 32.1771715499
38.0029 21.8679 55.6897 27.7671930237
40.3695 13.1021 54.2042 27.2551315177
43.1868 17.9074 49.6709 26.3846064325
47.27 15.3459 51.2264 26.6927347817
41.5747 24.2916 56.7232 30.202074334
47.3385 18.3298 47.6203 27.6072085273
47.2139 23.7714 57.8555 34.0235742075
40.2853 18.4417 49.8233 29.6354129229
38.3162 18.4684 47.6382 28.7627386475
45.2819 14.73 53.724 25.6629923556
39.7045 19.9589 45.9529 30.8381534635
47.1162 14.4111 46.7871 27.4466394809
42.6394 12.7722 47.4652 29.5401351327
37.228 16.8253 45.3834 30.9410370863
38.5917 22.467 44.8264 27.3049469435
44.8937 19.2281 57.8721 30.5614735207
46.1565 19.2197 50.3839 31.300383884
41.7621 14.0504 51.2876 30.445074944
46.113 21.1107 54.4196 26.7053234053
42.9516 17.8167 57.0027 27.8939300422
41.1744 17.1022 58.5299 26.6753029367
37.4087 12.6581 46.6515 31.1005931142
40.2767 20.9583 52.2838 26.7829158995
41.8838 22.6122 47.4174 26.6106061342
45.8285 20.548 46.6219 30.7708588933
41.7905 15.094 48.8418 31.9164773806
43.743 21.6483 57.0739 30.7646277104
43.3813 15.2432 55.5794 30.8348475832
47.1102 16.6689 54.7876 31.9215641193
41.7969 13.6062 44.7897 33.0538648116
48.6238 16.5355 49.3829 27.7581781968
43.6398 24.1053 52.3223 28.9220260929
40.554 21.6529 57.132 30.5228305011
38.0315 22.8253 49.1255 26.0841356194
41.8718 16.4929 52.3979 26.5221802928
45.172 23.6437 55.5455 28.7752939611
43.6131 20.4909 49.5797 28.4419510507
40.2744 21.4945 49.5541 27.5829801444
44.546 16.6578 47.4309 31.0588769407
42.4714 19.659 46.5852 32.5409294608
38.6458 14.4096 44.5071 33.1092164743
47.0844 19.243 56.1397 29.0142846298
49.3318 13.94 56.2489 30.1554027261
39.6364 18.3701 52.7 27.7876250966
43.5886 15.6506 44.8594 32.6319083354
44.4301 23.2385 48.1516 31.0244915685
47.2414 23.8865 51.4511 26.5889385997
44.0846 19.4842 53.8866 29.1606556862
43.5879 12.7665 56.6618 31.1985218037
40.9685 15.8249 54.7337 29.4896854155
39.1192 13.2414 51.899 31.9871120917
37.441 15.2857 50.3895 34.6875604644
44.4733 17.2402 52.3889 27.8038538724
46.0475 13.76 44.7385 25.3310058128
48.5591 12.9553 51.6295 30.104730591
48.0114 16.0886 57.5134 33.0618137081
41.2534 19.5263 55.4665 29.314840378
47.3914 22.7183 46.6811 30.2518727713
39.0722 17.6345 56.3447 29.8593460684
42.9187 21.4932 52.3648 31.3384469581
47.2004 21.2057 52.0716 28.9529762621
44.1362 12.7093 52.3978 31.9852634508
45.0263 13.1183 58.9987 33.7326351437
38.6346 22.8279 53.0712 26.6869264335
47.662 12.743 54.1524 34.1810885692
48.2889 16.5441 45.7436 28.5468940098
49.056 17.5131 52.7424 31.0509078599
37.831 14.5967 57.8425 33.5870074129
37.0839 17.7168 51.9604 31.6980087135
38.5452 24.2128 46.9012 28.4535668373
39.6111 25.6211 1.42485 27.6930680414
43.3903 26.6474 9.16336 28.8314189394
47.5823 28.083 11.5113 29.2494454427
41.7989 27.8058 5.47475 27.0512456394
37.9895 31.9114 12.0488 28.9936703414
43.4376 29.6757 1.56019 33.2924910225
48.0448 27.9038 5.13715 27.4563224215
