27.8675 20.3346 41.7509 27.266960552
29.9524 18.511 42.1064 25.2048645539
31.6661 19.4957 40.5808 26.9418350425
30.7977 19.5512 44.4094 26.4528697191
36.5803 17.7377 44.5984 28.414893514
33.9169 18.7252 43.9076 31.4659205476
33.9094 19.9189 41.438 28.9566732906
36.4374 19.5427 40.6545 29.6900105491
36.4275 16.979 40.703 33.5288440009
28.6978 22.7159 43.0169 26.0115157727
26.5848 22.975 44.4734 29.304669968
31.0257 22.1503 44.3681 26.2340680332
31.0984 23.3702 41.3093 27.4920035631
33.3895 22.4752 42.8032 28.9726649532
36.2725 23.2568 40.4593 29.8849953188
25.3556 14.9977 45.9822 30.7321392208
25.6516 12.5111 44.7697 29.3113235423
31.0825 15.1523 47.4558 29.9309229854
29.7046 13.8493 45.5332 31.7050012437
35.651 15.9456 46.6896 27.7824876721
33.9849 13.2616 46.5015 29.9168460112
34.3339 12.6673 49.289 30.4281675551
27.6302 19.8796 48.6466 26.8610115972
24.7028 16.6803 49.1413 25.3291358041
28.0856 19.2869 45.5762 31.1148325561
27.0938 17.044 47.2596 28.2670594982
32.3584 16.4041 45.0309 35.6000895894
28.9341 16.3979 48.9207 27.3221308998
30.4948 19.3359 49.0574 27.4178640223
32.3802 19.0257 46.8098 27.3723169135
34.2726 18.0376 48.3244 29.3011553
27.7668 22.4048 47.2134 28.3570256763
26.8918 24.152 49.4562 28.9275319094
24.7802 21.2994 47.5621 31.4234017033
30.2482 23.992 46.1991 31.4641019571
30.8133 22.2417 48.6946 29.661431536
34.9857 24.0572 45.2532 29.7366603119
33.7659 21.7494 46.0838 26.3340681953
36.0157 20.5944 45.4616 28.4006261716
33.8107 21.6973 48.8647 29.2260935738
26.0357 14.3313 50.4485 29.5497412435
27.3414 15.2895 52.7795 25.8047980743
32.3134 14.2457 49.8342 34.5042638108
28.8905 13.5281 50.1277 34.9788439681
29.4548 13.4618 52.8695 29.7142679325
31.7947 14.3782 53.6625 29.4725163035
35.8057 15.4116 49.9814 29.685222961
33.87 12.412 53.318 33.1818705773
28.5765 17.4309 51.5004 26.7340059942
26.2154 18.471 50.722 26.7289642073
31.0186 17.2994 53.0534 26.3591546898
32.1285 16.9986 50.3427 26.8073748181
30.6082 19.9276 51.9103 24.6266391045
34.4931 17.1059 52.082 28.4224256055
34.5382 19.7516 50.8594 26.2222849643
32.841 20.3259 53.1688 29.7557094094
26.0514 21.569 51.473 29.2916662091
27.0713 22.5263 53.9278 29.9714694467
30.1371 24.0971 53.3722 26.9324571521
29.6024 21.0274 53.9571 27.876697228
29.152 22.2657 50.7842 28.6710499897
36.4062 21.2522 51.799 24.5695101447
36.8419 22.5208 49.6511 25.7013077546
34.6956 23.1066 53.0437 30.9239535914
33.8175 24.3493 50.0194 32.955482315
26.5086 15.762 57.6143 29.2270847179
25.9012 14.3229 54.8707 28.5417411254
28.4988 13.4775 58.0042 32.9261417626
31.0379 14.5192 56.5065 33.7963749314
35.2916 15.1773 54.7194 27.2103588763
35.4301 15.2672 57.2114 31.8482347428
33.0542 13.1692 57.8467 33.9998021396
25.2809 18.2667 58.4732 29.4054831528
28.5186 19.5631 57.6353 28.3208114295
25.0045 19.7481 55.7966 29.3554068722
26.8804 17.4866 54.9563 32.0752488918
31.0479 17.0749 56.8608 29.7421177323
29.2861 18.6185 55.3154 26.5813083185
33.3131 17.7935 54.9041 29.0318723033
35.2312 18.3432 56.9878 30.5839244848
26.3673 22.1155 56.8493 29.8527064442
30.665 21.0819 58.2114 32.5727035747
30.0912 23.6579 58.7528 29.2093050964
31.7842 22.0239 55.9182 29.221651047
34.5371 21.1661 56.2222 33.3088724409
35.5068 21.6536 59.1497 31.8548591774
26.4772 27.7385 5.27476 26.5779503839
28.5469 27.3343 1.50328 30.0351117212
26.7791 24.7444 1.95738 32.2092222539
29.3304 26.1219 5.63503 32.6877339201
31.1192 27.4502 2.5851 29.5139912553
31.3347 28.3117 5.60437 29.393457579
32.0257 25.3323 1.29733 29.2068778097
34.8765 25.7779 1.18003 28.2918380014
34.1402 28.2227 5.42655 29.0634502297
35.1023 25.9567 4.60374 28.1727136365
36.4431 28.1495 2.03115 32.2606991634
27.7589 28.8763 3.41792 27.1455394573
26.2727 30.8631 1.72939 27.4295300565
25.0881 32.213 4.56488 29.4777123202
30.0149 30.1079 4.27163 25.5497184613
29.4888 32.5072 2.93156 27.2917745016
32.7963 31.4507 2.91149 28.8796126962
35.189 29.8038 3.59188 31.3284525541
36.4127 32.0316 5.21208 30.852443858
27.0767 33.5675 2.4561 25.9756341721
26.576 34.6076 4.98326 26.0085271313
30.9772 34.5256 4.09212 27.651654018
31.4639 36.138 1.92546 31.3926446866
33.8957 35.9103 5.37498 31.4061131701
33.6803 33.1405 5.16191 29.7655984157
32.8863 33.4927 1.33716 32.8782236093
27.7258 26.1181 9.58273 28.0394281194
26.6395 25.067 6.98533 31.9331695833
31.603 27.7956 8.49198 29.0999406801
30.2654 25.475 8.24246 29.5578564295
35.959 24.5356 6.74316 28.3211342116
33.4952 26.0541 10.1928 31.753284599
35.9672 26.4903 8.81794 30.1177466641
24.7355 31.2424 7.25771 29.7824635147
26.9908 29.6703 7.00148 26.2582529864
27.2043 28.7054 9.25348 31.3888939458
28.9938 31.2934 6.48314 26.7354644281
30.5417 30.5857 8.3644 29.7542015633
32.3016 32.6362 7.43619 31.1664521087
33.4848 32.5147 10.0867 27.2262707507
34.9714 30.2911 10.3199 29.16994683
34.8418 28.9502 7.84477 28.305804743
25.6655 36.3845 9.17767 27.3941964504
28.3115 33.9612 6.66227 26.7442200909
26.8215 33.7748 8.98942 30.1532440368
30.1156 35.8397 6.11617 22.7649343856
30.4762 35.2149 10.2392 28.537197515
31.6899 35.1428 7.83966 25.3527057314
34.049 36.4693 10.5061 33.8247121481
35.5542 34.3737 9.90692 26.7479211112
25.7369 25.1089 11.2979 27.7587635901
28.1973 25.6423 13.9151 32.1269380245
26.1508 27.6746 13.7483 31.8273991031
30.955 28.5922 11.2971 29.0314232651
31.6301 26.6629 14.5795 31.6872861185
30.3715 25.9657 11.7365 29.1777026423
34.1037 26.8378 13.0605 35.7429660543
35.4691 24.7036 15.2677 35.0395583645
25.4117 31.1803 15.3051 26.9333183121
27.3445 30.0453 13.5063 28.9909158863
24.9376 30.5987 11.5896 32.1452214361
30.4732 32.6198 14.4345 30.1778474099
28.7554 30.3304 11.041 27.4082158243
31.3164 32.024 11.6163 27.1071656322
33.3062 29.1667 12.3113 27.878001224
36.6831 29.8906 14.4089 29.6803185079
33.0341 31.2258 14.6386 30.485116764
26.0002 33.8348 15.2226 29.3225328204
28.588 33.2288 10.9867 29.1546084659
27.9585 34.5189 13.4557 32.3469892241
32.2298 35.3653 12.3569 29.1182500332
34.1626 33.3725 13.5364 28.5658928691
36.7707 33.3512 12.0631 27.8410920632
25.5187 26.3821 16.4271 31.8847399292
28.2224 26.1459 17.5477 31.809110818
24.8353 27.7406 18.7464 28.0015587737
29.8887 28.0214 16.6705 30.5485769569
33.2257 27.7867 18.4742 30.9012782022
36.0813 28.0479 18.8411 28.2400349542
33.0155 25.3895 16.6922 28.0021048642
27.4602 31.588 17.831 29.9702366581
26.4501 29.6278 19.6606 30.1856409709
30.7146 28.9799 19.0376 27.3670469364
28.8462 30.4062 15.7767 30.1674236126
31.1155 31.6018 17.852 31.0893038677
33.5431 30.616 17.1776 29.446552398
34.5364 31.3055 19.8535 27.9339008832
36.3812 31.6977 16.3044 26.436693635
27.498 34.2571 18.1337 31.3684724903
29.0368 36.3477 17.575 31.2114419971
30.971 35.0464 16.0038 31.1423983175
34.7187 33.855 18.8726 29.5761437002
33.5626 35.7363 16.7261 31.7007145178
35.3795 34.1243 15.6101 25.9561178594
25.6906 25.7058 20.9987 30.547615022
25.2174 26.053 23.7938 76.1565700483
28.0497 27.0038 20.3879 27.6852321982
27.9944 27.5365 23.7627 60.0338636691
29.9453 24.6232 21.322 29.2230087472
30.9875 27.5308 21.3896 27.1898436816
29.2993 24.6716 23.9002 68.7487683164
30.7884 27.991 24.0272 73.2859124833
33.7261 28.1006 21.506 29.6832824083
35.8415 26.6121 23.8538 70.9111204848
33.0734 26.2469 24.3555 108.0484227792
35.2116 25.0542 21.1302 26.6681853575
27.2666 30.6634 24.324 101.3970138542
28.559 30.3847 21.4325 29.0767984723
24.6153 31.4698 21.4393 27.8915591962
31.1768 32.2343 20.5565 31.2944955076
31.1268 30.5879 23.4967 38.4630036119
35.9936 31.9725 23.3891 83.8922819386
33.5733 30.989 22.3773 29.8521096771
25.0456 34.0988 21.5109 27.9168067674
27.7844 33.3292 20.9137 30.0575380802
26.0133 34.901 23.87 64.4472735974
28.0415 33.2641 23.7407 39.5345412493
30.8971 33.1034 24.823 149.7883802637
30.5721 34.8595 21.9518 28.2890503648
35.8037 35.5553 24.4276 116.4505371752
33.3918 35.0098 21.1189 28.9319596339
33.4927 33.954 23.468 34.4166252986
26.2437 26.6407 36.0924 82.2987724628
28.1585 28.4309 36.2556 69.6306563446
27.4999 28.1503 39.1701 30.3830746537
24.8265 27.964 39.5945 30.3007749688
28.0016 25.3321 39.3043 27.7775539222
31.1274 27.9137 36.4673 36.204324674
31.4974 25.1531 35.4553 132.0611563778
30.7693 25.2618 38.8156 30.3485987731
33.9907 27.7349 36.17 56.4951126832
35.1443 25.6309 39.4171 31.2283993538
34.2155 24.6556 36.7528 35.8093592827
24.9062 31.0207 35.497 132.4548751211
27.2363 31.044 36.8334 33.5557828227
30.0519 32.0287 36.2367 57.8555514426
30.5856 32.3848 38.9432 29.6706360377
32.2634 30.6197 35.5589 110.7348457734
32.1484 28.9073 38.8839 27.5513423765
34.6078 30.7713 38.563 29.5385162262
34.75 31.5153 35.9834 55.5435618815
36.4433 29.3154 35.6673 99.7284040392
36.8904 29.6292 39.5372 29.5314257395
28.2857 34.1251 39.699 29.0149958954
26.7958 34.0702 37.3103 35.6793889655
29.7037 34.7221 36.152 81.5421298943
32.0798 35.6353 35.7417 124.6481960392
36.7702 34.6329 36.8098 27.9540650734
32.9125 33.8473 38.8603 27.230831266
34.0554 34.2417 36.2495 54.120039363
27.1163 27.943 43.426 28.2271571485
27.7276 25.3641 42.197 27.8623431536
24.6386 24.8672 41.0789 28.5232297833
30.4708 25.9882 42.491 30.9033720805
32.5982 26.9398 40.4697 28.5580537728
34.2732 25.2572 42.8483 28.3294531197
34.1338 28.3092 43.219 28.7423920857
36.794 25.7495 42.4132 26.555987027
28.0229 31.8793 43.7448 30.0526064664
26.9324 31.5674 39.9737 28.9050464313
27.9894 29.8808 41.3926 27.5983577769
25.6592 31.7787 44.5285 28.6910518193
31.5172 28.6735 43.3562 30.1665869745
32.1306 31.7825 42.8386 29.2766138848
30.7835 30.1361 40.4932 29.3498501764
34.9008 32.3962 42.6724 30.5908018488
36.1067 30.016 42.2295 31.9610063603
26.8789 36.0339 43.3637 32.6029900488
32.4346 35.7714 40.3547 32.2773195689
31.419 34.4543 42.9019 30.4216056532
28.7584 34.1132 42.6384 30.3769982167
36.6139 35.3106 42.9854 26.1130942684
35.1339 33.112 39.9999 27.6705083063
27.7203 27.3738 49.414 30.8925357438
27.1179 26.1019 47.1773 30.1555472741
24.6261 26.9529 46.0119 28.737036525
32.5727 27.73 47.6871 29.9811538512
31.7163 25.4067 48.502 31.5049412044
29.1581 26.5387 45.2724 28.7957247506
34.8289 27.7848 45.6471 29.6153289245
36.3548 25.4083 49.4207 29.0795482496
36.4995 25.6846 46.6305 28.7299104376
26.5525 29.4409 45.8471 27.6906100692
28.4383 32.3542 46.7215 29.9090640497
30.6436 28.7978 46.2286 27.5192245344
28.7843 29.6868 47.7387 29.935586818
31.9039 31.5391 45.4864 29.7024643455
35.897 29.7615 47.01 30.0415851702
33.8291 31.6914 47.6613 29.6469081797
25.5452 35.2451 47.691 26.5441224415
26.3293 32.9284 48.5096 30.9141567694
25.0499 34.7336 45.0778 31.7383728318
30.9345 35.7791 45.3312 29.3133013457
30.8327 33.4527 47.0606 27.3468900666
29.9961 35.8935 48.8988 29.3007960288
35.9377 33.3671 46.8084 28.3028554351
35.615 36.5484 47.553 30.8949635039
34.1223 34.2154 44.6302 30.0374917904
27.1679 27.2849 54.2805 29.3703388941
27.0922 25.0894 52.7106 27.9100652183
32.5348 24.8002 53.0769 27.8490849193
29.7656 26.0435 50.7655 32.4419232456
31.4703 28.5199 51.366 32.1873098165
33.0841 27.2827 53.3082 32.9755568941
35.7489 28.3177 52.6316 29.905774743
35.8249 28.4944 49.5314 29.7841989885
27.0568 29.624 53.0966 29.0470612305
25.5323 29.1147 50.2686 31.8854944875
30.463 31.7364 49.7573 30.246537934
29.431 30.4486 52.4257 31.4451704444
33.0297 29.5681 49.5972 25.5936321565
32.9901 32.3112 53.714 35.7476132672
33.4341 32.0545 51.1333 28.165754977
35.9624 31.0478 52.4239 29.0950034978
25.7889 34.2233 51.9027 30.9555747538
28.2176 33.357 50.9128 33.2240160571
30.9659 34.0025 54.2322 31.5170844669
30.5026 34.8962 51.5415 27.6357836051
32.982 34.2075 49.9499 28.3569702207
35.1106 35.7902 50.7474 32.4315271494
26.0281 26.8936 57.0291 30.8498704506
27.8474 24.7752 57.583 27.6340957531
32.1689 24.6675 56.3691 27.9825198018
31.0756 28.1476 55.7145 30.7586237459
29.5132 25.7564 55.5452 29.2105157871
34.5094 25.8632 56.7007 29.2079153744
33.4985 28.2834 57.0433 28.9690174831
27.5428 29.2609 58.1384 28.3424698911
26.9364 31.0355 55.63 30.2993897383
30.4063 30.5651 54.9259 30.1587939259
29.778 30.481 57.7264 28.0921450081
32.2047 29.4826 59.144 33.7827172826
35.4368 32.0302 54.813 26.7222831416
35.657 29.795 56.2676 30.5879333813
25.383 32.9975 58.0411 31.5062548569
26.7224 35.448 59.065 27.9746774822
26.1416 34.7121 54.7332 27.4850368453
28.457 33.3181 55.7036 31.4679435175
29.5941 35.9656 58.212 29.0271564156
30.156 33.0994 58.5413 30.1082319415
31.6162 35.9037 56.1468 30.610231666
34.4606 36.1088 57.4078 29.198244259
34.9532 33.565 57.4142 34.2995989916
28.3462 39.7419 3.74255 30.6828538372
27.0037 37.3786 3.09744 31.6699690736
30.711 38.2367 4.90371 34.0484690611
28.92 40.65 1.19969 31.0288200492
33.5804 38.176 3.11578 31.3994789874
36.6632 40.3858 2.75693 34.0267165209
35.7278 37.1178 1.59654 31.5425323682
33.3412 40.5574 1.58601 31.7961052788
27.3213 41.7445 5.33044 31.0336224621
25.1731 44.3479 3.22713 31.8174017099
26.8004 43.8596 1.07881 29.4569659034
24.6961 42.0315 4.44951 28.0792174822
29.1029 43.9298 4.38701 29.8664554242
32.1528 44.1342 4.90248 30.8298367623
31.1437 42.0741 2.67982 27.5503084077
33.0097 41.0956 4.99216 31.7574794506
33.2544 44.3733 1.13947 32.513634012
35.6491 41.5368 5.14257 31.1728893798
36.7942 43.9617 4.41824 30.644788657
27.3137 46.2142 4.51829 31.7544499293
31.4913 47.0873 5.35648 28.4867801543
28.9202 45.4953 1.76468 26.2717835876
31.083 47.6287 2.89336 30.9672659936
34.265 45.3426 3.76606 28.9362978012
33.4719 48.862 2.10868 28.498119394
36.1393 48.7222 5.59541 27.1205414704
28.3468 37.758 7.33123 27.2164168663
26.1803 37.5959 5.78042 27.2729847793
25.2957 39.1892 8.1387 28.6852613722
29.0771 37.6281 9.92806 31.6328327298
32.3245 39.8107 7.55523 31.7474938757
29.9827 40.1119 9.01637 35.231301702
36.2316 37.5599 7.53115 30.3296355385
33.6039 37.4233 7.80171 28.7611504105
36.6204 40.3439 7.34335 30.2622417629
27.4218 40.8605 8.07714 28.9315763496
26.2905 42.3412 10.0474 26.9330279534
26.9545 44.6067 9.16138 31.134229594
25.5861 44.281 6.62246 29.5632041167
29.8142 44.6127 7.38894 35.8597016681
32.2354 44.4909 8.65516 29.7207254052
36.3748 41.5131 9.65621 34.947761571
33.4889 42.0321 8.77579 38.6617750747
24.6479 45.9501 10.0724 25.8758799771
26.0231 48.8101 8.12836 28.2388968413
28.9598 47.4726 6.79315 28.3348410164
29.0078 48.1217 9.6911 30.9092516455
33.8328 46.5334 9.08528 37.0718517766
34.3883 46.8899 6.2165 32.90493606
25.0457 36.9431 11.7277 33.3666834397
27.3803 38.4988 11.8551 29.5763105498
28.6649 36.957 13.8517 27.1888419103
31.17 37.064 13.955 29.5334279543
32.3051 39.1131 14.9152 29.5634275605
36.5384 37.5079 11.2757 31.4281149373
36.1687 40.133 11.7943 30.4819220773
33.6796 40.5664 13.0014 36.4332329659
27.0265 40.934 12.2973 26.5817134406
25.3772 41.7736 14.0857 29.0117226098
25.4494 44.5695 14.0519 29.4847305848
28.1086 44.2777 13.8535 29.6511813133
31.3677 44.825 11.3372 34.1775185482
31.2697 41.938 11.4247 36.3496092803
29.2203 41.6696 13.35 30.3534799916
33.8698 42.7176 14.4423 30.6918071286
25.9788 47.4182 11.886 27.763038901
25.182 48.4367 14.6563 27.9803471476
28.5207 46.1486 11.9007 27.5559657935
29.2814 48.09 13.7218 29.2640596772
33.0339 45.3062 13.3979 32.0606113779
34.4601 47.0669 11.8437 29.7512390599
36.9037 47.8622 13.5912 28.0830756496
28.0071 40.2224 17.0328 29.924192439
27.3705 37.7645 16.197 30.9742520789
24.8102 37.8356 17.1666 33.9502895972
32.6656 38.4917 19.7423 29.5710486102
29.0048 40.6375 19.7754 31.8872266562
30.2346 40.6133 15.5895 31.1954041518
30.3643 36.8567 20.104 32.8427079163
33.2247 38.2105 17.0527 29.0099306248
35.6406 39.0774 17.709 27.707768522
35.1364 40.4243 20.292 24.965315161
25.8711 41.8428 16.6396 27.264090543
27.8151 43.7771 17.7787 30.0440120227
31.5762 43.2244 16.1337 28.9070605305
32.1691 43.2917 18.7439 29.7694081711
34.7223 42.4394 18.7225 29.7516780699
35.7513 42.8831 16.077 29.2874774564
35.6374 44.6354 20.1925 32.0050567812
26.286 45.9444 18.4129 28.3222124769
28.0308 47.5091 16.3991 28.8323040844
29.5974 44.979 16.2032 26.288902984
31.9116 47.5263 18.648 28.8059916154
32.0311 46.4576 15.9016 28.6920092846
31.1902 45.4115 20.1625 28.2869663786
29.4341 48.6332 18.3874 27.5084412996
35.616 47.4258 19.2377 28.4392135248
34.8697 47.0237 16.8022 30.1620740129
25.1119 37.6258 24.0402 75.4989384985
25.4905 38.1652 21.3026 29.9428347261
27.0412 39.9158 23.954 62.0030550947
28.3127 38.5284 21.3888 34.5320861156
30.8484 36.8092 24.3647 90.9293292774
29.8749 39.2097 24.2361 90.041270151
34.5297 37.613 21.5316 29.5417268483
33.457 37.7049 24.0478 57.769268447
33.7774 40.5555 24.2126 123.5239489294
27.2543 42.7138 20.6657 32.7294207298
26.5159 42.5184 24.2973 108.6628861817
24.6625 42.4289 21.172 26.5980834842
28.1926 44.3059 23.5047 37.5909015842
31.5808 41.2024 20.3206 32.2337110132
31.4005 41.1518 23.3669 30.589052759
30.9046 43.4656 24.0429 123.9161133664
35.4876 41.8385 22.7945 37.7678426401
34.9313 44.6802 22.8397 48.6807830356
24.8132 46.9141 20.8015 29.2600463744
27.925 48.359 20.5062 29.2002206963
26.7638 46.5563 24.0445 108.1002702236
28.8905 45.4696 20.8845 31.0241628327
32.3622 45.3104 22.7307 36.4849888679
32.9765 48.0792 23.037 34.6701583029
34.2177 48.9722 20.9684 32.1525430797
27.0278 40.1639 39.7091 27.4086110415
28.1569 40.1986 37.117 39.3060473476
28.5244 36.8999 39.6442 28.9711623433
25.3944 37.355 36.7908 37.3766157186
28.0251 37.0832 37.0222 49.1181525305
31.0647 40.6874 36.8026 66.5961901422
32.3996 38.1823 36.8886 47.0310724964
31.0501 37.6724 39.2936 27.726698281
35.0954 38.9104 37.0316 53.5100941997
26.3598 41.623 35.6691 148.4506963119
26.4745 43.9729 36.8218 33.4560063711
25.3531 43.7026 39.4661 31.709931499
24.6347 40.9998 39.0981 30.5486629306
30.8419 43.3728 36.2167 83.617823218
32.3802 44.2939 39.6078 31.2290229457
33.1755 41.6937 38.8107 29.2903231167
33.379 43.9106 36.2001 93.049366273
35.4092 41.7099 36.5705 93.0016218309
27.5089 48.9121 37.042 29.8780589595
28.3394 47.9325 39.4198 30.6357474692
25.0174 47.9282 36.748 39.8581334248
29.7798 45.2271 39.1954 33.3247568682
28.8956 45.1649 36.4238 44.2932203522
29.0975 47.6685 35.4819 157.6470654266
31.4049 48.6454 36.3923 47.1064470995
34.4632 46.437 38.9304 27.6332755177
33.6958 46.6569 36.4163 54.6353292077
36.3295 47.7596 35.6912 165.2007034337
35.08 48.8821 39.2623 30.3520593019
28.6947 39.1156 43.6372 31.6076145237
26.2216 37.8285 41.0743 26.3712815545
31.5424 39.7849 40.6841 32.0125163874
28.8507 40.8042 41.3021 30.6838420751
36.0012 39.0362 40.2686 33.3573344948
34.7036 38.2122 44.2991 27.9618649099
33.0516 40.0073 42.7799 29.5235583651
34.7929 36.9029 41.9134 31.4043641725
27.1332 42.9706 44.3507 30.4737382871
28.186 43.6571 40.8388 32.2104873946
25.5738 44.0593 42.3989 31.157421873
32.5847 44.5064 42.6534 27.5195304104
30.9603 40.8687 44.3203 29.4448233357
30.2237 43.7018 43.2933 27.5398933563
35.5234 41.8616 40.5083 29.4531116218
36.6266 44.4998 42.9873 27.5275428415
34.268 42.6214 42.9345 26.037094553
26.2364 46.7065 42.7381 28.3685074986
25.9095 48.1288 40.5427 30.4809832009
32.8069 47.2098 41.1444 30.8782921596
29.0564 46.5531 43.5271 31.7075296564
30.1901 48.4473 41.9101 27.9180891387
35.2758 47.0979 43.0859 27.076233024
36.7586 48.5389 41.4938 26.6597087274
27.4985 37.0684 48.2116 32.5289150356
27.4101 39.8557 47.2478 31.0384337701
26.5914 40.3938 44.841 28.7363575399
28.7196 37.0935 45.4613 30.9473166661
32.3318 37.1021 48.978 30.4124465228
32.0503 39.8163 46.6999 29.8690163025
29.8033 40.444 48.0615 28.2765936962
36.3689 40.5121 45.1684 30.3194191895
33.1075 37.141 46.2512 26.4518731487
26.4431 43.9952 46.9169 33.779175796
30.2257 43.184 48.5101 28.5356075261
31.2768 43.7439 46.0316 29.9229384319
34.0345 41.5805 48.7323 31.1958472035
34.2283 42.0994 45.8717 27.0447607172
35.4347 44.6674 45.996 28.1538425735
27.3255 48.8675 47.8498 32.9242924006
25.2544 47.9883 45.0759 30.7515344307
29.6236 47.054 48.1578 29.7409206199
28.8279 45.3009 46.1868 29.0189193405
32.0464 48.1213 46.7932 28.0956776727
33.4129 46.2628 45.2581 30.0223472777
33.1955 46.1922 49.0012 29.5738100322
36.3094 48.2505 45.4425 28.2901617689
36.1829 45.923 48.1957 26.5773815958
35.7857 48.4125 48.5175 27.1680167716
25.0391 40.2996 54.1375 28.9261337387
26.7467 39.455 50.4827 33.6197194531
25.4585 37.8815 52.3977 30.2214695578
27.6399 37.177 53.9797 31.4446644039
29.7842 39.8449 50.6013 27.8733202325
29.8175 37.4628 52.2605 30.5082207744
35.4586 40.6338 52.3225 29.9870946505
32.9389 39.8248 50.8242 33.2867437031
33.6144 37.8154 52.7939 32.8515088059
25.6581 44.1282 49.8038 32.7910693252
28.2639 43.9631 50.8033 30.3371855533
26.8935 44.3385 53.6623 26.5529115026
24.6148 42.6429 52.8253 27.0030458459
24.6709 41.3124 50.3164 31.2312877541
32.4597 43.6322 49.6974 25.5652677391
29.4101 42.0252 52.2591 28.4513618853
31.6634 43.4272 52.3031 30.6261252124
36.4809 43.4225 53.269 33.1661320856
36.8293 41.7921 49.6558 31.9830465361
35.6624 43.9896 50.7834 29.9558705792
25.9587 47.6314 53.1411 30.0573165471
28.5481 46.8266 53.3031 28.4309520677
29.8062 46.4824 50.9164 27.3998682065
32.2482 46.342 51.9881 28.9026229314
35.7371 47.675 51.6286 36.0268572656
26.3823 39.3821 56.5487 28.7734996608
25.2423 37.0208 57.0982 29.5645541682
29.7775 38.8178 57.8893 29.5472556359
31.5341 37.9829 54.6055 26.0515644172
32.7851 40.1452 55.6106 30.0743958095
32.7279 38.7092 57.8116 28.6643635427
28.843 39.2085 55.4889 26.9119297096
35.7614 37.5361 55.0799 28.5956162822
35.0435 40.2499 55.2304 26.7715125122
26.1023 44.3822 56.2792 30.1924448013
28.2076 41.7706 54.4919 28.1984439291
26.1481 41.3543 58.4777 27.6141709179
32.3715 43.1984 54.9773 29.6523289057
29.9251 43.2772 55.9887 32.1566843299
30.5058 43.6658 58.972 30.3208492361
35.0078 43.9646 55.7278 31.5405866758
35.3925 42.6498 58.586 30.9810170742
28.1994 47.3612 58.2455 28.9012001481
24.8177 48.4479 55.5778 29.2997108319
25.616 46.7103 57.6079 30.6249115033
29.5328 46.2407 56.121 34.8548473065
32.4552 46.2209 54.8998 31.8015778488
34.8069 46.7729 56.4221 29.7669951696
34.5587 46.8531 59.1301 28.1903755699
38.736 2.4072 3.51015 31.3948513327
44.1063 2.44541 3.35662 30.2176783799
41.2451 1.39824 2.91858 28.6425428416
47.2429 3.7941 4.71967 25.5225508316
45.1833 0.218014 2.39712 31.2397688703
47.4925 1.14997 1.27548 31.8156328151
39.9578 4.92546 3.67749 30.2263811699
38.0665 6.40737 4.83569 29.2401134771
40.605 5.80385 0.978167 33.2976568749
44.0494 6.73135 2.90304 31.7647781323
41.9378 6.50743 5.07831 30.8521942183
47.8498 7.49038 1.94714 31.693791081
46.051 4.42796 2.71819 27.7970939716
40.0831 8.54247 3.43212 36.0276268611
39.9616 11.3846 4.92329 29.6625171123
39.5559 11.3518 1.67229 33.0228100634
41.1633 8.83098 1.18632 27.2870075183
43.7893 9.09393 1.34758 29.8011953182
48.3232 8.40028 4.83047 29.5825350645
45.281 8.93707 4.19968 32.4936945149
48.1642 10.1805 1.55022 30.9326975891
45.5476 11.2822 2.61581 28.5529418609
39.5599 1.27978 9.6722 33.566952059
40.6045 1.23775 7.10661 32.0901766137
37.8985 1.73449 6.36375 30.9703729795
42.4569 3.62108 5.90049 32.395683732
44.9421 1.51906 7.73896 32.4501364786
42.7439 0.021981 7.88224 28.4507245922
47.1213 1.19581 5.86487 31.1538494809
46.5977 1.54325 10.1208 35.2641328938
45.1799 4.07184 6.8541 33.4781430103
49.036 2.85941 9.71303 32.6630815185
39.5023 7.3207 7.04173 28.3262359666
39.1665 5.56682 9.24267 28.6289948251
42.3694 7.8189 7.96234 27.6110596424
42.2105 5.04696 8.64601 31.0781981544
45.3383 6.42313 8.84587 34.2569947973
48.4408 5.70565 6.12438 33.6343376034
47.897 7.26606 8.69888 29.1827885023
39.0648 10.7232 9.09235 28.9810148796
38.5333 9.90721 6.61655 28.9597276936
40.8622 8.63428 10.017 26.1957247795
42.6215 11.1599 10.2599 32.8298331264
43.8786 9.76571 6.51609 29.4662380794
42.304 11.6887 6.18516 29.404473342
45.1309 9.3594 10.1191 30.1198423311
48.442 9.5506 7.40935 27.9962587064
45.8976 11.1054 8.02887 28.362681513
48.6603 11.8608 6.04546 28.7812180252
39.509 3.70967 11.4042 27.9463374425
37.1721 2.06653 12.3121 29.4918404803
38.8231 2.20697 14.5596 27.1265793773
44.0364 1.47876 13.938 30.1920140661
41.2754 3.26104 13.8342 30.2121517007
45.0338 3.06868 11.805 32.2491537971
48.3809 3.31372 13.7928 29.6872963251
40.0082 7.57102 13.9323 30.8438447715
37.4808 5.40699 12.7749 31.3113847392
38.8441 7.43492 11.1649 28.3842475776
38.6133 5.15448 15.387 28.7990097974
44.9808 5.30226 15.3334 28.5190614949
42.6058 4.21686 11.1716 33.0480371086
42.0901 5.65657 14.8424 27.3707599824
44.4212 6.72741 11.7159 32.7366392079
46.5294 4.96551 13.3243 26.0164853395
47.9736 7.19993 13.1126 28.6811504528
38.8598 10.4047 14.6547 32.569761385
43.3357 10.2465 14.5124 31.0569198198
42.2539 8.50537 12.5126 30.0091831791
48.2431 9.13655 11.0599 27.9653492656
45.6543 11.6753 14.3034 28.4212538544
47.0612 11.3444 11.8995 28.4082617329
36.9784 2.15877 16.5355 30.8079794277
44.9097 2.88752 16.2904 29.9500726412
42.5192 0.274514 17.7632 33.5936109986
42.2959 3.21766 18.3114 34.1138188735
46.7872 0.0132231 18.4872 25.9136393631
48.0437 1.39834 15.633 26.7669718748
47.6029 3.4853 17.5032 28.2258731039
48.21 2.72658 19.9717 28.5079051446
37.7957 7.65926 19.1172 29.7525156835
39.1683 5.16878 19.8933 32.0024597725
41.057 5.59226 17.2026 32.5557498042
44.3349 4.09764 20.1957 30.8384129289
45.82 7.23668 17.058 31.9873641831
46.3072 5.76599 19.2992 27.7510659419
40.4067 8.71946 17.6504 27.8822572203
39.0083 10.9249 17.3314 27.1956443366
40.911 9.2604 20.1733 32.8445284575
43.064 8.49937 16.7473 31.4874540354
43.5495 11.0257 17.7561 28.7928195451
47.3877 8.67497 15.5185 29.7511490065
47.5097 11.0979 16.5527 26.7058192283
49.0473 9.88745 18.6485 27.4521834914
37.2513 2.56762 23.1464 33.6669436047
37.0523 0.163896 23.9454 77.1510644215
39.7426 3.81918 24.1869 100.2487802399
38.4131 1.71318 20.6026 34.2814458998
41.087 2.0301 20.8314 27.8119647508
41.9649 1.92802 23.5081 39.934400008
44.1149 3.18803 24.1263 123.0983637085
46.5962 2.42157 23.2304 43.6241315701
45.5404 1.67716 20.573 28.1621689477
37.48 5.91492 24.6042 98.8526714438
40.6402 7.86798 22.5511 30.2567318397
40.8727 5.20365 22.1427 27.6526485132
43.4077 5.23439 22.4187 29.0357362257
44.7165 7.23176 23.4873 47.4658181115
48.6455 4.66865 23.0847 31.9445179233
48.632 5.55054 20.4782 25.6347038928
47.5407 6.70702 24.1634 122.7500029085
40.4971 12.2357 20.3868 28.4289908106
38.679 8.25438 24.395 98.2085724901
36.9258 9.94388 23.4428 33.6806845345
38.3766 12.1728 23.7556 75.08023032
37.7945 11.9736 21.0319 29.8678620457
43.7571 10.3126 20.4811 30.5137859076
42.424 8.79409 24.2807 125.6329933833
43.2918 10.9389 23.5067 47.102735886
45.6587 8.22845 20.8971 33.3304823859
48.6593 8.39773 20.7652 26.1521934493
46.4726 11.2936 21.1239 30.0522006916
48.3871 10.857 24.1807 119.5892938806
45.8763 12.2287 24.0782 89.5086255591
40.7648 3.10378 35.5707 158.1418273521
38.0658 4.07993 39.1611 28.441003883
38.0808 3.3958 36.4481 50.5595501247
38.508 0.434673 38.4787 29.5979207394
41.6505 0.994564 36.9606 34.1434069695
43.6204 2.06044 38.4768 27.1919943074
41.8836 3.84674 39.5472 30.9842476539
48.784 3.26109 38.763 27.1474309377
45.3694 2.64804 36.4116 81.1642504935
46.764 0.0682656 36.7209 45.8195040542
39.385 6.52088 39.5253 29.2164983475
37.0487 6.02991 36.316 61.1570810883
40.0607 7.41637 37.0129 41.81103799
41.7076 5.2503 36.7334 36.5487333242
44.1584 5.8429 36.1056 96.7945416263
47.0302 4.65203 36.9075 46.9183709977
46.6644 6.71981 38.9321 30.2580161664
39.0898 11.198 36.3383 73.8113615336
37.1855 8.99225 36.3458 66.2622620897
37.3821 8.5765 39.2851 27.6969196969
39.7446 10.3426 39.4863 31.2339940489
42.5226 10.0501 39.2009 31.8085706815
44.2274 8.53203 36.4096 37.2447653231
41.8686 9.94851 35.9422 105.1435727092
45.5118 9.44689 39.0213 30.4127599346
46.5144 9.3466 35.6595 113.4748436732
45.794 11.8085 36.6036 44.246383448
48.9418 8.39478 35.7602 101.5453601024
38.8216 2.62885 43.0381 28.899303408
39.6951 2.15892 40.3237 27.0398459413
41.4312 1.27919 44.0528 29.8847114624
44.6543 0.765114 40.5314 28.5385719403
41.5693 0.0850756 41.2203 30.3074316797
43.3741 3.35987 43.9812 30.5722313041
45.3604 1.16933 43.7208 27.092675222
46.7362 2.99718 40.3039 30.1258812822
49.142 3.8138 43.523 27.0160461716
47.8821 1.31813 42.5696 28.2343948764
40.0539 6.82585 44.1263 28.9201121707
43.2457 4.96066 41.6526 31.4511373818
41.0441 6.73552 41.7705 30.340273135
43.8485 7.04855 44.3736 27.970974262
46.9897 5.38173 44.1298 28.3311857865
46.0059 5.45566 41.4041 27.4592029382
49.1523 7.83184 42.3831 30.8151758296
37.8819 8.51918 43.0854 30.0759896614
38.5914 11.0491 42.2061 33.2788579086
42.6169 11.7611 43.0628 31.0446938031
42.5938 9.0796 41.9588 29.0279867066
46.4237 10.8531 42.4674 28.8675262349
45.2751 8.28129 41.9716 27.913756197
48.2502 9.43021 40.1249 28.7468145636
37.2013 1.68718 49.4438 29.5473256646
38.5773 1.01034 45.4006 29.5275812924
40.4425 0.854412 47.5125 30.8895553113
39.0998 3.98511 47.8335 28.2035653952
42.2975 3.44071 48.1212 29.8378776714
48.5714 1.49848 46.8323 29.2617649537
46.3868 2.90597 45.6126 27.8645362021
45.1375 3.26802 48.0713 30.2278770892
39.31 6.69864 47.9623 26.5677616107
39.1162 4.41573 45.0121 27.8638111484
42.3183 5.05114 45.8742 28.9587051993
41.6976 7.60716 47.5894 28.3471500559
46.4539 5.61533 48.6526 31.2034035575
48.9836 5.70527 47.9722 30.3861012283
47.9368 7.67952 44.8696 27.0517177837
37.8444 9.47254 48.4172 34.6395020278
37.2799 12.0584 47.7388 31.53703191
42.3623 12.0034 46.2996 33.6910290641
41.6427 9.20414 45.3039 36.0943980517
42.202 11.409 49.1446 34.4073866636
45.0488 8.19084 48.5814 29.4965921065
48.409 10.5501 47.5642 30.2642584018
45.4471 8.59312 45.8352 30.0996478959
46.5551 11.1355 45.072 28.0859080374
46.4196 10.1272 49.3896 30.1528187116
40.0544 3.90433 53.7749 28.2670418712
40.3971 1.4458 54.3046 30.5692115082
39.4965 0.650734 50.1896 28.8808155391
42.2781 1.66302 51.173 33.4380107775
43.6691 3.66827 52.6186 29.683670844
46.4334 1.48067 49.6155 31.0535456972
46.438 3.19011 51.8877 36.0464382733
46.9414 1.48168 54.2956 38.2526386766
39.367 7.07558 50.5455 28.1212834919
40.0453 4.13378 50.8977 29.0171183739
37.2856 4.08926 53.4112 28.5884005916
42.4926 5.51076 50.2945 33.4407920153
43.1171 8.0325 53.3359 27.8988797726
46.7919 5.8428 51.4 33.2246992912
45.8159 7.98173 53.129 30.8209014305
40.2187 11.6966 51.3903 29.7222570447
39.0004 10.1145 53.8549 32.2331191296
42.6978 9.03167 49.8733 27.1752639652
41.0603 8.74967 51.756 26.9887039647
42.0569 12.1217 53.4851 27.7673247051
46.1012 11.9124 53.9616 25.7705448382
47.0452 10.1303 52.0477 26.9650912691
39.3665 1.98003 57.092 31.6074982926
41.3926 0.735709 58.4561 30.571557172
42.8986 0.0579576 55.8219 31.5903038885
44.3501 2.34947 55.2915 33.6251616552
42.5631 3.81941 59.1021 33.4014106528
46.6839 3.44379 58.5184 33.1361257891
37.8051 7.63954 54.4655 31.4341802975
39.0332 4.72099 57.4568 26.8359399732
39.7907 6.23786 55.6853 27.5039100002
42.8076 5.54573 54.5458 32.5276394603
44.0501 4.40678 56.8231 31.5495668291
46.7952 7.92079 55.7589 37.0538488218
45.5093 6.62967 58.0785 35.3841639866
40.8833 8.62542 56.5861 31.4442042697
38.8092 10.3657 57.4084 29.900775937
43.8441 10.6927 57.3535 29.3703611101
42.8082 10.0623 54.7996 28.0184132762
48.0519 12.083 57.9822 27.9717280256
46.1828 10.7509 56.2491 28.4671646987
39.2986 15.8483 4.09123 27.3356142338
38.3479 13.7761 5.02297 29.6687260048
39.3327 15.6134 1.41702 29.4848086961
42.0394 15.4514 4.45128 27.7142816948
41.2499 13.5874 1.38692 30.3287580808
44.3099 16.328 2.5006 27.1545101265
43.1479 13.0006 3.68771 30.8988723043
45.7455 15.4354 4.81211 28.8206681332
46.0879 12.5987 5.39403 32.4538670704
45.8077 13.8115 1.26601 29.1017193099
48.4032 15.7936 4.37105 32.6376181491
47.8235 15.6728 1.71721 29.1570688736
37.5172 17.5972 5.15979 32.6885205524
41.6778 18.2325 4.09881 31.6934920391
41.0327 20.1088 2.13551 34.2158598156
44.9395 18.9215 3.13102 27.0973335881
46.9178 18.3807 1.30415 28.1786880096
46.5814 20.2051 4.91927 28.7725184405
49.1277 19.8083 1.54066 31.8565472249
38.0387 23.5664 3.39058 29.5664759369
40.8833 23.0845 2.66982 31.6450898134
43.0252 22.3797 4.54639 31.5667148057
43.9728 20.6731 1.63781 28.8675281675
43.9198 23.5603 1.22943 25.9531893
46.1489 22.7065 4.06486 28.9947425317
48.5457 23.483 2.86542 31.9418504982
38.7231 16.1201 10.5066 27.5550293706
38.4173 14.0402 8.69796 31.3483382374
44.8273 15.5595 9.03075 28.3643736697
42.9111 15.2679 7.17774 31.5995944824
41.2827 13.1514 8.44652 30.4826085983
46.499 13.2911 9.6804 31.3811871705
38.8778 18.631 9.53146 32.4407728624
40.5895 19.1403 6.3027 29.1085383434
41.9026 17.6653 8.73439 30.052939809
42.8942 20.0213 9.9688 27.6700889685
48.9017 20.1309 6.39911 30.6488618573
45.2323 19.7428 7.30058 29.6895442127
45.977 17.0745 7.22775 29.812955319
47.6231 18.4584 10.4883 27.9035155977
48.7382 17.545 6.37 27.252942946
38.234 20.4528 6.79464 31.3584336237
38.385 23.0262 7.66369 35.3783322085
40.1135 22.3106 10.5646 30.7063376504
37.4478 23.5388 10.3586 33.3325040772
42.2291 20.8526 6.83846 28.157825944
44.5262 22.4745 10.2894 28.9977052607
41.4091 23.1111 7.91264 30.1151102424
48.8009 20.7196 9.30605 30.1583207767
46.3048 21.9739 8.18801 28.1191718718
46.4972 24.0641 6.55136 31.1170030354
37.5559 15.4656 12.8209 29.2560238989
39.2337 12.846 13.6887 29.7711833551
37.961 12.7012 10.8306 30.0285549919
39.6649 16.2531 14.682 27.6527971
41.3323 15.8841 10.8398 28.400577418
42.8143 13.5453 11.5674 28.1750724776
41.8873 12.5494 13.8769 28.086246802
46.4037 16.3001 13.625 26.3786939782
48.7761 14.9026 12.9636 29.4515482261
45.2877 14.1312 12.3224 28.997234533
37.8819 19.4657 12.2201 27.8121998715
39.5798 20.3938 14.2559 27.8941931726
44.8534 17.9041 10.7016 28.4951681909
44.2151 18.1215 13.4022 26.2341208539
41.542 17.6164 13.0263 28.4394839596
41.2603 20.1832 12.1753 24.3814140072
48.0045 18.3908 12.9305 27.3256426678
46.0257 20.2174 13.5157 27.9164087383
38.195 23.3114 14.0572 30.541004763
43.3751 23.8259 13.3296 26.2852576269
42.8859 21.3651 14.2092 31.892171023
46.5065 22.5827 12.2482 27.02899829
48.9342 22.8422 11.1335 28.0595624418
48.704 22.0245 14.7604 29.3720702789
39.141 13.8265 16.5536 31.7991561037
38.1886 16.0787 20.2166 32.5960957535
42.6575 14.0748 15.8771 28.9003062965
41.6493 13.1801 18.1521 26.0068777075
42.5433 14.9176 20.0803 32.1530548864
45.5249 13.9912 15.9538 28.2109892545
48.149 14.26 19.7482 26.9720075978
48.4226 15.6873 17.4199 29.6667141139
46.0171 12.3538 18.3291 28.5940774212
38.9648 18.9122 18.8432 32.2152090182
38.7253 18.3542 16.0587 27.7373763596
41.9428 16.8921 16.4035 29.8944032638
41.4718 17.1497 19.0656 29.561922972
43.5308 18.3487 20.119 25.0504096125
44.0178 18.9539 16.2779 28.7131707205
47.1906 19.9718 16.3225 29.1008327907
45.9907 16.5856 16.7255 27.6470534115
48.8488 18.3154 17.6388 28.6808617988
45.7258 17.2025 19.5138 29.8688456397
48.4134 20.1545 19.9505 28.5259897367
39.3127 23.2824 19.4311 26.7938093375
40.4576 23.9123 15.8562 29.325394378
40.6567 20.8662 20.1251 30.9609138432
37.2 23.0008 17.4742 31.1333869089
43.5951 23.6295 19.5529 29.6848996861
41.3032 21.4063 16.8269 33.1055047647
43.7455 20.6245 18.7016 29.3393755309
46.5375 22.1212 18.1049 28.8945457488
40.9426 12.5941 23.1525 53.8320478609
37.1471 14.4115 23.8793 97.1871364366
39.0356 16.1769 22.9908 38.3641861408
41.3625 15.3233 22.6867 35.2212635738
45.7575 14.3858 21.2197 32.6386887041
48.0427 16.1955 24.3089 115.3316202172
45.8156 14.9576 24.0448 64.260431099
39.1239 18.8746 24.0036 125.6608761742
40.9565 20.3601 22.8507 31.0370259349
43.7498 16.4045 23.8445 105.7427796779
43.4114 19.0074 22.7882 34.3870710134
47.9025 17.7523 21.1556 27.4827801272
48.2671 18.8627 23.7257 52.4933466413
37.2307 23.1382 21.3623 28.1825983935
38.2853 22.7548 23.9022 79.3994072214
41.3978 22.7801 23.8087 68.9305724764
44.3163 21.4845 24.262 121.4145959218
41.514 24.1359 21.3915 27.9310904692
45.0992 24.1882 23.6541 46.8348896763
48.8716 23.3398 23.0031 27.6881677334
46.0087 20.6939 21.4758 27.4315177171
46.042 23.2098 21.0164 26.7481749361
47.2664 21.181 24.0067 80.1878560154
39.7557 14.3065 36.8241 40.56081239
40.2821 14.1381 39.4164 30.6908573717
42.2159 14.7379 35.4938 155.6755266081
44.5985 16.1647 39.0672 30.7564498102
43.1568 12.4734 36.3389 44.166738075
42.9324 13.0712 39.1305 30.1803719544
47.7187 13.717 36.6041 66.2984509138
46.0685 13.8582 39.252 31.3601177412
38.8638 16.645 36.9039 37.2751762813
41.0277 18.3938 36.1563 106.4944859765
41.4821 19.877 38.3796 29.4123881837
43.5549 16.8218 36.522 37.2965773366
47.8938 16.6532 36.6725 46.5887681704
45.7567 18.1652 35.7642 153.8968489586
46.9302 17.4728 39.2011 26.6106335141
47.2905 20.1807 39.3831 28.8279772002
39.6021 21.5911 37.5405 37.974513396
40.9805 23.1371 35.7697 133.7682135374
43.5278 21.6916 38.2608 29.9856770938
43.2237 24.1066 36.9235 36.9315105283
46.4053 23.2855 39.728 30.7436041084
45.6764 20.6993 37.0514 42.4554933345
47.0344 23.1221 36.433 70.8665020227
40.1074 15.1372 43.5772 28.3869933676
40.3276 13.1834 41.9892 28.7212095681
37.551 15.916 42.7683 28.4584825508
44.4784 13.0597 41.8344 29.2592399311
45.2546 14.843 43.5558 30.4479281873
47.9822 14.8796 43.2962 30.543915759
48.7693 13.5371 40.6972 30.9901071855
39.4427 16.4456 39.9902 32.1289705895
44.0246 17.3196 44.0812 32.0741298967
41.3112 17.7321 43.3478 31.4266509863
41.6179 18.0452 40.4745 29.5634309717
44.1979 18.08 41.3183 31.0808080124
48.767 16.6698 40.8661 31.902374887
47.0287 20.171 44.2831 29.86185731
45.6302 20.2728 41.7623 30.6938606067
37.3453 23.2632 43.6167 27.6154233266
39.1553 22.6065 40.3794 31.038516464
37.9841 20.6035 42.6768 30.0355141779
43.7925 22.3319 41.0897 29.4315471631
41.1996 20.9551 41.6776 31.8583884239
41.8573 24.4208 43.7239 31.8213800232
47.4632 22.9544 42.6699 30.9187735093
41.0063 14.6001 46.0544 32.3806311607
37.6239 14.4265 45.9455 29.2990122015
39.54 15.1872 48.3064 31.8504421376
44.8167 13.1199 45.7611 27.9472749134
42.9925 15.783 47.8546 28.1229721436
48.9758 13.0372 45.4411 32.5106993558
47.9725 14.4187 48.6028 29.4958287158
45.1942 14.4329 47.8762 26.8663000749
39.3156 19.3548 47.4556 29.9423870336
37.4913 17.4834 48.5491 28.2472215276
39.2899 18.929 44.8346 30.0927865722
41.737 19.1686 48.8968 28.8286544729
43.8304 18.1685 46.8254 28.4170376827
46.0947 18.0752 47.7311 28.7237099202
47.4384 17.3442 45.1847 30.6033514148
37.6763 21.6721 47.4015 26.7642853289
38.9425 23.1409 45.8154 27.0783439886
40.9905 21.9465 44.6214 28.5869129221
42.6241 21.2524 46.4902 32.7042771119
42.7702 23.0143 48.8441 29.3591982125
46.8569 20.9521 48.5582 29.0869451957
45.4452 21.3252 46.089 29.4705262394
45.6392 23.2372 49.2569 26.5582619337
46.0403 23.8361 45.0238 32.9063292189
49.0585 23.8546 45.6455 32.0392203317
47.2682 24.4923 47.6974 26.6498352229
39.9856 14.8777 51.7944 29.8970090143
37.7803 13.2571 50.3013 26.795339448
37.2372 13.2288 54.1699 30.0714513475
40.5477 15.7399 54.228 25.9879449226
44.7701 12.3538 49.8216 29.4457049517
44.2715 13.2482 52.7388 28.7305197405
44.1076 15.622 51.2581 29.6243516447
47.4026 13.5667 51.3301 28.6749006791
47.7951 16.2886 53.0185 26.165143522
37.5415 16.3827 52.651 27.2933579275
37.7867 18.6178 51.0369 31.5931966246
41.6221 16.6686 50.0483 30.747688602
41.9754 19.3526 54.0135 30.8612042079
43.1462 16.7379 53.7984 27.7514816438
46.4135 16.8707 50.4176 27.7931692286
45.7197 18.0873 53.984 29.9146607618
45.9445 19.7809 51.1904 30.3501537162
40.1101 20.5169 51.9824 29.9269775498
39.7628 22.2806 54.1917 27.4440712405
39.6288 22.5833 50.1127 32.1036568834
37.3983 24.2242 53.4558 29.1139289791
42.8419 20.7727 50.7521 33.6509582
43.3766 23.7296 54.2347 27.6239716015
45.3717 21.1477 53.7815 27.9731184959
46.5186 23.9169 51.7336 26.165004294
48.3358 21.1477 51.7866 30.5130112024
37.4018 14.1517 58.9748 29.1461613695
38.8229 13.0835 56.4597 30.2423760159
42.8908 13.3268 57.5394 29.0602986017
43.8988 15.5326 56.2095 26.7433725425
41.0904 13.8593 55.6412 26.6249337196
47.46 14.2021 54.9131 27.2083141043
46.3369 15.1775 57.0356 25.3452685179
37.0539 17.9796 55.0064 29.8860439455
39.8031 17.9598 55.5041 30.6337630597
37.0756 17.7484 59.0599 30.1995672526
40.33 18.2569 58.016 31.840879653
43.2501 17.2323 58.2112 31.7305323969
44.4937 19.6447 57.2309 27.5615470739
46.7146 17.8629 56.769 25.031197064
36.9458 21.0178 54.7887 30.4100034251
38.0265 20.4424 59.0666 32.035221365
39.2015 21.7295 56.8312 28.9407625272
38.5128 24.3565 57.4634 27.4905266265
43.0564 21.3262 55.5638 28.2693529614
41.7395 23.3859 57.7372 29.3081387322
46.9345 21.3755 56.6989 27.5046167668
48.4742 22.244 58.6481 26.9168042782
47.2123 23.4125 54.5573 27.7629262726
48.9986 20.6015 54.7995 29.126627654
46.1263 24.1194 58.3316 29.0169423501
40.5315 26.1233 3.38798 27.1941126205
37.8676 26.4624 4.14607 30.4119709851
43.1799 26.9164 1.07778 30.4105697762
44.2042 25.4635 3.4853 29.9645693971
46.2491 27.2071 4.62979 30.5899603713
47.927 25.8878 1.10558 31.8034646871
48.8632 26.4691 3.69944 30.0950014978
40.0241 32.3388 1.9161 28.7504018467
40.8522 28.8777 3.10012 29.8414794095
39.2163 30.8871 4.45907 31.2700346671
43.8116 32.6574 3.88998 31.3415169584
41.3595 32.4185 5.37068 31.0099190651
43.4488 29.7173 3.44654 32.2337120237
47.8586 29.7992 4.81267 28.9321196197
46.2365 32.038 5.27977 31.0580587291
36.9151 35.0382 2.81918 33.0498011762
39.6524 35.8548 3.12601 28.3852048286
41.5461 34.3383 2.53361 25.4881294693
45.7476 35.764 3.14505 30.7341724342
48.0979 32.8533 1.16796 30.1531069792
47.1983 36.2346 5.48346 28.7045127189
45.5025 33.6827 1.32939 28.8913248882
38.8514 28.5577 6.10313 32.3745574183
38.1209 27.1272 10.1375 34.6545494063
41.3042 27.8218 7.22961 29.4047664509
44.1732 28.555 5.95143 28.9156909892
43.2816 24.7826 9.60275 25.9949502693
41.0385 27.2532 9.74405 30.8895557413
44.2399 25.9204 6.97458 28.7388314452
42.016 25.1881 5.84766 29.7555704243
48.938 25.8393 7.06392 31.2575962064
47.7933 24.8588 9.77382 30.4777669055
36.9294 30.3918 7.24686 28.1048318233
39.103 30.1684 9.43039 32.870582023
42.1444 30.7542 7.53009 32.4839215375
44.9181 31.2261 7.69612 32.1277924823
41.3665 31.603 10.355 28.6368375583
46.3628 29.0625 9.16781 30.3881454401
48.2608 28.6199 7.26176 30.0589931377
37.0403 33.6284 7.88765 30.6592962608
39.4856 34.4242 8.64452 28.5945683642
37.1369 35.6138 5.82409 30.1555932231
43.2591 35.3205 10.4712 28.3545590932
43.237 36.3854 7.78868 35.3830983279
41.163 35.0429 6.77849 30.5949461705
45.2097 33.1552 9.83872 30.2043241665
47.8033 34.0134 6.12042 28.5711935928
47.4324 34.0964 8.8312 28.2187838866
37.0645 27.0363 14.3176 30.6463615342
39.08 25.5553 12.3251 26.2881927759
40.6765 27.5313 13.4961 31.4286937951
41.5449 24.6408 11.4647 26.6070453179
44.6513 28.2417 14.5695 29.0757763261
42.5695 25.5546 14.9639 28.4215500463
48.7283 25.0373 13.8064 26.3933952712
45.5086 26.6495 10.6374 29.5077483065
48.9701 26.6412 11.6703 29.4322574053
45.6706 25.3171 13.1425 28.3229544693
39.3432 29.6078 14.9319 29.0973727517
37.0948 30.8075 11.7744 31.3186608135
44.4961 29.0038 11.9424 27.6291947965
42.0464 29.3259 11.7401 27.3269202232
41.2326 31.6267 13.3835 29.9050345895
42.9566 31.6858 15.1973 28.7200667719
48.5007 32.2612 11.4655 25.1256740127
48.3997 29.5781 11.0115 30.8509433837
45.4948 31.1891 14.6452 28.2136893072
45.6354 31.4523 11.8066 28.5923727637
40.8803 34.0434 10.9103 27.9415644071
38.9075 32.9841 14.8276 28.0535644265
38.9239 34.5359 12.9516 26.3710587493
44.5007 34.9522 13.3422 32.0465881515
42.8841 36.4386 14.8252 30.6628958366
47.8539 34.9443 12.3054 28.8953761523
46.7544 33.8664 14.8489 29.1439819618
37.7918 27.0737 16.8894 30.2704980154
39.7188 25.4795 18.0476 27.8000935197
41.7032 27.227 19.1865 30.3632540945
43.447 25.3536 17.6861 27.706012617
45.8941 26.733 19.3241 27.9079757871
46.0315 24.7769 17.2383 30.3710479997
47.1277 26.5542 15.5212 31.179059897
48.5824 24.6022 20.1915 28.7914523948
40.1648 29.0666 17.7197 28.9981119022
40.0611 31.0986 19.4459 32.0837341266
37.0345 30.5389 18.8301 30.2494745233
42.8738 29.244 16.6122 32.1127192394
45.7785 29.1714 17.9279 28.4178860295
47.7776 29.6027 15.9168 30.4575719092
48.0916 30.3126 20.1797 36.1789764019
45.3499 31.6521 19.2795 32.5298410989
38.748 33.3855 18.7051 31.8467019491
36.9893 35.0939 19.9878 27.6907877332
39.4944 34.9471 16.5978 28.8592473219
37.2061 36.0445 16.0556 27.5972655697
42.3042 33.0674 19.3083 30.0534751398
42.4465 34.1239 16.5408 28.5957864917
45.4011 34.1479 17.46 32.0086073776
48.4439 35.4962 17.4897 30.0009424404
37.159 27.0482 21.072 27.8056209171
38.385 25.3987 24.2905 96.087216076
39.6214 26.3437 21.969 29.709366245
41.4152 27.0304 24.4803 126.3266224278
44.0478 28.1048 20.7017 30.4555515973
43.3139 26.1743 22.9704 28.3784169925
48.2422 27.5037 20.7481 27.403342157
47.4791 25.1356 24.2354 99.4272912254
47.651 27.7071 23.3532 28.7702354128
45.2303 28.064 23.7813 68.8888046465
40.9777 31.2122 22.2378 35.5954297888
39.8463 29.2192 23.8382 101.1969574248
37.1377 29.2339 22.9792 42.6822959771
43.6835 30.9344 21.4087 30.2024521708
44.9469 30.9521 23.8284 102.4114725384
40.2483 36.7088 24.0379 72.7125323926
40.6992 33.9284 23.1231 66.4090643321
37.6548 34.227 22.6923 35.5935747902
44.0865 35.408 23.5711 58.9672449749
42.1245 35.0424 21.0529 29.7952582353
48.9434 34.2063 23.3791 43.9453398254
45.4981 34.6599 20.7158 30.5183556311
48.2589 35.1708 20.8733 29.362039428
46.1976 33.1765 23.8059 79.7330931682
40.4906 26.0558 35.715 89.0121797798
37.7148 26.5574 36.1748 49.9489334602
37.4934 27.1727 39.0 32.7346088808
42.1739 28.3945 38.2277 30.4104035347
41.6184 25.8326 38.9557 29.5356852556
44.7642 28.3403 36.698 40.2724130198
48.099 26.961 36.1409 41.6801097235
45.6267 25.5852 36.0392 98.2334123098
48.2431 26.6179 38.9221 29.6963550842
38.9189 30.7685 36.2883 40.3402368976
38.9612 31.4403 39.0945 30.2986111172
41.1386 29.0935 35.579 111.3023237911
43.0361 31.407 36.0879 68.556424251
42.1017 31.5279 38.9194 31.9216087681
45.9656 30.6242 36.0482 84.9096595886
48.4516 29.4941 35.7259 84.0544873332
46.7134 32.1134 38.1609 31.1458697729
45.9234 28.7882 39.4087 31.3558744322
38.556 33.6114 35.4924 135.4226090931
40.4166 34.8055 37.1048 30.8506802803
37.4571 33.4774 39.0481 24.9944577728
43.0111 33.9888 36.2855 87.8752159761
45.7736 34.5429 36.7352 57.5840076827
38.4732 27.2958 43.9477 29.6329596159
39.326 25.3681 40.5628 28.6427440733
40.7015 26.7278 42.4292 29.7632199397
43.2102 24.8479 40.7935 31.0521233971
45.3412 27.6512 43.6766 29.6165395846
46.0432 26.0756 40.9648 33.2689580866
48.1393 28.1809 43.4258 33.4335067024
38.7257 29.8812 43.5848 30.5142432871
40.9486 30.9999 42.8133 29.8937951728
41.5809 28.7693 41.1142 29.101832685
44.2023 29.1073 41.65 29.1212908862
44.1748 32.0355 41.4457 28.0158871512
44.1296 31.4397 44.4065 34.0237834613
46.6646 32.5337 41.0371 28.318207556
48.3358 32.3466 43.7603 33.7052229787
48.1919 30.1103 41.1551 30.7640029243
38.1782 35.4773 40.7624 26.6416089595
39.8159 33.6943 42.3583 31.374231642
43.2683 34.6769 41.2383 29.936703437
41.8808 35.5852 44.0247 27.76234904
41.0539 34.1015 39.7466 25.7384206122
46.0243 35.3038 41.3842 31.241722962
46.3003 36.1415 43.994 31.1296573865
39.1685 25.7886 46.1111 31.6499149514
40.6454 26.5197 48.3273 31.3105035441
43.1302 25.8344 47.6032 33.0587355578
43.6912 25.768 45.0236 32.435824831
45.9504 27.1561 47.6323 32.2729195444
39.6791 31.3189 47.8181 29.6005469305
37.8652 31.0377 45.8971 28.8666897306
41.1318 28.873 49.1269 28.8827038708
43.2354 30.0749 47.6817 32.2004806804
41.7359 31.4994 45.6004 29.867667474
43.8059 32.25 48.8576 32.456336626
49.0174 28.9886 47.892 32.9934960134
48.6204 29.9863 45.4744 28.5369096256
45.56 29.3105 45.9607 31.5937871701
40.4465 34.1434 48.8439 30.3576439574
37.5452 34.0333 49.2045 32.5244368458
38.2929 34.1098 45.1636 30.0652573672
41.0363 34.0117 45.9728 28.2343739195
44.3662 34.6516 45.4445 30.5787179209
48.9766 35.8218 44.7755 29.1997658418
45.4012 33.8716 47.9533 30.9734778167
47.9276 33.415 46.8216 36.572743162
41.0046 24.8268 50.6279 29.7607657955
40.0787 26.6876 52.8174 29.0021106643
37.6725 26.2781 51.5439 28.1366574609
44.4363 27.4669 51.7296 29.135150197
42.0992 28.5565 51.8642 30.8153475456
43.9249 24.8052 51.8609 28.8889342273
46.5564 28.3064 50.2539 30.6969005573
46.06 26.8338 54.1536 28.4077739101
48.082 26.7308 51.4938 27.4707129827
48.7747 24.6864 50.0645 27.0787265117
38.5285 29.4516 49.8408 33.7800999609
38.151 32.1017 51.2132 31.7016313108
43.6256 30.908 51.9015 31.4272213066
41.6218 31.0791 54.1841 31.9106416078
48.6056 32.2657 51.4346 33.2404114575
