19.9813 11.3791 5.08456 29.9165502905
22.4051 11.4455 3.9523 26.498669059
22.5521 9.79592 11.6796 28.8597298013
13.1038 1.11053 3.52102 27.3034211152
18.5713 11.8958 13.9208 29.1612803851
19.6152 2.15678 6.1562 32.1759377445
18.9299 4.31281 10.268 30.6263145586
20.0166 6.57659 9.44054 29.829000259
18.1175 2.20201 8.39303 29.357676759
23.0287 9.1919 5.38265 32.2342460428
24.1538 2.15871 9.24379 28.2079816042
24.1191 3.46784 5.65903 30.2537867168
13.9032 8.43344 1.45831 32.5225386569
14.8361 4.96427 9.83962 33.0163595896
15.7423 3.81438 7.5618 31.8792720594
20.1112 8.17364 11.5215 29.1761813957
22.9361 6.04704 11.3606 29.7422073154
21.2596 7.35278 6.03626 28.901124741
22.4971 5.95537 8.15268 30.975323142
13.967 6.87444 5.58471 31.4987788417
20.1395 11.6487 8.07521 36.6594234148
13.9047 7.0146 8.21244 28.5522675815
16.0129 8.44552 9.12005 30.0085906202
18.6325 8.72643 8.11543 30.3763037274
14.1084 7.09968 14.6932 29.2779683152
23.6908 5.75651 14.6049 29.1766632483
24.3162 3.81732 1.32805 31.0569203891
18.606 3.19441 15.0518 34.1464571526
16.7526 2.22094 13.0678 31.0114085647
17.3897 8.72039 11.4997 26.4679444744
21.4727 11.6903 13.296 31.5515425066
21.899 10.9348 1.34254 28.0124396932
23.4414 7.57434 0.88654 28.9368703774
20.486 1.01131 9.8887 29.4370705423
22.1684 3.33948 7.72058 31.174239113
12.9208 0.762835 11.8336 34.6429149901
21.8763 1.57688 15.3796 32.9531310191
14.5138 5.65317 1.8991 34.5390387589
16.6146 7.03882 13.1622 31.6671743235
21.5404 0.368124 3.19324 31.1949371108
14.0783 4.15907 13.69 30.584872812
16.644 4.55926 11.6559 27.9435754084
20.2813 2.94938 12.3016 28.4436110788
22.9168 3.25502 11.5598 27.7428479415
20.9907 7.0923 13.7285 31.0724159716
14.2542 9.90136 14.8106 31.1403206077
19.8083 9.18557 1.36121 35.4936177256
18.5003 7.63777 15.074 32.6897343656
20.7216 6.82365 1.17357 30.9001978183
17.4681 12.438 9.27319 33.6841221375
20.5929 0.383206 13.0041 27.534468164
17.4894 0.310977 24.2049 127.8098274419
15.0925 5.08393 17.242 32.9535760342
21.9672 3.63504 19.0217 27.6783633878
17.6531 3.32327 19.0234 28.4663522968
14.9233 5.51891 21.0643 29.6567580808
21.9324 4.63752 16.2714 28.4873121286
16.1687 10.68 16.7663 31.3349194337
12.4649 2.95775 15.8998 29.4273473216
16.8576 6.40086 19.2903 30.5352965205
20.1682 3.76181 20.9053 30.7965401221
23.0574 0.49735 20.2901 30.1259657484
23.1048 6.63503 18.9523 27.5200282187
12.8426 7.30778 17.5515 30.2839414782
15.7433 9.11117 18.9681 32.4551003072
12.6552 5.11862 19.5417 30.3538058072
24.5237 0.148966 22.734 36.7957569132
17.6375 10.7576 20.633 27.7772784047
23.9831 5.54602 21.5977 26.8089065391
20.606 7.37374 18.5112 29.6339145118
13.8486 1.47889 20.6407 30.9825015104
12.8668 11.6891 21.5494 30.583169597
20.3723 1.11409 23.8026 75.0992589722
15.8259 3.06291 21.0667 28.6736767935
24.175 3.06859 23.0503 33.1842537657
19.4922 10.1515 24.4281 112.0823059821
19.8035 10.0775 18.9566 30.3620286857
14.6537 6.09148 23.8881 62.0212289327
14.1903 3.31005 24.3536 118.2116800806
16.705 2.91304 23.7264 38.5907325468
21.4638 6.09241 24.3469 106.7371309794
23.1176 7.71746 22.9287 24.8074372256
21.4493 3.52598 23.4489 43.0019874004
17.0897 9.65358 23.0586 38.6474255894
22.0887 9.99649 24.2422 90.7951438934
13.4565 9.15986 20.6516 29.4439585612
14.2912 8.56276 23.2779 42.7912922614
24.431 9.6089 16.3721 31.9239766846
19.193 6.93363 23.4685 29.7455573968
16.3858 2.61459 16.5313 34.9231986913
17.481 5.57364 24.521 125.4212191415
21.3196 0.673156 17.9457 29.0586890623
19.4495 6.37989 20.8712 32.3120504624
23.5491 9.12813 20.6616 31.0282224875
19.2913 5.52777 16.6596 28.8436054845
22.0295 11.6609 20.3622 28.7189428028
18.5556 0.588201 19.3576 36.3451183984
19.2125 10.2078 16.2511 25.9053298038
24.6139 3.22842 18.3019 29.1594469708
22.8276 12.1422 22.9548 33.3735672719
14.576 8.94249 43.6756 29.5927014081
14.4099 2.46344 36.1852 66.0082400318
17.5015 10.8269 38.7991 29.894763106
18.2457 6.99701 40.6967 28.3799587956
16.5235 3.38804 43.4592 34.9282251603
24.0712 10.2935 42.4987 33.0538688468
23.7892 1.75733 36.4418 59.4908346523
20.0337 4.19766 39.0809 34.3438810229
18.4195 1.1354 43.4719 28.1580254836
14.6982 7.07678 35.8901 97.7807596106
17.4746 6.14913 36.4024 52.0525456894
16.4855 0.8963 36.0733 78.0194764085
16.6664 0.865468 39.1841 33.6164156283
19.1402 1.87727 36.3355 49.0233931436
20.1864 5.33692 41.6292 31.5140744488
22.1269 5.47449 35.7923 82.9777665342
19.4311 4.57943 36.1634 64.7454342882
13.0189 5.06387 36.5982 40.9183708963
14.8186 9.99547 35.8838 84.0174122901
17.5175 10.5561 35.9574 75.8378184209
12.8702 1.53976 40.1052 33.2095335699
23.2762 8.57466 40.6972 28.9402295426
15.3518 9.56843 39.6885 31.6017067316
19.4977 9.00489 39.3682 31.2047771926
18.9012 8.2939 36.5485 32.8104588048
21.2117 7.93597 35.3183 126.2173594016
22.4994 9.63401 36.7191 31.3482211987
22.1696 10.1276 39.2796 32.0202015889
12.6072 2.93322 42.8379 29.4805027459
14.5001 1.58873 44.6795 28.9384460102
14.3357 7.02035 39.0742 27.2877933473
15.86 5.94017 42.157 29.4695407081
19.3224 1.10024 39.2565 32.5207936464
23.3388 2.15869 41.1554 34.56689973
22.6086 0.661 42.9238 26.4522829982
18.5253 9.91348 42.1836 35.4110489348
14.9363 3.0737 38.9018 29.8139169417
16.8122 5.38343 38.8916 30.0972919226
22.7426 3.56552 38.084 30.2369844341
20.2751 3.31717 43.5393 30.7426944467
22.0648 6.74354 42.6441 31.5682203701
21.5695 0.566133 35.6012 130.8166126765
13.2778 5.1683 40.9278 30.8730668755
18.3013 8.79426 44.6207 31.4058601475
15.7037 10.6769 42.1484 27.1818505799
12.8429 11.6209 36.5183 32.5000107065
12.7992 11.7702 39.3278 30.8256340864
22.9805 12.13 35.5548 132.1233333338
20.1258 0.0528759 41.622 29.5470485174
16.3351 6.89376 44.4199 27.1992176032
13.4933 0.59945 47.2908 30.0734151444
22.2496 2.17799 45.2821 29.8499458311
12.4382 5.4778 50.0619 31.0154960385
17.5838 1.05631 58.3496 31.2360627373
20.4909 3.78192 49.4858 28.4725364576
20.8239 4.29923 46.849 33.3451978739
20.2397 1.03332 49.3635 33.2822786053
21.9895 3.42787 58.5348 28.6356530698
12.7791 7.85107 46.9495 28.0325223231
14.9899 5.86347 48.7462 31.8317045307
17.8748 3.44921 50.6424 29.7178417682
17.1145 3.89621 48.1403 30.6165590578
18.2834 4.69459 45.4983 33.9956051776
19.6391 6.76109 50.5956 34.9250058849
24.1064 11.1021 51.8463 31.691036819
22.6314 6.44249 46.4661 34.4123595131
14.4058 1.58443 51.506 33.5926599674
14.405 5.70396 46.0179 30.5405616132
20.5572 8.18396 54.6564 28.340701722
18.204 10.881 46.5348 27.503359409
15.8635 3.1386 58.4986 29.494221457
21.7667 10.6384 49.4435 31.8841819759
20.5548 5.32338 57.3437 29.5015910813
13.4441 7.80038 57.3053 28.4857605089
12.4066 12.0059 49.1983 28.6349137295
21.0514 0.0998097 46.9651 30.0630993233
13.1357 2.81406 49.3658 37.0779132881
12.6269 8.73478 50.4735 31.3247733912
22.082 10.5061 44.7463 29.2815426531
15.8797 10.0319 56.0985 31.9516685965
16.5389 7.32087 56.6154 33.7133903638
17.1418 1.0229 51.3399 28.8132164634
12.6232 4.2814 58.0796 32.3961147209
22.3404 10.2836 55.7588 31.0708734652
14.7423 11.1976 45.7789 30.9638848338
21.0591 1.77182 54.3709 31.8013725706
22.7094 1.99368 56.3019 26.7095526442
22.5745 4.75872 51.0224 27.8956069951
14.048 8.11897 52.7247 33.823390367
23.7606 9.98804 58.1405 28.9944776459
16.6435 8.35586 52.3305 27.5835500383
17.498 3.6536 54.7285 29.7750819669
18.8808 4.98582 52.6095 26.1393564029
17.6925 4.73042 57.3094 33.1929737827
21.4657 4.28112 53.4052 29.2138034615
14.2999 9.59666 48.3332 29.4662535321
17.0933 9.85306 48.7399 31.1508248011
17.0979 7.60102 49.9272 31.0000094909
17.6644 10.8219 52.7427 28.2199176763
21.0999 8.78383 51.7384 27.8424247083
20.7282 11.2672 46.9185 28.2844045373
20.072 11.0396 53.02 26.3610752061
20.9553 8.08916 44.7589 32.0231436381
13.8436 2.32801 56.326 26.0882392233
13.0394 5.58957 52.9046 35.5167557068
24.6046 3.22971 50.6715 30.4071992773
18.6039 1.31792 55.8358 35.5870273072
22.4106 6.04884 55.1858 30.9785227351
13.1617 9.2773 55.3988 34.0381475973
23.2645 7.2822 51.2554 28.5315692929
14.671 3.4714 54.0159 36.2854769007
19.2605 8.62295 57.0138 35.5711246308
17.6755 6.84003 54.2507 28.8129258744
23.4547 8.79465 47.9108 30.3788878288
24.7018 10.6456 46.3231 30.2744886932
24.2969 0.36503 51.5645 30.5771211716
16.6656 1.35756 47.2487 30.6651586812
21.5939 0.0883241 52.0431 33.9679967326
15.2019 10.8819 58.6469 35.8819164694
16.2443 12.4291 54.4257 32.5706034769
17.1784 12.0071 50.2533 29.6826757071
24.0254 18.0553 15.0044 31.4777430454
17.198 13.1998 3.7738 31.0963990892
19.5438 13.6606 3.71647 29.1779621127
13.8782 19.7311 4.70348 27.6809141623
12.359 13.2387 8.54244 29.1841169177
23.2834 18.8957 5.47813 29.1165437741
13.4924 23.0595 2.22616 27.5100403424
18.2975 22.2783 12.7407 30.4608219406
15.8796 15.5346 2.47437 29.0692699
18.9403 17.8636 2.61109 31.0250649218
17.066 17.9395 6.74608 27.1645724216
20.7658 17.7427 4.64864 29.8331418835
18.6891 14.5929 14.2928 27.6101570076
15.8829 19.9317 2.77262 27.0425750288
16.6913 17.6615 3.89735 28.3274579331
12.8057 14.5761 11.0038 30.8613037611
13.3772 15.6142 3.65103 30.4872241895
14.5103 19.0571 7.24253 26.7838029936
23.5946 19.222 9.92956 31.1637882172
15.5603 17.2382 13.7423 28.2595439613
23.2776 17.5085 7.64987 31.9299034813
21.1406 22.858 4.06231 28.9551213942
21.2836 22.4738 14.028 33.1629598276
23.3656 17.1846 2.68513 29.6405072988
16.1705 23.9866 11.9172 27.6734766737
19.6918 18.683 15.4064 27.2620745212
20.0914 15.3805 5.86707 27.6944140704
16.0786 13.31 6.50417 31.9507188802
22.0833 15.1857 7.72582 27.0738370532
22.8528 13.8529 4.72348 31.5347300715
22.5667 21.7729 1.89337 31.4960588611
13.4857 14.0823 6.10757 28.8352089821
13.5242 16.8657 10.0501 29.6925524683
18.229 15.17 10.0183 30.5559309257
16.3132 17.6766 9.76395 30.2287999178
15.8879 22.5947 4.94419 31.8245525497
21.043 15.158 10.0474 33.7953109149
17.7645 15.4266 7.1154 29.9555355487
22.0203 19.3467 13.5295 28.6500445315
13.671 24.0771 6.4682 31.6862149198
23.3951 21.2137 12.1945 26.8070621892
24.68 20.6276 3.18752 28.4275064618
19.1872 19.4702 6.39943 32.4573707901
15.8695 20.9103 9.18131 30.6699604534
19.3659 14.7341 0.785176 32.471064623
19.9006 22.2996 9.03335 31.8719744784
21.9993 23.9774 7.55104 30.7432749732
17.4521 22.9264 7.62361 28.0415217833
22.7262 21.8547 5.8709 32.0506183027
22.7318 13.5731 11.4594 34.1057447598
16.6714 15.1864 12.3989 27.3023656016
16.5493 23.585 1.95513 32.8368324565
22.6153 23.5271 10.6412 33.184627796
17.1467 19.7128 12.189 28.1038093281
12.691 22.8182 8.92987 28.3825452987
13.434 16.0865 15.1289 28.8959527982
12.7777 16.6624 7.33351 29.4208946863
14.5828 13.4258 12.7822 28.5530660952
18.4178 20.3971 2.15759 29.9756408989
20.8404 18.2873 11.1877 31.54006501
18.8694 17.6374 12.8383 28.7747903188
14.2125 19.7849 13.1686 30.5528803061
19.0084 19.7085 9.5315 31.904611861
14.2073 22.0913 11.2402 27.8932083853
18.9609 21.6955 4.8436 30.359682679
24.321 13.3053 8.11641 32.1147925221
23.2652 24.1295 0.842503 27.9470825943
12.3068 21.86 4.28252 28.0425198746
13.5507 13.5871 15.284 28.6436481258
17.6244 14.3721 16.5962 31.9497188822
17.2897 21.8128 23.9185 62.0139359452
12.8578 17.9106 17.3095 30.3199141089
19.4561 13.3029 20.6463 30.3994996297
24.1369 21.1763 23.448 36.7053229025
20.9558 15.9413 21.2136 31.028405675
12.4513 20.1887 21.7367 32.7609152299
15.0059 17.5081 18.8415 31.4294499607
14.524 23.1077 24.3871 100.1448898031
16.0851 12.7612 20.5162 28.0445979432
16.399 18.7302 16.1754 33.3005684649
18.4706 16.9837 17.5204 29.6033872963
22.3066 19.3223 18.354 28.1737396152
13.5138 16.0872 23.9062 47.1481262935
21.657 17.0387 16.7651 27.5402145978
15.3324 22.3327 19.3704 29.6175968783
12.4477 22.2782 19.8338 33.3452856589
15.2291 19.471 20.7584 30.671388503
19.7401 20.9991 16.762 29.2543637773
13.0181 20.0788 15.7439 28.7248099766
13.4541 13.8781 19.9452 31.2684912284
13.2922 13.3935 24.0764 92.2392242369
23.4687 13.298 18.7476 25.2966149457
15.2074 13.052 17.3702 31.8965159
16.8775 15.8047 21.1213 30.3181981613
18.8274 12.8186 23.8545 66.7075397965
21.1947 14.2369 23.5512 84.1998788044
22.917 15.9174 19.294 31.4854961743
13.6179 16.1267 21.0795 28.0985528117
16.9927 15.1365 23.659 61.4914667764
18.6871 17.6608 23.7804 81.0947453284
20.6953 20.1853 20.5607 27.7572447533
21.0778 18.7627 22.9459 30.2131525195
18.9547 17.4757 20.0232 28.7575472281
14.8666 18.4348 24.5101 113.6937340292
13.2651 20.7719 24.2946 65.0216307747
15.9325 12.5678 23.4156 48.8170548167
16.739 19.4936 22.9806 27.0672213244
18.2761 20.8005 19.5209 31.1191349741
14.4489 22.0825 16.5631 30.7993431471
19.9792 21.0654 24.1912 102.3612632266
18.1979 23.1671 21.7567 26.9829311024
21.8859 23.1299 23.4724 33.56788837
23.5182 18.7759 24.1343 128.0285913461
19.9112 12.7535 17.681 30.5685101611
21.0215 22.7641 21.0919 26.5099711138
23.5061 23.3213 19.7336 30.2386024646
21.0608 14.765 15.4474 31.9453822784
22.6604 21.924 17.1457 28.5749596395
19.0349 24.0564 18.7711 26.7702224929
17.0883 22.0094 15.4385 32.2993608554
22.9917 12.8036 16.1239 29.3423808501
17.1621 24.5794 16.9668 26.3807360588
21.3399 24.2037 16.8103 31.1566074504
16.074 14.6858 36.679 33.930512288
15.9647 14.6735 39.2389 28.9153256944
18.1435 13.4918 42.8396 30.0362803808
20.7502 13.9309 36.1792 47.6567540897
20.4366 14.237 38.9678 30.1474329669
18.2416 13.2155 35.9475 91.925582737
16.9034 23.7459 38.7651 29.8238805586
22.3594 20.3037 41.3263 34.0755317389
14.5238 22.0147 39.1348 29.5027020093
16.5122 17.4705 36.4342 71.4580702817
15.382 18.791 39.6646 30.0714859231
14.1464 21.7656 41.7532 28.6933966325
19.6655 18.1026 38.7264 31.282299235
19.316 18.2528 36.0696 83.9628699427
21.3149 16.5258 35.8935 100.6688303298
23.4088 17.9739 36.7169 38.8778031555
23.7739 16.8587 39.1814 29.0286621427
22.922 21.8006 38.9257 29.8470359006
16.2489 22.2931 35.7448 117.1836983197
18.5543 22.2184 40.549 30.8363457326
18.8743 21.3081 36.2478 55.776412084
19.9928 20.8418 38.5969 29.6337019737
23.5428 20.8042 36.2969 44.1178686711
13.6245 14.3037 35.5459 134.0883102545
19.4812 24.1973 42.1287 27.7516969384
14.825 19.7681 36.9566 35.0147477788
14.4259 12.8577 42.8592 28.4578948248
17.2232 18.6999 44.1626 31.1135131683
23.637 16.4656 43.3624 30.4131623233
13.7037 14.0936 40.4108 30.3095874141
18.1977 13.3733 40.0603 29.3933575484
22.7285 13.012 40.0829 32.8702177462
12.5548 19.8462 43.1256 29.5631543375
20.5348 14.342 44.2874 29.739775609
23.2515 24.4144 41.622 28.5422556439
20.1523 24.1961 37.2605 32.9699097864
16.9201 20.1921 41.7514 36.1553010819
17.1845 16.9121 39.9163 28.0801968169
17.8161 16.3251 42.5991 30.3678303197
20.7874 16.5511 42.9324 27.4114344229
21.2911 16.4231 40.1205 27.75176978
15.0929 15.651 44.2085 33.011337764
19.9256 18.7799 44.4941 31.330199724
12.9005 18.4432 40.6309 30.8567771131
22.5151 12.9752 43.0413 30.1440032785
21.5732 22.2828 42.7575 26.8841616238
12.4045 16.6945 36.1381 68.1538032529
22.0947 23.0252 35.3262 148.5939216982
14.9953 23.7189 43.6729 30.0131362464
13.8642 23.8256 36.5562 38.256552237
24.5837 13.9684 44.3799 28.989266194
15.6313 23.6586 47.6655 28.228052978
23.0942 17.8078 48.1259 29.0407176073
18.3411 14.2307 48.3173 26.8243649365
23.801 18.7987 53.2934 31.9622200093
20.5157 14.1333 47.2022 24.9744484425
21.4968 16.4331 59.1609 28.0556557025
22.2973 15.0776 49.0773 30.246459512
20.0376 12.5858 50.599 29.3548880863
13.2488 21.6877 58.6826 29.8311364732
16.386 15.3121 46.7544 26.0441145857
23.9625 16.2228 56.8943 29.3524500179
20.8342 21.1306 45.1469 31.9966617277
16.7559 17.8728 47.1071 29.5138657355
19.3076 18.4223 48.3998 31.9832800566
20.9355 17.1741 46.6853 29.6185202403
13.8098 17.6175 58.0596 30.781828303
14.7628 19.826 46.5722 29.46052063
17.1285 22.0362 49.6832 30.44459112
24.6813 23.2153 49.7835 30.859762211
24.4929 13.9346 53.2611 30.9985934201
18.9836 22.7878 46.5287 32.2983277067
16.3493 22.2038 45.6297 31.504122601
12.6078 20.4759 49.1679 29.2190133225
14.6811 13.2868 50.517 32.2592049144
23.627 20.4154 45.7707 30.3058103247
17.9211 21.8885 58.0131 32.3846137671
20.8791 15.1354 51.4952 31.9286854293
23.9394 13.4505 47.0595 30.3681673732
21.3776 12.8442 57.9434 31.3509927964
12.9091 14.9757 54.9671 33.6454783529
14.5181 15.1611 48.7485 26.9932620544
15.6683 16.5151 52.9195 31.6322230746
15.534 17.4379 50.2901 34.7404128103
18.3626 16.443 50.2152 32.5928398346
15.1073 20.2968 50.0413 32.0112981539
19.9587 20.8607 49.351 30.9356564109
22.8517 21.4481 52.5698 32.4084303764
17.6517 15.1897 57.343 32.3519324658
16.8793 12.8658 45.3125 27.2862920575
20.3343 20.6463 51.9715 33.8437554732
12.8961 17.8472 55.3486 33.1413462686
15.1136 21.1744 53.1011 30.4114088792
13.3949 23.3151 56.7926 28.1212546958
20.7202 12.66 55.1734 26.9998408096
12.8185 21.975 45.019 28.946423716
22.1998 23.6495 53.6865 27.0813903101
20.9864 18.421 57.5503 32.3975182475
23.5433 21.6933 56.3891 33.0024133765
22.8709 20.5302 49.3286 33.5021955401
13.5518 17.7212 45.1756 30.2092370366
19.6326 18.4672 54.0349 31.8233325849
14.6037 14.0324 53.0845 30.5241614702
15.4577 23.1066 54.8719 31.4243900513
18.5466 17.6405 56.3618 29.9318508261
17.6907 23.2549 51.9784 26.6096422943
21.819 14.4788 53.7042 27.9987252069
18.2281 16.0084 53.3533 30.8070366942
18.2926 13.6536 55.252 31.0028097212
20.9546 21.2759 58.0271 31.0912815324
22.2545 17.1293 54.6482 30.8509341947
23.5899 14.1532 58.4569 31.0505753637
15.0451 18.8462 54.4478 31.6223032345
16.7487 19.604 56.3812 26.0930235663
18.4159 21.0958 54.2462 28.9989578758
15.0102 15.1082 58.5522 30.4158531628
20.3892 22.6317 55.3919 28.4423767176
15.2492 19.6086 58.4392 28.2891108985
13.0335 13.7158 46.911 27.8859797585
12.5975 22.4362 52.5627 34.868787564
13.6156 12.7815 58.6638 29.997814166
23.9977 23.2298 44.7289 29.1900741466
17.4282 25.5652 5.75656 28.2482300212
18.2087 25.7537 3.25142 29.5868758783
21.2438 25.4774 3.29157 30.3766660777
23.7937 26.7136 3.54666 29.5795529455
22.7048 35.4251 6.49636 30.9325652893
20.7686 28.8198 6.17774 31.4627673894
15.4976 34.1371 9.0429 31.0192059273
18.7484 24.266 10.6041 26.2530461865
23.891 30.982 6.08253 27.6059687006
24.3821 32.3857 11.1047 29.3176398362
12.9338 28.1572 14.4168 29.2666577891
19.2669 29.8156 2.56958 29.1332748555
15.7343 30.3158 2.55521 25.9617598975
20.3497 24.9934 12.6752 29.2531621917
14.8323 26.8701 9.67204 26.1324272405
18.9639 27.3386 1.07952 28.7256788427
15.1217 31.2054 5.02553 26.5165895506
16.9376 33.2219 4.33506 26.7164833063
13.1537 26.7434 5.60299 29.1408914537
24.0129 33.5023 7.63905 28.1588077587
15.6007 27.5012 2.78113 30.1034989954
15.6768 35.1558 3.13773 29.9788068174
19.433 32.6962 3.50189 32.5977955603
17.2409 34.6211 6.88097 31.786959795
22.9943 32.5188 2.27536 28.746919399
12.8925 32.4236 4.17047 27.9773099919
21.9168 30.2287 2.16929 27.8801865623
20.832 28.1294 9.35436 28.9175450066
24.1782 31.3211 13.4125 34.4398541988
21.7025 35.6572 13.6813 33.2292658358
22.7231 26.7062 10.535 28.1929589715
21.2649 33.5747 9.62249 30.7960574018
16.4465 30.2847 15.4205 29.8098885497
16.1588 35.7359 11.2672 30.7013379179
21.5581 34.5567 3.85253 34.8225562415
15.8166 27.8811 5.81415 25.6162295486
17.5542 30.5039 9.29199 36.3321621111
17.9937 29.926 5.27663 29.0144898793
15.4831 33.6893 0.927951 28.1967016428
21.3578 31.3383 7.64249 28.2835387039
12.6767 36.297 6.24063 30.0447866035
22.98 29.1916 4.46148 30.359722501
16.8881 32.6621 14.6804 29.1188525027
13.7618 30.5879 7.1593 27.6725225042
15.037 31.7431 9.40932 28.1496923193
12.7783 34.3248 14.076 29.7632379501
18.8798 32.0003 7.12796 30.960464355
22.3107 29.29 12.7874 28.3380348626
19.7751 34.4593 12.0513 36.8268678161
12.9095 34.9372 3.95698 28.5327672674
16.3434 25.7811 13.7642 28.876573515
12.961 34.9874 8.50692 31.6124889366
16.4843 27.6287 11.901 27.8615605724
19.6236 35.7279 8.51287 34.7732100428
13.7462 25.7316 14.4524 29.8349262168
12.792 28.1886 7.90673 28.4954327105
18.7113 26.2866 8.64769 26.6285731095
16.732 28.008 8.26058 25.5301585273
23.0311 26.321 13.3283 31.8045067519
15.209 29.6194 13.1832 29.9464599685
24.3745 24.991 8.29819 29.1974889413
14.0158 31.4096 11.6573 30.2636149841
19.1534 25.7971 15.1741 31.4795079381
18.8523 28.8901 11.4831 31.5409568482
19.5161 32.7104 14.1301 32.6704394762
20.3117 26.1797 6.31713 30.3121653871
22.5056 30.3566 10.1675 28.9029721725
19.6779 29.9646 13.7115 31.4397483724
15.2417 33.7223 12.8777 31.3066762817
23.5133 34.9909 10.528 28.1200818034
12.8619 27.4429 2.89972 31.9839688379
15.395 24.5372 8.79942 26.8280681879
15.6993 26.068 18.4116 26.5993934979
12.9423 27.9071 20.3625 31.6863434665
21.4361 27.8484 20.2108 27.6107669408
13.4734 35.9385 20.2996 27.1640699396
17.7735 27.7879 18.8819 29.1814397049
14.2286 26.0312 22.025 30.8569177161
13.4343 24.6288 16.9926 30.5934499712
21.0761 29.266 17.7319 32.6354208813
20.6681 35.7515 20.6802 26.5486643414
12.9053 32.9363 19.9346 29.2044388718
14.7007 31.0236 17.3105 26.421560867
19.8127 31.3522 20.2569 30.5710528416
17.3368 30.1268 20.097 30.707318969
19.3656 33.7305 21.4632 29.3265759574
24.3638 31.9748 18.6176 28.3153461027
22.4707 27.5996 23.7849 80.5455774738
20.8453 33.7901 16.3385 33.6665999911
16.0551 33.3346 18.6483 32.9393604308
12.7831 34.2101 24.343 121.9626684042
18.6365 35.5906 16.9863 34.3304839437
23.6309 26.5133 20.2342 25.6626210269
21.685 31.6878 18.272 31.4406316986
23.1768 35.479 16.7947 28.0416544605
16.2068 25.7981 24.144 80.8507599789
16.6764 28.6138 24.5621 121.0489960563
13.6947 28.4933 17.4738 30.0580480813
20.6969 25.27 24.1423 107.8820915102
19.4536 26.2205 20.2183 25.7769859412
14.454 30.4749 20.2317 29.2254299155
14.8045 32.8951 23.0038 34.0766289911
23.0626 28.2647 15.6066 31.4932510086
14.6534 30.3784 23.3494 39.6139550529
23.6441 25.9984 17.4113 31.5705608602
19.0412 31.2568 24.6349 146.4735548824
17.9818 28.6916 22.1962 31.2052790751
21.2071 32.5933 23.5276 41.5074973467
18.716 28.457 15.9213 31.680073563
23.8745 33.4079 23.9285 62.9733249346
16.0227 34.8242 21.015 30.3355023878
18.6128 25.955 22.6762 26.0301360112
22.882 35.8779 24.4755 121.4249761752
17.7657 33.7083 23.7553 55.795148195
16.1703 34.5587 16.5145 31.9400183952
23.8284 25.0012 22.5716 28.8311923906
18.4593 36.6403 24.3194 131.7325303439
21.6155 30.0231 22.2418 29.4727474275
15.7301 24.619 20.5274 27.2046943766
22.8183 35.0306 19.5326 28.4661640677
13.7577 36.0857 15.8368 29.2401546955
12.2895 24.6997 23.3467 47.8525596251
24.3974 30.7351 21.4201 29.0297325387
12.4394 32.2184 16.0103 30.1283331949
16.9535 27.5498 36.7277 38.5195721173
14.7035 26.1597 38.1159 31.4917516611
16.6213 36.2496 41.2007 30.7658359505
19.9777 29.8116 36.5549 74.3063345594
12.8417 36.3204 41.5233 28.5353357115
17.8413 31.5802 44.3109 33.7586184933
23.7313 29.9947 37.7084 32.1521596666
22.0458 32.1062 36.8103 38.8274186949
19.1938 36.702 36.7565 40.3152775408
16.0994 29.9605 35.7243 128.0746068536
15.5584 29.9343 43.3226 31.326355817
14.4626 30.4736 37.3512 23.2435126218
22.2456 32.9829 39.5132 29.7824177168
15.4962 30.5643 39.7795 30.2639913091
18.6535 28.4707 38.3626 28.5585224944
19.8041 33.7871 35.8618 113.1487829771
18.036 31.6108 36.3046 46.4025736626
16.5333 33.0977 38.6911 29.1177005803
16.5601 25.1273 41.5011 31.5292644828
13.5299 28.0514 43.3169 27.7821350758
21.1733 36.4645 41.0885 28.3945816314
12.8975 32.1989 36.8404 31.6545576
12.6125 26.1039 35.7644 110.3877947525
22.5604 32.477 43.9471 34.0192583511
22.5885 28.0711 43.1613 30.443987856
23.9062 33.7098 35.9389 127.7401475589
22.135 30.7879 41.3319 34.7250222067
20.286 34.9175 39.1399 29.3489750976
19.7719 35.3969 43.3612 32.235772221
14.4197 34.9046 38.9058 29.2373110458
22.5064 27.6255 36.5785 85.9160636334
15.147 35.4843 43.3458 29.2850655035
23.5359 36.0042 36.968 32.1830214239
23.5908 25.204 36.3015 48.1790225314
20.9659 26.1747 41.2574 34.2061816865
16.457 34.6951 36.1454 76.5402143442
20.7047 26.6693 38.5051 31.1228467544
16.966 27.3765 42.9397 33.1402220696
13.6561 34.8304 35.6333 121.9484321394
13.3088 33.6126 43.4231 26.2930238446
17.7295 29.3777 40.569 31.5208377857
13.5435 31.3002 41.727 32.4098438648
19.1191 31.4676 41.7122 34.141075179
13.8241 26.4709 40.8696 30.653483312
18.2052 33.7809 40.6804 30.5168363594
23.9642 35.1823 39.5731 27.7028195496
12.718 28.5912 37.0672 32.0554053766
12.5069 33.0412 39.3656 30.799107123
17.5809 24.9947 36.1112 94.019274794
23.4954 24.7309 38.8526 30.4411479458
20.3395 26.9088 47.509 28.2348456435
18.0685 27.0495 45.583 30.1988434695
20.8114 35.3359 51.1704 30.6073872421
17.7545 27.2017 50.2263 27.4396199272
23.1186 25.7367 47.25 26.9918983854
23.849 28.2208 46.7114 28.4610025899
13.2604 33.532 56.6032 29.225307348
14.5857 34.3716 47.2836 26.5713956353
19.3161 29.8082 45.9537 32.6920005446
16.6428 33.9162 49.443 28.189081101
19.945 24.9923 52.2697 29.1211224398
17.1103 35.1594 57.6187 30.8114809762
22.8232 36.8061 48.5848 30.3370107328
14.5032 32.2389 45.4442 32.6051029445
23.8857 27.7204 55.3288 32.16937873
16.8569 35.8052 53.6554 27.7779985565
13.5681 25.9433 45.1405 30.3389343008
16.3166 36.1458 46.1911 28.0219116011
13.1146 24.8212 51.0779 29.8850032784
20.0601 25.4046 56.1197 30.2967571903
14.9564 27.9591 48.6397 30.3488380667
16.2817 25.3666 51.3771 27.756407393
15.9613 30.5209 49.148 31.3178783828
19.2952 24.8724 49.1366 30.475994794
22.3562 24.9322 49.8571 31.9209310746
22.1535 33.7633 57.0841 29.7582600038
20.5382 29.0336 49.4586 26.6482755738
14.5036 27.6811 53.0811 30.7038673248
21.9432 25.5242 44.5407 28.9813570995
15.2086 30.346 51.9001 31.3275257748
18.6464 30.2154 48.6788 26.3222392321
19.1575 32.5615 49.6742 28.2180505339
17.5239 30.3971 53.7413 27.9435938429
23.7353 27.1551 50.5357 31.6676127159
22.4001 32.8207 46.703 29.751866251
23.8159 35.4324 50.8523 29.2392289901
13.1098 27.699 50.7704 28.5208580687
13.8035 32.6407 52.7042 26.2680845754
15.4108 34.5397 51.6669 28.4561447324
12.77 33.1009 59.2617 31.9334681479
22.5721 28.9206 58.2274 31.7777770219
16.2559 25.9146 58.4578 25.6272232445
19.6019 34.6337 47.2387 30.8407588705
22.3094 31.1012 49.1095 27.9870811865
13.8467 25.6658 57.4849 29.698551443
16.695 25.9782 54.0885 27.7259759461
19.1776 28.7676 51.8401 26.3083342717
16.0664 26.2082 47.2806 28.1156472081
17.5841 28.2897 55.1904 28.0268293017
20.0703 27.0793 53.9066 25.8626475182
19.3637 24.8604 44.8023 27.7961086934
22.3673 27.8534 52.9814 28.4019166596
14.1486 29.5361 56.9828 32.3533154035
18.7788 31.3836 56.6812 29.9854336128
16.9778 33.2221 55.3331 27.9180679995
19.575 31.9939 52.3147 27.201334836
21.4005 30.9902 56.3075 34.5422877171
16.9234 28.6067 57.6939 27.8107577176
22.3787 32.5443 51.314 28.8918113321
21.849 30.6145 53.4023 28.8098260917
14.5475 31.9576 55.4339 27.6816136046
21.2333 26.3498 58.6181 31.5471670789
19.9956 34.059 58.5788 33.0102155457
23.9079 25.2561 54.911 27.3354715988
19.485 34.4418 53.6003 29.7871910674
21.923 35.4473 54.4918 31.5409554018
13.6719 32.3265 49.2872 30.9657782474
13.0844 24.6423 48.3607 26.5993472225
12.5413 27.033 55.1463 32.302333819
23.9053 35.7191 58.1279 29.3643797851
13.4536 30.5922 59.371 27.4101511972
12.4099 35.6291 46.641 28.0551852843
21.9026 29.9056 45.0002 30.041646604
14.6115 35.8008 55.4423 28.3126367947
24.671 31.2398 53.7403 33.8744693832
13.8125 36.7042 51.0057 29.437523436
22.3202 35.5342 45.2882 27.7469927357
18.0839 34.2714 45.1736 29.3166546477
17.4903 36.3407 48.7504 27.5104709914
17.5987 24.5929 56.4267 27.4163703725
17.5894 31.5181 59.059 27.9837145507
23.6828 37.2394 2.38761 30.2905088168
14.4272 38.3804 5.86172 27.6677007827
20.06 45.226 13.8063 28.4147469462
17.6922 40.6771 4.64041 26.9983395695
12.446 43.9307 2.5587 31.1372175664
19.2643 38.5907 7.00823 29.2902004896
19.7222 48.6546 5.38611 30.5003903743
20.8828 37.2663 3.06537 29.0626576136
20.4166 39.373 4.6874 28.4183584508
12.6714 41.8299 4.61832 30.0797127972
23.2453 41.2535 14.4903 30.1450405689
17.9344 44.4983 3.93851 30.6506164115
16.6044 42.3724 1.57209 25.7445838869
14.0938 39.4561 3.51081 31.8379502288
22.6789 46.758 13.3096 32.1285657528
19.1407 45.5982 6.15093 29.2805840613
19.8784 42.2612 4.00565 28.76475835
23.9143 42.3073 6.36039 28.8961493266
22.5649 39.297 12.4166 30.4031291412
23.679 48.9056 11.0314 30.5983599997
16.656 39.7618 2.43634 27.3888026259
14.5143 47.963 10.3929 30.2509886124
23.1695 39.7519 5.46556 28.5420338037
21.1462 47.4583 9.15974 29.9638861167
17.7686 37.267 3.42992 30.8549205489
14.3231 40.1476 7.82844 28.9660480735
23.968 40.1323 2.91951 32.076047969
16.9328 48.4548 5.65341 31.061202405
17.9834 42.091 14.5753 31.5995558838
18.5662 40.6552 8.62134 31.7386249863
17.6461 39.6933 11.251 29.2384377983
20.3124 42.6175 1.26448 28.2443002109
20.0924 42.9237 8.54544 31.895282001
14.0586 46.2025 3.35708 29.3660671391
23.7339 45.3843 2.96372 31.413855204
15.434 43.3696 4.64129 29.5249399233
16.4396 41.6671 7.07343 30.3829389393
12.7997 45.5698 6.57653 30.9833627064
21.1817 43.5298 6.18398 28.6614357795
15.8173 45.6861 6.5358 32.1634419747
16.7935 43.878 10.9094 33.8995467926
12.6039 46.9282 8.79187 33.0499439075
22.3941 45.5395 10.9739 30.4663174717
17.5289 44.0075 8.23845 25.5066200131
22.7782 47.7584 6.82662 29.282346286
24.4601 45.0942 14.4769 24.9918244895
14.0756 37.2358 11.9424 26.5483322549
13.5878 38.1172 14.3703 26.5602929252
20.0306 37.979 12.9771 32.6249243686
18.508 46.5319 9.15987 28.5916334883
22.5218 47.4006 1.4374 32.4069958241
22.8982 45.5442 5.47401 29.6896407881
12.5231 47.7433 4.79684 25.577673632
14.6224 41.4186 11.758 35.280674274
14.9728 39.1295 10.3724 30.798549071
21.8928 38.1173 7.72184 33.4769642617
17.9054 48.9038 2.4564 32.6631441975
17.9437 45.9245 12.211 30.2645573738
18.2602 42.0063 11.8919 26.0571370477
16.7596 48.6585 8.7799 30.76098146
16.7373 37.1137 5.82791 30.7138236985
20.9218 42.9924 11.3166 30.1924470426
16.7683 46.3582 1.90059 29.840180426
23.4807 37.9646 9.98573 30.1676032042
14.6141 46.2556 12.4018 36.5582552775
23.0621 41.5914 11.0137 30.1420097537
15.0002 40.3246 14.4797 28.6853880008
22.9164 42.5444 2.01651 31.1652871574
14.6666 47.4352 14.9717 28.9135384507
24.5363 36.9465 5.1009 27.8076417188
17.8838 48.8337 11.7955 31.963453935
18.2365 37.0572 10.9269 30.6421501016
12.3723 36.7359 1.32249 30.6631320468
19.6354 47.7107 15.1389 31.9109487658
24.2546 41.3743 17.6674 31.0363559579
15.2553 43.2062 19.6228 31.9890377715
24.1297 47.1308 18.684 31.7147303781
18.7377 36.9869 19.2542 29.0131482358
18.9736 41.1976 20.1098 29.8954829246
12.8075 48.1718 23.9284 108.4035449553
12.8836 36.9806 23.8156 64.1268859139
24.4145 41.3691 21.0047 30.0797316162
14.5715 38.8438 19.6822 26.9064187817
14.849 39.5767 24.0118 86.3870799614
13.255 42.6566 21.12 33.7436146808
14.6508 43.5954 16.8645 32.6101669845
16.5005 40.8204 18.9463 30.8214607548
19.5177 44.1089 18.3683 27.3872208757
20.333 39.0068 19.3702 29.7590425044
21.0205 40.0425 16.7739 28.6191491246
24.5875 36.9244 20.1851 24.2949849688
22.8741 38.7956 20.9306 29.2783518223
23.8075 44.0226 24.3141 119.6545502806
17.4059 44.2531 16.2679 30.1830479564
16.7814 47.2921 19.0861 35.7723323606
21.4251 42.597 18.9171 27.8878901498
21.0704 46.9849 17.8401 30.6885991176
17.141 46.8413 16.087 31.6678705718
22.8121 38.2324 15.9521 28.4705389789
14.6578 42.1714 24.2533 111.5499820512
17.5948 38.7607 23.3566 39.8112438801
20.8791 37.1542 23.1196 29.6314206471
16.7129 37.6472 21.0167 30.2242543221
12.6859 46.8582 19.4882 28.8307293697
17.1439 40.0402 16.246 33.5636590552
17.6282 44.703 20.2295 29.5036401551
16.9334 43.0836 23.9174 101.8108226552
18.9246 41.2091 22.9043 37.6004395226
21.9573 39.8367 23.808 77.0677532616
21.4431 42.8754 23.5628 55.7556737605
14.5846 47.9813 20.6847 28.9608010041
20.8836 43.0054 15.4322 29.2149760505
13.2555 46.1062 16.9576 29.7877909154
15.4899 47.4301 23.1414 47.4525761109
17.638 45.3823 22.9449 37.7765359584
20.8533 46.101 20.7759 28.1041099577
22.6929 44.0247 21.1614 26.7280584345
20.4532 45.5577 23.4423 57.3087059649
22.2629 47.5944 23.9373 97.2889585597
20.6591 48.7264 21.3627 28.5481099541
13.4957 39.9396 21.6805 26.4925904382
22.8621 44.5314 16.7552 30.3638959401
13.3939 41.3291 16.1132 31.4033945286
19.1032 38.285 15.5455 34.4675600266
12.7756 39.0946 17.9907 31.394230581
15.3777 47.9098 40.4629 31.5009438161
14.9207 40.143 36.0204 71.7777140913
17.5415 38.7998 36.5428 42.6723965066
21.1009 42.6421 36.3935 31.7374501045
13.7929 45.3734 40.4298 29.5019197263
20.9791 38.4582 39.27 26.6639208181
12.5272 47.8748 39.3178 30.9253146075
17.3237 45.1338 40.1415 29.9901285588
22.65 40.5065 39.7689 27.6711372947
13.3513 39.147 41.0425 27.0866965055
19.6065 40.2514 35.5077 125.846569456
22.0448 42.9579 38.9944 27.9947126244
16.8558 47.0495 35.9775 88.7694676227
18.8866 43.0007 43.8518 28.9596301359
21.5602 37.8724 36.7115 34.6412179038
18.5897 39.5063 39.1532 29.4917133077
19.2452 46.1312 41.7781 27.2174726424
14.61 45.4921 36.0674 74.0520326514
20.7249 45.1669 35.399 137.9243788113
18.1303 43.1154 36.7721 31.2778413695
17.4191 42.1866 39.1821 27.6622519442
23.8488 37.0914 42.3447 29.2377213065
21.9372 47.0747 36.6332 30.2325630923
23.0089 46.793 40.4167 26.7561335824
18.4538 45.5985 37.3345 27.3894727818
23.4757 47.3459 43.0022 25.4270695751
14.4425 41.4719 38.9647 29.2910154079
21.5973 45.375 43.4797 30.6476186172
20.4779 46.9611 38.984 30.0594600546
18.5322 38.1524 42.6285 28.7461953233
19.4933 40.9819 42.2488 27.388129321
15.6046 48.6795 43.1532 31.4457455643
22.766 39.8631 35.632 101.138712657
15.7743 38.5449 39.7495 28.7321870984
13.4986 43.9672 38.181 29.271168664
17.2278 46.4463 43.7205 30.3836820471
24.006 45.4575 36.6563 33.1203002258
24.0209 44.6994 39.3829 27.9937623236
14.235 40.4987 43.0781 28.6841295655
15.5217 43.0443 41.5409 30.7290500763
15.6501 42.6608 35.8551 95.8358805912
19.9612 43.217 40.6282 29.6226298682
22.7773 38.2068 44.3348 25.4702328148
22.2016 40.6262 42.4892 28.3890716051
23.2036 42.8648 43.7801 29.7994368536
12.596 47.7562 44.0525 35.1513316365
24.0815 42.8262 35.9413 83.636230317
14.545 37.6889 37.6232 30.716818907
12.2467 47.1731 35.9854 67.1291199478
16.7964 41.4298 44.6672 26.8544160586
13.8347 38.127 44.5612 28.0123262244
15.54 43.9491 44.1155 28.1716104121
23.8189 49.1008 39.0404 30.6876306294
16.7976 38.5796 44.4929 30.681116893
13.6065 41.0455 50.4422 30.0937688228
23.0004 46.4509 52.4738 32.9523342958
16.3989 42.1862 47.1413 28.5492742861
15.3181 45.4865 54.9126 27.7072769401
19.7705 37.8118 50.4469 25.8650440317
22.7189 48.452 57.2637 34.5337858204
14.2048 37.5801 57.4668 32.5038823929
17.4866 38.9437 51.7111 27.1716841008
13.9292 47.2328 58.8748 29.3589824898
15.0218 40.0926 48.2999 29.0154758999
17.6481 48.4569 49.1942 24.898862044
20.1338 44.4087 48.771 30.7531829541
20.7939 41.8661 45.9253 28.4935883812
19.653 40.5368 58.0706 30.3290917016
14.9942 47.6707 48.631 31.7442120071
23.6918 41.5481 46.756 30.188943433
13.4451 43.601 53.885 29.5386748895
15.5795 45.158 47.279 31.2274843326
21.1931 40.2423 49.8022 29.6632340942
16.1152 43.7041 50.2295 29.0916118047
18.0785 46.4403 46.3612 28.5795468246
20.3892 45.2806 46.1188 27.5309772962
14.1045 42.5003 58.8197 30.4629897621
20.1363 44.7631 54.7245 30.0734259962
17.0747 38.4257 54.5384 30.0986326198
13.6525 39.8747 54.7577 31.2934848611
13.5841 47.1689 51.3949 27.5914276087
14.4131 45.1425 57.4832 28.3811013377
15.7882 38.2033 49.9251 27.8970580856
21.1386 41.8654 56.0476 30.3513847484
20.3588 45.5056 58.7922 37.8500744085
23.4764 41.7918 54.1038 29.2408644114
19.8255 36.8453 59.0735 29.5729577699
14.794 41.5015 52.7136 27.1268621352
17.7917 41.5516 50.7919 30.4343859619
18.9347 41.8459 48.0957 30.3687141276
19.5521 41.7094 53.3308 31.5494365535
21.2184 39.1099 52.5556 28.4363795043
19.8293 37.5677 54.4156 29.3453533931
12.9449 40.2319 58.055 29.1544647256
22.2452 43.0725 49.727 30.7260402316
16.0853 45.8507 52.0349 32.3379615866
15.2426 48.1477 54.9347 26.0224040507
17.7216 44.0697 55.7875 31.8349122689
20.1415 37.6728 47.5796 31.7545121148
18.7558 46.178 50.1836 33.2939804124
22.6803 46.9037 46.8006 32.3139142578
12.9907 39.2493 47.0447 30.4148069812
23.7359 39.4723 48.7482 31.5251394548
20.2575 39.2121 45.1453 30.0066738262
23.7886 46.595 55.1768 29.2820758642
23.7699 42.6837 57.7112 31.0619091516
17.3017 41.1619 57.6062 29.4550872346
16.9184 37.9871 58.1677 30.8103193113
19.7181 46.7834 52.9232 33.3271680874
23.8048 38.9419 53.2086 28.6212567704
20.9081 38.2763 56.9258 30.7085698149
17.4802 48.6439 53.6879 31.1650298861
13.2471 43.9811 49.7067 32.5211492393
23.3104 37.6071 56.3522 28.5015406205
17.6189 44.7077 58.5258 28.423962057
16.9996 41.4755 54.4868 29.9296971011
13.0784 44.2808 45.4563 26.7347130543
21.9354 44.844 56.7736 27.8854932403
13.2137 37.7019 53.5722 31.6982999713
22.0457 43.6296 52.52 32.4046848142
12.4827 41.8942 45.2612 32.5422278287
24.2807 44.4548 46.1598 30.2057893705
13.2043 48.8341 53.3526 29.9453751908
15.1721 48.9331 57.1632 29.0251064971
18.782 49.1695 45.8881 28.0943288702
30.1529 3.23727 5.2425 30.9770203004
31.2701 3.29352 1.44192 26.7431598047
36.4238 1.70488 4.04963 34.0813638847
32.4822 4.76824 3.57908 30.6306264898
25.9155 11.2912 3.40787 30.1876902706
25.0106 3.38478 13.3991 28.9232181509
29.6714 0.69822 3.77053 28.0905562954
29.3392 2.06503 14.9477 28.845496149
34.8435 5.54078 1.98056 29.4096167682
29.1736 5.08245 1.15284 31.2182862911
31.7372 2.27411 13.5332 32.0863153903
36.2013 10.4681 7.28024 30.5305194353
27.3185 2.36334 3.86404 30.4572218543
30.2519 6.61253 5.46203 30.0995277984
35.2899 0.439116 11.8693 27.1717432517
26.8935 9.11646 10.4206 28.2918565802
31.9193 9.72902 1.88108 32.4778900493
24.8075 8.61287 12.345 30.501099347
33.084 11.5792 11.3335 29.5071857058
35.6125 4.60448 9.7555 32.323055763
33.0343 9.42716 4.4855 30.8103856045
36.1405 0.745317 1.0873 31.7059609336
32.8339 9.23563 14.5347 29.4633521459
30.1957 1.52992 7.7067 29.4541432512
28.9595 4.85961 7.83993 28.3920624591
31.3704 4.98216 9.41146 32.0073831664
31.1299 1.09199 10.3305 27.6056345319
29.0444 7.77577 10.1949 29.2010513824
34.2531 3.37795 5.16388 29.159237112
28.6611 7.09605 3.30257 31.1188164131
26.7379 3.40085 6.89093 26.3221725348
27.1142 6.99374 7.17026 27.8868545383
26.2507 5.97942 4.54976 31.8304488176
28.6222 10.0755 3.13472 30.6849743244
35.4352 5.8604 5.49308 28.4131152652
33.4567 11.9104 1.45396 27.1829429782
32.5715 1.25817 4.26855 26.7921435668
27.0133 10.9784 7.297 27.7005035998
36.7345 7.22812 3.41984 25.3749364575
27.1921 3.21565 1.10601 29.104563275
35.9072 4.1327 14.0395 30.5826218238
28.9467 8.99246 6.5394 28.728243945
25.0491 8.47423 3.35346 33.6020503978
30.58 11.9719 4.38026 29.4853566962
34.1296 10.4316 9.14543 32.7487724664
26.4895 5.62141 12.4463 30.6695130113
26.9458 1.49034 13.5255 31.1706457316
28.6573 8.40829 15.1872 30.4778072885
34.3211 6.98805 10.822 30.8340684153
27.6061 2.5718 11.1671 25.9484405153
29.9207 3.42546 11.5293 27.6787550184
36.0447 8.62467 11.9015 29.4852404699
30.4269 6.51964 11.9256 27.394956469
35.9524 9.74237 4.4216 28.6090350388
33.628 3.80804 8.10921 29.3460470451
32.7907 8.23867 8.75888 30.0960990864
26.0455 4.10546 9.49615 27.3962358257
33.3338 4.43468 14.3778 29.4252810644
30.3532 9.42453 8.68673 27.8274546859
33.1042 7.17479 5.96267 30.0331501212
32.6314 6.72662 13.1466 30.0765227774
35.0239 10.9224 13.3076 29.4588520074
30.5892 11.5344 12.6456 30.881106245
28.0077 11.5492 11.3458 31.0754068536
24.5586 9.60448 7.86211 31.9076715336
27.5322 0.806266 7.85456 28.849868175
36.2299 6.82724 14.1431 31.7214197511
36.0968 0.123156 7.97568 28.8970411817
33.6517 1.56956 9.04683 28.6307087291
28.6118 6.0532 13.7757 27.1745739412
36.2853 2.86712 11.8311 28.7383522075
26.4642 9.83436 14.3796 31.6460470173
30.3424 10.4227 15.0328 27.8141840356
25.2924 7.13665 9.08696 27.0581884633
32.4326 11.5208 6.44704 29.3474991015
33.9459 9.58941 20.2297 28.5095366228
27.897 4.74534 20.1991 28.9960395292
26.3611 3.62636 24.5887 155.8355082056
32.1528 4.50455 16.851 30.637924501
35.1828 7.23787 21.0256 27.7537692473
25.3726 10.6536 18.8353 31.8161039195
35.3972 12.0073 18.9905 28.866162607
24.7756 1.82065 16.1638 33.3124208223
27.6704 5.184 17.4898 34.4469396174
29.5461 4.40957 15.6499 28.2283609465
33.3655 9.03803 16.9053 25.9196240039
29.8982 10.4245 18.1446 28.5622814961
31.8264 1.9078 17.8201 32.7278874574
34.1487 5.37268 19.4422 28.8027189805
29.9533 0.290835 16.9641 27.9952037401
34.5068 1.53359 16.733 34.0719828726
35.7791 3.08457 20.4674 30.8695308551
26.0148 2.90684 20.621 29.4161498904
35.7656 7.98146 16.5239 31.1469487535
34.2463 11.2712 22.6072 34.4784312215
26.9002 6.12919 23.7735 40.3472223784
35.1035 0.564836 24.0065 104.1893761495
28.5261 1.49019 20.8918 35.9895220575
32.5819 11.7389 17.5209 26.6888649503
29.5852 6.44059 23.8958 73.1286498358
30.4255 1.43185 23.6913 57.7593245062
35.6963 3.16459 23.3793 49.0695798545
31.3973 1.88897 20.8685 28.8823767672
32.4826 4.21647 21.1232 26.4865022014
25.3024 8.39314 24.167 110.7450516484
30.3788 5.98305 20.8445 29.7179582057
28.9321 7.81044 17.8741 27.65562552
30.9871 4.18387 24.0974 94.2131540918
34.6268 7.46695 23.839 48.0592689708
31.7149 7.21043 18.0964 29.4267845113
33.6389 4.8682 23.7378 67.4561515364
26.3516 6.55324 21.2887 25.5361974689
26.656 10.1828 22.7129 31.0085587102
29.0067 10.9577 23.7223 94.2642385968
30.0989 11.038 20.9141 30.2444475427
30.8658 9.02065 23.7199 46.9195842321
31.4964 8.53813 21.039 27.7217289599
33.1712 9.58907 24.3094 130.3096859806
27.4592 0.801633 23.8017 47.1860712913
24.9155 6.58045 16.9216 32.8911294125
27.3671 8.91423 20.2213 30.8240493926
35.2756 0.408774 19.7206 30.0291559699
29.0044 1.45634 36.7029 47.2984646959
25.4413 7.85724 39.3278 27.1338033825
29.8969 3.88014 36.0328 100.7344164433
30.7988 4.84055 39.3387 29.1027219538
30.9095 2.3059 40.356 32.1010237308
33.7508 0.985112 35.9155 102.9618012348
34.0793 3.21238 39.1749 33.2161269947
36.5093 7.5667 36.7401 67.5707271314
26.2766 0.168157 36.6072 57.4241277006
32.4783 5.0055 36.5419 37.5884037495
27.1031 2.82987 43.8652 32.0967872938
34.5536 3.49561 36.0418 95.6550749604
27.7647 5.59383 36.3853 61.9831378649
31.8961 7.93563 39.2493 31.1067799136
33.5527 9.3987 36.6543 39.6576825986
34.4118 6.33232 38.5929 28.2882914815
31.6948 7.58407 35.8713 107.5992339417
36.3935 7.50515 40.4006 28.8963058492
29.0481 8.17288 36.3482 44.365778691
28.088 8.5945 39.0871 27.8810667676
25.0456 5.50425 36.3489 64.9301499888
34.4244 11.3108 38.5394 27.3210246521
30.8761 10.765 38.5664 30.1628475452
29.0773 10.5978 35.6279 124.5270495476
28.306 10.9055 41.9838 30.9024343979
29.6171 1.55551 43.1487 32.5678258086
26.4083 7.66424 42.3156 28.9184764266
24.9711 5.24687 39.0726 29.4527362515
28.3459 2.04901 39.4768 31.920196812
26.7867 10.9635 37.0558 31.6241367956
33.3775 5.00068 41.5266 30.8805998687
35.6511 2.83979 43.1188 27.7458942248
27.6287 4.81517 38.87 26.4934865282
35.9099 9.99589 40.4224 28.1863117834
32.6329 2.99184 43.3691 29.2435468082
28.4712 5.44043 44.0174 30.5872878613
36.3591 10.8233 36.1169 91.8671959077
30.8992 9.00433 41.6562 30.8885253075
25.0616 8.38206 36.3807 67.4902970504
35.9841 5.88322 42.6832 28.9162998251
35.3354 11.1367 42.773 27.7345497335
31.5698 11.6124 35.9034 94.2462488337
28.9897 6.5805 40.9115 28.5409321456
31.086 5.95179 43.6218 29.6123074094
31.2664 8.64934 44.3944 30.9073367467
32.8017 11.5963 41.3489 29.1698354557
25.9788 3.57096 41.4374 31.1627110181
36.5355 0.197335 39.3017 28.3147447428
26.5299 10.0603 44.1422 27.8200324325
36.9716 2.70277 40.2744 30.6367547706
35.7885 8.32044 44.1332 33.368603101
24.8138 5.86112 42.9307 29.1503283327
36.6164 4.76946 36.6415 70.2397392784
27.0512 11.8267 39.6503 31.9479147248
32.3957 0.0231672 44.1181 28.1905004738
31.1764 0.310889 36.2585 52.664378891
30.4115 11.5727 45.4079 30.1098196156
32.2518 6.8151 56.8722 29.6960688478
25.9091 2.7274 48.4644 30.9361346662
28.547 3.70586 47.775 30.2781676774
30.5509 9.57393 56.6382 26.9319680309
35.3471 1.36816 46.8657 29.0408924038
34.2055 2.6591 49.4982 29.6579699255
24.9558 8.86472 49.9149 26.1923405673
26.2918 0.965377 53.3563 27.9056989843
35.974 9.46184 50.8688 30.6558062181
24.9276 2.72887 55.2469 28.315575886
30.901 11.6578 52.3612 27.044021815
30.5375 3.98987 49.6472 30.2552609559
28.7565 9.78403 58.6178 27.3269384032
29.7895 9.62309 48.0689 27.7026604999
33.0625 5.07533 48.7564 31.7635313806
33.8345 9.74792 54.2349 30.152944973
32.9148 5.20996 46.0611 27.7974735833
27.5311 11.1522 47.5269 28.8330419382
26.7828 11.4402 50.2536 29.0249876883
33.1534 11.7885 49.0992 28.4924611139
33.7056 7.7631 45.8937 27.9395729923
28.4245 8.34876 45.7876 32.6484651764
35.0306 3.93777 45.5175 25.6737821544
32.5351 4.07801 57.7722 29.3533338338
29.1259 8.54974 54.4508 30.5338140598
36.473 7.44515 47.6287 28.798161324
29.7529 1.36675 50.9697 29.2707496914
28.0183 11.5625 52.6448 28.2123262032
25.0678 2.56302 45.811 31.4672668513
36.874 7.57844 55.6797 27.6491732393
34.4533 1.09157 52.0502 30.9022667244
24.9051 5.64465 45.5808 32.3134830469
26.9209 7.00615 49.8531 30.0107612794
28.3396 3.15988 52.6769 30.7969705719
26.2881 4.85666 51.551 28.3838763157
32.1175 1.03892 49.4872 29.492165774
29.6411 7.98473 50.4821 34.6632141302
30.3135 5.54904 51.7625 31.6578457866
33.8487 7.79959 49.5164 31.1074111974
34.3674 4.14252 53.2267 33.9493904319
35.5807 2.8998 55.7304 28.4109610707
34.1509 7.10036 54.7757 32.2895172371
30.2956 3.45539 45.8828 29.4787833864
33.4577 11.7989 45.1917 29.7854988021
31.1274 9.02749 52.932 27.723114473
27.2753 6.21543 47.4457 32.2199580332
32.5781 9.51492 47.6978 28.6211771925
33.7386 7.66206 59.0967 32.1456438624
32.8108 6.561 52.0491 31.3467953886
30.2445 12.0193 49.7591 30.6971190712
26.5828 2.18289 57.118 25.293784065
32.4104 2.96706 55.2392 30.383556151
28.994 1.66272 56.5805 27.2433698219
31.2382 0.817584 46.7724 30.6213954077
35.2777 3.36511 58.6735 31.8512082648
25.206 5.99781 58.2057 28.2416788837
25.3781 6.68696 53.1665 30.0726572749
29.6554 6.16423 56.1639 32.4561125814
29.8185 3.77365 54.9318 30.2088677013
36.6055 4.09109 51.0719 32.2473915483
33.2729 10.8676 56.7014 26.8921037598
24.8439 10.7589 54.65 30.6431386421
35.5896 9.69663 58.1507 27.5409408463
34.0302 11.3287 51.5918 28.8177966717
26.5716 9.04741 53.6478 30.6095375806
27.6849 7.0682 58.4685 32.0015102263
26.3446 10.7133 57.515 31.1784145164
36.7342 11.4781 48.9091 31.3693975303
25.0585 5.34012 55.6331 32.1249986877
27.8535 0.154474 49.2053 30.4069432966
30.1921 1.10435 58.8755 28.5646892528
26.9997 15.1892 5.61605 33.8956256897
34.0326 17.465 1.51116 31.9391014232
35.4826 12.9062 15.5832 27.3144874921
35.3855 12.3384 3.22547 26.7509330042
31.6961 21.8693 1.34096 25.5341590857
31.9944 15.8887 3.41035 30.7841656632
27.2321 20.2383 11.8222 27.9217070316
33.2755 21.2642 3.82369 30.8051690912
24.5709 14.8499 2.76034 26.9514991631
26.775 18.056 4.0356 29.3760185898
29.2829 18.5667 3.78139 26.3061137787
24.8082 14.4061 14.6864 31.3273476939
36.1439 20.6877 1.76597 31.9416575183
36.2909 16.797 3.74018 28.7607086342
33.4901 23.0021 7.29419 27.248217025
30.8699 23.4245 13.0544 30.6659633357
27.1486 22.0863 1.9346 30.2529132984
31.1635 23.2249 5.16814 26.7269702772
29.6025 21.3763 3.20053 28.7738369628
32.6909 13.514 15.5395 28.9024593567
26.1145 23.2421 9.4082 27.9394265352
26.443 12.6901 1.13673 31.0026070838
28.3312 15.3452 11.7316 27.6169024079
26.2719 16.9586 7.86608 30.9932463609
31.4614 14.6339 9.39079 29.7454634926
30.0721 16.8567 10.2904 31.0107166196
31.2673 15.9395 6.48014 29.6191900927
34.1932 15.9821 5.40599 27.1762649065
25.7655 20.619 9.50223 27.2438549445
34.2617 18.4366 6.81897 26.951444391
34.1641 15.7666 8.56616 31.6564894874
26.1517 19.8818 6.74069 28.8974235739
36.0249 14.2994 12.9569 32.1058405338
25.6766 21.8771 13.2392 32.2161217372
30.1144 18.3081 6.2837 27.9644259132
33.7624 18.1941 10.2581 29.5829968157
28.5944 18.519 8.33345 27.8545571387
32.1965 20.1451 6.33403 30.5882784692
35.7556 18.6913 11.9645 31.5580042502
35.6122 19.5583 4.44452 29.9136076579
33.8403 14.1259 11.1997 27.3317274413
28.6152 22.8936 8.30711 28.9240835314
25.2108 22.9427 4.91994 28.6873559793
29.7581 20.8685 9.43815 29.2171472288
31.8186 17.8558 12.2075 31.9441432807
32.7078 21.0072 9.59791 29.6925796629
27.7431 21.9933 5.69726 29.1933063784
35.7536 21.2681 8.96238 28.1463236885
30.8076 17.7794 1.92898 26.6506485243
35.1122 21.5248 12.8249 33.4909120975
30.558 12.3871 8.36044 26.5124997713
34.9101 23.487 5.02897 31.7967620124
24.9353 15.1762 12.1053 27.6053542671
29.8744 13.9321 13.7011 28.4719087185
