21.9117 39.5204 52.9416 30.5065790454
16.0389 43.6232 45.629 29.3275396443
12.816 43.7447 47.4046 30.0366131686
14.1077 42.5595 51.3593 30.5048461515
17.6711 41.0011 53.0173 32.1258708877
17.9873 43.3875 51.1993 31.022826692
19.7366 39.7538 51.2054 31.2967687332
20.9697 45.8863 48.6297 28.9175542392
20.9963 44.7322 54.9003 30.2489956148
19.1361 47.7497 49.9538 33.245556383
15.9929 47.1308 49.0699 29.0906157103
17.3886 45.9831 53.4659 30.4923936092
15.7201 44.9173 51.5563 28.9201906752
22.7801 42.8102 56.6893 30.4661868297
24.3003 37.3484 52.6433 33.304883168
13.154 40.905 58.7088 29.2637020131
19.7165 46.9341 52.6429 28.9358832712
14.6249 38.9493 56.9134 27.7354306031
16.5716 48.0841 57.6191 28.9513026556
24.2113 47.1678 51.5544 30.191574526
18.7409 40.2911 55.2666 32.5507511345
19.4989 42.8817 58.6381 31.4902937729
12.1844 45.1282 55.8965 34.6713825552
15.4197 46.4702 45.5653 28.3344369816
16.961 45.6783 56.1182 33.4776881567
22.1584 43.5652 59.1653 26.2942620676
14.9999 40.6299 53.7613 28.9213806857
21.0728 37.6407 56.9378 32.0441404504
19.4855 44.8394 56.9353 29.9342132689
15.6082 41.5684 56.3543 30.1668681312
20.2562 43.8021 44.9614 28.3013700371
16.6692 37.7922 47.1849 28.8109721193
12.267 37.3066 52.3659 28.3558668487
15.9583 48.6638 53.095 32.1622396674
23.0371 47.6276 47.3164 32.0870369303
18.4388 37.5795 53.0072 29.3034317821
15.6596 37.2935 49.5382 30.313046108
21.8227 48.6195 56.2038 26.2118727443
12.4438 43.7704 44.7388 28.3896319838
22.8627 46.3188 58.8335 28.453856557
31.4472 0.675161 8.94403 28.6550411777
34.3384 2.3581 13.5241 27.8576688355
25.4675 7.90006 2.55059 30.4915094978
30.3955 3.45456 2.99793 29.034822606
27.5668 1.29148 11.3987 32.7956644722
26.6128 11.1864 10.3109 31.0536012769
31.6572 5.60463 2.21442 27.7385181226
24.9962 9.78288 7.11099 30.6322773678
28.2009 4.8501 5.94213 29.8661869062
32.0604 1.46817 1.83306 27.9478871447
35.0693 7.34194 3.93621 30.5210839553
30.0884 1.69625 15.7092 29.6431056614
31.2487 11.1173 3.99719 30.869309016
31.2571 9.5609 1.6766 30.6914567637
35.1789 11.7509 13.9939 30.6883960179
29.0049 10.2708 5.44203 30.6447495636
34.5184 8.68667 7.91559 29.3366437425
32.251 7.11291 4.54523 30.4820251496
31.3191 5.82347 13.9029 26.8084334073
24.8753 7.77099 5.55665 29.2542136054
34.0031 6.48592 13.817 28.7561373993
35.4233 10.3428 3.37395 28.7646140501
25.267 2.52926 5.74409 30.3896593062
27.5901 0.55604 6.6985 30.8062350162
26.4183 1.94655 8.97229 34.023122201
26.2341 3.8757 3.57335 31.8805746656
31.7516 2.66213 7.0289 32.0904667634
33.9244 2.31119 6.06946 30.9046923328
32.0855 10.5503 8.4227 26.679208911
33.9106 11.69 11.647 31.6862161739
29.7256 2.79032 5.28058 30.896607525
27.3289 4.70286 8.41484 34.0714863258
35.5768 5.01535 6.09022 35.6274851189
33.0221 4.6825 9.33988 29.3379928448
26.5744 12.2102 6.22698 32.1098638736
25.575 1.29456 14.7666 30.4526701828
33.2348 6.27865 7.29206 26.8323566271
32.6246 9.67635 10.8961 30.9582867415
35.8263 3.37811 1.36299 29.9315471083
26.9954 9.2324 8.71779 28.3084369347
29.7629 7.53437 2.49311 28.9892210472
30.4073 6.89889 6.88554 29.8210881751
29.833 9.24074 7.72055 29.5645641157
33.9203 7.24862 10.8642 32.6140660568
28.3345 2.90124 1.20025 29.8825550566
33.3828 9.97439 5.44657 26.249291165
27.7467 2.66251 13.81 32.397216079
30.5017 2.01214 11.248 33.4570145446
36.7931 4.13291 10.6307 23.7760152052
27.936 12.0078 12.1992 28.8708947961
27.074 0.363367 1.37558 33.2609646102
30.6912 12.2729 15.0538 33.876903377
36.2357 4.84194 13.371 28.0974454152
26.6524 4.91917 14.3752 31.4799197269
27.5287 7.0186 12.6219 32.1009564759
29.2796 6.53288 9.76494 32.1695704532
34.365 1.72512 3.22249 31.1340548559
35.415 0.824865 8.85262 27.1660725034
34.7868 2.74449 10.5126 28.0473195358
31.0678 4.6162 11.4932 32.0108651578
25.3558 8.63087 13.5901 28.9349289386
26.3066 7.17254 10.1361 27.6624096573
30.5053 8.11683 12.3428 31.7165746045
36.3381 1.46558 14.9624 28.3474356153
29.1314 9.84073 13.9726 30.3111382963
27.9261 8.03999 4.40877 32.0718208533
36.4871 6.46772 9.61037 27.7781603684
34.4718 9.05485 14.7145 33.7593514526
24.8977 5.32966 6.84335 31.4106977261
34.2674 11.777 1.42382 33.3316178798
31.0888 0.0336248 13.5498 27.977035965
34.396 5.72793 1.61324 34.6325593593
24.6205 5.30804 2.07046 27.8137181842
34.793 12.0734 6.28668 27.71347335
34.1034 1.21555 24.2135 89.337850777
26.8805 11.6433 24.3031 83.3985361532
24.6343 8.99754 20.8303 33.9467107421
25.3201 1.23973 20.7252 27.827981164
35.3664 2.94633 18.2019 27.5074728191
34.5374 5.35197 17.0796 27.7648624464
32.7912 1.62228 17.6629 27.4198778671
37.0372 10.782 23.9664 65.0185198613
30.0345 3.4552 18.4759 29.2685243091
30.5435 7.10496 20.1809 30.7144437254
29.802 12.2909 23.7345 40.6197481156
31.9376 5.54043 17.8574 28.7590866443
30.3589 11.4456 21.0786 26.8925303794
35.3696 11.3384 19.3867 28.0692850836
26.4724 7.25694 17.317 30.0064368113
26.3828 4.96033 20.0833 28.4881546303
36.1232 9.26168 17.0884 30.684475052
32.1987 11.7192 17.323 34.5938684345
35.4651 6.67195 22.7631 28.1824656612
24.7134 11.207 16.3821 30.4296128716
25.1084 2.15367 23.4911 54.5775790931
34.9565 6.80306 19.3901 26.4698891706
30.0371 1.97263 24.9683 145.6911851617
33.4807 2.13495 21.6399 27.7273500873
29.8565 4.18978 23.2921 31.6373517959
35.4802 4.02329 20.662 26.6673402214
27.0715 0.636864 17.0964 29.8797979032
34.3973 4.01591 24.0157 68.7746760552
25.2251 4.74389 22.4892 33.1142455683
32.2468 9.20498 16.4596 31.468614349
25.6068 9.34921 23.8305 61.0993385551
28.1802 6.73952 21.1038 27.7401285654
30.8474 2.85886 21.0272 25.6097026964
27.9529 7.7387 23.6523 42.0375539167
27.2629 5.18959 24.2803 126.9848313118
27.1868 2.57499 19.2613 27.2471869503
32.1403 5.90658 23.8961 76.8472674968
32.4861 5.45301 21.1965 26.6666692519
27.0372 8.70175 19.4139 30.3152527711
28.2757 5.35073 16.7114 31.8297813515
31.8659 9.21173 21.1791 25.7248260091
29.8485 9.64654 24.2644 113.0530482538
32.1005 8.46457 23.4737 34.3680957077
33.5531 8.92657 19.0112 26.959996975
34.686 9.25627 23.7793 80.8216654272
28.2608 11.1568 19.3076 36.354463505
27.6729 0.754047 23.9712 64.7128832517
28.8115 1.16274 21.3392 27.6829584871
34.3126 11.8212 22.2347 32.5694859957
33.1027 -0.0295442 19.7336 27.6714959167
36.5236 0.144709 23.5554 38.8023140545
30.1975 7.31017 15.8135 30.5510676456
32.527 3.45355 15.1645 28.9260719008
26.8658 9.65277 15.6898 32.2323211436
26.2726 4.50047 36.4339 50.136737314
27.3608 2.2099 35.4889 113.1827131134
34.555 11.7186 39.6524 28.3309807739
31.4194 3.14961 43.9435 34.7403974816
29.347 1.93212 37.0917 27.8593518943
31.5029 3.55157 36.7009 39.7750742142
28.6284 1.24769 39.4349 30.0373745902
34.2453 3.16945 35.6969 120.7924036342
34.4453 1.53054 39.6745 30.6521631019
34.5506 0.548736 36.8388 43.3819266589
27.8729 6.54731 36.9322 40.6256074302
29.7504 3.37483 40.5296 30.6343838055
30.4887 6.02669 35.8707 129.7108192436
32.3603 7.82746 36.6943 38.2610998663
32.436 4.09374 39.471 32.8911184815
34.8915 7.1289 35.9808 96.5984624572
36.9983 11.1276 43.0131 32.536742468
35.731 4.76875 36.8618 26.9572667305
26.2089 8.84068 36.8129 42.8498627657
27.2955 10.916 36.0503 106.9207749126
27.5971 5.57662 39.6496 29.704911703
26.0243 8.0602 41.3074 28.7051917405
32.1086 10.4067 36.614 87.4666541154
35.2499 7.70717 42.6804 32.2196393922
25.4991 0.936991 38.6666 32.5530436712
34.4108 11.5663 36.9523 39.3101121231
36.097 3.99588 39.5321 29.4457879662
29.7556 11.256 42.7414 28.2774739644
26.6751 0.358716 42.0673 31.5187831003
35.7922 4.68516 42.8792 31.198509349
29.6499 7.47564 40.5809 33.952742558
25.6094 3.66771 39.1132 25.3057065465
33.119 9.39579 42.8373 32.7692395178
32.0024 0.888531 41.2938 31.9689211048
34.2642 2.54502 43.4155 28.6131428744
27.6531 9.15729 39.4011 30.545319836
32.91 9.881 40.1071 27.9467870844
25.4 7.83693 44.4683 31.6745845596
26.1484 3.20396 41.9045 29.8803392146
30.4294 8.72235 43.6666 31.7477099648
32.4512 6.69213 39.4084 30.9028001736
28.6879 4.15443 43.0835 28.2702996531
28.0156 6.60872 43.2211 32.3524602682
36.4204 9.57172 36.48 54.4466800618
34.9497 6.57931 40.1993 26.2150092767
25.2714 0.667299 35.8974 42.1098370814
30.436 10.9524 40.028 28.4099985866
35.7342 0.449524 42.1129 27.5702298331
29.6908 11.9249 37.0761 42.9047205302
36.3997 8.08316 38.7871 28.2953676246
25.0608 10.7445 42.0467 27.6100773017
36.7367 10.6201 40.3548 30.0364387265
33.8326 11.9132 44.3808 33.0743404231
27.4099 12.224 39.7792 29.1429704139
29.0188 3.44262 48.1352 35.6970782424
25.4976 3.79877 46.0457 30.0450212661
33.3656 0.466097 49.302 27.4460309805
33.4679 4.12864 47.3749 31.5324372717
31.1228 4.45618 46.1181 30.0108148065
28.3119 5.7465 50.1078 31.8452074375
30.6133 7.16276 46.0675 29.1406552491
32.2309 7.20304 50.4657 30.3297603098
28.7653 5.01118 52.7865 31.6807200426
35.3589 5.74026 45.9279 29.8319751676
34.5496 8.07705 46.5325 29.8959535894
31.5835 11.1109 48.1738 29.9083763853
25.3965 11.6666 50.443 36.726985068
29.2479 10.4315 45.9606 28.5281506055
27.9955 8.7312 51.1359 28.7099594424
27.4302 4.38209 57.3621 28.0595744961
34.404 8.02256 51.5638 29.5850032477
36.7056 11.2749 47.2433 26.0870710692
25.9605 11.6465 47.061 27.2122441877
25.477 1.52327 54.0578 29.3946969831
25.2866 6.20899 47.1286 32.4012738523
36.8869 3.99731 50.5536 28.4301364459
26.3971 2.37317 50.1553 32.2189013586
30.1677 1.36578 58.2526 28.3563699412
30.7831 3.554 55.9421 30.1509330394
32.7224 1.52054 55.7274 33.6696669757
35.6879 7.69897 49.2448 27.5683155422
32.0349 8.27146 47.6989 30.1574126412
34.9031 1.56865 57.712 32.5768361085
25.7811 7.51849 52.5207 30.8462998936
31.0062 0.587198 45.6549 27.6508333687
27.9374 1.90773 55.3566 33.8587652405
26.89 5.99953 54.3407 26.0919462876
26.3762 10.2181 55.3882 30.8893603151
28.4641 2.01785 52.1399 29.5908121039
31.8105 5.23575 53.9449 31.5372337058
30.3473 8.0435 52.4588 27.9838836298
33.5954 4.55902 50.0293 35.4281060302
30.7381 8.92485 55.0523 29.2110770365
34.7097 10.5514 52.8854 31.182065002
31.2156 1.64873 51.7253 33.9463405999
35.9343 4.54124 53.2277 28.9762927968
27.5284 9.60235 48.4181 33.1304337528
28.643 11.71 51.5124 29.7154831648
25.3372 5.26519 50.1818 30.8214817787
30.3583 0.831681 48.5806 32.9919633019
25.4206 10.0877 52.783 28.3276204501
33.575 3.18848 52.9327 28.8130873351
34.6559 6.68125 53.9219 28.4146885317
25.1507 5.15184 57.8575 29.9954771452
31.4834 10.2969 50.9013 30.9134018648
32.8398 10.1015 57.6094 29.7232111428
34.0459 11.6915 47.3488 32.6059709748
27.4466 8.64907 59.1376 29.5035855744
35.2848 0.553106 52.4695 28.1137776809
31.2673 5.63543 57.5662 31.4794571724
36.3076 0.970238 55.6371 29.260955946
36.7544 11.7034 51.2107 31.0486245159
28.1892 7.31866 47.4327 31.702751285
32.8299 7.2466 56.3624 30.3290432769
35.1525 2.1409 45.9584 26.6849035255
35.2656 10.6973 56.4116 29.441816823
30.587 11.4876 54.7808 31.2413756672
35.8595 1.17253 49.9563 30.2326639488
28.2761 8.11848 55.6114 26.9825872145
28.7413 6.79846 57.6 27.3052306102
26.0266 11.6432 57.9871 30.9830659031
25.0862 0.635635 47.4667 30.1080235771
28.0941 2.47689 45.3218 30.0023283713
29.3151 11.1451 59.1091 31.6443312709
36.0568 8.66997 54.8427 29.156184271
35.8343 7.26818 57.7683 33.2564288553
33.3391 0.00870823 46.6456 27.5625970529
26.6388 0.294168 45.013 27.6227384085
26.524 10.3201 44.7579 28.4123500889
29.6155 24.3207 10.3468 28.2518049663
26.343 13.6916 3.73949 27.8837579209
31.0084 15.9491 14.9308 26.5687706942
26.8221 13.8289 13.5292 28.8329621727
31.1747 17.2488 5.97922 32.7604627009
27.5739 15.7961 6.99238 28.7575597208
26.1727 16.2022 4.42628 28.4308996268
35.4891 14.6791 3.81681 27.7497383378
34.897 22.5359 12.9588 32.5415961539
24.5199 13.386 9.78545 30.1747906555
33.6927 18.1908 2.99809 31.446987288
32.9265 23.0413 11.2195 27.5237630041
28.2254 19.8205 3.19156 29.80930807
36.2501 17.1644 4.11773 34.0202433969
34.2954 19.5316 8.69675 32.0943364211
32.7525 13.9245 4.77285 27.6859518022
28.2565 23.8623 6.90336 30.2753646551
29.3274 21.8165 4.90287 29.46318205
33.2051 20.1612 0.892042 27.2478627634
32.007 21.1583 4.79516 31.4134678365
28.0143 22.9153 15.3639 28.8120679767
34.5895 19.0108 12.8544 29.9963845398
31.8794 22.7969 7.25698 27.5229380779
35.9697 23.12 3.05369 30.2147571472
32.3344 15.7297 2.2899 32.9133863589
33.1942 22.2369 2.8474 30.182448718
26.0801 15.6561 9.16434 30.2996734775
33.1813 18.9345 5.543 32.7361957713
32.8818 15.2792 7.25001 31.1954395674
29.2083 13.6051 6.52452 29.1880908092
31.1777 13.1851 8.43226 31.7737661457
28.7601 17.2694 3.86507 30.1641485203
27.825 23.5195 2.90459 29.2889692819
24.8395 18.0972 2.63437 28.9758732349
29.4202 16.2828 1.10875 29.3112182025
28.3087 15.8851 10.9844 28.5521895794
29.127 17.6951 8.20703 34.1796915861
24.6416 18.1614 9.12004 29.7474262508
32.4436 19.8082 11.036 29.9915245567
29.5964 20.7637 10.9279 28.0827086712
30.5603 17.4735 10.8929 30.3633250457
35.3714 17.0881 7.52811 30.1320062443
32.7991 15.8344 11.7112 29.5930147355
34.844 16.3937 13.3622 26.8637561946
27.7143 20.1554 7.34702 32.9018606408
34.3908 12.5335 9.08361 28.883830714
29.6254 22.1226 8.47275 27.5432898064
31.4482 20.4232 14.2121 28.1720426176
25.2426 24.616 8.33657 27.3501107462
34.8083 15.4587 9.81648 29.9727871613
24.8259 20.1757 5.82185 31.0746901347
26.5227 22.8335 12.7343 30.0519653009
30.4341 22.846 12.7136 27.786394542
33.9575 22.2731 8.62809 26.8437901554
30.1653 14.4653 4.34379 24.7990321648
31.7184 13.3869 12.7556 30.0826761417
29.637 13.6358 10.9741 31.1265654001
36.3053 23.2371 7.96405 27.4946687266
26.2872 16.8185 12.7008 30.4266086278
28.5085 13.4595 2.27044 32.1540490095
28.7191 14.569 15.5762 32.9479287157
27.4256 19.092 13.7667 29.225427365
25.7105 20.5634 9.25695 26.9177436072
26.9567 20.4633 11.457 26.7218496562
36.5341 19.8629 10.6175 32.5537555395
30.2542 18.1885 13.9553 29.2226277123
25.6757 20.5483 3.08602 29.5098462695
24.6817 22.9441 5.8883 29.3094588768
31.9992 24.5258 2.32282 28.5113012374
33.7683 20.4858 15.0056 26.9271394227
35.6789 14.2205 1.23791 30.2183071001
26.1774 24.0707 23.4852 60.1056638318
27.5976 12.8824 21.4965 27.9681279446
25.1267 16.7881 21.7421 30.1748582564
28.7618 15.078 20.2107 29.069839402
31.5542 15.2856 20.1888 30.0008477704
32.6812 17.965 18.9388 31.0847446017
35.2776 13.8327 18.8163 27.0664753871
31.0312 24.4583 23.8854 69.832623045
28.3563 19.3711 17.5422 28.3535706687
26.0981 12.8365 18.1072 33.1705920269
27.7065 17.0089 21.6852 29.6284457617
30.097 17.209 17.3499 33.3908576184
31.0073 20.2721 20.1898 30.1044170362
25.5599 16.7628 16.9646 28.183799752
26.2064 18.9936 15.9972 26.4230071541
25.0583 14.1004 21.0816 29.5040651971
34.7178 13.4591 16.0547 28.0101704334
37.0278 14.3449 24.4126 115.2394456545
34.7221 22.5873 16.4764 30.1454330058
29.6199 22.5589 20.5059 27.4046739676
29.7807 21.6997 16.5709 30.8024134103
33.9135 20.4256 20.659 29.3775321761
34.247 18.1746 16.5643 31.8049292437
31.2356 23.1167 18.3058 29.8767008582
24.6568 21.6774 22.7089 30.6088495788
25.3739 13.7462 24.1729 71.688145158
30.8219 14.7818 24.5923 138.1466079935
31.9001 16.3094 22.6568 28.3679303833
26.4773 24.1439 17.5079 34.5951169985
34.1336 14.1507 23.6962 62.9180051999
27.7774 15.553 24.1064 64.4999420924
26.2828 19.7723 24.1036 75.980949206
25.0348 17.1366 24.4045 79.7159711435
34.3735 15.9817 20.3874 29.2640811336
30.9976 19.0851 22.7805 31.456021076
29.0451 19.9187 24.4411 112.0231419572
33.877 22.7692 19.2412 30.0883205185
33.1185 19.2726 24.4097 130.163495919
34.756 17.3024 22.9903 29.9966363916
27.4822 15.0789 17.8013 26.9374702336
36.7864 18.3566 18.0317 32.5539784007
27.6854 19.6132 20.0299 33.0889715286
28.5973 22.781 23.7494 63.3907835095
34.5447 21.0443 23.1631 30.1466253371
36.3191 18.7251 20.6909 27.5321719742
25.468 21.113 19.6801 29.1609562723
27.1906 23.5056 20.463 29.0080724246
32.3518 12.6524 20.2148 26.9787022667
33.4757 23.5847 23.5279 65.1447768508
33.5292 15.8724 15.6333 28.6460408139
28.2277 16.1813 35.4878 119.0968719655
26.503 19.4472 40.5692 29.4925023402
29.0772 20.8943 44.5969 33.3819469981
30.0426 14.6757 37.1614 33.6684475434
32.6313 15.3785 36.5182 51.4005315029
29.3775 14.5759 39.607 28.6889912094
35.0353 14.2439 36.0249 118.4056200005
27.1136 12.2396 42.5514 25.8272391193
32.7298 23.8162 35.8781 89.0603526407
36.7447 23.5522 35.4378 119.517555112
27.7669 18.7286 36.756 38.7488507584
27.4839 17.3842 39.0382 29.6908079391
33.1267 16.8038 38.8095 27.924056566
31.8182 18.0373 35.5939 99.720453414
30.3651 19.7788 36.4917 39.4940195229
31.7283 19.4494 39.3174 31.518087221
35.1401 18.0886 38.1927 26.011929596
34.1517 19.4713 35.6353 91.1852086849
25.4029 22.0808 39.272 32.9204574406
25.8755 21.1721 36.3335 40.3870451477
27.5345 22.555 35.1972 154.0141930373
32.7601 22.7331 40.1756 25.961460538
25.3291 15.9632 38.1241 30.9077089022
32.5967 17.7784 43.4651 31.876148755
29.9508 22.6425 36.1053 47.7193332111
34.6726 21.2142 39.0889 28.324899462
34.7872 22.1476 36.3077 35.6996234588
24.9871 12.6379 35.6422 111.1518879156
35.7042 13.7673 44.0235 31.0274652238
30.6524 16.4954 44.6209 26.7930283496
30.0318 16.9648 40.4556 29.5991419614
36.4939 23.1275 40.2709 31.2947178945
25.5955 15.6251 35.453 83.5488808272
28.224 23.6154 43.7371 32.8386259047
31.6136 13.6625 41.1824 29.9534129766
24.9911 13.1822 38.7755 33.1687153135
27.5621 19.094 43.4554 30.2142999396
31.7215 13.9772 43.8591 31.1625264903
30.5899 19.9273 41.8808 27.4807506953
34.7982 19.6644 41.7921 32.0870979554
32.593 21.407 42.8954 27.8053321626
28.384 21.6211 40.9064 34.79279475
33.9096 14.3701 40.0259 30.8750525544
34.6643 15.7386 42.3886 33.2455967294
28.6369 16.5096 42.9831 31.6854346091
30.4657 22.7835 39.1026 29.1558526267
37.1288 18.0639 35.6848 108.1006222017
36.7572 18.3341 40.0745 28.4724536485
26.3215 14.6994 43.3334 34.3034413156
36.9188 20.3162 43.7798 31.8035187421
25.5622 24.1742 44.1869 30.3442427457
27.4856 16.2463 48.0184 28.6208655252
24.8752 15.906 50.1419 30.0408298117
27.4103 23.6837 58.5787 32.5009439891
29.3823 13.1321 45.09 31.1743234573
35.9619 18.3223 55.6509 33.2709374623
36.915 15.1872 45.9985 29.8399192229
33.9208 22.3626 53.8872 29.3599859491
34.6916 14.5613 47.8678 29.2382876172
27.8968 17.2964 50.4503 27.9605313281
25.4575 18.4609 47.3723 30.5171133198
32.1506 15.5312 48.7223 29.9935573363
29.8451 21.4163 47.1944 25.5593729995
30.0179 16.4135 47.1096 26.508308393
32.8935 18.7838 46.0779 30.3626857501
33.0259 21.5052 45.674 27.5199715751
25.4165 17.9018 52.2943 29.686853392
35.258 18.1636 58.5111 28.4324114565
27.3377 20.5757 48.2014 33.2216255462
25.746 14.2539 46.1798 32.8088823082
30.7633 18.8501 47.7069 28.6048423718
32.2516 24.0119 46.017 27.5029386949
36.8506 16.5951 53.476 29.0956663878
31.039 18.1512 50.3448 30.5519526322
24.8341 16.0111 54.4642 29.4939852843
27.8169 13.7323 57.2254 26.9782807833
28.6591 14.9266 51.62 27.3250834348
27.1789 13.5416 49.2711 26.0068577837
25.5206 22.0368 57.6241 29.46626107
27.6544 15.8495 53.8008 29.9837871143
31.1604 14.321 51.0027 28.5311333283
35.6417 21.852 45.3992 29.9466764701
34.6992 15.0265 52.472 28.5592837825
35.8817 14.2781 50.2104 29.149774837
28.6895 20.1142 50.5928 30.0512628458
29.9951 17.2776 54.9983 32.0922073018
32.2002 16.4842 53.3195 28.1169042396
34.9564 17.4947 47.3436 33.3577784752
34.147 17.8533 50.536 32.2944075412
33.4584 18.6188 53.8368 30.4214455332
31.5503 22.8859 48.9898 30.4892702274
30.0483 21.4076 55.1627 31.1263287414
29.8778 19.673 59.0643 34.9500157451
27.9637 19.7089 54.9064 30.3762432238
26.6666 20.2784 52.8858 32.2542612096
32.493 20.5555 55.6016 27.0221656691
36.301 22.3497 57.6339 31.4900272261
33.4552 20.7919 51.4729 28.3019120619
36.3969 22.8204 52.35 31.1734892589
34.6353 22.8483 49.6716 30.9986864222
36.6273 19.7794 51.2632 30.0058949011
32.3394 12.3274 52.6245 29.9290203988
29.477 24.4653 46.1737 30.1169962852
25.9805 15.7119 57.0894 28.6638205146
29.8708 15.0537 56.789 28.235899165
26.3204 19.4763 56.935 28.6740420227
26.376 23.2229 48.2258 32.2582884312
32.9912 14.8611 55.7691 31.1814228845
34.8368 12.9387 54.8549 28.951473054
33.5924 22.124 57.6273 28.3333640565
30.0429 22.3171 57.7561 34.1715008619
30.8643 21.4407 51.2762 28.4392787902
36.7059 19.3198 48.5751 28.1155086977
28.9152 24.6946 48.9404 31.8187947324
33.8512 15.8655 58.1922 28.696910019
31.5193 18.0436 57.4794 30.0379040772
26.7302 17.6945 58.9365 30.461896231
29.8177 13.3318 48.3159 29.1612402858
25.7269 24.1502 51.1518 33.0071477092
30.1405 23.2737 53.1873 32.3700284963
36.6465 21.8483 48.012 28.9033986862
31.2114 12.4178 57.3117 31.2030641292
27.7885 12.6014 54.1591 33.3095280148
35.9176 24.7872 44.8359 30.6760078229
25.2772 18.8433 44.6784 35.3518868977
35.2043 27.0281 12.9 26.6086902427
36.6416 28.8535 7.06003 31.765317544
28.934 31.84 1.60043 33.5970115047
31.0575 25.0475 6.1104 27.5969313663
29.8844 29.8196 3.12237 32.8178380221
29.7798 25.0851 3.73938 27.8484539767
32.6488 29.8406 3.12916 26.6301237119
36.4601 33.7488 12.7575 31.1346544542
35.8139 24.6417 5.64964 32.0787211924
29.547 29.9339 5.98093 32.8510540269
24.7467 36.9118 6.28236 30.7440736569
35.8419 36.3628 13.3471 29.6493252089
30.1134 36.2962 1.01856 28.8721637708
31.1741 36.8409 6.63155 29.3145060733
27.9103 34.3464 2.56325 31.4446521769
28.4193 27.5807 2.86551 29.3522824176
35.6359 32.6168 15.1387 28.5506881517
35.4649 30.6129 5.19313 31.5803046622
36.1705 30.4595 2.34315 31.0013483703
27.5273 29.8583 14.6603 28.0559049667
25.5618 28.6183 8.57304 29.9390640688
25.1114 35.0377 2.95204 26.6921601257
28.3502 33.9996 12.925 26.7048794954
35.0148 34.0691 10.0009 28.6620372195
25.6266 32.3488 15.0714 28.3035103849
31.3959 35.169 14.5052 35.665170787
33.6055 25.3751 8.95797 26.9914675026
26.7536 26.7348 6.78201 28.3980780344
30.4671 28.8054 10.238 31.2443388597
32.7305 32.1129 2.06102 30.4718843727
35.6113 28.6954 9.74079 30.1722043412
30.9199 33.029 12.3266 33.081737374
33.5286 26.317 6.32363 29.5171884705
35.5475 26.2076 10.452 26.7900944435
27.4011 31.5782 6.93907 30.2822619266
32.8573 29.6678 9.01993 32.8743395771
27.7704 29.6689 10.4099 29.4550902031
29.43 27.2723 7.46075 33.7011517702
32.9269 29.1558 5.76757 31.5917085712
33.1247 32.2109 8.64285 30.5835198354
34.4448 33.1411 6.07301 30.8923640361
35.9376 35.2369 6.49327 31.4383224705
28.1373 33.5745 15.4865 27.0364822925
27.6144 36.3682 7.50127 25.6592044146
27.1683 34.0596 5.8344 31.1518849183
29.8117 35.7305 8.92375 29.6344024014
30.3161 33.1663 9.35756 30.8529309168
29.8959 34.7121 4.98361 29.151861533
25.9036 26.9166 4.47271 30.4772288266
25.3309 26.453 12.2154 30.943949679
31.143 26.1873 10.1306 27.4321998048
31.5162 28.6323 13.3588 31.7985000512
29.2826 25.0055 14.4151 31.3795549855
26.7737 24.6877 10.6315 33.1316797599
34.2062 28.611 1.66653 28.4012627715
36.1612 25.0147 1.1361 30.9085473223
32.6865 35.6433 1.91886 28.6187763141
25.8483 35.519 9.66333 32.9723638702
27.6814 31.9485 9.49538 27.4141665353
26.1209 28.9899 1.73133 31.1691455452
33.7231 32.2271 12.1317 33.339553951
33.9895 29.6025 13.1212 28.6227439174
34.0669 26.3434 3.19118 34.8137068245
32.4927 33.917 4.15998 30.9520810815
26.651 33.3994 11.1827 27.946497087
31.0012 32.2554 6.42216 30.87179534
29.1094 30.5074 12.787 30.0254130521
36.7983 30.1001 12.0125 31.7250916157
32.4129 25.9052 12.764 27.5415808666
26.9615 27.0363 14.5206 37.6970057119
33.8502 25.0011 14.8542 28.2342929726
25.0881 29.4019 11.783 27.5605431984
34.1803 36.4813 9.90826 29.9389687206
25.3509 24.4191 3.75625 29.5534629326
29.6632 28.2254 21.2544 32.4438581081
33.1879 25.2597 20.849 32.166236888
35.2943 26.477 17.2559 28.9934981413
24.7903 34.9011 16.0592 32.5332428154
31.2328 25.2663 16.164 35.2670689798
33.8744 27.896 19.7107 28.1588316681
29.4149 36.3731 21.035 29.7245559002
25.1649 31.9922 19.376 31.2785947726
35.3907 29.6339 15.7499 30.1681087586
27.4924 35.9257 16.8311 30.0610056942
32.5269 31.901 17.7129 34.0926020982
24.9423 35.8185 24.6122 133.0966230007
28.4666 29.6491 19.4118 30.9661108965
29.455 29.7276 16.7113 31.9031222673
25.905 25.8889 20.5012 28.8604591414
33.2101 29.2681 17.4321 28.2456632792
24.9036 26.4895 16.8379 29.1279361548
29.9816 32.2998 16.7083 31.0033486841
29.0707 33.588 19.3113 35.6594074638
36.4225 28.3486 20.2545 26.0494893126
33.8079 34.023 16.1816 31.4581474305
34.6734 35.6051 17.9981 30.8999798131
26.3116 27.0129 23.2979 51.8735477665
35.5137 25.832 23.4758 53.2370795167
24.8311 29.8643 16.6373 28.9696771885
28.9267 28.673 23.4936 59.2347212928
32.3126 29.5186 20.9833 27.5339887401
30.9973 27.1205 24.3913 133.7660554319
26.0379 28.1687 19.149 29.7122226123
26.9752 36.0738 19.7262 30.6736434155
35.2699 28.6106 23.7935 75.3889194243
36.573 34.6064 19.6191 31.5004064107
25.2769 31.7169 24.1516 117.3605573841
28.0831 31.4894 23.1009 40.6552366618
27.6337 31.7067 20.5452 27.484985849
32.6014 31.9368 20.5932 28.1814190649
32.3408 31.6707 23.9051 83.6061365104
32.6488 28.9349 23.515 34.6646775179
35.2804 32.3142 21.1674 34.7454476456
31.442 27.959 16.0565 30.9635134993
30.1559 33.0895 23.6027 64.2317483499
31.4857 34.5036 21.3664 28.7467540004
29.7421 35.9381 23.9991 76.5470709964
33.5586 35.7608 22.5714 31.324233785
30.5539 25.0281 21.0525 34.7937262499
34.2959 33.3822 23.886 82.70518918
36.3845 24.1688 18.9495 29.9782537858
26.9213 27.8201 36.8563 37.8667228843
26.8355 26.3432 41.349 27.824890255
25.9428 33.19 44.177 28.0562917477
32.7146 26.4647 36.6223 27.2097900915
29.7738 25.9888 36.1643 62.4267876742
32.0933 26.9878 39.2395 30.9347539234
35.6125 29.1891 39.4501 30.6917411262
34.6739 27.463 35.6089 111.2606811824
33.9382 25.165 39.7787 28.4220279142
26.9091 31.7521 35.714 111.7099309489
30.8845 34.6579 35.5945 115.4363100119
35.1118 33.6649 44.4266 29.1938527458
28.833 30.0849 36.6844 34.0765884601
31.012 28.8375 35.4909 127.9744571979
32.8321 29.8259 39.4146 29.405638078
30.5275 30.3669 41.1678 32.1027866511
28.6918 31.0535 38.965 31.9068276954
32.5728 30.6257 36.6337 33.515266402
35.3322 29.83 36.4385 48.6375704228
26.7382 36.2794 36.1432 74.0134534724
25.6038 34.7373 40.2306 27.6132118518
36.604 32.5576 42.2322 30.0197244791
28.4603 34.0904 36.4713 36.2299920658
35.4652 34.2235 36.6992 36.2818902133
32.6649 34.3154 38.8453 35.2161336976
32.9273 33.1542 35.8997 87.8017555157
25.9899 28.2005 39.5817 30.7293920462
25.7645 35.5197 42.7549 26.712712766
27.9677 28.0267 43.1947 31.9830987908
35.9449 33.9737 39.5175 31.6819709402
30.0758 34.7242 41.1016 29.8546752816
30.1692 25.5721 41.9595 31.6115764682
31.1405 28.1231 42.5369 27.7413120431
29.5022 25.2385 38.8372 30.2385480198
28.4356 36.4005 43.0102 28.8556073502
34.0142 28.0461 42.96 30.9954741791
26.5654 30.8385 40.4664 29.2059023814
27.0758 30.8812 43.185 29.6739381352
24.625 29.2525 44.6232 30.1973992053
33.7404 35.9577 43.8065 29.6710829898
26.3355 24.9931 36.2608 64.4591947876
33.6328 32.4244 40.7709 32.7345486698
34.8805 25.5044 42.4737 29.433803535
27.9909 33.994 39.2539 30.9139242619
36.1874 29.7578 42.2752 32.0623930069
31.1299 32.7664 42.5471 28.6189704773
24.4196 25.9219 42.5649 36.0012257222
24.4253 32.3348 39.8744 30.8797436291
36.7553 26.4335 39.4498 30.4816453899
26.6042 24.4233 39.097 29.2930162986
24.7619 29.3907 35.7715 121.018892725
36.0661 36.8961 40.6464 32.0449725156
32.4309 24.2182 43.1155 29.6851253846
36.4536 26.0504 36.8567 29.9179974007
30.5114 35.6152 47.0732 26.6033892644
29.1352 36.346 50.9082 26.5377051715
29.2227 27.4812 46.6151 29.6969377634
30.9986 32.9313 58.0861 30.2902404716
34.2747 25.3408 48.9109 29.7413327013
31.7313 29.1856 48.3506 31.6916543004
36.5945 29.1765 46.7233 29.4842994577
29.3514 33.9246 44.7604 29.6421968512
25.3683 30.1823 49.9821 28.1055620703
33.9214 29.1179 45.6501 29.4426898131
28.8857 34.3958 56.1877 29.6896033832
25.0234 25.1799 54.1792 28.0838742403
29.7765 31.3764 48.4335 30.6018793898
32.9684 31.7737 44.5811 31.3714714676
26.5285 27.5305 46.0162 31.3509751141
36.3964 28.8616 49.3752 28.080210421
26.4932 32.8989 46.8567 28.0801601459
27.4912 30.6419 56.1625 27.9719181036
26.6378 31.2757 58.4908 28.4797737166
30.816 29.0928 45.1567 27.524162229
27.568 35.2176 46.9818 26.1323869039
31.6065 32.9211 47.0547 27.8652659374
36.6007 31.9049 56.2092 30.6217175173
32.3888 24.9769 53.5027 34.6526937728
36.3644 26.6083 50.2949 29.5877263875
26.6458 36.331 54.6076 29.9791142688
26.8131 35.7878 49.5366 29.6050915535
32.443 26.0899 50.7842 30.8509692762
25.4162 27.7761 53.3521 26.6361796981
28.5225 32.9271 52.3517 27.1038313941
29.3162 32.1493 54.8639 25.6936145828
31.3449 27.1755 55.168 31.4997205413
26.9451 35.0979 57.9957 30.6808964666
32.9004 28.3097 52.2071 28.5334097201
35.5177 24.3835 55.3148 33.0115451213
33.9037 26.1266 46.2201 31.9398346988
33.7 34.8566 57.6957 25.6739447061
28.6181 28.157 52.0796 30.5959983244
29.92 27.1069 49.6421 31.6185097818
30.5374 29.7278 53.3298 28.7079920195
30.517 32.9385 50.6058 25.9400544595
33.5564 31.5077 54.5354 28.2755335453
32.4458 31.4838 52.0087 27.5812537899
35.6748 28.2212 53.0944 30.0785765094
33.9047 30.0404 49.8604 26.9021672852
26.1083 30.3849 53.951 25.8822352599
25.906 34.2145 52.2614 29.604675874
31.3475 35.1101 49.7077 29.96307055
27.2454 30.0899 47.7476 31.1582230915
25.1256 25.1513 46.5923 29.3884635457
34.0475 34.9381 50.3817 29.5515867072
33.5856 34.3673 55.0572 27.4188873481
26.337 25.7986 56.6022 31.6663518296
28.457 26.8535 54.7905 30.5665378055
29.2558 26.3383 59.0202 30.8995936695
34.4383 25.3698 57.421 28.2881868091
32.5499 28.0511 57.462 32.3506190641
34.2481 36.6347 52.7962 32.3637998071
36.1119 28.0374 57.6891 32.2705665773
28.5074 28.2484 57.0083 31.0090984412
31.2551 34.7052 53.5878 31.7597836786
27.2768 30.6546 51.6433 26.6843910352
35.2477 29.4637 55.5118 30.0044790808
31.6328 30.7319 56.4709 32.9641055525
35.6876 33.0623 51.9291 33.78697714
33.7007 32.3368 48.6186 28.7608022406
24.7129 33.3031 59.051 28.3137835475
35.9616 32.7312 46.8542 33.3009602501
36.3017 34.4497 54.4437 27.8297702209
36.9139 35.6002 46.5172 27.4957035751
34.9558 36.4161 48.115 31.5870417641
24.7551 27.4239 58.0714 31.6103754652
25.4005 36.6824 45.6523 25.3794108063
35.4794 32.7678 58.8972 31.6250448784
24.6734 32.7914 50.2208 29.6456767515
31.215 36.4687 57.0713 29.7260868058
29.2069 36.723 53.4383 29.883278584
28.1671 24.9086 52.1249 33.3744308456
31.4722 24.9695 58.3011 29.5857645755
29.0406 31.1846 45.2383 26.821986403
28.1903 41.1444 3.0646 28.144712523
34.0368 48.5561 6.40221 26.033097186
24.513 41.2179 12.8666 32.0725784037
26.4911 37.8685 11.3141 33.96550029
29.349 42.3855 6.94644 31.3887745831
34.5359 38.9215 5.21227 31.9652728767
26.5707 45.2969 7.96757 33.2502367393
28.4504 45.5958 5.28735 28.8118802156
25.8196 42.0444 1.90946 30.3508291418
29.0062 44.9394 1.90668 30.684338885
29.6876 43.2239 4.11832 27.2734924178
33.1641 44.7952 5.16007 29.7388283692
30.486 45.8601 6.98092 27.9128095549
25.7171 47.3757 6.33879 34.7530681965
34.9577 41.5325 2.44114 29.6187689997
32.8869 36.8152 12.4475 30.3623322831
25.0143 44.7513 13.1245 30.1777965767
32.0514 47.4061 5.24883 30.5723597215
36.3324 43.6056 6.33876 29.4852898703
35.0499 45.5548 3.38363 26.5343422481
26.7996 41.0127 9.05892 29.4133387506
36.2734 46.4086 10.712 30.8748553992
28.4432 48.2368 3.94411 33.8114502153
28.0649 38.8718 7.26104 26.8202999626
27.2757 39.2481 4.77308 26.7487750907
31.1956 40.9829 14.0285 29.6478014017
29.8273 46.9101 13.5487 29.8025806509
31.6571 40.4423 4.5649 31.4250093205
35.6682 48.4239 3.52064 27.6283317938
25.7786 47.4578 13.7336 27.8440362714
32.0791 43.5219 14.4931 30.6013951774
24.919 40.523 6.15179 28.6395990374
26.7574 42.4816 6.53495 31.3912571073
34.8612 46.4359 13.1098 28.7138205443
30.8479 39.9898 10.2327 29.5875026045
30.2911 42.0367 11.6395 30.867357123
33.7099 43.22 8.19888 30.5747484788
34.5261 40.1978 7.99868 30.5008981828
27.5824 47.8177 12.0095 30.6378401257
24.8636 37.6794 3.50234 28.9611819353
28.2565 45.6426 10.5749 30.0010669086
29.3989 47.892 8.43817 31.8055521036
29.8138 39.3626 1.65578 28.3813495452
30.9624 43.9681 9.25496 29.7593190707
33.2341 48.2136 10.0297 25.0780077577
24.7361 38.746 8.41791 26.1247353076
34.4081 42.8478 10.6259 28.3186645334
30.9268 48.3138 2.87973 28.5659021234
32.4841 42.7509 3.39516 28.1046504847
28.368 36.8769 12.7759 30.9547905318
31.3075 46.2817 11.0519 28.4356959771
29.1512 44.7051 15.1878 32.7155512436
26.2759 44.7999 1.8063 29.4369380907
30.161 37.4124 10.949 30.8074557727
29.6336 37.8982 4.12455 30.4022483626
33.642 40.0928 10.7848 25.9215633217
36.6546 41.0124 4.98481 27.8230077692
24.9033 38.6022 13.3386 29.326547288
26.9829 42.7704 13.933 31.0966370504
33.3355 38.2114 2.56198 29.6591352577
36.9509 43.8489 3.05345 27.2346070482
36.6662 37.2204 10.8036 30.0453507863
30.9441 39.6714 7.41917 29.7372345151
33.8713 36.8463 7.07687 30.2754907675
33.0551 44.4609 12.264 27.2306037675
27.5801 42.8312 11.1218 30.752313653
24.8177 45.8021 3.90051 30.536317074
34.774 46.0262 8.20776 29.5377313899
34.8009 43.8369 15.5274 27.9002306121
32.9618 39.3901 13.0679 25.1367850168
28.2319 40.1434 15.6213 33.6747442325
36.1356 36.8551 2.07439 32.4144583847
33.1903 44.6009 1.29904 26.9501585925
35.8734 39.838 13.1215 29.2082397635
33.7701 48.7736 12.4315 27.4792444371
36.5578 46.7803 6.3182 27.3319864105
30.6162 48.1635 20.139 28.4815118997
26.0373 38.4751 19.8818 29.7255034586
26.8796 46.6756 16.1966 31.0371391092
33.6179 38.8518 16.0548 31.5272478235
25.7161 45.6756 18.8653 24.1900138309
35.0837 39.1845 21.0918 30.8971260016
35.8475 37.1451 15.9397 26.1602979316
31.8028 37.6661 24.2031 103.6365192862
26.827 42.1834 16.9587 28.7245036006
30.7913 41.0285 17.1899 30.8268723181
32.8472 48.3692 16.2879 30.1877397962
31.4867 38.3635 17.6469 32.898444205
27.569 42.404 19.6283 26.7918251813
35.0592 41.4736 16.7194 30.8642007191
26.7132 47.7694 20.9547 28.8246817389
36.1702 45.9706 21.0856 29.4189876232
30.471 38.7147 20.3143 28.0231357193
28.6929 45.7908 19.0459 28.6684296254
25.2527 45.4752 23.7341 53.372058275
30.6477 43.8325 17.7668 27.850947408
35.5899 48.01 19.4053 29.1541445746
32.6737 45.6567 17.798 29.9037298251
25.3509 43.3337 20.9907 27.3264002358
35.4215 45.5149 17.5136 23.9383904435
27.5729 39.7191 23.9661 55.6462727252
24.7296 40.4486 24.3056 96.4671620483
31.641 40.0683 22.7506 29.472002897
29.7095 41.2042 24.3817 111.5362319109
34.3812 41.5347 19.5692 30.7462622754
34.2535 40.6461 23.7623 76.3580831646
26.1089 42.9924 23.6993 50.9101678818
28.1606 40.1589 20.8242 31.2289916055
35.2774 38.0535 23.7628 76.0258253537
31.7572 41.7739 20.0995 29.2245219856
28.7632 43.5221 23.6949 32.3634124915
29.5675 43.682 20.957 27.7671476996
31.596 45.6087 21.0588 28.1896577126
34.8226 42.9971 23.0252 32.3186650473
33.7797 45.127 24.3663 118.6949236972
34.0174 44.2804 20.3514 27.4811097071
35.6223 47.7497 16.0271 25.4188370788
27.2423 47.2508 23.3923 36.2333925801
29.447 45.7607 24.7919 138.2951088763
31.6042 46.3769 23.5585 31.6382132703
33.4124 37.2361 19.9416 32.0555263171
27.3982 36.9532 23.8605 51.3223814023
25.1401 39.7039 17.6383 31.0151432283
31.5629 49.1359 23.4713 35.0117362334
29.7079 48.0436 17.1964 30.5222141808
36.0585 46.563 23.8982 62.2156393543
29.468 37.5406 15.4639 31.2158479479
25.8648 38.0809 15.9684 28.8494245502
27.9743 41.1463 44.4845 27.7060227466
34.8466 38.0585 38.7197 29.5293967663
30.9978 37.3334 36.2356 58.3829174411
28.8237 38.1574 37.1287 29.3047441463
36.8963 48.1391 36.4395 58.8729116574
25.9103 39.7244 41.5282 30.9728062637
25.4368 38.5074 38.8261 31.1745389813
33.5793 38.5588 35.8706 109.9283731229
26.2942 42.624 41.1244 33.4132074129
30.2245 48.8566 35.7419 109.3658762684
31.7997 48.2881 43.5192 27.8582576595
29.3351 42.9082 40.5964 28.3631357406
27.3954 40.1219 35.6101 119.2001278749
29.4897 44.0705 35.6977 117.4807985045
33.7671 41.1556 36.4521 44.4370592049
31.7254 43.1195 36.7496 36.395977023
30.1257 41.5316 38.3201 37.7420336666
25.7588 47.0272 35.3341 129.8175614636
35.8646 37.1214 36.3912 53.5139141642
32.8903 39.6896 41.1889 28.8223256749
28.3819 46.5495 36.1182 45.6542089748
27.6722 44.9478 38.8925 31.2120717229
34.3625 40.3607 43.3331 27.8995509744
24.9115 38.879 35.8838 57.6038257753
33.5807 45.3314 36.4043 67.1225513576
36.0246 42.2472 40.3067 27.7317291726
28.6175 39.0097 42.2657 27.2070318598
24.7501 42.5588 36.7634 30.7784693739
29.7946 46.8925 43.1062 25.7964399353
30.6099 45.2467 40.9053 28.3098772951
30.8641 44.2978 44.0034 34.2382862487
35.6007 37.6544 43.2873 28.7386200603
28.6991 37.5161 39.7962 33.0909350324
32.807 44.0583 39.4629 33.999689376
31.0172 39.222 44.6418 30.0908936924
25.6108 43.128 43.9167 29.60760662
34.0596 41.0906 39.191 28.5901745129
27.4441 46.7966 41.7003 31.4504618971
35.6402 43.0579 35.4076 151.5626552775
34.1411 47.0533 42.516 32.5345750346
27.7414 42.6156 36.8796 31.9743503855
30.6148 41.4347 42.4205 30.4411034905
31.7372 37.2615 42.0374 29.6934252901
35.1297 44.9042 40.7648 33.1001002087
32.3735 47.8515 37.0262 38.7524880344
36.3955 45.7113 36.7094 42.2578743491
24.8231 46.5434 43.2688 27.8231708561
30.5259 47.8206 39.5591 35.504696127
33.4862 43.3755 44.4053 31.0264437916
25.0748 45.8351 38.8257 31.4776108561
32.1468 37.1278 39.1676 30.7060748526
35.2639 45.3862 44.3836 27.6251328044
26.2501 40.7668 46.5931 28.9809631563
26.6951 42.4557 48.9449 28.2499130459
28.1802 44.2246 47.2708 28.4122995674
29.3422 43.2776 58.0985 31.2847690696
35.5002 43.7162 52.3781 29.0571405716
33.5281 40.4049 45.9675 28.5444152273
32.654 43.2829 50.931 30.347785311
34.245 48.2466 59.2118 29.9369565899
28.741 43.2537 50.9 28.4405590377
32.411 40.0564 58.7773 27.2022547642
28.5295 47.6369 45.4703 27.0995402283
33.0035 43.0376 46.9793 26.3977604381
30.853 40.8439 47.8754 31.8547601363
26.4514 45.6278 45.1594 30.000691004
34.7297 39.066 48.5356 31.4975798004
31.5685 48.0074 52.4678 27.8268073774
28.6455 47.6443 48.1259 28.602472797
35.7652 46.1563 51.5157 28.3400521677
34.3083 40.7926 50.6219 29.9206837728
33.5421 45.9683 55.0774 28.4424637471
28.13 45.687 56.6999 29.0074360521
33.1228 47.2459 50.6221 27.5757816424
29.5149 38.37 47.4703 30.8703063101
35.7483 40.0476 58.7399 28.2295650495
26.4988 40.0836 50.7205 29.7975132875
34.9079 45.1856 57.4622 30.459661956
29.1006 38.8181 50.331 29.5596824953
24.9966 37.4849 49.9131 27.8956160658
26.1362 39.0056 55.1026 32.7328403257
30.2866 39.3262 53.0733 26.7415730219
26.7397 41.7676 57.8223 27.9929790983
29.2841 46.7788 52.0244 29.7082612084
27.1587 48.6074 52.0067 30.0089774632
30.5908 41.4116 50.6248 27.2441562266
33.0964 39.3121 52.906 32.5869480597
30.4906 39.9388 55.9825 30.1613312626
35.0427 43.1296 48.5727 27.7105693449
34.4452 40.9464 54.6273 29.7109259806
32.897 38.4508 56.4156 28.5891679886
29.108 45.0595 53.9577 29.5989840521
25.0944 45.2831 48.0426 29.3326693826
34.264 46.4307 46.7886 31.4750429834
29.6327 45.5168 49.4471 26.2320596468
28.9157 41.448 53.4261 29.5510280792
26.2102 47.6045 49.2012 28.8799069012
32.1337 45.2689 49.0781 29.8807218609
31.705 48.019 55.1861 29.8189981507
33.1908 43.8136 54.0977 28.9104804842
35.8204 47.0908 54.2207 31.7584367133
36.5014 37.5 51.5227 26.5748999882
26.0029 41.1074 53.1516 28.3278611258
26.9382 48.6582 57.1555 28.0609379867
29.9604 47.855 57.0151 28.313123892
36.5615 45.7168 48.4464 33.4762517651
34.9258 37.1951 57.7541 27.1659136743
25.3749 45.7734 57.8384 27.9455304714
30.7982 43.2519 55.3507 30.0442603799
29.7091 42.7485 45.9229 27.3770043268
32.323 42.6036 57.8521 27.8158672277
25.4221 43.4167 55.7507 30.2590219606
28.0248 39.5892 57.3082 29.4785880929
36.6249 48.2588 44.7993 28.9512607249
35.1299 42.0132 57.1561 27.5481933281
27.4627 38.3686 45.472 27.0373713329
25.6161 46.6755 54.3467 30.1352772272
32.7313 36.8655 45.9149 31.9212070628
36.6855 47.0584 58.5091 29.2096523341
26.4593 44.1451 53.2276 28.9800174463
31.4684 46.7312 59.1812 30.127717506
26.8727 37.7358 59.3454 31.6523172431
42.2857 3.64271 4.11174 35.0105775336
47.6342 3.7427 4.59707 30.2830037234
41.0258 1.32428 5.63833 31.5722411553
37.3262 3.00396 8.05287 31.9491550133
46.2653 9.12013 12.3576 32.1713376353
42.3765 2.50272 9.91815 30.3226023921
46.7047 5.34904 2.44692 28.0859457639
41.6314 6.72187 6.56334 29.2728616099
40.3972 7.74416 4.4397 29.5989083173
48.3813 10.8676 1.80549 32.3578703864
41.2037 11.3371 13.7307 30.6209583499
44.7004 6.96974 3.16146 29.9671892516
37.7473 7.01744 6.79005 30.2679694131
39.3623 3.03112 14.346 28.6875422618
48.1238 6.39748 7.51731 30.7375481503
38.1057 6.42652 3.75379 32.8958170388
45.486 2.63301 1.51103 28.6936598868
42.0132 1.01028 12.231 29.5973441507
37.733 12.1572 8.96936 31.0311427609
40.8176 10.4659 4.20039 32.7426336644
37.8139 9.01554 1.85055 29.4585102286
37.1212 9.8829 7.26446 33.9132205936
38.0192 6.76769 13.7976 32.5771902721
43.7449 8.06517 12.4677 29.5096617563
46.1184 9.38073 4.68698 30.9019685887
42.3188 6.85431 1.94787 28.5220537392
37.7709 0.114183 6.61261 29.591262833
44.2257 0.70154 7.96257 32.5130127403
37.9136 10.6481 4.55885 28.4840302502
40.3165 2.67952 7.79933 31.9385886032
43.8859 5.41037 12.5868 31.2520335288
40.0208 4.65267 2.758 28.3283662438
48.9924 6.8097 2.76673 29.1499778208
47.4436 1.4943 10.0146 30.0339846229
44.4729 1.61003 4.01589 31.1221001222
45.8152 4.57521 7.2453 31.2579082992
41.3931 4.942 11.308 28.1282901746
40.4617 6.82414 10.2963 25.7938593223
43.8846 5.82487 5.51089 30.1762178852
45.377 3.38056 9.41345 30.0485469498
45.7206 8.07229 7.18662 28.1700240009
48.6041 8.44862 9.53296 27.0096774264
41.4725 10.6773 11.2207 27.2350791473
38.4061 10.5039 10.9822 35.263901336
42.5183 11.4414 6.39663 29.2766253364
42.9703 8.92222 7.53753 31.2310110369
48.8782 6.43212 11.4542 27.6397400984
38.2935 7.80204 11.1823 31.1605546654
38.5161 2.52009 2.43488 33.4268746119
49.1686 8.36278 13.3941 26.1512025385
44.669 0.940257 13.5609 34.5605293015
39.9281 5.67437 7.9613 29.0490527952
45.4184 10.1537 1.59613 32.3808342049
39.0749 2.81175 11.3561 27.8836644127
42.2605 8.63299 10.2261 28.2576622311
48.4624 10.1379 7.11284 27.782056023
46.2298 4.90793 11.5295 34.244459698
45.1026 11.5924 5.86408 29.0373603072
49.1048 9.24697 4.24559 28.9098123155
41.2113 11.0708 1.44616 27.4527980186
40.5147 5.60084 14.1123 30.2296129187
44.0377 3.5944 14.8387 30.6267469394
45.6774 9.4867 9.44813 28.9795445545
47.6193 2.90489 13.2349 30.2604350138
46.3691 1.62639 6.06768 29.3454946939
38.5824 0.516909 4.06737 29.7977848359
42.8333 9.53656 14.5674 28.8069938981
48.1623 1.49364 2.8189 30.819009041
38.2178 0.464956 12.3933 30.5709707055
48.8999 0.648417 12.0805 28.1684886439
40.9794 0.979989 15.1037 30.4608529925
47.1434 10.6441 14.5695 27.5071204771
48.7706 11.5028 11.161 27.9517325994
49.0337 4.10171 9.02128 30.5034944277
37.7851 12.3324 13.2993 34.2789083727
37.2782 0.509204 17.8743 29.2724277631
40.1575 6.02776 20.8816 30.3166963913
38.5457 1.82588 24.4256 115.9621991363
41.4028 11.0978 20.7691 28.7356849006
47.5276 11.0118 22.3091 32.3233034259
45.797 0.875712 16.6486 28.1203994892
48.0277 8.44165 16.2614 34.5272635725
39.3205 3.80297 18.8317 33.8391810414
37.5803 7.45653 20.6234 33.6640127833
41.3528 8.61039 20.0464 31.3708685282
46.486 5.1919 17.8514 29.5947635421
39.7774 8.22206 17.7705 32.6456407416
45.1822 7.59205 17.3213 33.9174398151
46.8242 4.42869 20.6959 26.2834666129
43.2531 12.3882 23.7099 44.659845157
37.5075 6.90254 16.3539 29.5043253521
40.7033 0.810279 23.3804 31.8696194137
45.4065 10.9422 19.2853 32.8186683535
44.6592 10.4162 16.0587 29.3452701176
42.0379 3.61632 23.5926 48.915482265
46.6871 3.40351 16.0708 28.3465630023
38.8849 4.32999 23.53 31.521098442
43.1689 5.34779 16.7856 30.9301415233
46.5492 5.43026 24.5875 122.1033665875
46.182 1.96412 19.7159 32.3959435304
47.0168 3.39321 23.2678 30.1046707208
42.1498 3.55291 18.5859 29.5164395057
41.0334 6.70227 23.8661 51.702168759
44.6897 6.01226 21.3082 28.9965599905
43.9759 6.16811 24.1531 62.0443799974
43.2248 8.95238 24.3275 114.6946686179
47.5835 7.39879 23.2004 32.3486197029
49.0654 6.08249 21.2447 34.6773819118
45.3933 9.25181 22.5342 32.5708049426
37.6604 10.405 21.5927 28.8660739942
38.917 8.53823 24.4759 85.6766371398
44.0999 8.52547 19.8694 30.3860414633
37.9324 3.2323 21.1647 26.3114687945
40.6295 10.1963 23.4006 29.4226204259
49.1824 2.01843 23.912 60.0103524836
48.3295 11.941 19.7989 27.5208137563
44.4687 2.04821 24.0382 93.3934554875
42.8996 4.20801 21.2935 26.0805936549
38.4674 10.6678 17.8346 29.5447695359
43.8041 1.40303 20.9552 27.3977625008
37.5823 3.95612 16.4825 27.7452415993
41.6621 7.30753 15.7758 30.9209266853
42.9182 1.23783 17.2947 29.792586994
37.3164 6.20969 24.5602 108.3069407361
38.1824 0.711198 20.9492 32.1199589623
40.963 0.942261 20.5044 28.9887133546
39.1486 12.035 15.5284 31.1170362002
39.2514 1.80294 39.0458 29.9409154926
44.3653 11.4919 39.3064 30.0401799874
48.0603 6.63396 37.1957 31.3306062213
39.9203 2.29087 36.5588 32.577805481
41.2957 1.36837 40.8729 29.7049568245
44.7451 8.04579 43.5318 31.7333551999
43.9589 4.1923 38.3301 24.9570241121
48.7167 5.75901 43.8847 28.3178380553
37.992 4.22825 35.5634 104.5464919325
40.7505 9.1659 39.8576 29.9352950497
39.5146 6.33978 36.3465 30.2730991602
42.7458 2.71542 36.3943 47.9615053581
41.6721 5.34357 35.5057 119.3530067652
43.3521 -0.108335 36.9206 32.8874062173
47.1266 1.74918 38.2835 28.0845147598
45.7323 2.21047 35.8715 98.1485124923
43.5958 0.455809 39.5583 29.2444969454
39.0256 11.7772 39.3191 29.2367059991
39.0356 6.91878 38.7005 30.6870118103
40.0187 11.4303 36.7646 39.2619176928
46.9414 9.18824 42.1005 28.3909668822
43.6787 6.91087 36.5105 54.3334376386
42.5856 9.80309 36.1677 86.3726973542
38.7852 4.52562 39.954 27.3367701025
38.5536 7.09824 43.0863 31.5416046146
37.8255 2.28291 43.7818 27.7210621638
41.1358 11.8931 41.3093 28.3604408771
41.0858 2.57223 43.4543 28.5719262591
48.2932 5.27186 41.1378 29.8681987089
47.8567 11.0521 36.5672 38.1484643869
45.164 2.52241 40.0845 29.665549174
38.943 4.36403 42.5681 27.508206539
43.0423 6.33136 42.0503 25.3126415334
43.0112 4.31298 43.8277 27.9537947766
39.1373 9.01955 35.3215 142.63467277
42.0453 4.32864 40.0905 33.077488712
46.2246 3.6454 42.2164 29.0639771686
44.7183 6.89955 39.9713 30.9467750985
45.009 11.3573 36.5063 64.2304210557
41.0803 8.02088 42.2219 28.1373113367
46.0819 5.01829 36.2824 70.6326709178
41.4583 10.1595 43.763 31.6354017962
43.2268 9.15018 39.0194 30.0333994442
46.7606 11.1364 40.4198 27.642481957
49.1056 11.5853 38.9701 29.0112575003
49.1277 8.4828 35.7382 147.5222432132
48.9052 2.46831 35.8526 104.4418142051
48.4137 1.85869 42.5384 27.8962406087
47.4627 7.60093 39.8704 29.1613585593
47.2638 11.2313 44.6359 29.9503428633
39.9854 0.895209 58.6626 32.3975050919
47.2768 11.0691 53.4286 30.7138379852
37.1467 4.83751 57.6203 31.2777449021
42.1507 3.62813 47.7082 28.5123128946
40.4052 1.60177 47.0136 29.6956389575
45.488 1.70314 46.431 29.4514884377
44.8764 3.53911 48.6498 27.6686115645
48.261 1.59815 46.9531 28.5461330844
41.8789 -0.221281 49.2785 28.3694378266
37.8045 5.29968 46.8408 27.8792365183
43.2673 7.73948 47.4923 31.007784646
45.2872 6.02239 47.8512 26.3680209632
48.6809 10.4857 50.1043 26.9356072791
43.7122 9.70697 45.5122 30.3765753428
47.2937 7.38777 48.7344 29.9374520368
38.8236 9.12185 54.4535 30.9749062539
41.437 3.30133 57.2956 29.0810205349
47.9284 3.13603 52.5377 31.6373564274
39.7644 9.93317 46.3192 29.1490434078
47.4631 10.0072 47.7881 29.8058303811
44.7131 11.178 54.5983 29.010962869
45.1343 8.71548 57.6616 33.6449945395
43.1771 0.900369 57.9805 28.8169260558
42.2297 3.84658 54.9085 28.3743450643
39.2049 3.24712 51.6956 27.8680549344
43.768 6.12186 51.1883 28.2735888204
41.2318 4.6955 49.9171 30.9673691146
44.3714 3.53815 51.4249 29.617295044
37.594 5.97336 49.2881 25.0620911166
41.2628 0.20856 44.9546 31.4144859673
37.4237 3.85758 55.2189 31.7133118559
46.2896 6.49766 45.292 31.6610777289
39.65 9.631 48.9012 28.6122167282
39.5988 7.04374 50.4016 31.4591521507
40.8471 11.4286 50.4298 25.9706280383
43.4562 12.3401 52.1962 30.4553322762
44.0303 8.8294 49.9846 28.5939338073
46.9365 8.99541 55.4143 32.3142391058
41.8983 8.85956 58.8511 30.7210774195
40.7885 10.0378 56.1235 28.40530698
41.6428 1.88594 51.3119 28.6469472048
42.074 5.57954 45.9841 28.8790854559
42.2597 9.24979 51.7219 30.0999565926
43.1926 11.6533 48.371 32.8114705515
43.0541 9.14769 55.0699 29.8411956472
43.4276 4.40487 58.9915 31.084076338
46.6851 8.99167 51.4324 31.1409672641
39.7247 5.11657 58.3897 31.9175488337
39.6212 6.71796 45.5355 30.7864245619
46.1632 6.09901 58.2043 27.3164771
