24.3038 26.2091 48.7066 30.9072075111
20.0194 33.8895 54.2457 30.5599817932
20.9843 33.7495 45.6473 28.0137310841
15.9143 25.126 53.7395 29.778858049
15.0014 28.0175 53.7651 31.4292037574
14.4662 27.3991 47.1059 29.5399890074
16.2557 31.4635 44.9154 30.1069246541
19.0983 27.9193 51.3346 32.155038348
18.0019 30.303 49.8708 29.8222997615
21.4134 26.8635 47.5877 33.0392666322
21.7859 28.2596 50.089 31.8630838452
21.8938 32.0333 55.5826 31.35240586
17.7727 34.3941 50.4618 27.013351107
15.2042 27.3153 50.854 32.8675908502
14.4472 30.8215 51.1917 33.8723669243
20.0069 31.1019 47.897 27.0321174463
23.5076 34.3999 55.6963 27.4439086763
18.4283 32.2331 52.0075 30.253202113
22.5561 33.3245 50.6688 31.6747094566
23.4945 33.4821 46.2543 26.9602743515
22.0783 30.8489 49.3471 27.1136268096
15.407 32.0492 55.2083 28.3889189538
13.4181 35.5907 52.1416 30.2364886375
18.7735 35.8787 52.3009 31.7093266692
12.6365 30.4319 44.9725 33.4807781437
20.6783 31.169 44.8182 28.3106362847
12.68 28.2839 55.3761 28.6379782453
22.2223 28.4555 53.1688 30.9536268348
17.0938 28.7387 56.2221 30.9117988184
13.8774 34.2623 44.812 32.8948675756
19.0737 29.1832 53.8805 31.0131282682
24.6238 27.4872 51.333 30.6805432722
17.6595 25.8512 50.7887 30.134301822
23.228 26.5333 55.4929 28.8475977256
23.7848 30.996 47.241 29.1848420036
23.9717 34.8969 48.4654 28.9384091332
16.4195 30.4458 53.1425 26.4999594189
17.131 35.5399 43.9997 30.600238575
13.2479 33.3378 53.9144 27.3903564221
15.0373 34.9553 55.8572 30.7992449496
20.8458 36.0333 48.6257 32.0599813657
15.6944 27.0834 44.428 28.2919524185
19.4946 34.8345 43.3785 30.6853126748
24.1576 30.3909 54.5162 30.6344211916
12.8644 36.7477 46.0711 28.757084426
15.0382 35.6126 47.6513 34.2443125213
21.6437 36.7713 43.5926 30.7575509125
14.0977 25.3793 55.809 30.3246776207
17.9262 33.401 56.1291 32.1969750383
14.9319 40.0119 5.3233 29.7426754458
24.4344 37.8989 15.3052 25.8528773129
16.0526 37.3376 5.20932 32.4520594179
21.2539 37.7614 16.0658 28.5347616693
19.252 40.8263 7.32119 30.4359341839
15.8224 40.2765 17.0003 30.6421471331
14.7052 44.2457 9.64635 37.2409222025
13.7296 47.532 12.4836 29.0232852098
15.9535 41.8996 10.1472 28.511688474
18.1975 37.2644 9.28727 29.0125446592
20.5313 48.9329 3.60986 29.2744498705
20.1071 45.4459 7.08978 29.2388598001
21.5095 48.5358 10.9731 34.0082026973
14.5293 43.0119 7.03664 29.7796220784
15.8596 44.6837 5.14204 27.5953708148
23.646 38.1192 5.25067 27.9095479342
16.1041 47.2924 6.04516 30.8621710053
18.2527 39.2209 13.0937 30.6984200301
17.9622 47.5073 8.3484 32.2291667834
15.9717 38.4852 8.1034 30.6594158553
13.9792 40.4547 11.0849 28.9187180126
23.9053 37.9416 12.382 30.4676346584
18.1207 43.6864 6.33638 29.6389586785
12.4971 39.6892 6.85539 30.1437372345
15.3879 40.6983 14.0851 30.8422845956
23.3308 46.4825 11.402 27.9356856155
17.9098 41.7248 12.1009 29.736907964
16.0537 37.2074 13.2437 28.274396351
19.8024 41.5281 10.1421 30.8260544773
22.3461 40.2432 10.7528 29.1301010783
14.0882 44.7033 12.5455 34.8741969586
16.7505 41.0973 7.83902 25.812502138
14.9089 37.9122 10.595 28.4047264676
13.9162 38.2457 14.9982 28.8750073967
22.8022 38.3262 7.86349 29.5673521559
24.3949 46.9942 4.84349 32.110207622
21.7182 45.9136 15.4609 30.7281565657
20.1356 38.3632 11.0674 30.7523547081
21.2445 42.5717 6.61847 29.8244627383
15.3978 47.1845 9.6885 31.2783291299
16.7393 47.6835 12.031 31.883171865
19.4431 46.7121 10.8881 34.4995562574
13.9261 43.0094 15.0024 27.282193756
23.1411 44.6486 9.46343 28.3465596706
20.2647 39.9591 14.8833 29.8483756995
20.0969 38.2045 7.43678 30.7442355228
23.9456 46.7341 7.72245 29.0547488291
20.0888 42.5601 16.2158 29.5850534899
22.7973 40.4618 13.8393 26.7491977059
21.6094 42.0788 4.07165 26.5203045455
20.3652 46.3572 4.3803 29.977539783
18.9108 43.6783 13.9987 31.4696974834
16.963 46.7356 16.2814 30.7396432592
16.6621 45.3457 13.7383 32.2733742849
20.4443 44.3984 9.58639 29.9277521889
23.3865 42.7815 12.6825 27.5493178822
21.1678 44.7298 12.867 29.7631854624
24.0548 42.617 7.66983 29.8756232764
24.5666 42.0444 3.69554 27.3076411347
18.8363 36.8897 16.8372 28.428706117
13.506 47.9652 5.27489 32.6779534082
22.8872 48.4255 14.987 29.5009169218
21.9907 48.6974 8.24778 33.5638524374
23.7259 44.4025 16.7376 26.6523451888
18.654 42.6047 3.751 32.0143796026
13.5382 43.9986 3.6704 29.6953331681
13.8481 39.8829 21.3939 28.4776235433
13.7947 42.7652 20.5435 32.3743157611
19.2335 39.1209 21.1766 29.4676814045
21.0018 37.1902 20.5388 24.9880714195
21.5927 39.3614 18.3851 28.0132035693
13.3697 40.6071 18.5187 24.7315700295
22.898 41.5878 16.4644 27.8995554603
17.4353 45.9314 20.9117 31.5135565342
16.7902 37.3002 20.6497 28.2129097614
16.2928 42.2852 18.6871 31.1383756757
17.713 38.7757 18.3009 28.6695539392
23.213 43.7389 21.6265 27.7006364066
12.2491 46.4623 21.4938 29.9683772993
24.1322 42.7255 19.4262 27.6157978627
18.9397 41.2122 18.5224 26.9264312447
22.0752 48.0356 21.1703 27.8383731124
13.9999 39.9168 24.1266 57.3772770669
18.9113 48.2183 21.3003 26.3748984191
14.8874 45.1825 24.6344 124.0607256462
11.7601 44.5944 19.6414 29.7735628323
16.0798 41.9804 24.492 89.7866736301
18.9575 41.3777 24.4302 68.4667305648
19.1077 43.159 21.1022 27.8655898546
18.8644 38.7123 24.0031 60.7707818664
24.0446 40.1043 20.3892 28.4770676798
21.4171 41.1696 21.3443 27.5419936644
21.6879 37.7769 24.0249 77.3278633097
16.9266 37.0983 23.3801 32.6469222316
16.3125 43.2455 22.0184 31.1991757284
20.8988 45.533 21.985 27.2137999177
19.7825 44.1324 24.6603 93.2674287398
23.5882 42.911 24.482 84.6325600629
20.5236 44.1601 18.8596 32.712802334
21.7349 40.8812 24.0742 58.174712511
14.1221 37.4992 20.2265 29.0014481056
17.5935 45.8663 23.8878 43.3456429181
14.8752 47.5196 21.2649 29.9049268338
14.9712 47.5175 18.2755 28.5081764737
12.7771 45.525 17.2458 29.5074340107
22.1642 45.758 24.4952 68.7713351009
20.7874 48.1984 18.5679 30.8005025969
23.4184 37.3038 21.8099 28.2152356605
19.5291 46.167 17.1398 31.957278516
13.5285 37.096 17.5646 31.2888213197
14.0988 37.1666 24.1735 61.5273771908
24.7881 46.1283 20.9314 26.8384647038
22.3118 48.44 24.179 55.7355839827
17.6564 48.7273 23.8813 69.2648013299
23.8119 36.6094 18.3457 30.6809638405
15.5197 44.3692 16.8276 32.0959223903
17.2617 42.8093 38.1013 26.9736321204
13.4168 43.3282 40.85 31.2787221726
21.1471 39.4714 42.7773 28.6333625536
16.3852 41.1259 35.7833 81.2834786713
20.8483 40.377 35.603 99.5192107411
18.9513 42.354 41.7137 28.5096202831
18.387 39.124 35.7825 74.8402094573
24.3723 48.8169 40.9582 30.5756554955
22.8677 39.1786 38.7872 28.1787787798
15.2495 37.8503 41.2385 31.8002333263
14.3923 48.1645 39.2617 26.4654645496
23.2428 41.3356 42.1112 28.75714827
13.6593 42.4995 35.9906 48.8542950738
20.0902 42.9452 36.1483 43.6605176157
19.9264 42.6355 39.229 33.8711614112
18.5709 39.3053 41.7078 31.414554411
14.7089 38.8125 36.2622 40.4644144391
15.0084 45.0972 35.7383 83.8710663491
12.5593 45.867 39.5856 32.6666190222
19.2526 47.5909 35.6485 86.3134022213
18.2283 44.9882 35.7226 77.746001906
22.3849 46.9807 35.4824 97.3373118559
22.5935 44.3587 35.8199 84.0295324471
24.2851 44.4187 40.5353 37.0222954381
22.4242 48.4383 42.9618 37.5548566613
22.6998 41.9878 39.2722 31.0814457718
16.528 40.6801 39.801 25.3682438596
16.162 43.4795 41.9152 28.3791193123
17.0892 48.3183 39.5851 30.1786585307
23.0555 38.8315 36.0327 66.0679871376
19.2692 45.9985 43.2647 30.4506789873
13.9401 41.1815 38.5965 31.601443567
16.8461 38.3921 38.3144 25.9404068584
21.622 47.6877 38.1617 32.9916498403
15.2849 44.8631 38.6005 29.3035973094
16.7603 49.0545 36.5525 40.9224278526
17.5479 48.2833 42.6079 29.3255289063
14.3981 36.6474 38.738 26.6312309496
17.7336 45.7163 40.3633 29.6467586015
19.4523 45.8221 38.2341 32.2681090201
24.3548 46.8593 38.8492 30.5613517653
21.4224 37.6096 40.2788 30.4990717896
14.9857 40.4686 42.3089 26.4109656687
14.3348 47.6138 36.4041 41.9949351226
23.5545 44.151 43.5587 30.7721618125
12.0612 38.568 38.1706 26.874021859
16.7501 38.5122 44.2067 32.0569740817
18.7081 38.8227 53.9031 30.7895093495
18.9317 39.9331 45.3577 31.8981254884
21.5101 45.5892 51.8041 31.1469157389
22.3832 37.1441 46.3529 30.7547310912
16.1284 36.9832 50.129 32.2519458815
14.4278 37.928 53.0945 27.9856015895
13.1801 46.0792 49.1623 27.9900915092
19.293 46.8692 47.4206 30.4122914515
17.2062 43.4154 52.2321 28.259352568
17.3867 44.8729 47.0182 27.136685325
14.9559 43.8818 54.0928 29.427089808
13.4323 44.446 46.0783 31.2613662061
19.3741 42.4838 49.7819 28.14258308
22.859 45.9564 45.6868 29.9664892703
14.7659 48.0416 43.3928 31.2997276605
13.9024 39.7457 55.5888 28.6111594986
24.7087 47.8133 44.6018 27.9941344794
14.1865 48.2988 55.4747 29.5098742399
21.8705 39.5767 45.731 32.9612853977
21.0703 42.9783 47.7637 31.6215844409
23.7976 46.5254 48.1776 25.8733800671
19.0739 42.8816 45.6195 27.8512471573
14.9682 39.6671 51.0514 29.5024347372
23.6109 39.7119 49.712 32.6089156256
18.3813 40.2637 48.0935 30.8961037627
18.6816 37.7709 49.3398 33.297594898
20.5855 37.3102 55.6066 30.0321762363
23.9274 41.6746 44.9378 30.752950235
16.4396 47.0709 49.783 29.4564864864
21.1912 41.2433 51.4714 31.1917614818
14.9125 46.4811 46.9594 29.4225477166
16.3818 43.4986 49.3079 27.774642617
23.9628 41.6616 47.5305 28.615816359
19.4089 44.5178 53.7267 28.5499307692
16.738 45.2735 44.0991 30.2827700299
20.421 47.5233 44.963 25.4720560675
20.0251 48.9697 53.7444 30.8441456458
18.721 45.5717 50.4673 28.6879507731
14.5734 46.5537 51.951 31.2158878488
16.3476 37.7163 55.0342 32.3036013509
16.0589 46.5841 54.4455 27.2338848912
14.1414 39.084 45.1266 30.7261486394
20.1457 38.7052 51.6193 30.1913549376
13.4773 43.2238 50.0576 28.5769184823
16.061 42.0427 44.6472 30.2793173462
15.9281 40.7483 48.6732 30.8920082975
17.3237 48.5273 52.8529 31.751295102
24.1693 41.8454 51.7914 32.8339784787
16.9789 40.7946 52.9926 30.710882337
20.7883 42.4058 54.0692 29.7703577918
22.6092 49.1646 49.5356 27.6712349098
22.2399 39.2257 56.17 32.0120768679
18.3179 45.3781 56.0561 26.7224658414
12.4641 40.6108 50.6594 30.949230925
23.2781 44.1229 53.7976 28.9589988728
16.2612 41.5618 55.5497 30.0282935202
14.2759 41.4783 46.5299 30.0070443978
24.1086 37.6892 51.4234 31.7068118288
22.25 48.1571 52.0944 30.3589229072
24.2963 38.292 54.1208 27.3326686694
21.3844 45.3877 48.7996 27.62158723
22.4701 44.7229 56.3798 31.7718704107
20.4782 43.5528 43.5142 30.7543557773
12.0369 44.9028 43.4204 31.4337603872
26.6371 2.74616 8.10419 28.8575310131
26.8484 4.62159 4.51916 29.4743326837
29.3511 2.49365 7.50768 30.3881746875
29.4656 3.84576 15.847 29.7856842975
34.473 5.02462 5.92737 30.1053329185
32.7059 2.86273 6.50451 31.4996300172
36.8712 0.380499 12.7299 29.2886121891
25.359 6.99612 14.1989 27.6647132884
30.835 7.59379 7.35293 27.3059014373
28.505 11.6087 13.5122 29.8609374686
30.4944 4.70904 5.56588 30.188301678
24.939 3.39845 16.3337 28.7738854235
33.0292 11.0358 8.44773 30.8599478963
31.4123 6.41651 9.31402 27.9391910424
36.0316 4.453 10.1961 30.013647631
32.9009 7.50861 5.82911 28.5315133038
34.0281 5.87677 8.75273 31.4017980586
33.4346 1.12275 8.77351 28.8145956095
25.9672 7.35888 16.7093 29.7405196272
33.9886 2.36979 11.1797 31.3439742284
28.0175 0.987225 16.1911 30.0608297737
26.5489 0.888344 4.59061 27.8066183894
33.6469 10.1072 5.79348 28.2865767693
28.8371 2.69029 4.26793 26.5870816728
27.6725 4.98507 11.2995 30.9757795543
35.4961 0.0013612 7.63724 27.9620904353
31.7449 3.74811 11.9525 36.4810957154
26.9974 4.34055 14.5522 26.7756859774
25.3529 1.06284 14.6171 29.727581644
36.5369 4.78872 12.8343 29.3738228898
35.7108 12.22 11.3288 31.4718529902
29.7335 4.46024 10.0242 33.4598117658
25.8652 1.26012 10.1777 27.6353870838
26.4159 7.43055 7.44103 31.1900101007
34.3247 5.47841 14.3288 30.7601629853
31.7576 8.41096 11.3799 29.6002954983
25.7972 5.34824 9.17471 37.7999006668
35.4137 8.15941 12.9976 31.0593669129
29.512 10.0515 7.70135 31.9637542216
35.5481 10.5694 14.6986 28.944611327
31.3441 11.5912 12.8248 30.8340716379
30.7975 11.288 10.0664 27.2048102773
34.8498 8.36783 8.37862 28.9587617727
34.1779 9.76118 10.7894 27.805664318
28.492 11.753 16.1852 29.4625064693
28.4559 7.01583 5.6897 32.5232044484
27.441 2.14135 12.4705 28.2020686683
29.8739 1.4066 13.8868 27.3059997239
32.9584 0.449772 15.4407 33.8800173235
32.7982 0.975662 4.42709 30.4571464414
28.8209 9.26646 11.4649 30.8581077028
32.3819 3.26285 14.8245 30.8125236793
34.0173 0.00883391 12.9382 29.2650375434
28.0444 7.19012 13.1217 31.9819563091
27.2567 9.55992 9.21364 35.4729254616
25.9067 12.0998 12.4785 31.2506271125
32.172 7.32201 13.9266 29.2280706104
29.9258 6.46777 14.98 29.868861779
32.6968 9.83362 14.7577 32.4160794756
26.1844 12.0993 9.58341 31.7034184937
36.202 10.5095 5.21037 33.0277256044
24.95 2.92181 5.89198 28.5326734214
29.0092 12.2504 5.8392 39.8284022253
28.8653 2.5877 20.6627 31.7957069764
35.0444 6.63212 19.6789 31.171538425
34.4528 3.38516 22.023 27.5477917803
36.2806 5.23326 23.7737 44.2271788837
27.1387 2.72846 18.2954 28.247776377
27.08 4.13929 22.396 32.7283436376
35.7666 2.36344 18.4812 30.8533613655
29.6821 6.18561 19.5782 29.0807540602
25.3522 4.0597 24.6341 99.7116807148
31.5684 3.84651 19.3786 34.8955735623
30.8475 7.76066 21.7106 26.7188222032
32.4021 9.87772 21.8199 30.5445263566
29.9851 7.78241 17.4388 32.5291258663
32.9179 5.82752 21.4231 28.8382181615
27.9359 8.63887 20.422 31.5382139322
27.4241 9.64753 17.5966 30.5913983355
24.9238 7.19229 24.5137 95.5885401121
33.8817 9.45121 19.6557 32.1302122664
27.0165 10.9573 21.6349 28.2387787392
26.274 11.4723 24.2556 89.2271291981
27.5888 5.26405 17.7622 27.619530543
36.2679 10.6898 19.2642 34.6162900575
31.8151 1.82465 21.3598 30.5824312535
30.9192 2.10092 24.0552 50.8409486233
33.7449 2.6425 24.4701 104.8475553021
24.545 0.895384 24.5596 78.8569739104
34.3424 0.0793634 23.9296 35.6423733393
29.2111 4.2957 24.2014 81.8780581723
30.4784 6.65248 24.1275 71.761171355
33.1792 9.19343 24.3246 79.9545499121
33.5501 6.30154 23.9856 64.1830433502
26.2674 6.40464 21.1531 34.1456813936
30.1587 11.595 21.8975 30.5459116261
27.1227 8.69571 24.0322 56.5719433145
29.9455 9.77007 24.2719 71.7874957144
35.4575 10.6383 24.3747 92.0918336482
33.7923 3.99783 17.5232 33.0584512118
32.1115 9.59223 17.7697 35.3093418818
36.2442 1.52727 21.4155 29.9259471572
24.9539 1.47958 19.6096 29.8142203508
35.2581 6.29055 17.0459 32.2938432166
30.9807 12.2224 17.2727 33.3285921072
30.9828 10.2051 39.2065 27.4650479672
31.6359 1.67986 42.5915 32.6543641112
26.7423 6.10478 41.5889 29.6280581953
25.2023 3.85769 42.0831 30.0108212299
29.6111 0.666437 35.8619 69.8998736141
30.0039 3.50231 38.4234 26.1229539988
29.7528 3.55514 35.7757 86.1028981623
35.3479 11.6903 38.4251 28.9541165656
33.0233 1.11102 39.0646 28.7798227176
33.7027 1.63977 36.2673 45.0970395583
33.8608 3.77647 42.531 30.0998579945
36.4958 1.53953 35.7204 80.1913577602
27.4155 5.22541 35.6957 92.9586140522
27.422 4.87771 38.8326 25.2708857652
27.415 7.70865 36.6996 30.0585101683
35.0155 5.7832 36.083 63.8029140578
32.6765 4.18014 36.0283 80.5964182434
33.5444 6.00099 38.8619 27.655699405
25.84 11.6244 38.7754 29.9485138612
25.0187 8.55002 35.5409 94.201841303
29.6574 0.865269 38.7609 29.3890361124
34.6076 8.49748 41.1526 25.6711294423
29.4706 9.46179 35.6734 104.1255645785
34.7258 8.55805 35.7703 79.3780710996
35.5144 8.96343 38.7589 29.2915047081
32.3311 10.2185 35.8929 67.8328491103
32.5028 12.4883 38.2786 29.550557171
36.6759 4.80003 38.5183 30.9610981284
31.8984 8.98508 41.6392 30.2683274565
29.0908 2.60678 41.6851 29.7338441999
36.3074 2.29288 41.9567 32.590452914
26.7348 2.23793 39.5049 31.181658408
36.5028 10.0483 42.4455 25.8168426606
25.7499 8.27079 39.507 26.6865807494
35.5411 6.08162 41.4533 29.90478225
30.9382 6.0079 41.1941 32.5120045818
31.7183 7.9125 37.8625 33.5130686781
28.3218 9.41358 40.0743 28.5413338909
29.2445 6.94686 39.4261 26.0985400317
25.4525 11.4348 36.1238 39.4442613414
32.3006 3.74118 39.8037 26.5322217121
35.3572 0.201532 40.1075 30.3579756111
28.5098 11.9154 38.379 26.9178748231
27.0139 10.4713 42.4706 31.8390462287
24.631 4.82768 35.8371 72.5220525265
26.4903 1.10991 42.5404 27.0428562166
29.1131 4.89822 43.2836 27.7671755668
36.7573 6.09009 55.3853 29.6518028028
25.351 10.1545 47.9382 32.8879977044
34.9673 4.86938 46.3973 30.1426532383
29.7731 3.70911 47.8173 33.508785087
26.0931 0.576496 54.94 29.8848721957
35.9423 9.95842 52.6253 29.7068459388
34.919 6.47242 44.2606 29.9425820056
35.415 10.9811 50.169 29.4871059274
27.3024 2.73759 44.7803 29.8366053091
25.6673 4.40846 46.2875 27.5890333268
31.6943 4.03264 49.8609 36.2806345887
30.7927 4.6824 45.3785 30.9417146802
33.479 5.75514 48.6426 28.4629105474
26.2441 11.9221 52.0759 30.081015526
29.9779 12.2896 53.0503 29.1763441354
29.9655 9.57273 53.1826 29.3546429276
25.5898 4.90676 55.1251 28.2751213623
33.2915 6.52952 53.1671 31.462980017
28.8513 8.5767 46.1207 35.1238201469
27.1879 6.64171 44.8205 31.0638549673
31.296 9.54006 50.2963 31.0531022599
34.6261 11.827 54.4133 28.7101323734
25.4652 8.15368 55.8787 28.9121345663
34.5784 0.0482773 45.4785 30.971913999
33.0793 8.51666 44.6092 31.3374246777
35.7409 9.49993 47.6365 31.3618012769
31.4332 7.13248 46.3306 33.3537384994
32.6648 11.1985 56.3932 32.6360292513
31.9914 0.982428 50.0965 40.4345418792
34.2374 2.48079 51.2406 32.8261840346
29.0482 1.33351 46.3781 31.3687670714
26.6274 2.39496 50.8556 37.51011262
27.4595 4.63171 49.1048 32.3130645478
28.0712 6.74945 50.6659 32.6257608231
24.7952 7.73833 50.6604 27.941882585
33.2924 8.49418 48.5407 33.1532332386
34.9829 5.22242 50.7232 32.600154608
32.0098 6.3117 56.3689 27.6295512007
27.3085 9.49549 51.992 27.7105324795
29.2094 10.6442 44.3146 32.4288601245
30.8125 6.59216 51.651 31.9825814651
29.3416 11.0988 49.461 30.405780699
27.5544 8.9738 48.5831 29.2958805938
25.2655 8.3264 43.5136 30.2042188061
32.891 11.7611 49.2648 31.6541143544
31.5167 0.388121 45.4118 29.6313715411
32.4738 8.94571 54.7218 34.9749264865
31.3896 1.74998 54.9664 33.9312383858
34.0101 2.61839 54.0285 31.094129844
26.0732 7.27472 53.1753 29.1105165378
26.7883 2.83147 53.4577 31.0060160848
33.3232 2.87101 45.2356 31.469207246
29.8704 5.98623 54.3776 30.0443904773
29.1035 3.47947 54.6039 31.871459836
35.0525 10.5264 44.7889 31.6339238728
34.0417 4.846 55.5008 29.2346714041
28.5078 8.02338 55.6113 39.6298203731
36.4434 0.886462 50.4175 34.2333856703
31.756 11.096 43.2881 30.5410822042
36.1536 7.08041 52.8084 34.2136296155
35.1879 0.789502 55.4077 29.0638157056
32.5426 12.0473 52.2688 29.9357102365
27.7649 16.1762 7.22658 28.6515191575
28.2121 19.634 8.5529 33.4765906122
30.5275 16.7615 6.40923 28.9484850728
33.9304 13.8189 7.77343 29.593192189
26.5003 16.8346 12.6601 31.573639826
27.6744 19.2678 5.70094 30.8498552975
31.033 24.2544 6.45166 26.7544888979
35.4836 17.7229 4.19705 30.1990812172
36.4298 13.4858 9.00464 29.7563786225
30.6911 14.3141 4.96764 28.3101573394
27.7716 22.6244 8.75182 38.1137710808
25.3007 24.0681 13.7118 27.7245243809
26.4948 13.1439 5.02158 33.7043428305
28.1136 16.7898 16.4529 28.1979167781
24.7797 23.7045 4.89247 30.4873043608
34.5355 16.8452 8.00262 33.3390818617
35.196 21.1432 15.1011 30.8439793183
25.5547 20.5572 13.2232 29.5642614366
28.2082 13.6125 8.26051 29.1539215777
34.2894 20.4321 10.6355 29.1295707482
32.3361 17.4114 15.6719 31.6548685534
34.0418 22.2855 4.79452 26.6038453604
36.9544 17.344 14.8273 28.833126924
29.8775 13.9013 10.5386 30.1026480915
31.3967 14.9772 8.42409 30.3052608151
32.8231 18.3416 5.50865 28.515933318
34.8256 14.391 12.5303 37.4272173123
28.8228 21.1757 13.4778 31.2297929041
34.4642 20.6892 6.67342 29.6529028913
30.8483 19.1959 9.71657 34.3180615914
32.172 16.8521 10.7194 29.8126994811
31.2966 20.0045 12.5974 31.3115060074
31.0527 22.1024 4.48332 28.0740928569
30.7097 19.9689 6.75924 28.0736306079
32.5179 21.4231 8.53888 28.8757983043
32.4072 23.9709 9.09248 31.2052070487
26.3136 15.9076 4.77749 28.8912423221
27.3065 22.7931 11.6225 30.819294601
33.6679 13.8015 4.8809 28.7975436192
36.4494 12.9603 3.98944 32.4656106279
36.1456 15.6617 5.87002 31.1854825865
33.3867 21.7688 12.9158 26.6071499301
27.9265 18.5195 14.2481 28.3175518848
28.5268 14.3555 13.1234 29.1669714116
36.5934 18.0758 9.63974 27.58575938
32.1902 23.9096 13.6344 26.8858290874
30.5369 17.5872 13.6247 29.6983785228
34.6516 13.2815 15.2446 34.3480586182
25.5529 21.048 4.77546 27.3389497458
27.0077 14.0877 16.5418 29.5306601374
31.8961 14.5172 12.9156 29.8009763963
26.5771 17.2457 9.4707 35.4376475671
29.9332 22.8559 15.0766 29.0425493212
30.0216 14.8482 15.3601 27.4752786961
34.5325 18.4827 14.3945 30.4533594708
34.2878 17.8718 11.7806 28.1512886589
25.6301 20.3261 16.0289 30.1160436454
24.8014 14.5937 12.8467 31.3710786304
24.9645 23.0467 9.18506 27.1828559395
33.9136 23.629 16.3724 33.6369251095
35.3504 24.0658 12.404 30.0707552582
28.7791 24.5756 3.84277 28.2577431866
26.3559 23.4476 17.4951 31.9147453659
27.8869 13.5738 23.8202 43.2233661612
27.7843 13.8125 20.5521 32.5543862172
34.2493 15.3751 19.0995 32.834417152
30.575 13.5337 19.779 34.748748714
36.3176 21.1353 23.856 64.3358576089
36.7517 16.6967 18.6188 30.5342273971
26.5415 23.7175 21.503 31.9998267249
28.83 18.1378 21.0155 29.0780250922
31.5026 19.3992 17.6679 34.5884102161
25.4541 17.5452 16.8347 32.0817941274
35.6702 18.6498 20.6592 32.854254745
26.05 12.3029 18.6888 28.4360487819
28.0832 20.7684 21.2513 28.8526249053
35.5831 22.6094 21.6657 26.878940675
31.6884 22.2801 17.2042 30.9060714605
30.6136 13.0624 24.6109 123.1851780609
33.0458 19.6447 19.9211 33.5040638493
33.7114 23.7872 19.8874 30.7147311389
26.895 15.9909 23.9506 45.2073232047
28.8695 18.4517 18.3418 32.1509970158
32.8505 14.4607 23.663 44.4592761886
32.1816 15.2003 20.799 32.2923481733
27.8539 21.2005 17.9056 32.2234618837
35.37 13.1793 23.0227 35.5478040033
28.8344 17.8441 24.3062 90.0372064647
26.5537 16.2196 21.283 33.6510833014
27.5857 20.1119 24.0078 45.3359514202
31.4419 17.7943 21.1445 30.4528466369
31.5703 18.7378 23.9271 50.0164179269
33.5328 17.1412 24.6667 131.5475123599
32.8035 14.8097 16.7205 31.2716954171
35.7435 18.2946 23.6925 50.470207503
28.945 22.3196 24.3657 106.0068785747
29.9927 22.4592 19.5375 29.2748295289
31.9895 21.8734 21.2069 29.0617594892
31.6101 21.551 23.7463 46.886982056
33.7846 23.0828 24.1164 91.8156077483
25.207 20.9388 21.7083 30.3312276533
35.73 13.2807 20.2995 33.3956760204
37.0193 21.2721 17.5601 34.0166932153
33.5574 22.6812 38.4983 28.5677516785
24.9557 14.1634 42.5385 31.4914732464
34.7865 18.7815 35.4858 76.6302061825
34.2988 19.4107 38.2502 32.4369933301
30.2459 19.9551 41.6894 30.2667413371
34.5329 12.5454 35.8605 60.1565348866
31.2959 13.6703 36.0271 56.6514046262
34.9988 15.4192 35.9368 58.374294835
34.2055 15.3792 40.8302 28.3732232642
27.9908 22.6971 42.0294 31.8100488616
29.0517 18.8965 35.6557 83.1240797266
26.4061 16.9679 36.3673 43.7675572806
32.7061 17.1117 38.8217 29.0961377605
29.4306 15.909 35.7196 78.6579131397
24.811 14.0765 39.6095 31.4672687178
35.9867 21.606 42.0113 35.472617118
32.4723 16.5243 36.0176 53.1279955747
26.7109 20.7649 35.7577 76.2756843376
27.6608 13.4569 43.0064 29.6014943174
29.2963 22.7063 36.1499 56.2400044453
27.8205 19.8729 38.2386 26.7142856549
26.0306 13.9667 35.6546 85.7046150482
25.2807 23.5939 38.5906 29.1269789816
34.5909 12.3142 41.2013 29.9248775467
31.8551 19.6677 35.9105 66.6924647604
26.0167 23.3452 36.0061 45.3836526329
27.6513 22.4092 39.0718 27.4939530712
29.1151 13.7662 40.3488 30.0422810849
34.9606 21.449 35.5307 78.6671965188
29.3501 15.9446 38.7339 31.2859649242
28.933 12.2449 35.8525 64.9236364537
33.4561 23.1742 41.6802 30.6556093243
26.4778 16.3498 39.1283 31.8497717854
30.3749 18.5053 39.3963 27.7337838335
30.9783 22.3932 40.7389 26.6860707024
25.8141 18.7111 40.1416 29.0101518871
27.7966 18.6123 42.1284 29.5571926422
33.927 24.206 35.6698 79.8282314887
33.101 17.6576 42.0732 33.3253524759
30.8335 21.2191 38.125 26.3874695666
31.2949 15.6744 42.9128 31.1626029263
31.6153 13.3499 41.2276 28.0389898126
36.0667 15.4716 38.672 32.6001063198
36.2005 15.5168 43.1884 28.319344041
36.6626 22.9398 38.1428 27.1477838997
26.4714 20.7549 43.4744 32.333523551
29.8345 23.3894 46.0798 31.2411270673
35.6953 14.741 45.96 28.9806258592
33.1838 23.4024 44.9945 27.3273202479
33.6764 14.4275 49.0594 31.4633593882
25.6218 23.9985 49.8149 27.3893142035
34.4502 17.9399 50.9133 29.8977970462
31.8678 14.5579 45.493 27.949647828
26.5105 23.2557 47.0105 33.4144273079
28.1892 17.1874 48.1848 25.9020782104
29.8772 16.8089 45.9742 29.46585728
33.6352 16.5907 46.3116 28.6706859048
35.9426 19.2297 54.7345 30.2730429986
28.8968 12.9072 45.8322 30.5606493956
28.4481 16.2785 43.5385 30.3437630334
33.5737 23.6079 54.2579 29.0939536905
26.0365 12.9991 54.7561 33.0681198002
27.1007 21.8998 52.6852 30.4044749907
31.2395 21.9028 54.0935 31.7320948059
33.8883 13.1377 44.0797 28.8105473318
32.1427 20.7908 44.0572 30.220760416
30.6714 19.5618 45.8666 32.1259643941
25.8351 20.9188 49.9657 26.1060670254
26.9961 14.7995 48.9999 28.3024943608
28.1634 18.1815 54.2825 29.6548235607
36.6858 13.3476 51.4926 29.1360319209
30.4451 15.8265 49.3047 27.5943388417
32.6516 17.5706 48.5878 29.3972641941
30.6726 15.6208 52.2433 28.879708639
28.9278 21.0244 49.4773 30.5378463493
25.7555 16.5564 46.4811 25.8725955696
28.281 20.9924 46.9608 26.680209794
26.0375 19.3606 46.8772 28.3097689072
29.6405 18.1984 51.8516 29.1048506977
26.3753 13.7358 46.5366 30.044445417
35.6933 18.5001 45.9771 27.0410145092
34.394 21.1912 50.6245 30.1585319919
32.572 20.3038 47.7937 28.5766580552
28.3425 14.9748 53.8581 27.609682165
33.68 18.0922 53.4805 27.4358775766
24.2829 23.2751 45.0232 31.8211692331
31.7374 21.9347 49.798 25.2824979466
36.6491 23.5659 49.1887 28.5678825462
35.4371 20.614 47.6637 29.8189353419
31.3013 13.8639 55.1486 29.1299172563
27.5701 18.6597 50.3448 25.3816090737
25.7082 19.4845 53.4366 28.3034865291
36.9599 14.4737 48.9933 29.3239947792
30.3947 23.5148 43.3845 26.9807592729
27.47 22.1943 55.8262 33.9449716105
35.5462 14.4694 54.068 29.8526612423
24.9499 15.6482 50.4065 29.0766840346
31.872 19.9059 52.1137 29.1075749637
31.733 18.9451 55.7774 32.8631853297
34.5668 23.9169 51.2294 31.9861619574
35.961 23.1781 46.2622 29.6918273121
33.4193 15.123 52.0163 28.0718129964
25.9068 16.704 52.8421 28.3003696849
33.3023 15.8934 55.385 28.9025111485
29.5974 23.0616 51.859 27.1104065837
32.5747 24.0091 47.412 28.4567587125
28.5 16.022 56.3886 29.7447636839
36.4085 23.9209 53.6106 31.8689319668
28.2397 13.1935 50.912 27.1377490532
30.543 13.4049 47.8893 29.1945912173
34.9071 19.2148 43.4956 30.1026001279
35.7761 21.772 55.6966 29.087906146
29.3265 19.9533 56.2983 26.0493916249
25.4293 16.7909 43.7441 30.3057363031
36.3926 31.1935 13.9568 27.227258954
25.7555 29.7203 11.7519 29.1146021333
27.624 34.2518 4.63802 32.2658486679
35.3986 28.4942 4.14653 31.6224177747
34.9146 25.0058 9.71634 29.2943291776
30.7007 27.1097 5.69518 26.5616183785
28.2231 25.3973 12.1497 29.9068360125
26.5653 29.0418 5.86263 28.1418757952
29.2058 28.8056 7.2212 28.184007341
33.6181 30.5438 7.69764 29.2516374274
35.5321 31.1308 5.97126 28.0506972727
25.3571 36.0472 3.8496 26.8861368599
25.9389 31.4282 7.2586 31.5909865779
30.2537 33.7758 8.2424 30.0298089195
36.1968 24.7645 4.32167 28.4442238631
32.4415 34.3667 6.9597 32.233823397
36.4992 33.6929 12.5282 28.293102159
24.917 25.3965 11.1553 25.4541523038
29.0031 27.1023 9.3844 31.5639884836
31.9043 32.0411 4.9092 31.7283466978
31.5231 30.3998 11.2108 27.2800559084
31.5582 27.9697 10.2895 27.8051320076
30.6678 30.1947 13.9661 29.2620936381
33.2536 27.8169 6.31901 31.9472370192
35.6597 28.7341 11.157 29.680603193
34.0706 27.472 9.2161 31.1375987122
27.0252 30.3545 14.3673 29.1829036979
29.5035 30.4711 4.58504 29.6645519296
27.4453 27.6053 14.3604 28.1627926866
29.2444 35.5037 10.7864 29.7196200877
28.477 32.3542 6.40468 28.6025765134
30.9175 30.8964 8.4837 27.8103785305
27.4027 31.6209 10.2164 32.7864190742
29.5561 32.5519 11.2381 27.9215933061
28.8299 33.8914 16.6128 29.7462100647
26.3944 27.4032 10.3704 27.8488666585
32.8046 35.6777 13.9134 32.1975246457
33.8701 24.9869 6.23053 28.6559145846
31.9681 35.9473 11.1962 29.0946367833
28.462 24.9553 7.05553 30.8201834755
33.8892 34.9068 9.50815 33.9469706457
33.635 32.1568 10.3066 28.0261839169
36.6326 33.514 5.00065 30.4164457266
24.9736 30.8203 15.9145 30.9951187788
32.2732 27.2665 13.0394 28.6839285371
35.2389 36.0818 14.7351 31.0455540765
34.4289 25.7706 14.3749 27.3829353403
36.2423 31.1433 10.4708 28.1194548912
26.6254 25.9294 5.04526 28.7725013125
24.9985 33.6764 15.095 28.0470882812
30.9898 35.4898 16.2809 32.8583293933
33.0825 31.1883 14.9367 28.8636653921
28.9409 32.5547 14.084 30.6472811477
34.4397 29.101 13.5463 26.4602584597
33.6202 33.2726 13.0524 29.9517096135
28.3335 36.7926 5.8115 28.6418719623
30.1648 27.772 15.2269 30.505906107
25.2482 33.4433 10.5781 28.410805749
26.8653 34.1027 13.0306 30.3418999977
31.0469 25.0881 11.4728 31.3694627477
27.9294 24.4316 15.1606 30.3708888458
35.9519 27.7942 15.6378 31.6824745267
36.6813 35.8744 10.2973 32.2966802481
25.0184 33.6656 6.18248 33.043061194
25.443 27.237 7.79038 26.3788572396
25.292 35.0586 8.54759 29.067859291
33.353 26.1076 20.4289 27.8229960024
33.4829 25.6645 23.1509 33.2038075629
29.4588 35.8007 21.4233 27.8634713985
34.4443 30.0663 18.39 29.0924660692
27.3474 36.4311 19.9703 26.5644032513
25.9417 26.8953 24.574 97.2703586271
30.8311 33.1463 21.0127 26.4343806615
28.9918 32.2566 18.8619 31.3484543137
26.9634 29.6887 17.8253 27.9191273097
26.2688 31.6753 24.2302 64.3735792298
32.5978 34.3241 18.4949 29.1678591351
36.3936 35.7592 19.1214 29.4996154718
33.0371 34.5105 21.4813 26.7622297845
26.0328 33.9193 20.326 30.1748290146
27.1221 27.3863 21.4478 28.3903819421
27.8692 36.0126 23.7345 37.6759091729
27.2473 25.4865 19.1874 28.6081015458
28.0609 24.9842 23.8076 49.3223625252
29.8909 27.5182 21.5644 29.3191918293
29.9457 29.5241 17.4536 30.6791237357
35.1135 34.3187 16.9314 31.426962338
30.9599 26.4533 24.1305 88.4982553088
35.8534 26.6116 24.4495 110.3519206196
27.5467 29.1743 24.2648 63.9132398984
25.8074 34.4306 24.6739 114.1284037407
29.6293 32.0076 23.5812 42.1124603357
32.2212 30.6317 22.0498 29.3793135395
30.4513 29.3202 24.3588 82.1242048643
33.5571 30.4855 24.4009 87.0428626832
34.9509 30.8936 20.8854 32.2545406682
29.9328 25.5036 19.6173 31.4667606114
34.3007 27.3232 17.9947 28.0576946229
27.5683 32.0652 21.5726 28.4044469972
26.5729 27.2153 17.0893 33.5118033255
30.831 34.7754 24.2745 92.9836609205
33.6044 33.2381 24.4055 90.7218610943
36.2023 33.5944 21.2375 31.7234529471
31.553 28.7549 19.8856 29.0585336439
32.1448 31.6324 17.5044 30.3062974315
26.3161 29.8557 20.2433 30.5156526733
35.7421 34.7265 23.7042 37.0262299015
35.9495 29.3173 23.6909 33.6872129928
35.9458 31.5727 16.635 29.3662843334
26.2108 34.7768 17.3863 28.933978008
36.4428 26.1824 19.4982 30.6107546887
31.5035 26.5439 17.6377 32.58247698
26.264 30.0993 40.6402 34.9448080885
26.8972 30.3335 35.6233 107.8891290311
29.3741 36.0321 40.0365 30.9050562761
27.8472 27.9281 36.4799 35.0697128949
32.5533 29.9963 38.7936 31.1264205619
25.1457 26.2033 38.96 28.3775841492
33.9071 35.9424 36.4959 50.7169664135
36.8084 32.2699 38.5342 28.2304679216
29.6715 31.1895 39.901 34.3623955049
30.6376 28.1335 35.5644 90.8970344118
27.1024 25.662 41.6364 29.0164292289
28.1837 25.3168 35.6248 87.0374576708
32.5412 29.7814 35.935 50.5189746536
30.922 29.8786 41.6915 28.118769063
35.239 29.0484 35.9439 64.8237820556
31.3547 25.4806 35.6281 78.7852793514
29.2187 32.2304 36.0699 59.6525364754
29.4801 35.2187 42.9403 30.9409869531
35.078 33.0235 35.7497 77.3013922027
31.4125 35.1264 36.5001 40.1373605917
32.1671 32.4921 35.6161 90.8241396579
28.8333 25.2031 38.6025 28.7457792632
36.048 34.3499 41.4924 26.3973069802
33.9643 25.7139 43.349 27.8171583841
35.8301 30.313 40.4769 28.1427201126
26.297 34.2266 40.8809 33.259122864
30.6821 27.2687 40.8486 30.0714001893
27.2199 36.0896 38.1655 29.7048325601
34.9431 28.425 38.8371 29.6665283602
33.669 34.5824 40.0714 27.4825641761
28.4809 32.6569 42.0866 27.3634322259
28.0682 34.8721 35.9357 71.6044546769
33.9004 30.1779 42.2525 29.7384898673
33.4154 26.3531 40.3619 30.2526170714
33.4616 32.9385 43.0021 29.3129617031
30.0167 26.2856 43.1232 28.6975225019
35.8443 26.3929 35.9501 56.4497271343
27.6538 27.6543 39.5109 28.9551579564
35.5791 25.444 38.487 27.1192135924
33.4891 32.552 38.3459 27.0919280581
30.5837 33.6234 38.7556 30.4089710658
24.7203 31.2939 43.1155 30.1080623237
32.2558 35.7159 42.619 27.3571155707
26.8388 28.0678 42.9685 28.0643474387
25.1157 34.37 35.3878 121.6140122374
31.6287 24.9146 38.508 29.5417293161
26.0415 29.6771 48.28 32.0457474649
35.8643 26.1032 47.0531 33.5540546194
26.972 31.9728 44.8416 32.785896764
32.3986 27.1546 44.7767 28.1048401045
35.3611 35.3675 44.3022 29.5634936985
27.0256 30.5278 54.3134 30.2498381127
27.8342 25.2119 51.1761 29.1615510119
30.5032 32.509 44.1625 31.4206109823
25.1291 34.5764 44.2927 31.1409782611
30.9484 34.5993 53.4216 30.2463982636
27.8648 31.8111 47.6683 29.8595855788
32.5205 31.9343 47.2688 29.2314757239
29.6769 25.4976 54.1749 26.9843979053
35.3523 35.6403 53.1746 26.3706037489
31.8297 24.6935 50.4644 27.0789675384
31.9003 34.3311 56.0647 29.661674463
36.2594 26.8831 44.447 27.7512000717
27.3015 36.7034 44.2918 30.6352216447
30.9806 34.3812 46.3062 31.340021078
36.7879 29.5833 48.4605 32.7503193407
32.8838 36.0842 45.2038 26.2646358081
34.1962 30.8445 56.0451 29.4515323762
25.8813 27.2036 46.8156 32.0496672171
24.7801 25.7286 53.6224 33.5318547445
28.4252 25.6529 46.7367 29.8125006539
29.6644 28.1819 45.6613 30.5231131647
28.7904 29.7867 43.6704 26.8555653337
30.7094 27.4347 55.8053 26.4119597746
36.4333 28.5911 52.856 32.8610542781
30.2557 28.7084 49.8667 29.4771626174
30.2232 30.2105 47.488 31.151612298
29.031 32.2169 50.606 33.4422960761
32.7736 28.2182 49.6978 30.1640421503
34.4134 30.6908 48.9316 29.8006188527
36.0986 32.0444 54.3859 30.6099416989
26.7038 34.0967 49.0949 28.6979138912
28.4062 35.6103 46.9725 31.8347343124
32.724 36.4929 52.6616 30.7234578317
34.6319 36.0885 47.7467 30.261714374
32.8723 34.2801 49.0757 32.3360789869
27.4417 26.9325 53.3912 26.8574593615
27.9084 34.8487 53.8772 30.3374237055
29.4148 26.1211 49.2451 31.9405372735
29.1723 32.4884 55.0816 27.9470923574
25.518 32.9649 53.79 33.3405949656
33.5498 28.3306 52.2822 29.3695222691
28.1918 35.4041 51.0619 33.8549871588
28.5107 29.2227 51.96 27.8494293548
25.9394 29.9432 50.9648 28.1805175065
30.4582 30.8587 53.2169 29.9966465296
31.6873 32.7832 51.3473 29.7451469222
35.3544 33.8509 50.9313 30.3552680155
34.7854 34.5117 55.8521 27.9192531652
34.2696 31.4392 51.7572 30.1608325646
34.5363 32.008 45.3505 28.2390670225
34.42 29.0388 44.4851 29.8235458546
25.1045 32.5495 50.9921 29.9281857274
33.1797 26.5492 47.3967 30.1719410884
32.1868 25.9658 53.0093 30.3948744205
32.4277 29.2001 54.5884 30.3528220458
32.2741 24.8963 56.469 28.8046366741
27.7701 28.1296 55.9353 28.4855845313
25.0005 26.3334 44.2758 28.1720492315
25.3 36.917 46.7354 31.9058882738
26.853 42.7814 16.1846 27.7730527828
27.1975 38.7181 4.32276 27.0046501443
26.1169 37.2452 10.6022 29.4302252742
28.7927 46.7077 5.27428 29.5964858171
32.2482 40.0315 6.65649 29.6129206354
28.0666 37.3497 12.6922 28.1343504566
25.3487 40.2708 5.78618 26.932745856
34.7305 40.2914 5.54061 30.2358629661
24.9075 46.7297 13.8029 30.0241213129
31.1767 40.1787 9.47957 29.9562714237
28.6773 41.2039 7.07269 29.6982974889
29.8817 46.0073 7.85354 24.919600177
27.4483 46.59 12.8175 28.9921518442
30.8011 43.3138 7.58938 26.7402304727
30.3683 49.2546 5.86163 28.6594182594
29.9103 39.9591 4.68416 25.7342679182
26.0335 37.7457 7.49604 27.4307374516
27.1759 40.0559 15.6862 26.5608049779
25.5856 47.5791 9.76071 27.4750901789
28.8429 44.8344 16.4514 28.8920891667
31.7308 45.3883 10.4167 27.7404498554
29.2995 43.7311 4.95257 28.5001701824
32.1509 47.3811 6.67664 30.1854630235
26.607 47.843 6.4642 26.8182972737
35.8081 47.2659 9.46944 30.9999330889
26.5702 43.3241 6.84968 28.9431167003
32.1815 38.608 11.2975 28.9349492027
24.7522 40.3786 9.18024 28.2754856302
28.174 39.3867 9.33173 27.8412537205
29.7177 46.2652 14.2246 28.6113794981
25.7352 42.2967 11.3831 30.3991921067
27.7253 44.3796 10.9266 31.7115796271
27.2831 45.4461 8.59734 26.4272031388
33.9221 43.6317 9.57871 30.2086971851
30.1328 42.6298 10.2547 27.5251982583
33.7733 42.8655 6.9664 28.9923446018
33.0561 45.1029 5.192 31.4983028578
32.1257 42.1802 4.19478 27.8700648154
34.8695 48.0157 4.96328 28.585589333
30.7642 39.762 15.7507 28.3392107738
33.8638 46.6823 11.3173 26.4161816011
25.9274 44.3919 4.19552 29.1754067688
28.5531 48.475 11.4113 27.9908696384
34.9438 45.4201 13.6244 35.1036696587
28.6448 40.7676 11.9097 25.6647648736
36.7022 43.7541 6.40596 32.7026038797
26.1031 39.8102 13.0126 27.1716639023
30.2677 38.9995 13.1378 29.8812710165
33.3171 41.0823 15.6766 31.7013906865
35.8452 45.6386 3.95701 32.4725523829
34.5734 39.577 11.6657 32.8307564342
34.9904 42.4331 11.6704 35.7202860704
34.6401 39.1874 14.3469 28.9311138264
28.5779 48.7065 8.52163 26.608063554
26.8973 36.6616 15.2675 27.1834758363
31.0624 43.9912 12.9463 31.5274676958
29.37 42.139 14.597 30.2248199897
32.9469 43.9333 15.0346 31.275603252
35.0089 37.3559 6.30734 32.691078892
25.2007 43.9163 14.4539 29.1924260159
31.6015 48.4652 9.75668 29.6541771083
30.9862 48.2953 12.6472 26.8394662575
30.4628 48.3937 16.5025 32.8930927592
36.7983 38.5508 10.2807 35.8948142356
36.4606 44.6092 8.89913 35.4381291955
29.7797 37.2079 8.4113 29.936447732
32.0396 37.1211 6.41763 28.5431648858
30.8635 36.8002 4.02578 29.5983408808
34.9473 37.1145 3.29925 27.020691484
27.5005 39.0354 18.825 25.966300195
34.6769 41.3762 18.1812 26.1591178341
26.8672 48.417 24.7073 96.0409654966
31.9309 36.9341 21.2135 24.7876087038
29.6888 48.7476 24.416 74.2529297311
35.147 43.8924 18.4811 31.1987250091
27.032 42.8759 19.5653 29.8786016028
32.418 37.3213 18.4707 29.756637574
29.7468 39.1924 21.1644 26.8633406335
32.0293 40.2031 19.2207 29.5332074956
34.0514 41.8071 21.421 30.4539640753
27.2584 40.7684 21.5264 28.4283903634
35.0353 37.966 17.2432 31.564618564
28.9902 46.9315 19.8955 30.0273402095
30.1502 44.734 21.3576 26.3079326934
25.2019 46.0334 24.403 71.13339736
35.0511 37.4257 21.1272 30.6503618334
34.9143 44.4595 20.9873 29.2377658828
26.3758 38.1118 21.883 27.3148085027
27.5142 38.8306 24.5783 128.5462167537
26.9569 43.9603 23.7582 40.5397953556
34.3731 48.8848 17.8814 39.1624663976
32.0896 37.7291 24.0425 76.1797063595
35.0155 37.3299 23.9144 78.3376881988
35.8389 40.0134 23.8291 50.3513845771
35.8818 39.7582 20.529 26.1789341151
27.0591 44.8366 21.3545 27.0707437768
31.6974 47.1193 18.6927 29.6533749293
31.121 41.7137 21.564 28.6615372581
30.2339 39.5537 23.9405 45.5981420409
31.4864 41.984 24.2816 68.7356802323
34.309 42.2287 24.4466 98.1131778752
29.5817 41.3283 17.89 27.8629844183
25.3964 48.8919 21.8161 30.948059365
29.7808 44.2205 24.4848 101.0837586759
31.0811 46.6336 23.9431 32.9177021778
32.6754 46.0215 21.5624 29.7182497737
33.4881 46.9135 24.8658 123.5323371465
35.1377 44.8257 24.0539 46.1715823735
24.6806 46.4959 18.2343 31.4715109896
25.7939 41.3065 23.9879 60.8386060327
24.8779 39.6723 17.6332 26.2682046379
27.4585 47.1373 17.3251 34.2312146343
30.3911 43.8814 18.7839 28.0325187341
28.9654 37.5399 17.0532 29.2732875859
28.5314 48.9889 21.6053 33.1068390213
32.735 44.8988 17.4337 32.0242735607
33.6151 48.8604 21.0983 32.2745759508
28.6516 46.7737 40.7012 27.8779092391
25.3135 38.8559 39.1853 31.6070792203
31.15 39.8929 35.4553 112.4760901957
31.0552 37.7905 38.8318 28.745271565
27.3127 43.4383 35.9774 90.9080770603
35.0497 38.8634 35.8895 89.9742012759
27.2845 39.0243 36.7672 44.0101801731
28.9078 41.2334 36.5523 35.0751594659
33.5255 41.1626 36.24 34.2417745883
35.6934 42.9254 35.8154 71.7199586765
32.1277 38.9924 42.9023 30.8314098009
34.4417 37.7346 41.6532 27.1075939365
30.9288 47.4779 43.2718 33.5232737961
28.8955 45.5188 36.1475 56.5760365927
31.4777 42.9255 35.4826 98.0338683969
32.4186 45.5714 36.0506 50.2304846813
33.0863 43.7142 40.6113 31.5230314946
25.2456 40.8522 35.9853 91.8507160238
26.947 48.0542 39.0445 29.6941505637
31.6432 48.0651 40.4892 30.9942534314
32.0608 48.4687 35.7048 94.2174832132
30.6436 39.74 40.5709 34.8654440614
33.063 41.2779 39.1448 30.7936785565
36.5625 46.9155 41.8577 33.4484700051
26.1191 37.1448 41.7345 31.7375776624
35.451 40.0426 40.0205 26.7965044288
35.3969 46.6181 38.8017 27.7948066537
29.9958 42.2193 39.0281 31.0495350778
28.129 41.8851 41.114 34.1583214353
35.7062 44.4536 40.7073 28.9875941328
36.6533 42.4786 38.6804 28.4944730532
32.5128 45.9194 38.9343 28.6247789893
25.7809 40.2867 41.8053 33.5684029845
27.7295 47.9068 35.995 77.2874492264
27.1087 44.6704 41.3594 34.975224722
29.7824 45.2335 38.7453 31.681725557
35.1797 45.6561 36.0407 51.3070749627
33.5691 37.1232 38.946 26.0348151976
29.6246 37.513 36.0889 64.6822449393
33.8917 41.0196 43.2677 30.0421961504
24.7947 48.401 36.237 56.6850011249
36.6134 40.5678 42.3911 27.0573881075
32.321 43.164 43.2306 32.7391860639
36.723 37.7727 38.5996 27.1274879619
24.5668 43.4042 37.5247 34.6444053005
34.0876 40.3912 55.72 29.1474617003
26.8948 40.6014 44.6482 35.8323781392
25.3428 44.0987 48.1983 30.8899630894
36.8166 37.8316 43.2255 29.1528571724
25.9048 44.5591 54.0711 27.0616774085
31.5139 38.2831 45.6424 33.2604304978
27.9103 41.9145 55.8655 27.9516471718
25.7609 44.291 50.7964 30.1712321869
27.6831 48.2974 47.5161 30.8044295709
30.0738 43.5981 45.9909 30.7307798865
27.4274 44.4464 46.1881 33.0445119631
35.3792 43.6657 47.9829 30.8796008824
33.7747 48.3782 48.076 32.2006451441
34.9971 41.6107 45.9536 33.3036425016
29.5208 41.994 43.5724 37.3221150053
32.6829 46.7742 53.2901 34.8562245467
32.242 45.4817 44.6139 30.0604671228
29.4595 46.1543 47.8485 32.7231375089
36.7507 45.2899 46.1244 30.1013573467
27.1808 41.1399 47.6001 31.0617866399
26.8288 38.2045 51.1873 27.559469173
27.2359 48.7265 50.21 33.6852817943
33.9158 38.6132 48.9459 29.2833539551
31.259 40.107 51.8163 33.083947697
32.8723 40.2283 47.0681 30.790834158
26.9128 37.416 54.6017 28.9966382302
25.4303 40.9298 53.9236 28.4813117524
29.1089 40.6817 50.2082 28.3820324164
31.0439 41.9671 48.1054 34.6450030531
35.4781 40.9281 50.5418 31.8082769957
32.7323 44.4381 48.4141 28.9856391536
25.0268 47.0339 50.7508 30.1731557001
29.3106 46.3993 55.0407 33.4024040103
35.6145 47.0334 53.7427 32.5324223074
30.0193 45.4756 50.6963 31.9083050205
32.0435 46.6972 47.1598 26.8878883982
28.4727 43.4013 51.1116 32.12971205
35.9862 47.442 49.2102 31.3987280274
35.8031 45.5162 51.1563 29.8147565808
26.1532 38.9962 48.5235 26.6627970611
26.269 45.6614 43.9496 30.4862377594
32.4514 37.8869 54.9652 28.187922331
30.4707 39.9373 54.9623 27.1751118228
31.8532 37.6853 50.337 31.5422456893
28.6596 43.7863 53.8285 27.0461807086
36.8752 39.5948 45.6985 31.6852376297
27.9999 39.7013 53.1759 30.0154282288
33.1811 42.343 52.1345 29.4740421551
31.4474 42.6848 54.2683 27.1257308542
35.0635 46.6428 44.1827 35.2646816864
29.136 37.764 49.3262 29.9527880323
35.3866 41.8294 53.7848 30.2583339541
28.541 38.4197 46.3443 29.6845099845
26.553 47.2576 53.5265 31.7782071639
29.0748 47.5542 52.3188 29.8601832005
36.7027 44.0593 54.4611 29.7224726239
25.1033 48.9745 46.8987 30.2405451537
32.9962 44.8101 51.0948 28.8207543884
31.5909 45.1104 55.2538 30.601540169
31.3153 49.2891 52.5861 33.620601647
27.9479 48.0712 43.359 32.456367121
48.5863 6.22964 6.18156 26.5160767176
37.2207 0.780496 5.26206 30.2330545678
43.2675 2.46575 8.79609 34.2294236057
41.8537 1.61612 5.38705 28.3428561094
44.5261 1.01004 5.15867 31.8840316449
42.1743 11.6295 5.78196 33.5270114901
38.6613 4.20721 6.93056 30.496595269
46.6438 10.9272 4.37972 34.2977801528
41.3062 4.2613 5.72885 30.9470381455
42.84 5.3277 9.7486 27.7902011196
42.5891 6.40288 7.32146 28.0334872373
46.0467 6.35692 4.96667 28.0663003805
45.3238 4.06124 7.53544 28.7178635303
46.8497 7.61915 13.8008 30.2648185793
47.8026 1.70357 6.17546 27.5532386236
44.9726 6.8942 10.9999 27.1981019571
48.2413 8.39562 16.6581 31.2545112203
38.2755 6.97293 6.22456 31.2070076649
38.1195 7.13808 15.8853 29.5959248706
42.8917 8.97622 4.6585 30.8944177489
43.4233 10.1415 13.6296 28.6235152579
37.8547 11.2468 13.2474 31.9879543609
38.0785 2.53297 13.289 31.6900259228
40.3547 2.58666 11.7986 31.7922591551
42.7246 1.91483 13.0517 32.1946393324
44.669 2.43051 11.3054 31.9325403507
48.0848 3.39899 15.1832 30.3542622428
44.9454 0.0800017 7.82408 33.129151447
38.6529 5.78066 9.39528 31.7167369001
40.8704 5.19872 11.2678 26.7687348396
42.8882 4.09361 14.9826 32.2131397547
46.3162 4.56852 11.874 30.9187301678
45.6031 4.86285 14.7535 29.2387280203
37.0519 2.31495 8.60841 31.5382983461
37.7604 8.80929 11.5422 29.9141216435
40.7174 8.20018 7.22993 31.5099860358
40.4398 9.2113 9.93201 33.8230643471
46.0449 6.71024 8.43578 27.7442327484
44.5354 8.19433 6.59513 28.3298659528
42.7632 8.10364 11.8814 33.1956294186
41.5502 10.272 15.7758 29.6670766115
48.2132 3.93047 7.76856 25.0588912927
39.1478 11.3853 15.9469 29.3155599691
37.6056 11.2966 7.87079 34.4343678211
37.5587 8.56403 8.55063 25.8509335416
40.8585 11.8323 9.89729 35.6571453751
39.3956 1.15007 9.58999 34.6859205503
46.493 1.25755 16.3745 32.4757661014
45.1332 3.63554 4.58148 25.7312090495
40.6079 7.56872 16.211 31.0298587042
38.5549 6.6727 13.1182 29.796926649
41.538 6.24751 13.7755 31.6787750471
40.555 7.81842 3.88823 29.9326606388
46.1894 9.53142 11.504 32.7047591952
48.9321 7.05069 8.97414 28.9487433326
48.9514 4.10929 10.678 30.3342984096
45.2154 8.65816 15.552 28.9550793968
36.6902 4.12375 4.93607 30.2001470818
46.1119 10.4774 7.22008 31.5905000551
38.8573 2.23812 16.0488 35.3973152374
47.5739 0.781016 9.02426 28.3949391782
45.1485 11.9633 12.5656 26.6806384883
46.9233 0.724823 12.2576 36.827550687
48.6899 10.2436 8.42868 30.894498526
49.2914 10.3954 11.7694 31.4545074008
39.4353 3.01167 21.3226 29.8166424581
38.1367 9.56534 23.8222 35.0049817702
37.0832 6.94558 21.4486 32.19349627
43.2594 7.48464 18.8457 29.7066083956
41.0236 1.01403 17.7099 29.156984252
38.704 1.24814 19.272 26.9042768284
38.8617 5.26609 19.8172 29.7560799605
40.4702 7.79567 20.963 30.3067471764
47.9015 9.14845 20.8991 31.2161590973
45.8233 4.43864 20.291 28.7673149159
43.1879 8.99332 21.4608 27.3988477493
47.8363 6.48688 21.4587 29.4482813377
47.5181 5.86427 18.2632 30.7120513676
41.0023 5.85263 18.2279 26.7908214651
45.4774 12.139 24.3848 87.3675428237
46.0083 10.7694 17.0355 25.9258880783
37.1918 0.798436 24.0988 74.1806993393
41.14 4.47103 24.1395 75.6314040602
38.4929 3.31409 24.0498 69.1149214965
42.0816 2.41642 21.5263 29.0527376176
46.4823 2.22817 21.6452 28.2476881506
42.5635 1.81125 23.9503 57.7293644933
45.3807 2.41974 24.3185 64.6590877969
45.4756 0.360591 19.1489 29.9257679729
42.7339 0.352739 19.8239 31.1486345979
43.0755 5.36833 21.0916 30.1583129049
38.4739 6.97351 24.6727 120.6600455001
44.0118 5.14688 23.8313 56.1715390901
41.0297 7.22907 23.4764 30.2766734566
39.681 11.8961 24.4634 72.0581083032
45.446 10.2577 19.7397 29.396042227
46.9342 6.33523 23.7084 34.2817311125
41.8471 9.75974 24.3205 82.0060441695
42.6943 11.8194 21.9455 26.0605747552
47.7864 3.8543 24.4373 84.6109164546
44.5945 8.18948 23.918 66.1085193351
37.7292 4.58357 17.4593 30.4512527132
38.3382 9.61025 21.1611 30.2424080099
46.9118 9.77571 23.7973 49.6070324609
44.9888 3.09174 18.1136 28.6357844233
39.7975 11.8914 21.4765 28.7947566617
42.8862 10.6013 18.3563 29.942726683
49.2321 7.70852 24.5835 115.2476168504
48.5142 12.0188 16.792 30.7649845999
42.4847 3.67375 17.6193 28.4886449199
37.3331 9.73967 16.7285 32.8476113847
45.1641 6.23537 17.0234 26.8919720307
49.4777 0.966513 17.2862 29.2716554502
40.0084 1.7909 39.3474 29.9379435772
39.9435 11.908 41.3231 29.1740027156
38.7776 9.09434 41.1532 26.5711196009
37.0035 1.96386 38.4112 27.55475361
47.027 3.18388 35.6033 99.5047617369
45.7322 8.7437 37.8575 27.824120561
46.0497 5.58199 35.5532 98.732511801
44.502 2.62941 38.9718 26.5422701105
43.0052 8.50131 38.7337 27.1523432695
47.0123 0.635049 40.0901 30.0359182697
40.0815 2.54901 36.4232 40.0378774397
38.4625 8.88993 38.4541 27.7986385545
