19.4009 26.1064 4.1637 31.9345835105
10.656 31.6818 8.09309 28.1737522158
17.3549 31.476 12.0425 30.2095210846
15.2064 23.7227 4.61272 33.7786361372
17.3402 16.4063 4.42965 30.5220510701
9.82514 17.5246 4.4353 28.1203578612
9.95929 24.5828 6.62508 31.4775797016
19.5659 32.6066 11.1881 29.2293551952
17.9777 27.1186 12.0482 30.8250228275
14.3047 32.1536 3.68971 28.6420571469
11.0538 31.777 4.2246 30.771664605
14.1029 26.1167 3.90051 32.7748204852
14.9684 16.376 13.408 29.6796812633
17.419 16.9446 15.0933 27.5432453525
19.0607 24.1499 12.9614 31.9020852763
19.4598 17.6168 12.8072 28.6692098697
11.6368 20.6199 16.6554 29.0110338893
16.7228 23.3985 21.2124 28.5745031028
13.2136 18.4959 14.8144 27.2884167612
10.1916 27.9194 14.2879 27.7761017797
15.7291 23.8707 15.7506 29.152772636
13.4847 30.2637 17.5467 29.4657116848
12.3373 27.7124 16.1411 29.496088177
15.4854 31.4273 19.1505 28.3219663455
11.9259 17.9883 17.4265 27.8776023329
14.8424 29.3715 14.874 30.5880460032
11.8929 23.6954 15.485 34.8828622279
14.915 21.1268 20.1689 28.4165751314
13.5797 30.285 12.4765 26.4670940754
18.0797 30.2383 14.6418 28.5716171537
19.1523 31.1324 19.0095 27.5705833829
17.4101 27.2669 14.8373 30.208568187
17.8721 20.1419 18.1318 29.3512762767
12.5706 32.1347 16.0905 31.6334670495
12.1917 28.6863 19.672 32.5461632933
15.8081 18.9076 16.495 28.889895155
14.6869 26.5669 14.7351 28.6854615132
10.2209 23.4557 19.8561 34.4930199426
12.1512 17.7762 20.6794 28.8096534995
14.6133 16.939 18.1992 30.6248279238
14.9862 18.3265 21.094 29.5742671229
14.5305 21.3646 17.6199 29.7323211099
13.6346 21.6573 14.3017 32.6418001845
17.1226 22.9098 18.4364 27.8658909693
18.2417 25.1595 16.6163 27.0909793628
13.405 25.0146 17.6119 36.1509831392
18.411 19.8745 14.2742 32.5389157482
17.166 29.8849 17.5171 32.8161816132
18.1892 26.9786 18.4311 33.9049847003
12.2503 25.853 19.7323 30.9339778768
17.2379 22.2306 13.8155 31.2301905746
11.1762 30.4309 13.8829 28.3307065779
17.263 26.2734 20.7994 33.5792123459
18.3441 17.3085 21.2139 29.6800283369
15.2927 27.8412 22.0638 29.8909401227
13.4195 30.7549 24.6318 119.7373197447
9.85479 25.2923 23.9969 66.8029734088
17.2924 30.8568 21.4394 28.6918208635
19.667 28.8057 21.9096 27.9553353423
16.6934 19.9447 24.2172 80.4392324794
13.189 26.2704 22.3834 26.1491992533
14.2818 18.5436 23.8365 41.2968889382
13.0373 23.0752 21.2366 30.0129272443
16.6128 22.8153 23.9867 47.8805618448
11.4752 20.5473 21.391 28.6219070645
14.3896 24.5282 24.2573 91.2666100563
16.1618 27.3442 24.377 90.1971927779
11.5934 27.6381 23.8752 71.5690484207
18.8419 24.0398 24.6536 110.4017627
18.6813 26.6082 23.5791 35.6710129767
18.2175 17.4281 24.1948 71.8467455089
16.2407 30.3436 24.2155 59.2646379113
11.7935 23.155 23.7836 45.4121605734
12.1547 20.4225 24.2367 91.2816456952
17.7935 20.164 21.2478 27.5202663708
13.8672 30.776 21.7006 32.542978876
14.6814 22.6179 36.5356 38.2424100279
13.6281 17.1913 35.9736 70.0922964584
12.8836 28.9655 35.7661 68.8583413316
9.92189 18.2934 35.6254 90.177036334
17.8645 18.3142 37.1261 31.2620831851
12.305 23.681 35.6133 97.5171717086
18.0555 22.0825 38.7787 30.4967126899
16.1154 25.8088 36.3955 58.1156612614
11.202 25.6959 37.8703 27.016839717
17.4357 22.5806 36.36 64.9764070148
10.1463 28.963 35.8208 50.9348872443
13.4418 26.253 35.8926 69.6485357011
14.1312 31.5549 35.684 78.582130942
18.6931 28.5141 35.4782 122.3097286722
11.3111 20.7232 36.0262 55.4329057367
16.0155 28.5719 36.4994 36.6387050957
18.945 20.3224 35.6361 117.8731353145
14.0924 19.9795 36.1055 73.93624227
17.1652 31.7873 36.0247 57.9619302845
12.296 29.1337 38.655 29.3708793614
14.5545 32.4942 38.3867 28.0346221684
9.85779 17.7006 38.2833 31.0997681567
13.6297 19.7672 46.1814 29.2192046119
13.179 22.1698 47.4946 31.0221509222
10.3177 18.1383 43.0015 29.4938256841
17.5583 31.7484 39.1161 26.7292069329
11.8311 23.5819 39.8923 26.9326536518
15.8922 18.6384 47.0879 30.921622481
14.1056 31.4602 46.0749 29.4207848832
10.0443 31.887 40.6774 28.8853909764
16.7401 32.3409 45.8743 27.6133842665
11.393 23.73 42.5351 31.5062758552
17.2208 27.2509 41.1766 28.1273176668
16.5454 24.6571 43.1214 29.9262926599
10.2626 27.1605 41.0526 28.5659205181
14.3555 26.5735 42.4837 29.669155185
18.3452 22.3267 45.7466 27.5316634888
16.856 26.9921 46.3014 29.5774226032
10.8962 31.4027 47.0685 30.2837856378
11.9393 29.1941 42.8493 29.7066794233
12.7822 31.4089 40.2561 27.2650508332
14.7179 30.6044 41.7744 27.0768737707
17.7485 31.2707 43.6166 28.8385910004
16.5567 28.7215 43.7735 29.8130153236
15.8654 18.6136 42.717 28.9401542119
13.3045 24.9288 44.4105 30.5369482703
16.6678 16.9789 44.8538 31.3061279725
10.5702 20.6177 41.84 29.320594114
16.3251 21.5865 43.6226 35.7658627206
18.498 28.8054 47.3509 29.0666551611
15.9647 29.2211 39.2688 30.6583507313
11.0699 20.1211 39.2506 29.726108777
13.0457 26.5978 39.7124 27.6468323135
18.0502 20.383 41.6056 29.9952480219
14.2738 19.5847 38.9162 32.4782229928
19.4904 16.6261 44.7163 32.0714066247
15.4851 23.6244 45.925 29.2280204989
13.9836 28.9222 44.8003 28.5398338819
18.7334 25.1591 45.5704 28.4130767108
9.94941 29.9513 44.6245 26.8702556608
19.5753 25.746 43.1202 28.8885666113
16.2837 23.3338 40.2268 30.5337189562
10.9433 26.3426 45.9705 30.6848484136
12.9666 32.3028 43.616 30.3941985295
11.2513 23.4148 46.5102 31.7290278694
16.6557 18.3486 39.6054 25.9830708777
13.3143 19.1212 43.5496 35.4972484119
14.1615 22.249 39.3214 30.4584401241
15.8773 25.854 39.1065 29.8596643235
13.4985 27.0783 47.1985 31.8508282684
18.8933 19.4373 47.1406 28.2124127054
11.4918 18.58 47.1777 33.1155000579
10.6441 19.3774 53.7387 26.8563837157
16.9351 18.5717 52.6525 30.3730137755
18.5385 16.819 48.1816 27.6834585747
17.0538 30.2945 51.0987 28.9077343617
16.4955 24.7854 53.5738 33.7367701867
18.2764 22.3512 48.7773 28.7529760548
11.6413 20.9832 51.3342 35.2224785379
17.1213 21.7108 52.7456 28.7530501924
15.2455 25.0321 48.393 29.5049602644
14.3987 19.6625 55.8247 34.0544782514
17.0818 26.5851 49.8145 30.2399750329
11.4968 28.3497 51.3748 28.8903913519
12.0979 18.5531 49.9858 30.2323253956
14.054 26.5738 53.738 29.8215854526
13.0461 32.5592 51.8521 29.986351888
15.2636 28.0158 51.3384 31.1996564081
13.3707 28.7705 49.4626 32.9199376319
19.2216 17.662 50.8509 28.5430603426
13.6286 31.8171 48.8883 28.8199105517
15.5957 16.5884 49.1602 28.3200190884
11.6254 28.8631 53.8933 29.4513656576
18.3861 24.5793 51.2642 29.7559741759
12.3501 22.3875 53.6995 30.9942431266
14.9085 19.0347 50.0605 30.5908621257
19.2322 28.1076 55.0312 32.5146184809
18.1173 18.5383 55.3279 31.5778737608
10.6777 32.2399 50.0885 28.0804098259
17.3396 31.0426 48.3489 29.2846537529
10.4824 22.6722 55.975 30.542480994
12.759 24.5265 51.9975 31.4835053573
19.5446 32.1993 53.6912 29.9623141985
16.183 21.4799 50.2472 28.6544195951
14.2597 29.4807 55.4388 29.5493242359
11.9156 17.1388 52.708 25.7794784773
10.5884 25.3424 50.6632 30.4689874835
14.0109 23.0912 49.9489 29.4467752184
14.5337 17.3062 53.6298 33.6315410052
16.6172 29.1128 54.2586 32.3339619231
14.8678 22.1149 54.9156 31.1403163364
11.5863 31.5825 53.7894 28.3169517543
18.8543 21.7466 55.2051 27.2072541077
17.7049 24.0443 56.0561 31.5879305983
16.7277 31.7307 54.2899 29.6124316118
19.557 28.2365 50.06 28.711692683
17.1931 37.4427 11.8775 34.4608006825
10.525 34.9748 11.2672 28.7823256881
13.0257 43.3575 11.0376 33.0997914951
19.0933 33.5139 8.53242 33.6646113752
14.8711 44.4948 9.00492 30.7758232317
10.1541 46.7593 7.76184 26.9152605103
13.9657 37.755 5.87495 33.6762873661
14.297 40.521 6.20814 31.000665784
18.2299 47.1531 4.58023 30.690213796
17.3836 36.791 4.94227 34.1399436395
18.7187 39.0732 4.46461 31.9876193294
17.0253 41.0213 6.36737 29.2241552459
13.3732 42.0887 4.11681 28.5258869296
17.9616 48.6274 7.02358 32.3491622648
10.4277 47.1486 3.74132 29.4294484872
12.7031 47.9847 8.18847 30.695859322
17.0598 44.5294 4.40275 26.0458612376
12.9007 46.5817 5.12158 33.3613479069
16.321 33.6698 7.42513 32.1987010412
11.0238 37.3424 5.86363 32.949276404
19.0025 44.088 10.6492 28.2703765105
10.7922 42.0652 3.87578 28.3951570987
14.5232 36.4732 10.4674 31.1464503208
12.5438 34.6016 9.04506 31.7358087409
11.1842 44.2043 9.05842 31.9912465022
15.7445 41.0269 10.3373 28.152980173
14.3824 47.2223 10.0811 32.1738521468
16.9876 43.7378 6.84037 30.9583077722
17.4586 37.3239 9.1858 29.3218754224
15.8871 36.331 7.60714 28.9575053961
17.1661 46.7616 11.2886 29.3068857617
12.6911 41.0847 8.58259 28.6244140339
13.4772 39.0127 10.2102 29.7888015585
16.2947 43.6579 11.2342 26.9060027952
17.6568 40.1543 8.9254 32.3680731997
12.9796 43.9877 6.76768 33.3700785584
16.6479 32.7733 4.87881 30.221220927
10.2013 40.5193 8.65596 28.4733586339
10.723 34.5032 6.74907 31.4309813163
19.1438 47.7747 9.19472 28.4124304744
10.5233 38.0798 10.6351 32.6645451114
19.049 45.1272 7.95542 30.6247180757
10.8149 34.787 3.78737 29.795156079
12.9421 36.9154 14.4459 32.9847543622
17.2323 33.0946 15.1079 33.6489738312
13.6173 35.6108 21.0519 28.3200249554
16.0825 37.6655 15.8947 28.1033646267
13.2831 39.2226 13.0123 27.4221239565
11.6457 41.3937 14.4296 30.3485331349
14.1069 47.6903 16.829 31.2139446535
17.5011 40.7965 14.5517 26.7211135702
17.0454 43.8567 13.7151 27.8299991627
10.8552 46.4158 12.5103 28.6897273379
11.622 43.9384 13.1456 28.5575969524
15.4494 34.2158 18.9375 27.6312754926
17.0827 44.1542 17.5792 31.7171461441
11.9927 41.2034 17.3922 31.4377311094
15.6842 42.7276 15.8679 29.1041698817
14.565 46.6791 14.5379 29.080409687
18.7893 39.6792 19.971 30.4332982508
12.9979 47.9157 12.4962 31.8903097338
10.5531 47.5719 19.4971 29.0225982337
16.0356 47.6333 20.3399 28.8809292988
16.6217 46.8197 17.8804 31.6251835942
14.1378 35.5903 16.9736 28.7694228992
12.7238 37.2728 18.7529 29.5460233758
18.2527 33.6413 17.6836 29.372647583
14.5261 33.5647 14.6735 30.4915626606
17.3833 36.7156 18.4193 29.1362947072
18.3626 48.4443 16.0167 30.8143317647
14.1697 39.6274 18.861 31.6835000733
17.629 35.891 14.1865 32.5887139241
16.7367 42.9344 20.1584 34.6406361272
14.4506 40.1258 15.9947 28.7776154911
18.823 38.7233 16.0295 31.1787394492
13.488 44.2608 15.3978 31.1037609168
11.7452 43.7538 18.6947 34.1433078722
11.871 46.3624 17.1777 28.1853503163
10.8206 32.7863 18.4611 32.3158932571
10.0122 36.1706 14.3124 32.516568298
10.211 35.2798 17.1487 32.5605366051
17.263 46.6723 13.9052 28.8800070932
13.3727 47.2772 20.9548 28.5287719004
16.2373 38.6345 20.2314 27.578914934
13.302 34.8352 12.4883 30.4129940796
9.97402 37.3438 21.1081 27.0119566995
12.1532 33.2956 21.1248 29.7261260163
19.6951 40.912 13.0045 31.4801006272
9.94645 46.8257 15.0117 29.3815056851
9.87867 39.7873 12.7636 30.6225831177
17.7895 33.5612 20.9754 24.5517143964
15.7955 39.8242 12.8167 27.1672253347
17.3039 37.0863 24.3417 81.5602685946
13.4556 37.5867 24.2561 60.388775994
16.5894 33.1016 24.1131 63.1108631848
18.9479 41.9355 21.6716 27.7942193772
12.5458 38.3282 21.4164 26.7960906764
14.4529 40.2089 24.4016 69.5479358013
10.6486 37.0972 24.263 70.5429621177
16.4915 39.3864 22.8469 27.5592156185
15.3354 48.5144 24.5206 106.2309268375
12.6674 33.5185 23.9365 43.5100809061
9.87467 44.7275 21.6166 29.696814814
12.7615 44.5202 24.3411 67.8644576841
17.7429 41.4572 24.1733 55.6910382962
18.8729 34.7054 23.8736 51.671094305
13.0748 47.2807 23.8466 38.0144907553
14.8818 35.2831 24.4571 78.7915854217
15.3619 43.022 24.4831 73.6417511607
16.3625 45.7352 24.0658 50.1073725117
11.7706 41.5313 24.3954 77.7888339423
9.94547 43.899 24.5373 90.6742260096
14.3884 42.4666 21.9284 30.1880317536
19.2911 44.9448 24.5926 95.6180936307
10.6799 48.6685 24.1933 77.1999894462
12.7655 44.7111 21.2669 28.646048151
16.4953 35.6944 21.5367 26.9861469302
10.0687 34.4954 24.3058 96.9828815877
11.5783 41.0048 21.8278 31.1118783572
17.2121 45.3213 21.4318 30.9378759143
14.3073 36.3345 35.8187 86.3978530131
15.2691 44.2695 38.2005 27.8988687573
11.0844 36.3738 35.6247 82.2212636926
12.2214 46.0708 35.8428 78.4669167149
17.9356 39.7826 36.4516 35.0626936283
9.87222 41.6057 35.6117 101.7012007775
17.4517 46.8171 36.2004 46.9493419812
13.7255 39.0533 36.8131 33.993724308
15.6356 40.6493 35.4864 114.317818185
12.7255 34.8635 37.7638 27.5146326207
14.806 47.4864 35.5949 93.9718003207
14.9398 43.3678 35.6592 73.146492114
12.2363 43.3067 35.9066 59.9279031259
18.5097 36.8299 36.1383 74.7661375705
11.1614 39.1459 36.0513 56.8517453503
16.8338 34.6029 36.0254 69.2315559383
18.1944 44.1825 35.8541 74.1861381341
11.4658 44.0186 38.4717 27.3807328215
14.3018 47.0631 38.3229 25.6409671859
11.6901 33.1509 35.5078 79.7705543823
17.6466 42.4202 38.1895 26.1842260324
16.7615 34.9237 38.73 27.3633606379
15.9029 37.9614 45.4953 30.0741352362
19.121 48.7942 39.2218 33.1384870439
10.14 33.6173 44.1653 28.5393104335
14.892 34.4857 43.1999 27.6785221956
10.6558 43.7113 42.0299 28.7345430566
17.2922 46.5299 39.1847 27.2763441801
12.439 40.8735 42.2818 33.7885588282
17.5987 37.405 41.8679 28.2333708623
13.3764 45.0029 42.1478 29.5152623262
13.4383 43.0768 40.1356 31.2370803949
18.7143 44.3357 39.7946 28.4362791961
18.6852 34.9967 42.4645 32.9173403294
17.3312 41.5769 42.8639 27.4047896148
15.756 41.1624 40.1328 33.0074164736
13.7546 39.0634 46.6308 29.2421384532
15.9842 42.5756 47.3751 28.8102481818
16.578 32.8728 41.59 25.6222532347
17.4262 46.8992 43.6054 33.7894905884
11.2283 37.5483 45.9449 30.2527195012
19.3726 34.001 39.9104 29.7254461977
11.3496 47.5784 42.2525 28.0943702277
12.2027 35.9531 43.9468 30.6033014075
14.4104 35.4198 40.5867 30.2823639823
18.0919 41.9788 45.6082 31.3915829694
18.6115 35.7205 47.0941 30.2617386195
18.0427 39.6425 46.5207 28.4543372978
13.9916 41.7917 46.1451 26.6405156667
15.0284 37.8628 42.7333 26.3047014209
9.98601 39.9671 43.9515 31.3224392425
11.6742 37.9965 42.2612 30.6919383008
14.8654 40.4709 43.6194 28.3208473058
10.2911 43.3494 44.855 26.672552436
13.8865 46.7731 46.3361 32.4011873943
13.3163 44.358 44.8145 33.8169231511
15.5324 46.6257 41.432 30.3317593697
15.8626 35.141 46.0371 29.1596858866
19.2329 39.3932 42.7134 30.0964046559
11.361 47.4221 45.1979 27.1541436853
18.2308 46.9455 46.5604 30.6683203404
17.6618 44.0674 42.5127 31.2630661857
12.0445 37.3788 39.3624 29.3078199231
10.6186 34.5194 40.069 28.5196395121
14.4827 38.7046 39.6506 28.8272037482
11.6325 46.6072 38.9515 30.366976564
11.7848 42.7237 47.5696 33.5527385865
10.4894 39.8218 47.4794 28.3159888932
17.3381 37.8183 39.1044 28.6191653235
15.1564 37.1264 55.8224 30.6522627272
13.0254 35.2945 52.8426 29.2180126112
10.8453 47.0525 53.6018 29.0140717196
15.5719 36.5832 50.2348 27.5868290086
14.008 34.6118 48.1036 33.0054671155
12.7027 46.956 48.8495 31.3585346749
17.8427 37.7998 49.3774 26.5440671919
16.6605 45.1772 47.9015 30.0097897881
14.1877 39.0675 49.4174 28.8990198336
17.8632 47.7856 50.05 28.51222871
16.5669 46.83 54.7148 32.2237557511
18.8904 45.0374 49.8704 28.0716349638
16.8509 40.3843 48.9046 26.4613598355
17.8394 42.5667 50.471 31.0110224365
14.6323 45.4854 49.9359 30.9254443298
13.5745 34.6718 55.7156 33.7132265533
14.4001 41.0551 51.2563 28.9047602666
13.238 43.3872 51.3198 28.9048865621
16.4923 43.3502 52.7657 31.3433289534
10.6513 36.4666 53.3762 30.3272190347
18.3426 44.8025 53.9323 28.4011533211
11.3722 38.3154 49.8325 33.4047850151
14.3771 45.1583 55.8593 30.9338040508
18.2583 34.6753 55.9718 31.7581359965
18.964 38.6839 51.6899 27.4531592961
11.1032 37.7361 55.9585 26.4578448362
15.7202 47.4547 51.5962 32.7780727034
17.2195 34.0733 49.0669 27.9902320961
15.5472 36.7044 52.8877 27.5824449513
12.3577 44.9376 53.9667 33.0717882834
10.8704 43.6984 50.0876 28.5680853857
12.3552 35.6528 49.8141 27.7690034806
12.5238 40.427 53.3845 31.2889904892
10.3177 38.8802 52.2005 30.7907005967
16.3671 39.3518 52.9016 31.5163403314
16.3261 42.2798 55.4205 32.7645260809
18.5686 40.1742 54.7637 33.8063182749
17.79 34.9205 53.0998 30.8272823377
10.8914 42.5712 53.772 28.5418312548
19.5752 43.6636 56.4007 27.4767860891
13.3591 39.299 55.6977 29.0323034558
15.9085 32.9671 51.6622 29.7258825935
21.9529 1.91828 4.61984 29.1238982849
24.077 7.63749 4.62779 31.9542066239
22.1922 12.1883 9.64053 32.8234208858
22.2679 2.39327 8.16627 28.1463001557
28.6847 8.70717 8.98991 30.2369477797
20.7248 8.75313 7.99007 33.0458954972
26.263 8.1425 10.6118 26.6173693997
28.9398 11.4073 9.73744 30.0012953358
26.3862 3.88781 7.97373 30.0652760892
27.899 1.9271 9.70883 32.2074453576
23.9627 3.72246 11.2284 32.7242845258
27.2056 15.8236 9.49382 30.6602115399
21.3892 11.26 7.11181 33.6260452362
25.3742 8.55266 7.21926 28.6763160514
20.2427 12.5826 11.4804 32.2757062068
24.0013 6.90711 8.88744 26.783981392
19.9343 1.81325 6.85397 31.0562566768
25.8092 12.6925 5.10325 35.6361800562
27.9458 7.88816 6.26196 31.050374587
22.0505 1.15486 10.8018 29.1755486171
22.9046 14.8509 8.98756 34.3776585698
23.8148 4.60681 7.32858 26.890614948
23.7341 10.4496 5.37217 33.7115651333
26.87 13.494 7.90349 27.7964100156
29.3478 14.4053 6.60487 32.1485434602
24.8077 15.0637 7.083 27.725362063
26.1322 15.2908 12.2131 31.7565750132
29.4461 14.5483 10.6592 29.6766936779
24.5541 10.7297 10.9688 30.1351106289
22.7172 16.3187 5.07915 32.7231215773
26.0585 11.0113 8.72376 31.2501735465
29.0259 1.26907 4.58453 32.292168251
28.6407 2.2833 12.1512 28.6283376691
26.1791 5.38698 10.4788 28.7747906199
21.8182 6.70566 6.36097 31.226971473
26.441 3.09989 4.8688 30.9135674135
26.4505 6.15239 4.93031 26.9719383749
21.6868 7.50642 10.3865 27.6718252664
23.6426 4.06699 4.48198 29.2465822933
28.8829 5.2059 7.24321 33.0697983526
28.4868 11.7909 4.50598 33.3166576188
21.5743 4.76934 10.9864 27.9480079814
23.7226 0.0901859 7.61474 31.2758195811
19.7901 14.909 4.19565 33.4772539235
23.0256 8.46665 12.3413 29.1616868934
19.7915 1.5737 12.3496 26.4464160931
21.7236 1.72169 15.2642 29.3534950805
23.448 8.3011 18.1666 28.8391722159
28.5896 7.85785 17.9439 29.5573413089
27.4811 8.42597 13.0961 27.7051948127
26.871 1.54823 18.9352 26.4758776207
20.56 3.09521 17.3949 28.3983038457
21.4141 7.0359 14.5418 29.3964778366
26.6959 14.492 18.2293 29.3861077802
25.5671 2.86197 14.7643 31.6818856971
22.0185 5.6274 17.0198 29.8551713706
27.2461 6.42096 15.3875 26.4834427958
24.6725 6.47243 14.0252 32.2552399557
29.3639 7.19223 20.756 30.7286856154
27.6682 1.52005 16.2119 31.0314138787
21.9298 15.4091 13.3888 32.9040477604
28.9718 14.7576 13.2675 33.1321820572
20.7711 4.3192 13.662 29.5825786955
25.5251 12.6199 12.7734 33.9232106011
24.6225 15.2372 16.0941 30.9326452553
25.1982 10.748 19.7969 29.0874096736
27.3407 4.46699 12.9858 27.9883565397
22.517 1.53298 19.1188 30.5622796275
21.6745 10.8879 13.2637 29.7485420554
25.0585 11.8341 17.0024 27.8988327382
23.9527 1.30662 13.1517 29.9614877054
27.6396 10.8245 14.0331 27.9142027353
28.955 12.7659 18.5062 32.801302662
25.5481 9.03318 15.9453 32.1341224782
22.0147 11.0681 20.423 29.1882302633
20.6143 4.00396 20.1543 30.4539205041
25.7383 6.91692 18.2348 26.1064019236
25.6258 4.13612 19.6854 27.6020132702
22.0004 15.2213 17.2835 33.2646807731
25.4661 13.8586 20.4873 25.6736487626
24.7754 4.7069 16.8802 30.9411580993
20.1112 8.1968 17.0581 29.5153325965
23.4813 13.0045 14.5027 29.2106669871
21.2846 10.5791 16.0698 31.3617949955
21.2609 7.03633 19.8759 28.6212382366
22.6758 12.2072 17.7241 28.3440137893
28.1912 10.9904 16.7745 28.7181621565
20.4377 0.193087 20.1702 32.6558167736
22.947 14.7962 20.0151 27.2921836086
29.2117 0.305255 13.6582 27.5052040072
24.4061 1.85512 21.2008 30.0233608216
23.0446 4.82574 21.1282 28.2456516663
24.9627 7.518 21.1132 27.0270268208
19.7996 2.88835 24.4316 110.0646179809
28.2965 2.33485 21.9695 27.2575713393
28.3034 15.9893 24.3241 76.590322831
27.3135 13.4617 24.2872 74.2803412799
22.2811 3.91106 23.5974 40.4786504897
26.928 2.92522 24.315 74.7050003384
27.8633 5.50851 24.2045 55.3325806618
24.2578 2.0029 24.1179 66.6670747269
27.4714 9.57853 21.3428 33.884377343
21.1521 8.55809 24.6801 94.5747076338
25.6319 7.51307 24.4936 92.5216222556
26.6739 10.2585 24.4632 79.2389023077
23.0267 6.68084 24.0841 58.3848264587
21.5449 13.4218 21.7512 26.1247763491
22.2009 11.5205 24.4247 84.0702046412
26.6135 16.3389 21.7218 27.0271392153
24.6621 11.2348 22.9059 28.2712616483
24.5375 14.5054 23.5362 38.6948149153
21.8759 14.5843 24.3886 87.5220861376
27.7572 12.3529 21.8824 26.5163772679
22.7842 8.88509 21.8135 25.14905257
27.2751 5.34129 21.5367 28.2814378903
20.6251 4.0033 35.868 72.6115341681
21.3631 8.30109 36.0633 49.3355841881
26.1254 3.47124 38.6844 27.5284110565
24.47 0.752239 35.7743 91.1667164398
26.4876 10.3564 38.7302 28.5454178261
26.9248 2.53115 35.807 84.0706427764
25.5879 5.20562 35.7791 80.995799976
22.7508 5.89109 35.7114 83.8594219612
24.9969 9.54539 35.605 89.1932890179
22.6427 14.2874 36.2894 40.461399633
29.39 11.192 36.0187 57.7274157489
26.6183 11.6432 36.0998 39.6895864188
23.3802 8.84498 38.3428 26.9724391739
20.0968 4.60917 38.5721 33.1324562256
25.1878 0.894137 38.5048 28.8072050202
22.2987 11.053 35.8512 77.0097747999
23.8378 5.06589 38.3909 34.8822860604
25.5096 13.8152 35.2638 123.5379444929
26.9484 7.57236 36.1784 38.5768306035
29.2675 1.32038 37.7353 27.7085171453
21.7748 1.51509 36.36 47.1964053938
25.2045 14.2994 38.164 30.0470205579
29.1067 5.39941 38.647 29.9243858137
20.324 4.42904 41.6981 33.3761004649
25.1505 2.37886 41.9338 30.2151895655
22.4006 5.92912 42.6222 29.3753735386
27.0029 7.33477 38.8048 26.2204838379
28.1796 4.51786 42.9617 31.9638707304
29.4039 12.7025 43.1391 35.0348453015
24.641 7.12156 40.1599 25.219398729
21.3689 1.83147 42.6942 28.8011453166
26.1397 14.1017 46.4724 34.1536419409
27.9994 10.5709 44.4484 31.3588703798
27.8261 6.62039 46.1448 32.591005718
25.3897 6.10448 45.0946 30.7909374357
19.9301 2.16967 45.355 29.7234020208
23.6848 2.24995 44.3536 28.1734742579
22.3364 11.1777 39.5884 27.1417985133
24.1576 9.85921 41.9251 27.4159113513
27.0781 9.54443 42.3316 34.3320506788
27.4093 0.234117 44.6868 30.8512436229
19.7654 13.4094 45.157 27.9161842627
23.5768 13.1932 41.9318 30.26753536
27.9034 3.23908 45.5534 31.8443641975
27.7411 0.29799 41.8685 31.2655323879
28.2281 13.763 40.487 33.7318982578
25.7115 12.3469 40.3674 28.9905047827
20.6075 11.615 42.0681 29.4314807451
25.3061 3.45097 46.4427 27.5053963939
22.4504 4.54264 45.3673 26.4854205521
28.8424 8.29836 40.6805 30.4984998571
21.6113 8.48815 41.8147 26.2748364275
25.4104 5.41847 42.0802 31.0214737229
23.6493 10.8024 44.3783 33.3721344011
28.6245 14.4602 45.4273 32.2876299827
23.0893 7.91938 45.5299 30.7864910538
25.7889 11.2502 46.0929 34.0505897694
20.4579 7.57967 44.8502 29.2701319293
22.2128 13.2662 44.3692 33.0087264683
24.0567 15.53 45.1698 33.9740415843
23.5488 16.0898 40.9554 30.5532962486
28.3305 2.98325 40.429 27.9449900697
23.269 0.818448 41.131 27.6526962202
28.3468 16.0859 42.3388 29.1480568729
29.4214 11.2884 38.8324 30.8950697644
19.9435 0.634997 47.3809 29.7979868358
20.7799 7.59835 39.0451 27.8928282678
22.0541 0.288617 38.8515 30.9333266382
22.4153 14.1805 38.9727 28.3038446611
22.8753 3.83909 52.0064 31.4148278606
28.0561 11.2311 54.6293 34.1299892938
21.2035 4.01603 49.7954 30.4159787874
26.5172 7.20566 48.4856 33.9599450886
25.439 3.58369 51.2164 29.9479567172
29.2782 1.58236 51.9049 28.1159130863
21.7146 10.6865 56.3258 34.9065804176
21.6514 16.2915 51.3055 27.5204761319
23.0999 9.87415 49.7004 33.3420353351
28.2396 13.5339 53.2625 31.5898208681
21.1382 15.5071 48.6942 28.8005822674
25.7084 10.8551 50.636 32.2248813219
26.7984 6.00572 51.1333 30.9873276859
22.8602 13.1689 49.7088 32.372130344
25.7622 9.98843 53.2663 34.2268608643
27.0042 10.1552 48.211 30.2537108565
25.4011 2.13428 48.6778 33.9008082624
27.4058 15.7965 54.7033 29.83478218
25.2505 14.6382 48.9747 29.705124975
22.3948 8.69498 52.253 29.0388646114
22.5877 13.19 52.3699 30.2497109891
26.8885 13.3169 50.6269 30.1052652214
20.4475 11.3158 48.7606 31.6705614725
26.8563 2.3539 53.224 28.8151080781
22.4974 6.01845 55.5655 29.6443702972
21.2159 1.19098 49.6672 32.359686751
29.3692 0.436529 48.914 30.5542785839
23.3528 1.54974 53.3105 29.2001187363
25.2452 1.62779 55.6085 30.2310374337
20.8202 0.555334 53.832 27.8588456092
29.1418 12.1162 48.8109 30.0730664149
23.3345 6.40975 52.8805 31.5174071213
28.3071 3.73638 55.156 25.768366077
26.0245 7.20574 53.2574 31.8501752194
23.8311 0.234743 49.9406 31.7170378302
27.6835 6.23117 55.2755 29.2907572665
23.2009 10.8688 53.7402 34.7877216597
23.7214 15.2695 53.8161 33.8281457311
20.7672 15.626 54.3024 33.1513365409
23.795 7.75642 48.1674 32.4212200856
29.4137 5.55509 51.5398 27.9170116902
19.7219 1.81062 55.671 31.2158510037
23.0078 5.04739 48.128 33.9197796718
19.7751 4.66173 55.6351 31.1805434639
25.1653 14.9879 56.1864 31.9322427069
20.4713 8.07396 55.7162 31.9606068596
27.35 27.5671 11.2579 31.7548917235
22.2494 18.9288 4.11008 31.6358817823
23.4923 16.7152 11.1317 31.7597418844
28.0114 18.3933 8.23104 30.5500013401
20.1668 31.4378 7.17722 29.5506080655
25.4363 17.6176 7.48289 32.1546335394
28.9512 31.39 9.55179 30.4181546645
20.5899 23.8614 7.59763 33.7194075699
22.2896 25.0877 5.47234 30.4678359178
26.0681 22.7238 6.28167 34.0314623882
23.6163 29.8733 10.9098 28.1416548429
24.9469 25.2681 6.18692 31.6108610827
21.3116 28.2564 7.6107 29.0822434156
25.8768 26.7335 8.27938 29.2019905754
28.4353 30.4679 5.47208 28.7198443211
27.6141 28.9153 8.9046 30.9200293846
29.4417 27.1154 7.15389 28.97184206
25.5359 28.8113 5.79989 27.6568053069
24.6813 32.0585 9.73017 33.4465115534
22.6705 28.9326 5.24642 30.3253763265
25.4325 31.4434 6.86064 30.6869426998
20.7432 16.3953 7.01941 29.1088989377
21.1269 21.3958 5.98627 29.790584931
20.3853 30.0246 9.60637 28.7060041623
29.4811 22.0106 9.40801 27.5530268277
28.4513 24.0679 10.819 31.8729535831
23.85 24.644 12.1169 27.9211765591
28.7332 22.5325 6.66145 37.3181684212
21.9325 17.9591 8.77652 29.4688366779
26.0567 17.3212 4.75265 30.1845718575
27.4363 20.3744 10.0895 33.0584060867
23.0942 20.3453 7.54851 33.1801378368
25.7087 24.7296 10.429 29.8032395017
25.4021 22.2186 9.05273 32.9644850846
20.8291 23.4018 10.4559 28.1072416129
20.5669 28.1415 12.2714 29.7175069735
27.8432 27.3186 4.71886 29.1717611075
23.132 27.5807 9.31033 30.4443784279
22.8901 21.1484 10.2012 30.6480632711
28.7647 16.8131 5.50237 32.1952095646
21.8473 25.9242 10.8815 30.3709186967
23.762 19.4891 12.2333 28.9314502941
22.0048 31.5245 12.3994 26.5536618857
22.5269 22.6457 3.70371 32.7632706094
29.4693 32.4825 16.6054 30.7567903786
24.3643 30.9364 18.5252 28.7981796593
20.0575 18.5012 17.7159 27.8865441429
22.9996 28.4431 17.6247 29.1067683048
23.9252 32.5528 14.0796 30.7016220422
25.015 21.5116 16.4257 32.0562270091
29.0064 24.1701 18.114 34.4018515829
28.396 17.1739 14.5915 29.855463409
22.106 18.4575 13.9001 27.5168804619
27.4134 32.204 18.8577 28.4664337001
21.8272 29.7909 20.6015 26.4690312434
25.9768 20.8994 13.837 32.2840945097
20.8223 18.2114 20.1333 30.4583931243
20.8448 24.7111 15.372 29.6735015492
24.173 26.6899 13.7933 29.0723807163
21.0267 27.212 19.2084 31.8597369839
21.9732 27.4019 15.2455 31.6883612413
19.6695 22.9527 20.5772 34.1937728797
25.6971 27.4314 17.8178 31.9520379932
21.4134 30.8349 17.1726 32.483332363
20.7301 20.5795 15.0716 26.8702402033
20.822 30.0997 14.3827 30.4565272271
26.9099 29.9015 16.7971 32.1366688491
22.3057 22.372 13.0463 30.0593811494
26.0583 30.9513 14.1118 31.5354840453
29.4187 19.4355 21.209 30.1560406309
23.4677 23.5877 15.5515 28.9030766456
27.9287 22.8337 13.6012 32.113568496
25.232 17.7386 17.7686 30.6117572273
24.9907 18.603 20.4031 27.4737003725
25.6031 26.6257 20.4554 32.0643704636
28.11 24.6611 15.3862 30.2317772826
22.942 18.9897 16.737 29.7055422827
22.6027 21.7849 18.3441 30.8659159558
25.5352 25.3872 15.9254 33.4627229964
25.3884 17.5815 14.1091 30.3608549727
27.5763 21.5832 18.1204 34.1220773575
26.6467 23.0074 20.4245 30.4201991669
22.1312 24.305 19.7567 33.4352081508
25.3503 28.8241 12.7337 31.2388267285
23.4344 20.957 21.1927 27.3194079311
29.3291 28.3462 16.603 31.8525636558
20.02 22.437 17.0869 28.6339646441
28.0286 17.1562 17.6909 27.6871356175
28.204 19.3706 12.816 32.0200629058
28.7982 16.9264 20.2733 28.1024502253
26.5592 30.3455 20.4465 29.0856414101
24.2136 23.8717 21.2593 26.2090922971
28.4594 27.4651 21.1024 29.9456598549
28.1457 31.9739 12.5529 26.5553464622
22.8002 26.9257 21.8117 28.1976035909
21.5991 27.7306 24.2764 74.482791203
22.5677 17.6763 24.0993 59.9097770507
25.662 17.8232 24.1057 67.3206934966
21.0176 22.2204 24.4509 74.1550688586
27.076 20.1889 24.1877 68.9232040441
20.2203 19.4019 24.5289 86.1930134061
23.7069 20.7855 24.028 53.5000302707
24.0472 32.4247 24.4268 69.5643745939
23.3893 23.8696 23.8919 47.8819384749
24.598 26.8665 24.5327 93.0771251567
29.4676 30.1018 22.128 29.6547744723
20.1452 30.2423 24.4642 101.9865804262
25.0292 29.8168 24.6752 79.8263748661
25.9358 22.6192 24.3465 77.3923260166
20.7391 20.5968 21.8352 26.3255528913
27.6987 30.5592 24.5935 79.5441235948
28.9628 27.632 24.3732 79.195929795
28.0901 24.6404 24.2571 71.4454262662
26.8584 20.3174 21.4581 27.482737149
23.1452 16.9831 21.4217 26.5178735379
24.5097 29.2259 21.937 27.648909772
28.4851 24.7286 21.402 28.2633463462
24.0104 32.4371 21.3579 28.8321988633
24.6176 30.3579 35.6531 84.6968382564
29.1567 20.4911 35.7793 63.9681464638
26.1603 31.6259 38.2227 30.2702979157
28.0011 25.3885 37.385 26.5696802636
22.5142 23.7578 38.031 27.9227236808
27.6637 31.5413 35.564 81.6415937899
26.5813 23.1173 38.4483 27.8917986829
24.0183 17.9458 35.3646 105.160216085
28.3004 28.8045 35.6546 69.3951376699
25.7002 27.745 35.6185 76.4266721842
24.2368 20.4933 35.7555 66.861408416
28.9057 17.757 35.739 67.1119582999
25.8541 22.9097 35.7541 65.0850647087
26.2416 27.3501 38.1225 29.5930870112
24.386 25.2626 35.8272 63.3526050537
22.1929 29.2289 36.6571 42.2013061361
20.887 32.2975 38.4954 28.0959780878
21.4423 25.2705 35.7083 105.5410388492
21.6647 21.8564 35.9269 68.7968038795
28.6307 23.3454 35.4722 87.6828119732
20.2451 17.399 38.1964 27.0381949885
20.0992 27.2513 37.1707 33.1368806425
21.3858 16.7023 35.9861 52.1035749226
26.4143 16.7128 35.8822 52.9593836766
28.7831 21.536 38.3884 28.0374936944
19.7861 31.1491 35.9934 56.0056643282
24.1247 21.1244 38.5526 31.9295192989
21.4472 20.002 38.7454 30.1365322389
22.965 29.1776 47.0083 27.4845799529
21.1294 27.9385 43.6875 31.3119608234
26.0291 29.23 39.9805 26.8199962855
22.6447 29.8347 39.681 29.0390042782
25.6788 29.0588 45.0126 28.1682732047
26.5813 19.0215 43.016 30.9639708388
22.4521 23.5138 45.0394 25.7847366757
22.2281 18.3994 40.9001 27.0414424954
28.2631 20.3129 40.967 27.9748128891
23.7312 22.6773 42.0955 28.1271526952
25.641 24.3702 41.1595 28.2655726103
23.8801 26.7987 44.7521 26.377026888
25.3093 24.4618 44.3334 26.9186582318
27.3718 21.8056 44.6571 27.0030558543
21.1564 18.5711 46.0862 26.6459770207
19.8637 29.9924 40.3783 30.4927104293
25.2829 16.5209 43.1038 33.4932230247
24.7172 23.3163 47.2748 29.1936472395
19.9233 27.1221 40.0104 33.527527405
20.4134 30.6983 43.0352 28.7621236008
22.378 32.5875 43.2574 33.6316194318
20.4547 29.9224 45.9526 27.4834018436
24.2924 31.6706 41.2902 31.3836389673
28.0379 30.0635 44.1611 32.6436236314
21.4823 25.776 46.4916 28.8033912101
23.2204 17.0012 47.398 29.4899158329
21.3664 21.8416 46.8396 25.9012715489
24.4957 19.9513 41.3918 28.5040853055
28.5918 29.8477 41.0698 30.5423237381
28.8239 19.94 45.7245 29.1272366818
24.6297 21.2916 44.3699 25.4270722079
24.1299 31.4032 45.4503 31.58195939
27.5881 23.7201 46.8245 30.5200871592
27.8854 25.7121 43.0222 31.6562565802
25.4204 27.5653 42.1475 30.1495445429
24.054 25.7143 39.3508 29.1454295046
28.3827 22.848 42.226 29.3634147479
22.7406 27.4018 40.9706 29.3835042606
22.2641 19.5239 43.7718 28.6944816237
27.7074 17.626 40.2544 28.5044293937
23.7676 20.3549 47.1187 29.5208220008
28.4547 31.9654 46.5122 31.4304634483
20.943 23.3668 42.1425 30.4549490598
20.6345 22.4588 39.4951 30.0597049223
26.9046 32.2521 42.296 33.4193807833
20.2734 21.3695 43.6282 27.7782022846
19.7996 32.6237 46.8379 27.577729038
26.6412 28.6677 47.5446 30.7889874786
19.7777 18.1659 42.3335 30.0962183065
24.5145 26.5544 47.4734 26.8445844794
25.4319 16.9478 38.9052 34.5770667322
26.6591 17.6572 52.9948 29.6245695728
22.5155 20.7433 49.7085 29.2416322648
19.8555 30.9492 51.0512 29.1391729809
26.3828 22.4342 49.3632 32.2710274721
20.2542 30.5112 56.07 32.03200538
20.2556 20.9873 52.9705 30.976345079
25.9778 26.4283 49.7652 29.1976165311
20.7352 23.9896 49.0941 30.6711738617
22.4366 23.1256 51.3655 31.7262091317
19.8216 20.2226 49.9426 28.4233685065
25.1925 24.0924 51.3501 34.0236425124
19.9448 26.417 52.6248 32.0926218994
22.522 26.0699 52.1142 28.6440431392
24.779 28.2767 51.6656 30.0275481315
23.2605 30.7558 55.6537 29.4236539599
28.446 19.1352 53.6531 29.160105141
29.1716 30.2202 50.9925 28.1646842726
26.6652 29.7943 52.5191 30.8118557498
22.8572 31.3923 52.8307 30.6857469145
25.3407 29.058 55.628 27.3073555188
22.786 29.8475 50.2508 30.8418365732
25.4782 32.4019 52.5289 28.0565286092
27.5308 30.8363 48.9174 30.699486885
23.489 18.4897 50.9607 33.7011398325
28.1824 29.4474 55.3956 28.033458254
23.8814 18.2886 53.8613 32.995891385
25.3494 17.7363 49.0877 30.5131876852
27.5626 21.5764 54.7707 31.3519124009
28.8842 24.8406 54.6678 31.5319025277
21.3496 23.4178 54.045 33.7948370854
22.4124 31.8057 48.186 26.4758251889
21.0036 18.3876 54.362 28.3654768898
26.2581 25.1785 56.009 31.3938079315
27.5476 23.569 52.613 30.9454608899
24.887 19.6369 56.2868 33.3395222729
21.9484 26.8223 49.4127 28.1090726534
29.1464 23.2829 50.3406 28.3971773615
27.1694 19.7752 48.3003 34.8686658703
22.2801 27.0465 55.9105 30.7552455407
24.5554 26.9076 54.5522 30.9916865234
28.7313 26.2249 49.8122 31.7795093356
27.3129 16.3062 50.7189 32.2153855554
25.2944 22.4407 56.1608 30.9378811783
29.2625 35.0307 5.30799 27.540211441
23.0349 34.9479 8.26338 29.2371255269
20.121 36.2569 9.30846 35.2878546748
29.0625 48.8581 6.94835 30.2926931937
20.9204 46.5551 4.18972 30.4825569057
25.9891 40.1119 9.71743 25.9361561752
26.6454 33.7609 11.1118 28.6939467529
25.4721 38.0891 7.26329 28.659809936
25.5493 37.3011 11.0239 30.6617477371
27.7401 41.9113 9.63853 28.6124946384
19.8769 41.71 5.48359 28.7118353544
26.0091 34.4812 4.59844 29.1677539121
28.5251 37.789 4.74873 27.5873216592
19.9505 41.5463 10.0153 32.7803926641
28.3688 38.8996 8.14432 29.0789478429
22.2568 45.8559 6.84769 30.1714051547
25.543 39.5663 5.05803 28.3530273063
21.242 43.1018 7.34125 31.5404906411
24.3519 42.0232 5.6849 29.9508765914
28.9804 44.5105 7.17746 29.4479732531
26.5429 48.8384 8.31772 31.8769913049
23.5123 39.5208 11.7909 32.2293187175
20.9491 35.2286 3.93571 32.4608830397
26.9374 44.7001 9.07148 29.3482542212
28.2109 40.9417 5.85562 28.5003567283
29.1253 46.9575 12.084 32.8107273281
26.4996 46.5695 5.83504 33.3601694026
23.8202 42.0092 8.61531 29.7645653178
22.7603 34.0447 11.082 29.8162512239
21.6203 33.7572 6.12095 31.9869203152
21.9491 47.65 9.10665 27.031316136
25.6976 35.1714 7.53763 29.0770205682
23.9244 32.6942 4.9204 31.3054477655
21.4632 37.9143 5.12511 33.6459688578
22.1818 39.6792 9.63354 33.823413636
22.7008 37.6648 7.66278 31.3620656412
24.8899 44.8976 7.20083 28.1103689592
27.7517 43.6173 5.0715 29.1064351895
27.5993 36.1758 9.44857 26.124280347
22.9863 46.5069 11.2051 29.0935973408
24.437 44.1211 10.5661 35.4719499859
27.1193 47.1 10.4236 30.1186228075
27.8673 32.7882 6.94025 29.4720284043
22.9601 48.5202 5.08782 29.4506782757
22.0632 41.2028 3.84835 29.5741541619
20.1689 35.3831 11.8746 34.9159064619
25.0951 47.8316 12.3061 32.594911016
20.4636 45.8069 12.3394 30.9287687726
24.9664 41.8722 12.0543 28.9232048333
24.6898 44.0074 3.88464 32.7909939214
23.3901 43.4253 21.1818 27.1443207896
21.7863 39.17 14.047 32.472018963
26.8278 34.8223 14.9377 28.8418090654
19.7961 35.5101 19.8719 28.1157992828
29.0982 43.8692 17.7953 28.3598943163
25.66 39.5696 20.5927 28.2483785134
23.0421 40.0142 16.4244 30.7517976948
27.4365 40.9642 12.729 30.6699296652
21.0488 35.1785 17.1835 33.4958953736
19.7973 43.5709 16.903 33.1494782388
27.9073 37.4082 15.6136 32.7070795648
25.1047 42.0971 16.063 33.366605928
22.8941 42.2719 14.0055 31.7801462653
28.3088 48.2835 19.7809 26.6672989557
26.4892 45.8577 18.4389 29.3468294025
27.9455 42.2373 15.1191 28.8738185435
22.9352 48.709 16.9537 30.9583422396
28.4741 46.1633 16.2209 28.650533214
28.9938 33.6848 14.3179 26.6883411602
22.6718 44.6026 15.9868 34.7276765988
20.152 48.5774 13.9607 27.672841518
26.2783 40.1214 17.7889 28.6679351486
22.7521 47.1652 14.4129 31.6808469904
26.5474 47.9021 14.845 32.9116007729
26.0373 36.3666 19.4564 29.3645895764
23.1834 36.7764 18.7889 28.8952192502
27.6798 37.9592 12.6553 30.8569699311
20.5557 36.5261 14.696 36.3153994348
28.1124 42.1283 19.7668 28.3317481824
20.1731 43.2996 13.8921 27.7588355003
22.8485 39.3114 19.498 29.8942523234
25.1456 37.5113 16.7578 35.3824934902
28.6647 37.4588 20.0848 29.4048328953
20.3963 40.5444 17.5334 34.6590140489
23.0742 33.337 16.7797 33.3286202302
25.7927 34.1828 17.5891 31.3563277405
20.2804 47.5782 17.8982 32.9586414274
28.8657 39.3028 17.8816 27.1127089896
24.2715 44.0103 18.3367 33.4373516506
21.2269 44.9618 18.9141 31.9181252685
28.6981 44.6414 13.9649 36.7498699892
25.7036 48.3109 17.5754 29.4972911027
24.7456 34.9587 12.8461 33.0487852158
27.3015 44.9918 21.1831 27.4206332867
25.8262 34.458 21.7301 29.9442349672
22.7815 35.5203 21.4974 31.9121518957
26.0783 48.4549 21.6579 27.8981317646
19.9776 44.7827 21.5818 27.456904884
27.2519 38.2052 24.5914 104.0240090438
25.7399 34.668 24.5052 79.0719837692
23.8251 36.9177 24.2095 74.6095911217
21.5393 47.1549 21.7241 30.3406695428
29.4446 36.0619 24.668 103.7345700216
29.0804 42.1187 23.9561 75.4398356714
24.5469 39.6677 23.724 39.2535738457
27.833 39.0293 22.1531 29.2365011879
24.1015 45.8787 24.6135 95.369628449
19.9575 39.7298 24.5325 84.9955888063
20.0563 47.7407 24.4509 83.3796416793
22.0599 43.9323 24.0961 48.8604684751
28.3828 33.4553 24.0033 39.4331444916
26.3388 42.0234 23.9917 66.5833844991
26.9402 44.8878 24.0252 58.9764951685
25.8337 42.4256 21.2957 25.6587544411
22.1848 41.0654 24.4122 84.439624531
21.0488 32.6653 21.2896 30.6941185981
24.3466 46.4008 21.585 30.6400112397
20.8608 37.1163 24.0587 61.0284746763
26.4227 48.7778 24.4094 73.8413535964
23.0119 48.3316 24.311 65.4884823051
29.2243 48.1752 24.4341 76.9239740781
21.3552 32.9594 24.0931 64.0024595778
28.5376 33.2557 21.26 29.4277693164
21.8105 41.3381 21.3619 30.1467020621
20.5118 37.8541 21.2452 30.6461485622
27.496 34.5354 35.9008 64.3702759284
21.374 33.5201 35.7531 98.6287408864
25.2048 41.0059 38.5223 27.3298287576
25.1627 36.0859 36.0907 54.5363731686
27.2591 48.2052 37.9287 31.3090382314
28.6264 38.8024 35.8263 68.1503718831
25.4752 44.4029 38.1519 24.9263480889
22.8882 46.5096 37.9904 27.8905264755
21.1104 36.3482 36.5395 35.7627516068
26.2012 42.0333 35.9498 56.3677134637
28.7905 43.2311 36.2946 52.3376677925
24.0795 33.4894 35.9984 57.5314827276
25.4477 39.3035 35.3707 102.5429770317
22.5795 38.548 35.7077 82.4282822085
23.9726 43.8435 35.438 102.1741889941
24.3869 46.942 35.8157 75.5890344343
21.0899 43.4454 35.7601 66.0777472682
20.6257 46.2473 36.2931 56.7890191716
20.4857 40.5793 35.7632 82.8525695738
22.7919 43.2008 38.6284 26.8775860972
26.803 45.8293 36.2832 55.1583392973
26.6792 38.469 38.0289 25.4882871221
20.3981 41.5823 38.7266 28.4345595481
27.561 34.0123 38.6954 26.4683591058
23.3568 38.2267 38.5536 28.7879580034
23.7258 33.5315 38.7893 29.5174590753
21.1946 46.9105 46.6515 31.1107364861
25.9297 33.4706 46.1773 32.559138109
23.9825 38.8818 41.2967 30.5246294375
23.5166 35.6822 41.331 32.2984279817
23.9932 47.5884 42.9782 29.6455273559
26.5999 39.9543 40.8777 27.1818648297
29.4655 36.3658 41.81 28.3962324127
24.6009 43.6052 42.1956 29.6792128943
21.2833 35.7753 42.9889 28.3283008223
25.8188 45.2004 47.3486 27.0485603158
26.5855 42.5769 45.9328 27.3302187268
29.4314 45.0227 40.4107 31.1105912803
27.0652 42.3889 42.2566 29.3496177965
20.2773 44.2124 43.448 28.7537263218
24.5701 45.8412 40.6827 28.1292467666
20.8469 42.0116 41.9129 30.3685819375
27.1269 47.0144 40.3158 31.0766271552
21.6879 46.6546 43.8721 28.6687983036
24.0681 44.8792 44.7853 32.8227630328
29.3756 37.2579 39.1174 26.7085235526
19.8167 38.9593 39.7349 31.8654134072
24.7353 48.8277 45.2731 30.3919194919
27.7096 40.4049 44.3555 25.9439996664
29.0639 47.2817 43.9941 30.520431667
23.6592 39.8681 44.2392 32.9417081672
23.7137 42.1859 45.96 28.0088100329
26.7321 35.9179 44.5597 34.3976289427
29.0327 43.6326 45.8054 29.9684662678
21.3576 38.2413 44.3097 33.5247218557
26.8497 34.9721 41.9116 31.2342000934
21.3196 34.6688 45.4579 33.6933389302
21.3125 36.3522 39.4051 28.893712019
21.4045 44.8126 40.4892 31.2166224858
21.0029 42.657 45.9103 33.4043613413
26.002 38.6075 45.0196 32.3624170166
29.349 36.1158 45.1584 30.7956553529
28.4335 46.4901 46.676 28.4718881374
23.5233 41.4796 41.0924 25.4353401377
29.0994 39.1511 42.1032 30.803456591
20.4324 38.1875 47.0326 28.1469663694
29.3145 40.1811 39.2257 26.9116822213
27.7434 42.905 39.1241 29.1599883493
19.7957 48.489 42.2723 33.5344439019
25.61 35.9952 39.1677 26.5706653997
22.784 33.8445 51.08 31.0815017818
24.1438 37.9309 49.4055 35.9320184038
27.4583 35.249 48.8021 30.3541219526
29.2904 43.5608 55.3107 30.5514070438
24.4599 35.2174 53.8779 29.6714197192
21.9515 39.8107 48.8419 34.1713184411
21.0164 44.4078 48.1454 31.3796257894
20.4338 40.9624 50.9609 31.167803311
22.4312 36.0859 48.1159 29.8637043153
25.2467 37.7954 52.3589 30.1781433368
26.3145 37.8868 47.7711 32.702424233
26.5383 42.2481 48.7885 30.0725014553
24.1435 46.6189 53.8519 27.4994876414
23.3987 44.7806 49.4244 29.6501856166
22.1288 43.9033 55.061 29.5287140755
24.3289 44.513 52.0461 30.7138585501
28.8476 35.2551 53.401 30.1908498542
26.9823 43.385 51.6636 29.0661368886
27.7767 47.1813 54.7071 31.2220645299
28.5649 40.9071 55.6508 29.1143318624
26.7109 46.6491 50.3004 27.7389461904
27.5047 36.7052 51.2773 30.0048658458
20.3031 45.437 52.2941 31.5772483596
28.2229 47.9566 52.2169 25.3855432651
21.7715 34.4259 54.2086 28.4189146382
24.0382 33.8672 48.3064 26.1115739115
20.2932 36.4475 52.8653 29.0953305733
26.7349 44.6456 54.7204 30.055780399
28.3244 37.5922 55.0047 26.790387185
22.5468 37.9864 53.4156 30.8052523974
21.4483 40.4061 53.7337 31.3657115919
27.8112 40.7412 52.253 33.1030070476
26.1745 39.6758 53.989 36.0830316181
25.9478 32.8314 49.9283 31.0212970869
21.9362 43.0422 52.3318 31.4100139863
21.4054 47.1859 54.1551 28.9228554406
26.7146 48.4828 48.2709 26.8751292691
28.3286 44.5528 49.4403 26.3449295789
23.6288 42.1593 48.7436 32.0385136457
20.4975 36.1367 49.9692 27.891119539
26.9787 33.6094 54.6528 28.9749620161
28.16 39.8972 48.4673 29.2443560663
25.2462 48.808 52.4375 27.0972169964
25.4303 36.8665 55.92 28.0781407067
20.1256 33.3715 49.6721 26.5501564322
29.3127 38.8102 50.7343 28.3270608718
25.2884 47.7748 56.1356 28.7267955419
29.1079 32.7096 56.3787 28.069224517
23.277 38.5555 56.2413 26.5112225724
23.8877 47.3161 47.7105 27.8911175242
36.3877 9.88182 8.47135 30.5357570506
38.6845 0.919061 5.06216 28.0443872154
37.6711 3.7318 9.0002 27.7678525421
38.5743 14.2496 10.2317 28.8055027815
38.6502 9.39754 5.0414 29.7949254108
36.9877 13.8601 4.34497 28.0047846305
34.9663 5.76656 11.5538 28.8498361366
32.3456 7.69238 11.932 32.2313121023
32.0464 2.14829 6.23995 33.9376201015
33.955 0.166906 8.17644 27.5483200524
30.8425 13.4843 4.4416 33.9001766923
36.0789 13.375 11.2407 28.7672791512
37.5345 0.839057 9.80586 28.4625134981
34.3997 3.21068 7.64716 30.8591189756
34.3401 15.7484 5.67151 27.5340913198
31.2179 4.6461 9.16417 30.7996478506
33.11 13.4076 6.01999 26.254681346
32.7028 9.79024 4.31329 28.3452884527
33.6494 10.52 6.65481 25.3532847185
38.4454 8.07858 8.92374 31.0869297522
39.034 6.82208 6.26357 29.8029445114
30.3114 4.1744 5.04475 34.3357004897
31.6389 10.3839 8.44731 36.4315220965
35.8293 1.83317 5.71171 28.0395645788
29.8571 10.794 12.0246 28.3304200784
37.327 12.9064 7.93119 25.6214863581
36.0696 11.6777 5.59229 26.2747363297
37.4465 5.83881 10.476 30.1664406988
30.0667 6.69259 10.5477 33.9313189852
33.4399 15.9435 10.2512 26.3742628957
34.5449 7.79682 7.18647 38.4595891546
31.3472 3.05243 11.6443 30.561464895
35.3148 2.54531 10.3216 28.9091495344
38.3095 3.87476 6.43822 29.0479498468
32.1846 0.639279 10.2625 25.6929035381
34.0529 7.29038 4.46783 33.7046769951
36.9135 15.5499 6.5735 28.3252525464
32.6736 10.3078 11.1322 31.0188279533
35.7778 10.7389 11.1772 30.6055752866
33.9491 5.69516 8.8952 32.8958213467
31.6395 13.6583 8.71563 32.1332425569
34.8187 13.79 8.77439 29.2144726403
30.5294 1.76808 8.5179 25.866573986
29.913 9.36347 4.68416 33.9019318172
39.2609 10.9431 7.08628 28.0664254196
39.0514 15.8086 3.75452 29.1125036966
37.3688 5.59321 3.88557 32.2016630443
29.8384 5.2631 14.516 30.8045322713
37.5648 9.41959 18.0294 27.8074983684
32.838 4.92633 16.991 34.7715034719
33.9931 14.3951 12.8422 31.6387820836
32.1495 3.2709 14.4504 29.2205024681
29.6391 3.11918 18.8764 30.9138716151
37.1385 9.64902 13.1522 26.6594837116
38.8788 6.91322 18.4692 25.116372816
36.9036 4.53378 14.3837 30.5281191261
33.6379 7.67431 15.7905 30.3661256183
35.9232 13.7925 14.9756 28.6542054258
30.299 8.05268 13.7928 28.1735598873
33.4312 10.3212 16.0694 30.9402594036
35.5133 11.3078 14.5955 28.5043895265
36.317 0.445674 16.0122 31.1058071303
30.1065 14.8715 16.7991 30.2405139135
32.5416 12.0768 13.4099 31.9618437636
32.0446 14.4231 18.7594 32.2611953977
31.0598 15.5354 20.9227 28.5416003782
38.7353 14.6338 14.4126 31.9285178575
36.1323 3.05542 20.553 28.9589929798
31.4773 0.695994 14.8381 28.1270783552
38.597 9.98871 15.6679 27.264850329
38.9164 1.2422 16.6437 29.3343012134
35.2534 3.51641 16.2807 30.5064896823
31.7747 2.02203 17.5824 29.6876322508
37.454 6.84622 15.6131 25.8608099817
35.3779 7.52946 17.8684 28.1801810659
39.1709 0.543152 19.6987 31.0539627788
34.3897 7.76821 20.8852 31.7479253683
39.3415 10.1696 20.5934 32.5598990158
29.9097 5.57124 17.2954 31.8024324824
35.4223 0.0685143 13.4541 30.5531883315
36.5119 12.5311 18.6533 27.9500907015
32.4541 11.1021 20.3871 32.7043169984
34.445 10.4411 18.6305 28.5530260853
35.2549 7.59639 13.4427 29.3959030649
34.8471 14.5167 17.7234 32.2397039916
30.7185 9.19646 16.4557 35.2031550014
36.6148 4.77618 18.3689 28.9309328675
30.0364 12.6863 14.6309 30.6564436819
38.5101 12.7337 16.75 31.9319436315
33.6944 1.60175 19.8538 32.7528035569
34.7008 2.89618 12.9942 29.2566875966
39.2408 3.64355 18.0277 28.1318798185
30.476 4.49256 21.2824 34.0012165922
36.6566 0.221765 21.1368 32.8182419267
36.5486 13.5171 21.0657 30.0958725054
30.0678 0.199307 21.9506 26.5273965426
30.49 1.68616 24.5777 91.3321222388
32.3283 4.00535 23.7257 41.9003431725
34.6905 1.9328 24.4667 89.1077752309
30.5296 6.16017 24.6174 110.4124161848
38.167 4.0819 22.3012 28.6387824328
36.5679 16.3039 21.6717 28.181341008
35.9245 4.61874 24.0522 67.0610235575
31.5541 8.70072 24.1269 50.1251374122
37.0597 8.82021 22.2198 31.010541982
36.9466 7.42428 24.6179 109.5791428796
34.3143 8.89886 24.2789 73.5048290499
30.4826 12.7612 21.5462 28.6929784342
29.4985 10.7447 24.483 85.3806042604
31.3014 13.1058 24.1302 58.0853319128
31.3903 15.7819 24.2028 72.2035899623
36.2143 13.6435 24.2574 69.3280141478
33.9353 11.7854 24.3636 87.0078148535
34.8887 11.169 21.7277 29.7986454025
39.0027 6.88427 21.2473 29.5556230161
38.9446 12.6933 21.8119 29.6647122495
37.1995 0.173873 24.3068 78.7498810628
38.8478 13.1011 24.5206 110.9960420872
34.2413 5.05627 21.7659 34.5858831736
31.8156 8.54413 21.3926 33.489744057
34.4143 4.85016 35.6838 81.2636828305
38.4021 7.30546 38.5751 31.4829952468
36.0876 2.68716 36.1383 51.5014057674
30.354 14.3713 38.2445 32.5581996068
38.8869 2.41179 36.1126 52.2572559492
35.6209 13.5413 35.747 86.2786013995
34.0813 0.362093 35.3251 112.1261850367
34.8123 9.67222 36.0737 68.9192239576
36.2765 7.14393 35.4382 109.1891998092
36.5869 13.6923 38.5607 23.6050765922
30.9616 6.01122 36.3424 43.6803366138
38.8741 14.6308 36.1019 51.9966871987
32.6125 8.54918 37.178 32.8264060808
37.821 11.9459 35.9445 68.4143269071
33.6105 12.0866 36.2876 42.275892562
29.5407 8.36809 35.4662 124.6875068669
33.9921 6.49001 38.2552 30.6328119667
32.122 2.5481 35.6444 72.7433793592
