18.5864 31.6957 38.8192 28.9490416158
22.3315 30.1882 36.0135 73.3775298745
23.5851 28.7949 38.8044 28.5814670761
23.9141 32.6513 36.5068 44.4185691967
12.5972 32.7706 35.613 73.5642843723
14.9123 33.7003 35.8261 58.4687321281
14.5304 36.7483 35.9224 62.7355728814
14.7869 33.6552 38.5646 27.3487101313
15.639 36.3401 38.8593 29.4978366297
18.0766 34.8893 35.4404 99.6121078018
18.1853 36.2426 37.9695 28.4768572629
20.925 33.7937 36.0181 59.5469783379
22.1848 36.4653 35.9047 75.8636243739
22.8556 34.6019 38.3078 28.9696702424
13.9619 27.2954 41.1748 28.24811268
16.9226 27.0814 41.1755 30.9969376634
19.3003 25.7152 40.5946 29.7800988889
20.6419 27.5615 39.0127 27.4066467361
22.6542 26.0928 41.5015 31.9960575803
22.8566 24.6996 38.9198 30.4639517534
15.6689 31.2563 39.7503 27.8071719498
14.1612 30.2265 41.9788 31.836648631
19.7085 29.8693 40.5097 29.5891302955
17.2445 30.178 42.3485 27.3059720954
23.5864 28.7309 41.7091 28.7079930157
21.9101 31.1929 38.9486 27.5448742867
21.7159 30.6763 42.2049 28.130240861
13.3318 33.08 41.6185 31.2636513163
15.9132 34.432 41.4564 29.1110300464
19.899 34.0823 39.1457 29.0286091417
19.2277 34.8202 41.7485 30.4563660416
23.1189 33.0574 40.8496 27.4396407698
22.0171 35.3869 42.3551 28.870550106
15.9331 25.0368 45.2851 27.1364995547
14.1849 27.8495 45.7037 28.3991171463
15.9978 26.2446 47.6613 28.9343367969
14.0217 25.6868 43.6515 26.6404812058
17.8592 26.1806 43.837 31.0332565222
23.8302 28.5353 46.3201 33.0406398183
20.8998 28.2076 47.296 30.6827187911
21.0827 25.9647 43.8439 31.7170001543
15.7138 30.0306 45.0568 27.7211597476
12.7406 30.6845 44.8291 35.9443013685
17.7751 28.6419 47.2234 32.5045676052
16.4628 31.9748 46.6891 30.2992248869
18.5588 28.7368 44.4672 29.038013922
21.8961 31.8032 45.355 32.5309046566
21.2501 28.8196 44.2637 27.0484244624
24.1607 32.6138 43.802 30.1524986011
14.0442 33.2281 47.3641 29.6023940635
16.0492 34.5716 45.1429 31.716714883
14.4121 36.2025 43.4946 29.7665449844
16.8501 35.6797 47.4644 28.3756488316
20.3971 33.908 44.3319 30.92793966
20.3363 35.8987 46.0846 32.8146800268
17.6115 32.8245 43.3813 31.9051049926
24.5849 35.4269 43.5496 31.4464748611
14.0125 25.7532 49.4704 30.5851340433
13.1486 28.0906 48.3305 30.7616200843
18.4212 25.2215 48.9095 32.240371185
18.8651 26.2677 51.4636 34.1648057804
22.4301 24.8456 50.2036 29.49803792
21.1427 25.5857 47.9059 34.163477452
13.1413 32.4772 49.9807 29.9768376341
14.0553 29.9964 50.2796 32.7969843245
16.8057 30.3001 50.9841 32.9901912937
18.1063 31.014 48.6127 28.6501613645
22.471 32.2714 47.9562 29.2613388738
20.9603 30.2568 49.0244 34.6140426012
22.0709 29.3929 51.6301 34.3719466802
13.6616 36.3207 50.5281 28.9519579841
14.2742 33.9807 51.9694 33.2993310282
14.3264 35.7926 48.1564 29.1337144299
18.3999 34.743 51.725 33.8979098292
18.2943 33.7603 49.0212 33.3113820082
23.1759 36.4639 49.5919 29.5772685001
22.5361 33.7218 51.414 34.4098400212
21.1412 34.6219 48.5581 32.4286271903
14.5004 25.4521 52.9102 31.137029131
15.8387 27.4799 54.517 36.9935219098
17.7073 28.4567 52.5903 32.0946922335
20.175 25.5799 55.9557 30.8086601328
24.4742 28.5123 55.3363 26.7449876108
21.8277 28.0003 54.7372 27.1220623498
21.5935 26.4664 52.4294 27.2870214796
24.5986 24.7882 53.9746 26.0122979624
12.5143 29.7216 52.5349 33.6712114511
12.9859 28.8853 55.2295 28.9721938907
17.9067 30.9472 56.2525 30.503757994
19.4449 30.0433 53.9428 32.6520334089
22.1334 31.3096 53.8518 26.0509972727
23.5204 31.1628 56.3811 28.9982580765
13.7067 32.9062 55.2812 28.96953193
12.6747 35.5653 56.074 33.7852086045
16.5604 33.1396 55.184 29.7645924815
17.3637 35.4657 55.711 29.6256804085
20.4774 33.5282 53.5855 31.1879640342
16.8291 32.7677 52.3536 31.162994671
20.0591 35.0281 56.5145 28.576069292
22.3258 35.2461 54.8115 27.8459997184
22.9089 36.5352 52.5415 29.3433446655
24.4059 33.6555 56.1493 34.968014212
15.6137 40.6725 5.66532 29.2904382372
14.84 37.7847 4.88103 33.6168422805
13.6355 38.0395 7.51096 34.2668831175
20.0195 38.9108 5.31605 29.1540142738
17.7819 38.7006 6.69852 31.932249945
24.3303 39.4957 5.37753 31.8394916965
21.9792 40.7023 6.08308 29.4278968051
16.0127 43.9835 6.80252 29.1466269307
12.7147 41.1206 4.2881 31.974080966
12.3289 43.8444 5.7402 28.1428082002
16.095 42.1542 3.48891 27.0366095133
18.5483 43.533 5.2764 29.4734297658
22.0316 43.3969 5.67988 32.2043289865
24.3506 44.7005 4.94115 31.6649483956
14.7608 45.6756 5.03376 29.7286416567
13.8744 48.156 5.40999 29.0517751821
19.7288 45.9766 6.38351 30.3066320038
17.991 47.723 7.77 33.0129221806
19.4937 46.5048 3.45462 29.8286864045
24.1691 47.0885 5.93586 30.9674240829
21.5594 48.398 5.55768 34.5433256573
15.0138 39.3966 9.24937 28.5040862526
13.9647 38.2459 11.6572 32.7561170668
17.5305 38.548 9.43467 30.2922357061
18.4521 39.381 12.1585 25.7788120474
20.3373 36.9578 12.0909 32.9054187354
24.5315 40.405 10.6552 27.1465366033
22.3027 40.2196 8.92573 27.489147364
22.4157 37.4208 8.22434 32.8734681236
14.0691 41.7586 11.7747 33.1358595843
14.1871 41.8738 7.89311 29.1413158912
13.0688 43.6179 9.96496 26.5520283854
19.7534 40.899 9.89183 29.1074832918
18.5107 42.9886 8.48129 32.1111344263
17.4104 44.4526 10.7001 31.1733414806
20.4534 43.2889 11.9366 27.0727408035
16.7198 41.6941 11.8664 31.4804711854
23.1544 42.7853 8.88427 26.8025778409
23.1141 43.3518 11.5492 27.2195990715
20.9472 44.4018 8.7631 29.233233192
15.7551 47.3705 11.8036 28.8151003648
13.13 45.8841 11.717 31.2674277503
13.2998 46.506 8.52958 29.6064665294
15.9529 46.1779 9.17287 27.4016064895
18.4134 48.5756 10.445 28.8019083493
19.3335 46.3209 12.2359 28.2446378441
23.6144 45.8925 11.8667 29.4462315354
23.9452 47.7555 8.67363 32.7992658274
21.5287 46.8726 10.332 27.7082829508
13.9004 39.0332 14.9096 28.7062217859
16.3849 37.763 13.8927 29.2542890706
13.3366 37.0756 16.6021 31.203567956
20.3092 36.8841 15.1723 30.9757942918
19.625 39.8964 15.1102 29.4830799179
17.8151 36.9348 16.1022 30.2378267095
21.203 40.6157 12.5159 37.0893408578
15.0728 41.2655 16.2435 29.2559875808
13.6039 43.4344 16.5024 31.8878775877
17.7847 44.0787 15.4857 30.5645105016
20.3366 44.3197 14.5315 30.1436093614
17.0661 41.3104 14.708 29.8175705616
20.5863 42.1257 16.5578 30.4147931734
13.6812 45.6813 14.7129 31.9905584609
16.5147 48.7638 15.1836 30.0835029984
19.408 48.1967 15.0285 33.075513591
16.5437 46.1009 14.0798 29.7447462197
23.8937 47.128 14.4193 29.187649009
22.8471 45.0752 15.9953 32.1695846866
21.7261 48.838 13.0528 32.3162967003
14.8782 37.3302 19.1014 32.978182513
19.3496 39.0259 18.0565 29.6974715205
16.5178 39.0979 20.1836 29.5036580996
22.6458 37.318 17.0994 29.7024879183
22.0631 39.6615 20.9036 27.4436376869
22.705 39.6877 18.3761 30.8574594609
24.3177 37.2464 19.7213 28.3481217541
13.2088 42.3389 19.4125 30.1257726421
16.0501 41.5188 18.704 28.524865961
15.2548 43.1235 21.0902 32.600778122
18.7199 41.8979 18.9672 28.4489447859
18.4573 44.5484 18.0252 39.2555320394
23.4292 42.4033 17.3464 30.0835244077
13.37 47.0886 17.2335 36.1158672429
14.6455 49.0134 18.9155 30.982813599
20.7659 48.1367 17.6825 32.8910488781
21.0018 45.5137 18.2043 28.1629113765
22.4232 45.8187 20.4436 27.816316967
14.2247 39.2328 24.5414 84.2766580078
14.6916 40.1602 21.9656 27.2498489188
19.2147 38.8013 21.3997 27.4697756141
17.7343 39.0147 23.876 43.8722667403
22.3409 36.7781 21.9557 28.2958363026
22.4136 37.8627 24.5009 108.7438526265
20.6706 40.2451 24.3614 79.3024884336
24.4975 39.524 23.6041 41.2932828197
14.239 43.0469 23.6539 34.3152765576
16.5401 41.5243 24.4904 96.9987386253
19.2585 42.7748 24.1925 60.3429369975
19.8132 42.2821 21.5172 32.478991857
23.9523 43.9608 21.6667 29.8319399993
22.0526 43.829 24.5247 90.2864100088
22.674 41.5335 22.8077 24.5975332275
15.0187 45.8934 21.5391 31.7540925645
12.7776 47.609 21.7648 25.9651459357
14.4202 45.9169 24.2104 74.6610817207
17.45 46.9956 21.5197 31.5374754309
19.6276 45.2549 21.4885 30.4468187065
17.335 46.9012 24.2986 68.6269766236
19.8454 46.1218 24.1543 58.7710401352
24.098 47.7333 24.3243 77.362536361
21.4871 48.2495 24.0361 56.2791779625
21.4287 48.5262 21.1613 30.644188249
12.615 38.5893 36.1129 57.7692208111
16.1204 40.77 36.3188 40.7437577521
16.7623 38.2408 35.5736 86.5327797349
19.6626 37.9618 35.8363 64.5888925745
20.5766 39.9759 37.4996 30.8596068004
23.2166 39.4564 36.1842 49.2953730948
24.0645 38.6397 38.673 26.6354785794
13.2131 41.2817 36.244 63.0318356032
13.6038 43.415 38.5453 29.1052934026
18.998 41.2551 35.7288 96.0357606189
19.828 43.437 37.067 28.68475487
16.6232 43.6667 35.8503 72.5051437164
22.8122 43.5434 36.9499 31.402665286
24.2717 41.7583 35.7254 95.7576054804
13.9798 45.0881 35.823 97.9186347707
14.2945 47.7534 36.8364 32.4945734313
17.3762 46.5107 38.6402 27.3726554606
18.7731 45.6686 35.7425 91.5849387689
17.0352 48.0704 35.9381 77.1969841682
21.5261 46.8027 36.2663 40.5625453143
24.049 45.6654 35.4478 99.2100676578
12.6586 37.7524 39.256 29.4530973476
13.0112 39.2231 43.2114 28.4698916507
14.9315 38.8633 40.8985 28.7746856865
19.154 38.4476 39.7997 30.4289593252
17.4068 37.3238 41.8402 30.3537536537
21.8415 37.7652 40.5054 35.8371013647
22.2626 40.4913 42.4272 29.6921911568
15.3059 40.9174 39.1754 28.6233132909
13.562 42.2985 41.837 30.2218181944
17.8362 41.3029 42.8011 30.4122952621
16.7694 43.8562 38.9605 28.4058548115
19.8676 43.325 39.7818 27.2965901869
16.7042 44.1322 43.01 30.4744684371
18.2932 41.0564 40.1178 29.1317514726
22.9446 43.9327 39.5199 27.419736461
23.7668 43.1192 42.742 30.7712871136
23.8068 41.0693 40.1338 29.847066829
20.5084 42.7593 42.8488 32.1868365833
13.0015 48.4671 39.3088 31.6663719092
14.8536 45.0614 41.1369 29.5333691272
15.5077 47.9119 40.6473 30.7611471544
13.2061 46.4443 43.3238 31.3184257275
18.6195 45.9896 42.7168 29.2542285622
19.5122 46.1092 40.1275 29.7812502594
21.4835 47.6093 39.0034 31.3055405823
23.7933 46.3043 40.0074 32.1339603199
13.436 39.9875 46.4149 28.0241827639
16.0903 40.1287 47.0545 35.7702645371
13.2202 37.082 46.0964 31.234325347
18.174 38.8038 44.2685 33.8814669876
18.3162 37.9102 47.2104 29.3294978775
22.8411 37.1713 45.0855 31.3985105331
24.4751 38.0004 47.5286 31.9560146787
20.8372 39.3981 44.6903 30.9860614207
15.1988 40.9351 43.8859 30.1956523378
13.1 43.1783 45.8793 36.0035534013
18.8359 42.1455 47.5692 37.7418066706
22.3588 43.2545 45.5727 32.906161541
21.215 40.9988 46.8665 29.7905435058
24.2953 44.2179 47.5966 27.8597661535
15.1768 45.0358 45.0272 31.9256427763
13.5262 47.8813 45.9345 31.2778118125
18.1046 45.0869 47.5671 32.9165025405
20.433 46.1828 47.5782 29.7796370066
18.1205 48.6949 43.5651 31.4329801125
16.8162 47.096 45.8265 30.6784131723
23.7179 46.8382 46.5376 30.0936389904
22.6483 47.3134 43.9537 38.2872580196
20.7833 45.586 44.5737 30.5567982669
12.4326 40.4834 49.0931 33.6287844144
14.2959 39.1236 50.8341 29.5835099729
17.0747 37.413 51.285 32.4357179433
19.307 38.7349 49.6446 31.0836127803
16.6771 40.4036 49.8521 27.6661669975
22.4962 39.5977 49.1409 28.5091098687
21.5079 38.7696 51.8186 28.0155026987
12.8747 42.9262 50.4808 32.777299493
15.7304 43.0785 50.3745 35.3024242852
19.926 41.5523 50.4878 32.3145555665
23.9966 41.6671 50.497 27.9340264333
22.2612 43.0803 49.0882 26.9507035853
15.5222 47.9493 50.0894 30.6954398869
13.186 47.6001 51.6548 28.1194824157
19.8335 48.7771 48.502 30.4128077511
16.7473 45.4939 49.9162 32.4948777652
18.258 46.4363 51.9783 30.9227562166
20.9409 47.3259 52.0267 31.4489365396
22.0364 45.6458 49.9856 33.2967965175
14.3891 37.85 55.0818 33.3625200936
13.3994 39.7846 53.3126 34.103369319
18.7663 40.1739 56.0609 31.5077891038
16.705 40.6478 54.4064 32.2232434913
16.8235 37.6092 53.8922 28.4678486087
19.8875 38.2564 54.1626 35.3148732306
24.2389 39.868 55.6464 29.6563650512
22.0785 38.0133 56.4282 33.6648787508
12.6161 43.1117 53.252 31.0692414637
13.8006 43.3876 56.0438 29.2798314898
20.3573 42.4071 56.502 30.6854007102
17.7807 42.2968 52.2136 32.5553277465
17.8705 44.6543 55.7035 28.5308832939
19.2567 44.2018 53.5424 28.5123097684
22.7307 41.0713 52.8844 31.9674925208
21.7445 43.3977 54.3394 32.5899907698
15.4648 46.4633 55.732 28.6292647295
13.5953 45.6043 53.5582 32.4759965127
17.4217 48.4342 53.5318 28.1190011154
17.6631 48.5796 56.265 34.7861308155
21.6628 46.7334 54.841 31.323262746
24.0406 45.1728 55.2246 33.2683209776
22.9424 48.9646 55.9813 34.7786990241
28.0003 3.05988 6.01097 31.5682955068
25.2692 2.54483 6.20776 35.2336598888
25.5393 0.181538 4.47149 32.1905714315
31.4719 3.86174 7.24947 27.5608473789
32.6691 1.70062 5.75448 29.5650579098
28.894 1.17804 4.20275 30.5551912462
35.3384 2.72628 6.30036 29.4167268492
36.8547 0.329897 6.44688 32.7284036282
28.1237 5.08893 4.29861 28.8918105279
26.2017 6.73604 4.66023 28.099419595
26.1334 7.86286 7.74926 32.1537806405
30.5961 5.60333 5.14113 30.8114979323
36.2756 7.21675 5.91462 26.9547290763
34.4262 6.26792 3.50119 30.1832079427
34.6096 5.28034 6.98902 27.8862653504
25.9627 9.6299 4.79459 27.6691808804
30.4247 8.45733 4.97951 31.4670151426
28.8003 11.2876 5.22681 28.6119290717
28.8232 9.07106 7.44935 33.6803729473
31.0583 11.8634 7.05154 29.1742401791
32.9079 11.2405 5.10048 27.0826970029
35.1852 12.1249 6.39058 27.7257423822
33.4037 8.54574 5.1376 28.5292202924
36.1384 9.74936 7.01791 27.9231856106
25.2584 2.20575 11.1878 32.4376711132
27.5963 3.90396 11.0994 33.4019202078
29.306 2.24985 8.20927 33.0601808492
32.1451 0.507908 9.21169 28.2123250461
29.0055 1.13651 10.9562 33.1148166617
35.4945 3.06366 9.05973 29.785866574
36.4784 1.07155 11.4385 28.5948837057
32.9437 3.07552 10.2333 28.4222186745
26.0428 6.02625 9.91538 34.840297396
30.8932 5.95661 11.9021 32.1764177684
31.5247 5.62277 9.35021 32.9714576203
32.8524 7.48643 8.00366 27.6054921898
34.8878 6.01207 10.003 27.047859976
28.3467 11.3946 9.28241 26.2967760889
27.0934 9.23198 10.5911 27.6243959714
25.798 11.469 11.8719 26.9516764257
31.3374 9.86896 8.99958 30.2229712468
30.7434 10.1554 11.7404 29.2201981041
35.1623 8.79426 9.38066 27.5568562347
33.7849 11.1829 10.7266 29.2903839811
27.3305 1.07009 14.7725 31.5942107721
24.6868 0.543469 15.6896 30.3728691671
28.7276 3.27922 15.5365 25.5227014307
30.824 2.97416 12.5673 32.7328831747
31.4732 2.5644 15.2394 29.838249592
34.9325 3.09467 12.7792 29.1024811001
34.4755 1.85118 15.0088 31.1475096797
36.8803 2.67115 16.3575 33.6322795896
24.695 4.8266 14.2323 30.976747243
28.4729 5.23938 13.4856 28.987379188
25.6065 6.98076 12.4273 27.9905759993
28.5466 6.62409 16.5984 32.2711621773
28.7575 8.103 12.6251 29.7116243122
35.8954 5.45895 16.488 30.1362391499
33.6435 6.1569 12.5597 30.9157724012
33.3554 4.89973 15.323 33.6145682419
36.8728 6.95497 14.3793 28.7138517293
25.9083 9.24243 14.0022 30.8162323964
28.6174 9.32346 15.2561 32.6779294699
31.3511 9.90403 16.2135 28.2301075923
32.5928 10.8298 13.7926 29.0662345439
35.402 9.53448 15.5848 29.0052651757
34.6417 8.90988 12.8512 28.7813867051
26.1549 0.544133 18.7312 27.8005138736
27.1043 3.69917 20.995 26.4935056035
27.739 2.67617 18.2626 28.2577654535
30.6249 1.50679 18.237 31.4018840336
26.1348 4.80388 16.9927 30.4654998607
25.4059 7.04847 18.7356 30.5159682514
30.8823 5.05184 17.1233 29.7788871201
29.2427 5.97266 21.0742 28.9550966832
31.0987 4.09268 20.0311 31.5088105569
31.8853 7.71354 17.4983 27.9108654689
29.2487 8.16242 19.2637 31.9724060488
33.2063 6.29401 20.0525 34.1092186746
34.627 7.69443 17.8415 25.7723520418
36.8639 5.60673 19.1879 30.3044786215
26.928 8.37345 21.0867 29.2706990954
25.063 12.163 16.9043 34.9489948157
31.4276 8.53704 21.0062 26.9324985666
30.81 11.2923 20.7973 26.0093754943
30.858 11.9872 18.2891 29.8811534196
33.5758 9.919 19.6083 28.2968243299
36.7115 11.3473 18.1207 26.2934999913
33.7761 11.4316 17.1038 26.9871704476
25.1344 1.89936 21.4227 28.0756059054
26.9541 1.02991 24.4836 88.3564873182
27.7976 3.61078 23.8151 41.2174486098
29.7539 1.88937 21.3704 25.584263936
32.7914 1.87775 21.8201 29.1181416972
30.2962 2.153 24.041 54.7123734351
32.8066 0.547097 24.1089 77.6241494314
35.4395 2.63504 21.8896 31.3337695725
35.8434 3.38398 24.4413 108.6296849678
25.1001 5.53944 21.5801 28.9149275818
25.2849 4.95814 24.4091 88.7823380838
26.6161 7.39924 24.0434 51.1781376778
29.4111 6.51547 23.7269 42.4483866193
31.3201 4.66541 24.4627 105.3172358594
35.6955 7.68419 24.4887 95.3584446469
33.9598 5.27308 24.196 56.7951825788
35.4416 5.46613 21.6554 28.1206031433
26.4175 10.1284 24.7438 111.6672450629
28.2736 10.9176 21.6811 33.1072896832
29.1997 10.9929 24.4289 79.4486875255
30.9227 8.58952 23.7763 53.3494868431
35.3583 10.0601 21.8545 29.9708126421
33.8203 9.8973 24.2069 80.6464436493
27.1541 2.02039 35.6658 81.5158943293
26.1383 1.97098 38.3314 30.5894665618
30.3333 3.41471 38.1839 33.8068467632
31.1416 0.729163 38.3266 27.1095905514
34.3407 1.16777 35.9707 63.9350336821
34.4349 3.8766 35.7933 91.4454947996
34.3893 0.467779 38.682 28.2145723048
28.4769 4.65413 36.0836 62.9642570242
25.4271 5.02478 35.6071 78.4837046456
27.9905 7.4036 36.2085 51.136867456
25.8811 5.16911 38.3701 28.740374381
31.9192 4.81845 36.0066 79.4780270621
29.0266 7.71673 38.7647 37.6594385211
33.0356 7.58444 36.2049 46.9448179741
36.0953 4.49855 38.1137 25.7919893277
36.4044 7.5566 38.3904 28.1567383672
25.8157 8.9133 35.8565 85.649818028
25.8477 11.9875 36.0116 90.1378835429
25.0612 10.3976 38.3107 30.8464389748
30.9526 11.9885 38.6282 29.3527344134
30.6096 9.14664 35.8548 91.5724028251
31.3083 9.16818 38.6011 29.3134028447
30.5577 11.6984 35.9784 75.4554274061
35.3009 11.8755 35.9887 55.0336274059
35.1645 8.98613 35.5676 102.8020614833
26.5364 2.39652 42.2406 32.663322073
27.8292 3.22981 40.0898 27.0050392392
27.957 0.263995 43.0274 29.6339970124
30.2885 1.01405 41.3675 26.3392888534
35.7679 3.62851 41.5438 28.7055552587
33.05 1.82792 40.8403 26.0853577945
36.6639 2.21804 39.3057 30.1937563771
33.3328 3.96286 43.1331 29.5576718572
28.1519 5.96304 40.8801 28.9660754174
25.9277 8.09162 39.4835 28.1224330832
25.2194 5.8119 42.0256 27.3138967749
32.4761 6.11042 41.8327 28.6552759866
29.8839 6.28621 42.8725 28.8465122404
34.6628 7.90625 41.7682 26.6278395804
33.5684 7.68063 39.1351 29.8947321685
33.17 4.22434 39.4482 31.6567592152
26.0651 9.44325 42.0142 30.6399486965
28.2312 11.4233 43.2197 30.8552815847
30.3325 11.6333 41.4991 32.0388013544
32.7271 10.0757 41.4346 30.9845707445
35.3897 11.1992 41.1502 31.8731618149
28.1658 3.78553 43.9532 27.6275715102
25.7708 1.91836 46.493 32.3615963483
27.5859 0.154687 45.746 28.237667803
30.7285 2.81563 43.548 29.5022298261
31.8136 0.486749 44.864 28.0026613848
29.6311 3.96058 46.9379 31.2831270566
29.9262 1.1882 46.6802 27.8161439707
34.3111 2.07634 47.2504 33.0370490539
36.1338 0.611795 44.6622 29.4889447258
26.7269 6.14664 44.279 24.4342920784
25.1859 4.77081 46.3033 30.0710834397
28.3689 6.89235 47.2 32.2920548054
32.1112 7.5419 44.5244 28.293869538
33.3835 6.21719 46.8758 27.8652282524
34.7065 4.38909 45.7471 29.3859725651
35.1752 8.00238 44.7088 27.5884371467
28.622 8.2871 44.1014 31.9045061401
24.6272 8.18536 44.4596 28.8070432498
30.2243 8.86056 46.4633 27.4248462919
29.9017 12.0287 45.474 30.7421999083
32.3097 10.4003 44.3946 28.5379985082
36.494 10.8006 44.5623 28.8910957123
34.4985 9.31216 47.0993 26.0817748512
33.6228 12.1225 45.7854 27.0264997681
25.0573 3.97566 51.5739 31.9300409751
27.3424 3.22309 48.3744 29.6382463577
28.1442 1.24545 50.6084 30.8491739014
31.9963 0.770049 50.9432 30.7666427986
29.3023 3.72715 52.0453 30.0460848674
32.2414 4.05442 52.2037 29.1329290051
33.1995 3.50482 49.4432 26.9082206383
34.7785 1.80253 51.3898 27.0726607161
27.4289 4.99503 50.5399 29.7771116292
26.9568 7.40646 49.3602 30.645950408
31.079 7.55238 51.427 29.7451129433
31.2309 5.23741 48.6315 31.9663860524
34.99 5.67256 49.6122 28.6651833299
36.7583 7.74798 48.6734 28.7923868295
33.6869 6.57185 51.7362 25.9171400637
27.3318 11.6509 51.9156 27.9767301806
25.1589 11.9471 50.2533 30.8826365871
28.2885 9.10444 51.3036 30.6605129002
26.5205 10.5012 48.5232 32.6542642068
32.3051 9.05525 48.885 29.364732212
31.1284 12.0018 50.5192 26.1321481002
29.5808 10.7939 48.4719 28.2171992012
36.5918 10.6568 49.0327 25.4294602029
34.5283 9.56129 51.0221 31.9042411607
33.6667 12.0181 48.6745 27.2276674088
28.0642 1.65441 54.7466 30.3835107976
25.3441 0.588444 54.4548 27.4734002143
29.5918 0.484069 52.7916 27.3598494745
32.6853 2.86613 54.932 28.8595028902
31.6133 1.30784 56.5441 29.9630324904
34.0525 0.272236 53.6687 28.3242689858
35.3254 3.49404 55.2323 28.1045213825
36.5629 0.975491 54.9229 31.7297976867
27.7597 8.14031 54.0511 31.4733506239
25.4723 4.35757 54.3826 30.9899890483
28.2131 4.39522 54.82 26.6938469523
25.6637 7.12468 55.0341 30.4499893432
29.8706 6.43432 53.9968 29.1543307133
31.7317 5.58908 56.0373 31.2788880995
34.6267 7.86501 54.2498 29.9275684047
35.9207 4.96558 52.9674 30.1135966812
27.8469 10.3589 55.834 28.4861371557
31.0692 9.86737 55.3952 28.0821324665
31.1326 10.0791 52.6336 29.8821748258
33.6417 10.3575 55.5564 27.2062175313
34.252 11.339 53.2328 27.277212646
26.1411 15.1578 4.70492 28.5363238473
26.5765 12.7205 6.09487 29.4724847198
31.4232 16.2045 5.35596 30.690624726
29.7555 14.8514 7.35348 33.1076142207
34.8919 15.4216 5.72199 31.2122446348
28.3704 16.925 4.00484 28.1047994098
27.0917 17.6167 6.60542 28.1306955545
29.1967 19.5465 7.53961 28.8974746523
31.4558 19.5928 6.38192 29.5694197936
30.9307 18.2531 3.61712 31.3016202076
33.462 17.5331 6.90647 29.2512344446
36.1229 18.6324 7.54652 29.9415828597
35.9887 19.564 4.81676 33.1249734435
36.3568 17.0154 3.85813 30.5315814244
27.6993 23.5893 6.85783 28.0679933909
26.8957 20.9956 5.46702 28.0472456713
24.7904 22.7629 4.99872 26.4109390792
29.8532 23.1038 4.99916 30.2654996431
32.8169 22.8808 6.02505 37.4169425913
33.8316 21.6514 3.645 31.9005771853
26.6313 13.401 8.91257 27.9048378872
27.8665 16.1997 8.81478 28.6557016889
31.1343 14.4636 9.83797 33.223176004
29.8108 12.6195 11.3196 29.0799027581
33.7547 13.1212 8.69736 32.1876458406
36.004 12.3857 11.8933 27.4266318809
36.1966 14.2638 10.0172 29.8188671289
26.4916 19.2813 9.48148 29.1600727561
24.8814 16.3534 9.906 30.3550884333
32.4012 16.971 9.67873 31.8574359879
29.4361 18.3128 10.0181 29.0012684661
32.4192 18.5217 12.0611 34.6259881011
35.2554 17.0344 9.77472 33.479039223
26.1927 22.1987 8.8603 29.8696417249
25.2912 23.4367 11.4134 31.2347813636
28.806 20.5775 11.8859 29.0089519636
32.0211 21.7014 8.42537 36.610906742
29.4393 22.5958 8.97743 34.0379403746
29.3951 23.1749 11.6573 31.7593958038
34.426 24.4338 11.4767 31.4078025275
34.499 21.997 10.1001 34.8320786987
36.6446 21.1551 8.56875 34.9901062797
27.4121 13.3303 12.8559 33.2336097834
25.3646 15.4039 12.3979 30.0011695563
30.9837 15.1756 14.7626 33.077069706
29.6494 12.3144 14.5324 30.3262385494
33.8424 15.263 14.1707 36.1921123774
34.775 12.6021 14.4041 26.6158091134
26.9204 17.1826 13.8606 30.6434615214
26.2725 19.7846 12.6298 29.2742096038
26.0955 20.1666 15.4561 27.6824610301
24.8837 16.5504 16.155 30.2138427776
30.2204 17.5892 16.1126 30.7555414635
29.4868 16.7934 12.9326 32.4533276359
30.4533 19.7636 13.8958 27.4569779143
35.4084 17.3176 12.6255 31.4651007345
28.4735 23.7322 15.6465 31.450853044
25.0203 22.4556 15.2213 29.3967560563
28.8672 21.0711 15.9394 31.0802801738
32.6201 21.4866 14.5615 30.3384408474
31.1494 24.0638 14.9338 32.8158039384
35.1694 23.6359 13.9242 27.7712033256
34.391 20.6487 12.5588 29.3415603509
34.6124 20.5442 16.4553 35.0865635055
28.0319 12.5086 17.0685 37.6570754453
27.6305 13.9625 21.0076 30.7380199518
25.0627 14.496 20.5799 28.808538574
31.7938 15.005 17.7316 30.0120238143
32.8 14.7608 20.5747 26.7548207263
28.7455 14.8247 18.3032 32.5944432438
35.0228 13.7222 19.003 29.3697915205
34.9243 15.7691 16.8439 31.7312304871
36.6627 15.4633 21.0776 30.4860706504
27.2448 18.8507 19.5131 32.802036762
27.6016 17.5171 17.0582 29.4899449965
25.3339 20.146 20.9951 26.6131744529
29.5487 20.2672 18.5341 30.248142808
30.7948 16.7791 21.0826 27.9820965205
31.5171 18.212 18.6692 28.7693530511
34.5348 18.3798 18.7528 30.1556862669
26.6033 24.0092 19.3829 32.6173764771
29.9362 21.6036 21.1457 29.2533448729
31.8544 23.3981 20.7418 29.616650327
32.4946 21.3793 18.7168 31.1241812741
33.7946 23.6306 16.9332 29.6908858288
35.131 20.9223 20.2593 29.3128614115
36.8619 23.3957 17.3905 30.1993003025
24.7775 13.9925 23.9241 49.8848889707
27.8711 13.9684 24.0402 57.2481781583
30.6957 13.3977 24.3301 83.633118666
32.1959 13.0187 22.1867 28.1069920166
34.66 12.8096 24.2352 77.1482173094
33.9347 15.6774 24.2746 82.1149138292
36.7211 12.3919 21.4896 29.5272216193
25.2753 16.9957 24.6075 104.3285492632
27.833 16.6235 21.2992 27.7978987046
27.9833 16.8342 24.1671 65.4943860675
24.9244 20.1699 24.0264 49.658725259
24.896 17.2354 21.6267 30.9143879897
31.4559 16.357 23.844 45.7555742737
30.188 18.806 24.1166 80.5271555545
31.9059 19.2667 21.9438 29.6921400703
34.4404 17.0392 21.5395 27.3775448433
36.2301 17.4464 24.2206 93.958083262
34.6937 19.8784 23.0107 33.8193699103
27.3153 22.2694 21.5544 32.2861296439
26.5726 21.9804 24.5776 106.6371364711
25.1652 24.2173 23.381 31.8431834243
31.4904 23.2803 23.8296 43.7080810894
29.4814 21.4971 24.37 85.1738013487
34.0543 22.3137 24.0506 79.5730187772
36.3792 23.664 24.5123 118.551549152
34.675 23.5078 21.471 29.6995091037
28.2691 13.1171 36.4258 37.9907878205
28.8799 15.4711 35.7541 101.2344227912
31.4347 15.7973 36.3811 38.3751205876
35.7489 12.723 38.6623 30.3720876703
34.9932 15.7625 35.5315 92.971632432
33.026 13.5276 36.0854 57.2819095654
27.1115 17.3859 35.9613 56.8803557652
27.0085 17.8153 38.7769 29.8635272346
26.7594 20.1745 35.6724 106.6848550103
31.3183 20.211 36.677 37.4130630188
29.6281 19.2395 38.7891 29.9392054678
31.2431 16.4458 38.8922 27.6758777183
33.1428 18.1393 35.7425 86.2823600417
35.2506 19.822 35.8287 76.6145944934
34.8995 19.4201 38.7936 33.8295339994
35.179 16.4837 38.0681 30.1378666263
28.4188 21.6685 37.4309 31.8512646703
28.4778 24.3424 35.7664 63.0097603563
30.91 22.6396 35.3559 116.6083057408
35.1354 22.7426 36.2515 45.942738536
33.0404 21.5916 38.3936 29.3385789847
33.0125 24.3587 35.8217 63.8219299183
28.6664 16.0062 39.8968 28.7815257003
28.4742 13.3155 39.2877 31.4078449748
26.9413 13.9635 43.1437 28.585184369
26.0189 12.2756 40.6307 27.8603307999
24.6505 14.3181 39.2716 30.4254214428
24.6239 16.1365 42.7678 31.786620805
31.6062 14.341 41.6977 31.5518173492
29.4519 16.2868 42.6093 27.7753025405
33.1972 14.1904 39.1686 30.9915681006
36.0036 13.0319 43.3184 32.3389560781
24.7285 17.052 40.0387 30.4375480789
26.9501 19.4847 41.4066 31.7580693611
32.0687 20.3345 40.5918 26.2463075372
29.6174 19.274 42.3229 29.1455031897
35.2403 17.4289 42.5179 29.6520363293
33.06 17.6688 40.9217 27.8201031433
25.0942 21.6538 41.0222 31.8794338692
27.3675 22.9277 39.781 30.1343813195
29.9259 22.5089 41.1468 32.4099554922
36.0657 21.6166 40.597 32.1273349021
34.5185 23.2697 42.3291 30.153139801
33.3754 20.953 43.117 27.9585047667
25.9281 13.7106 45.9845 31.0571122711
28.2805 15.8798 45.1331 27.4835898005
28.3678 13.3858 47.7359 27.4415015685
25.1913 16.2155 47.5066 29.5186199986
30.8088 14.7614 45.8781 27.4049843123
33.0665 14.2127 44.2527 27.1998524854
36.8622 12.4413 46.7557 27.9928803662
35.0463 16.0083 45.0286 30.4797086179
26.4475 18.2492 45.7932 26.5921806625
25.2876 18.6086 43.5464 31.4916054762
28.9269 19.6777 45.2807 29.5505802409
29.5769 17.4277 47.4317 27.2176321507
31.8634 17.1929 43.5667 26.9972347787
31.8915 18.1822 46.1691 27.3873387447
34.0033 16.9048 47.6847 31.1424529594
35.7092 19.6326 44.104 27.6263637384
25.5568 24.362 44.473 32.6794397328
27.4807 22.3557 45.3729 37.8895806621
26.8508 20.8108 47.7501 29.6887053227
29.8585 22.969 44.1333 30.9510161045
31.6103 21.3102 45.0282 27.9967368224
32.537 23.4443 46.8069 27.6663983462
34.9942 21.7985 46.5193 26.1090845381
35.8233 23.7326 44.668 27.8271629825
26.6564 14.505 49.8302 27.3182270162
29.1029 13.4741 51.5529 26.4739127718
31.8191 14.4151 48.9236 29.6968378983
29.4952 15.7781 49.5366 28.7071376405
35.751 13.2741 50.0735 29.2135008235
36.4629 15.9518 50.6317 30.480350758
26.8737 19.5187 51.3675 29.6051848007
28.8174 19.4626 49.2673 32.4998218741
33.2589 19.9354 48.0064 29.9932015905
34.6222 19.4633 50.6138 29.7259093152
33.3419 16.4842 50.7713 31.0064959822
36.3211 18.3034 48.4392 31.5622377971
25.7803 22.2769 49.7086 27.6553603998
28.4341 24.0863 52.1439 33.1203724773
31.0755 21.0093 49.9324 31.3553081435
31.0156 23.4423 48.9935 32.6876916691
34.5299 22.3814 51.3758 30.2664561843
35.7586 23.0909 49.0445 31.1309941344
28.1868 14.7943 55.2561 31.1783746374
26.6517 15.5657 52.7139 30.0859946862
24.8987 15.6187 55.3956 28.5121816451
26.5769 12.4932 54.2588 28.8471528007
30.2461 12.6111 55.6781 30.9306810581
31.3385 14.2964 53.4545 28.949035273
32.5824 14.2987 56.6381 29.7323805416
33.9594 14.0467 52.2816 29.2775847466
35.1454 15.7834 54.9562 30.0895537286
35.0501 13.0782 56.4744 29.2126082729
27.5312 18.8996 55.562 27.8564130103
27.9384 17.8154 53.1528 29.229903317
30.7542 17.2634 52.2402 30.7191824844
31.8787 20.0535 52.2658 30.6009153434
32.4672 16.8053 54.5727 29.8375751733
36.1798 19.7046 53.1237 32.2904410946
33.9216 19.717 54.7211 33.7521854763
24.9941 22.4691 52.4566 28.8500044008
27.9785 21.3629 56.3342 26.8688049406
27.7372 21.4434 53.1664 30.463578543
26.1857 23.8142 56.0242 30.7799530741
30.7442 22.2387 53.9136 32.5258594624
32.724 24.4731 53.0073 29.4817025106
30.9956 21.1225 56.6381 27.0559606688
36.637 22.8738 53.2632 28.0438955167
34.7231 23.7822 55.2444 34.5387622949
25.9417 26.9836 5.56183 28.497576881
27.8559 26.3583 7.80686 35.7399893283
30.36 28.0288 7.1933 35.3049841874
31.1231 27.7618 4.44273 32.3253818531
29.7678 25.3842 3.58106 32.2216490939
33.9339 27.4014 4.90304 32.7722931055
34.6224 25.2304 6.67839 36.6923223348
25.5848 29.8874 5.58708 29.832339044
27.5459 30.6825 7.19679 30.6465706551
30.9991 31.9586 4.57642 32.1789003616
30.2185 30.6233 6.95352 29.3398899511
33.7345 32.1767 4.66252 29.8150063442
35.0672 29.7579 5.8749 33.7664316542
27.2992 33.3148 7.49599 32.0089144965
24.8343 34.1069 6.02863 34.1610069744
29.1368 35.3064 6.54103 29.6909426858
30.4389 34.6138 4.24043 30.4829387773
32.7867 35.9042 4.83291 32.5314010528
35.5365 32.689 7.21431 27.5618898261
35.4721 34.4028 3.91892 30.9281990325
33.6109 34.4941 7.04513 26.6246283648
28.048 26.9791 11.6697 31.3184945514
26.1245 26.9416 9.80145 32.1692749456
31.583 28.3587 9.53814 31.9185716939
30.7097 27.3681 11.9145 30.5964031304
31.6375 24.8693 12.2169 32.2216747033
36.0661 27.3036 9.86121 28.0985829868
33.707 26.1888 9.15074 36.2679794282
25.9721 29.4695 9.13949 29.6957725407
26.6635 31.058 11.3638 28.8637436189
31.0675 31.7828 9.21085 29.4389571184
29.6035 31.8437 11.5977 36.0107941706
35.6587 29.7039 8.79571 30.7366503931
33.2694 30.5046 10.0084 31.5139846774
26.5116 36.6506 9.87921 32.4679983694
26.3165 33.6805 10.0014 27.5477863422
31.455 34.3579 8.48498 36.6138171491
28.8464 36.5473 11.7007 28.7312213124
36.4198 33.1391 10.1164 32.0381983197
35.3657 36.0164 10.3203 29.0340763757
25.1271 25.4285 14.4985 31.1752560784
27.4197 24.6808 13.1166 29.1752016484
25.7792 26.9047 16.7166 32.0874600444
32.2052 28.5736 13.9219 31.2095825149
36.053 27.7275 12.4277 30.0548401586
35.8773 26.1442 14.7849 30.3849465291
32.821 26.3923 15.3155 31.5808958927
25.6506 29.5477 15.5298 30.3481601268
24.7698 32.5923 12.9614 38.3215918813
27.4529 29.163 13.3549 35.9249762054
30.1207 30.4512 14.07 31.5932806454
29.7529 32.4218 15.9876 33.7740893561
36.1658 32.6354 12.9479 30.4509498344
33.3467 32.5442 13.6863 35.506500544
34.1705 29.9067 12.5352 31.2336518312
28.0104 33.9753 12.3178 31.9645157366
25.766 34.9614 16.4028 35.5509751418
28.1658 34.7096 15.156 34.0544581254
32.6243 33.1681 16.2217 29.8629818742
35.5873 36.0185 14.3649 29.2976966592
33.7511 35.2085 12.5622 33.1281130907
25.2095 28.5932 20.9536 30.5982757585
28.1655 25.6753 17.7137 34.016852446
30.2663 25.7218 19.9913 35.8387744791
32.2957 27.7971 20.4356 33.9791555597
29.7523 28.5654 17.9659 35.2273508026
33.2193 28.479 17.4769 31.251524741
34.289 25.7992 18.7932 30.451874665
36.4198 27.2371 17.3503 28.1647068
36.5419 25.8991 20.8234 29.8258087979
27.7193 30.2083 20.1917 29.7864421951
28.0792 30.595 17.2405 32.6137510549
25.11 31.117 18.6312 30.0006147583
31.6061 30.8614 18.3376 30.0257610716
35.0377 30.6872 18.0691 31.6950364019
35.9287 31.1531 20.8047 34.5234159431
26.8175 32.9285 20.9954 34.6430904235
28.4054 35.4148 20.7583 31.8914998617
26.564 36.1906 18.951 30.7227598022
31.6892 32.7202 20.5971 30.5903928265
31.2781 35.4476 20.1518 34.1120188739
32.0328 35.4377 17.3172 33.7354959293
34.7411 33.1801 18.2009 29.0623621258
34.5084 33.3095 20.9963 26.4520832429
26.2418 26.0101 21.4459 31.9972944304
25.9651 26.9929 24.5946 126.6220965553
28.6683 27.7844 24.3829 65.3043903373
28.7283 27.4654 21.6207 30.3479151708
30.8746 25.9773 24.515 119.5933826757
35.794 26.2733 23.6914 51.9279489086
33.1834 27.3578 23.4329 45.2945945709
26.9013 31.4064 23.6683 44.8061015475
25.1075 29.5169 23.5258 44.725503225
30.6128 30.1824 21.3284 27.8810244818
29.4924 30.3759 24.2585 93.1208305025
32.6805 30.0621 23.7991 76.1603239843
34.2389 32.2956 23.7921 39.3017130752
36.7558 32.527 24.7831 120.2346436633
25.8956 34.0488 24.4414 119.0485010661
28.2226 35.1798 23.9441 66.9183203117
32.6827 34.6177 24.3853 104.4371625345
30.203 33.2234 23.2239 35.5341383975
34.9755 36.0209 24.337 69.9359407113
35.8689 35.4899 21.7842 29.5857871975
25.7454 25.2057 38.5756 29.8517353365
28.4642 27.988 38.362 28.3953518007
25.7328 25.0279 35.8716 70.8287167831
30.0424 26.5295 35.6741 70.2316842983
29.1029 25.3839 38.362 27.2805623873
36.4219 28.133 38.6749 26.0010960939
35.8398 27.5861 35.7116 97.4212083713
36.1953 25.0984 38.4083 31.2424767564
33.1688 27.7752 38.5456 28.7607597993
32.8774 27.2114 35.95 68.1584490915
33.3166 24.9493 38.7223 29.0027809205
26.2068 31.631 37.9662 29.6216195258
25.966 29.4558 36.0251 77.4547335742
28.7292 28.9197 35.6837 86.0671507637
30.1516 31.1831 36.0554 78.7325852236
31.045 29.6134 38.3369 28.8936051292
35.6707 30.4729 36.2242 53.1162730296
33.1654 31.979 36.0178 75.5948943416
26.0523 34.6987 35.7661 115.0307979818
28.4296 33.384 36.7067 42.7369656028
25.8442 35.969 38.598 30.9474381112
30.6004 35.692 36.6598 46.851059174
33.0395 34.5561 35.7841 97.3144856063
33.1892 34.7079 38.5984 32.5870743288
27.1424 26.7023 41.1395 30.7584234946
25.276 24.6466 41.5119 29.1132143594
30.9753 24.7855 40.1498 27.7630051117
30.4819 26.7921 41.8415 33.1936808786
33.2812 25.7536 42.7592 30.623326084
34.8172 28.0971 41.1928 29.890167587
27.239 30.605 41.7591 29.5952490505
26.3576 29.2202 39.6579 26.1486737122
29.405 32.1583 41.6806 29.5767171029
30.8178 29.7887 41.1016 30.2423380842
33.2135 30.1204 42.6097 30.5619260853
35.3167 30.7737 38.946 27.539111631
32.8362 31.8632 39.0468 29.8587625577
26.8046 35.7159 41.3006 29.9503009127
25.8946 32.944 40.4088 28.8696327915
32.2021 36.2292 42.5197 28.2950309659
31.9005 33.4573 42.8871 32.2349334381
30.8452 35.8076 39.7647 30.6814622005
28.8642 34.1716 39.7803 30.6340951507
34.7847 35.6398 42.6957 26.5876021287
34.6229 32.8623 41.5252 30.6452749957
24.8882 26.0624 46.4323 33.5914108921
27.048 27.1386 44.0459 30.3047625391
32.3329 25.7796 45.4417 31.1127346953
29.7199 25.7118 44.7384 37.4245906098
33.0983 28.2352 47.044 28.1103371982
36.838 26.3369 46.4283 31.2519713882
36.1095 26.5417 43.5006 25.696953349
25.4475 29.2209 43.7903 30.727947377
31.7009 29.9431 45.0678 29.9420447937
28.7621 32.0001 44.64 28.7382320729
31.1328 32.5174 45.8218 25.3467718208
28.9824 29.4395 45.1186 31.0351777998
35.2449 29.2892 46.419 29.8742282039
35.4734 31.5793 44.3947 32.1042535275
26.3492 32.9038 45.5128 30.5693605188
27.0134 35.2056 46.7831 29.9156399189
30.6663 36.0775 44.8352 30.7784553908
29.4659 34.7656 47.09 27.6310683251
33.6347 35.8345 47.0559 29.4976852612
35.6757 35.3064 45.127 28.2851239976
34.0571 32.9175 46.6852 30.546034116
28.6815 25.1649 49.659 33.991091795
24.84 26.2526 51.1622 31.0213790635
25.9394 24.8697 48.9541 33.5599365292
29.4533 27.7153 49.5549 30.3441981653
32.6821 25.1073 50.2603 27.5926011508
31.9607 27.6723 49.6624 29.2562386302
35.6525 27.2714 50.6316 30.1924032834
34.6679 25.6244 48.202 27.3659606344
25.0315 29.0008 51.1626 32.3769065341
28.2993 29.4127 47.9132 33.4897596286
25.1386 32.5363 48.014 29.0011574679
25.657 29.9212 48.3767 33.5351893039
29.2751 32.1901 48.7044 30.7853218552
32.064 31.1164 48.2735 30.2440190587
28.9721 31.2863 51.7816 28.5128111361
31.5398 32.5157 50.7528 31.6038337565
33.6907 29.7803 51.1464 30.6845269269
36.5214 30.5515 51.1134 28.1998004666
35.9989 31.4144 48.3591 30.7003322299
26.8459 32.8061 51.019 30.4576443202
27.7484 36.4092 50.8131 30.3216146509
25.4985 35.0212 49.4436 29.7322284059
30.1348 36.2152 49.4826 33.4214804485
32.8904 35.1937 50.3229 37.3339871376
35.5933 36.2205 49.4386 34.0638059959
26.495 26.9822 53.7954 28.0292135387
27.4394 26.3595 56.548 26.8324598279
30.0858 25.4325 53.9767 30.2335026015
28.8117 28.537 52.2184 29.8415459728
30.9176 28.2597 53.87 30.7375303727
33.605 27.3127 53.22 29.1950726771
34.8984 26.7186 55.7877 30.7484132496
26.2236 30.1718 53.2526 27.4044155955
27.0151 29.5078 56.3892 34.9168804669
24.6586 32.3103 53.306 31.0464915466
30.0861 31.866 54.5023 32.199269989
32.5483 31.4069 53.5336 29.9896864149
29.926 29.6002 56.3011 28.8890026597
34.8622 31.6248 55.3478 34.1904791619
35.7136 29.4112 53.8396 28.1227269589
28.0189 34.7403 53.0908 34.8648755064
26.4851 35.7221 55.3419 36.6071863818
30.7106 34.7236 54.6523 31.8838476393
33.3497 34.3392 52.9396 31.0605294548
35.9703 34.0794 54.0549 28.0452075746
27.1798 39.6539 6.58442 27.7038455797
26.8867 36.7672 7.21195 26.470092901
28.0293 36.969 4.04141 31.2254084448
29.9908 39.7721 7.58551 34.4914549004
32.3885 38.4861 5.18674 31.2882551683
34.2728 39.2349 7.04791 30.7338194827
35.0559 36.7946 7.73704 28.8960435483
35.8992 40.5334 5.37021 34.8628570349
36.8992 38.1265 4.23258 31.2328800499
26.7259 43.4792 5.84709 31.7371155573
31.8381 41.8594 3.45655 29.7979930781
29.7181 44.3171 6.21153 32.2923796915
29.1878 41.6265 5.06629 28.352670616
33.8033 42.9529 5.30757 37.317686789
27.6477 47.2877 4.47893 34.0869365718
28.5094 46.7632 7.28229 31.5414458203
32.0829 45.2763 4.89881 32.5597584319
30.4794 49.0122 7.12966 29.1604073136
33.3529 47.9109 5.75266 30.8657973739
35.8281 47.3384 4.96837 33.3005378123
24.823 37.9024 11.991 35.6156255607
32.5952 37.647 10.3174 29.8545300262
29.9382 37.2555 9.08859 32.8440229466
33.8012 40.0644 9.72038 27.9547424288
26.5059 40.9993 8.82566 31.4839273582
25.8268 43.5341 8.38263 32.1285225837
28.0164 41.2518 11.341 32.2711339783
32.087 43.7547 8.18262 32.3431224187
30.5949 41.5 11.7707 26.8347575139
31.4681 41.2854 9.43307 29.7119136092
30.2148 44.405 11.5346 32.6195909333
35.8601 44.2448 11.7642 31.4321932631
35.0953 43.1486 8.49896 35.8542596102
36.0939 41.5628 10.7304 31.3802591233
26.4688 46.2285 8.88505 31.1170526365
26.331 46.3439 11.3962 29.0572587895
26.7464 48.9222 12.2073 33.2567753595
31.187 47.8548 11.467 37.3863851694
30.6469 46.2275 9.37423 29.4324242161
34.773 48.0464 10.7238 33.5860336113
33.3311 46.8319 8.33976 29.9121956329
36.1829 45.7005 8.67357 31.3652631899
26.3813 39.2056 15.5051 29.1393842558
27.8365 38.8324 13.0476 29.4843435308
24.6125 37.2628 15.1957 38.0878726784
29.4293 40.6528 16.1854 30.248689441
31.4475 37.059 12.7255 29.196981781
32.7773 39.1247 15.5839 30.6914272682
30.4552 39.4269 13.8408 24.4934320498
30.0655 36.7777 15.3825 29.789700943
34.2048 37.1043 16.4991 32.1466576389
33.8782 39.7248 12.9373 30.1009382535
36.5769 38.3274 13.1736 31.2646783108
25.3932 42.0357 12.6983 31.6595050267
25.2493 41.5771 15.4745 32.6459507104
27.7116 44.283 12.7972 31.0387531701
28.5893 44.49 15.3452 29.5796986771
27.3627 42.5342 16.695 27.3177113736
32.3707 43.0478 13.6217 31.882086997
32.0166 42.1857 16.4296 30.1319318677
34.88 42.4076 13.4493 28.1208622145
36.4349 41.9791 15.5636 32.0600696588
26.6623 46.2644 15.2333 30.1647547266
28.6584 48.344 16.5516 31.1573523848
31.9864 45.9787 13.3865 32.2432994305
30.8019 46.2894 16.1244 31.3738275946
32.5408 48.7166 16.5285 37.950328438
34.7067 46.5787 12.8479 34.060416438
36.0388 48.5384 14.3627 29.9840936366
25.5644 39.5215 20.765 29.7857033272
28.2941 38.0638 17.2453 31.4207120584
29.374 39.73 19.4066 32.6355887957
31.9624 39.9936 20.5455 37.4690310575
35.9201 40.6963 20.9622 30.9323953636
34.7423 37.9425 20.9356 32.4434343845
35.5922 38.8107 18.238 31.5023510333
28.0965 42.5714 19.4498 30.7580609379
25.1592 42.371 19.7283 30.3823793663
31.6845 44.3569 17.909 31.7448385829
29.6274 44.8888 19.7607 30.1999731338
33.9326 42.2801 20.3967 29.3650471921
34.362 41.243 17.3294 29.633159656
36.8231 44.2624 17.572 34.2202546418
25.6462 45.3252 17.6078 30.3404327878
27.7391 46.8257 18.6693 29.0109083509
24.7043 47.174 19.8402 29.2137623918
31.3373 47.0478 21.0896 30.8124174254
34.325 45.0446 18.9684 32.656753224
32.9824 48.915 19.6068 32.9836564777
35.422 48.0167 18.8438 29.5681445285
27.7083 39.7024 24.0545 70.8631749486
28.0425 38.3227 21.1946 30.062623522
29.647 37.5006 23.9929 79.4746965178
32.1019 37.0687 22.3087 29.0389598175
31.8891 40.0916 23.3127 39.9912508449
34.4512 38.6529 23.9859 68.5565349693
36.5024 40.3832 23.8498 38.8536044868
25.45 42.2421 24.5541 101.5318833614
27.2778 41.9255 22.3019 28.0065423696
29.7849 41.9232 24.4237 103.5004867862
31.4578 44.0194 24.0449 70.9468280338
28.792 44.4057 22.5044 31.7366550225
33.5394 43.0216 22.8533 27.5599742504
35.6148 42.6456 24.6554 141.0661050865
27.1507 45.7137 24.3153 79.4245878886
25.9442 48.2734 22.2375 27.25301969
24.6461 44.973 24.089 39.8810281569
28.7654 47.7267 24.0649 56.8254158639
28.7703 48.5146 21.2622 28.3950123613
31.4696 46.8542 23.8957 62.6030533665
35.1206 48.0942 23.8111 63.3740129736
36.3489 48.5912 21.3419 27.7431163566
34.0716 45.7228 22.1767 29.3336373703
36.5736 45.5855 21.2955 31.4451884354
27.8908 38.8501 35.6046 96.6331701768
27.1633 38.9227 38.5205 28.0440305341
25.4182 37.5887 35.9001 62.47020498
30.7469 38.4282 36.1295 46.3174715617
29.7659 38.721 38.7126 29.1380259172
31.7812 40.7451 38.53 33.5803021664
33.4169 37.7762 35.5691 94.1263267369
35.2382 40.0138 36.0668 51.6895257698
34.7805 37.3397 38.1429 31.7085355315
27.0266 41.4204 36.1848 43.4822850382
32.4756 41.3077 35.6266 89.5196780013
29.6713 42.043 35.4152 96.8573059425
29.3352 44.7526 35.8191 65.2009836168
36.528 43.9834 38.8731 33.3787150253
35.2536 42.8256 36.5452 43.6146038541
26.7946 46.1896 35.4714 90.0054321087
24.8037 48.9334 35.6832 62.3534864678
25.945 47.1385 38.2652 29.6163361256
28.6209 48.6285 36.1393 45.4566680447
32.0445 46.2756 36.1171 49.6283632133
30.3434 45.1026 38.6604 30.5846138412
31.6584 48.9902 35.4485 121.2448854052
34.6014 45.6171 35.726 106.519195245
36.2247 47.9194 36.0052 81.9071433135
25.9381 38.6808 41.2016 27.70940841
28.4439 37.0872 43.1625 32.4762650833
29.3701 39.505 41.6332 30.2792770427
32.2692 39.1734 41.4854 29.9661427513
35.7676 37.949 41.8897 28.9246997585
34.4496 39.4376 39.7197 27.3273340236
27.1472 41.5111 41.0209 27.1800640012
26.0712 43.0573 38.9117 34.1507166553
29.4026 42.6644 41.6852 27.3811336434
31.4931 43.2684 40.0297 31.3870033984
35.5003 42.2256 42.0419 30.0397017578
36.3788 41.3395 39.7407 29.3815297961
33.4184 44.0547 41.7489 30.6345088983
27.6862 45.2948 39.5532 29.4014138829
24.8769 46.075 42.5291 34.2973787445
27.5168 46.7374 41.983 28.8070155445
28.282 48.8258 39.1162 30.7449949053
32.3048 47.1244 39.2971 25.4430957042
31.3173 47.3303 41.6847 28.6908651662
36.3254 47.8776 40.8655 28.7166514565
34.4734 45.7724 39.973 29.8851733565
34.2984 48.5641 42.5262 28.4015553095
28.0544 39.2459 46.9949 32.1125633407
24.8148 39.0338 43.7786 30.2285661344
26.8975 37.6582 45.2022 26.6926406524
32.2211 38.2026 46.1817 31.5865125539
35.4709 40.2314 43.933 29.4087867366
32.8906 39.7599 44.132 30.9771592356
35.1944 38.3531 47.2386 34.1444830256
28.6101 41.6645 45.7101 29.6978835319
26.794 44.2285 44.8524 30.6940028095
26.1181 41.4745 43.5379 31.4067589447
29.181 44.2046 47.2361 26.368266223
31.5125 44.0776 45.4925 28.1974751416
30.6219 41.6163 44.0359 31.2759135402
34.1558 43.5818 46.2971 34.0545861999
36.134 41.4813 46.3808 32.2907286923
26.7008 46.7907 46.7087 30.0774537372
30.2962 47.0182 45.2188 28.4195153947
29.0397 44.9742 43.3387 28.0195622121
35.3569 45.9922 45.3752 28.2585807693
33.8444 48.2888 46.1681 26.695631115
32.8267 46.1269 43.6673 25.4460433088
26.031 39.6579 49.1477 29.7372898736
26.8712 38.7729 51.6025 28.4288111591
30.5118 38.6487 48.2875 33.6015171996
31.1633 40.4044 50.4448 36.0909620496
35.7239 38.5291 51.47 32.025099578
33.6426 40.3599 51.9634 34.9014562134
26.5248 41.8702 51.9469 29.9480099249
26.416 42.4957 48.0104 32.7377662325
26.7284 44.1855 50.3811 27.3416289287
30.5332 42.8038 49.3547 36.3672160481
28.9881 44.4165 51.8096 35.0253743278
32.8634 44.1387 48.671 33.6672152881
34.6659 44.91 50.5336 29.046902855
24.6763 46.36 50.7456 31.9371902934
28.2171 46.2474 48.9213 31.44466924
25.4987 48.8877 50.2712 30.1738013695
32.0681 46.8886 47.8469 29.3684076917
30.0999 48.7517 49.0132 30.6509898214
36.1308 48.6882 50.1144 28.9490227785
33.6141 47.3246 50.2981 33.6691753139
25.1448 37.8154 53.8046 33.0539540599
26.8461 39.8249 56.6244 31.408037839
30.4026 37.532 54.3509 32.6483271211
32.7635 39.0168 54.2139 29.6768642678
29.3257 39.4204 52.411 32.1493140156
30.0295 38.9768 56.6171 29.7632111517
34.5294 36.9522 53.6336 33.0374504487
33.8543 40.2001 56.4201 32.170201989
25.2993 42.3541 54.5592 32.287777274
27.6386 42.8151 55.9581 29.1898748094
31.9662 43.0758 53.9958 34.3122896512
29.1958 42.1849 53.5642 30.5574951611
34.4981 42.9652 52.6875 36.2580659617
25.4767 46.9525 53.3172 32.0531233781
28.3039 46.8289 53.2002 33.7399543748
31.6424 45.4684 55.425 35.8367811067
28.7141 45.6256 55.8439 32.5946299472
31.5205 48.175 54.6408 34.7772186317
35.3489 46.8632 53.1541 36.4671460067
39.3382 3.2918 6.65171 29.5797126884
38.5532 1.4572 4.40783 30.0989941416
43.3692 1.30447 4.41835 27.3122844183
41.8195 0.536497 6.75804 26.6396717382
45.2516 1.39403 7.29438 30.7630399636
47.9754 0.738703 6.81086 28.3344659296
47.5364 2.37834 4.26098 28.8053271287
45.2893 3.65992 4.70797 31.3709668322
49.1625 3.88475 5.92837 31.7693437219
40.574 7.19817 4.77563 29.8455262188
38.6539 5.79428 6.78661 29.5573906933
39.7613 4.79789 3.48224 31.4517436859
36.9534 4.24343 4.0184 30.364406225
41.6598 7.36243 7.45826 27.8096501861
44.6559 6.26772 5.49616 31.4515261323
43.1794 7.38624 3.50028 28.2333346275
47.0707 7.62187 5.36674 27.203957563
49.1052 6.25831 4.27127 31.9376631033
38.1587 9.1331 4.18547 32.0328498115
39.4461 11.9887 5.64948 27.4176280824
43.6368 10.3681 3.98824 27.7371289601
42.0474 10.6554 6.60199 30.5927591553
47.9552 11.1602 6.43094 30.0033838964
46.765 8.95873 7.59194 29.8592480106
45.1594 12.1397 5.94256 33.4881507935
38.356 2.30927 9.64174 29.165747759
42.1377 1.55109 10.639 28.4738325358
44.5705 2.47967 11.7926 30.0116331954
41.549 4.06168 12.2217 28.3980405457
41.6667 2.89315 8.20392 29.4283643776
47.7716 3.4006 11.6907 26.0458521351
45.3883 3.70546 8.77958 29.1695065716
47.4499 0.294013 11.7688 29.2294645661
48.9601 2.67275 9.18558 27.23268715
39.1862 4.78564 10.469 29.8990965479
37.898 6.7331 9.61675 26.5762764202
43.2056 5.29262 8.17467 28.2820466339
43.3618 5.89801 10.762 29.716998854
47.9866 5.02069 8.28389 30.5401725401
46.0611 5.5824 11.3863 27.9246212312
38.7332 10.559 8.21781 29.4477670776
40.0887 8.41433 9.40372 28.2427676786
38.3414 11.1995 11.269 27.1013331163
37.2341 8.88105 11.5359 30.2638945847
44.0602 9.81723 10.6163 30.6692518169
41.8704 8.6931 11.4527 29.8701457221
44.0454 9.11159 8.10566 30.2873992487
46.7411 8.38071 10.9721 30.2924776634
45.6359 12.0089 10.9783 33.7758475807
48.9324 9.72872 10.1575 27.2617762735
38.6909 2.79993 14.3604 28.7683400051
38.5368 0.273816 13.2559 29.8477154296
43.3661 0.799081 15.874 31.4089080475
41.5973 2.81297 14.5679 33.7908468855
47.2149 3.32298 16.3447 29.213457051
45.6946 1.79771 14.4546 30.1959710942
37.5353 4.72586 12.8573 30.5581982115
39.646 7.37432 15.0268 32.2903822258
44.004 6.45012 15.6522 35.9515466561
42.0188 6.75513 13.6007 34.4675184686
46.3852 5.22816 14.2262 29.801641007
46.6421 8.10589 15.6245 31.0808258726
49.1253 5.88741 14.8664 27.930345468
