31.8615 11.6803 24.2729 91.2563699045
27.7091 13.429 24.1375 69.0284117605
36.8162 2.12805 21.4347 29.1805400277
35.5408 14.7527 24.3765 68.9092140537
35.8815 11.7829 24.4205 86.5335038885
34.7568 12.9328 17.3867 31.3073209462
37.0621 0.609656 16.5827 30.2856484469
31.2729 1.78487 21.2866 26.0948480312
25.8263 12.1361 15.1061 26.7237414798
27.9873 9.0251 15.8819 30.0214471011
36.1438 2.60974 24.262 68.6425028526
32.1235 7.05334 15.1294 29.3417431914
35.2465 5.89629 23.9114 44.4828868503
25.7114 9.56234 21.5572 29.7172223184
33.5349 10.2291 22.8829 28.1720174549
29.3534 2.41974 23.1345 29.2906618673
31.0347 7.07244 23.4629 36.1053600243
28.5596 13.1438 19.8583 25.9931633325
31.2362 1.21348 17.9579 32.3962810733
26.9841 6.70787 14.2676 31.117426106
31.5582 16.1604 17.2617 36.5754713652
35.5963 5.49695 15.3435 25.6989886813
25.4525 5.65082 18.4497 30.9033275113
30.8263 14.4029 19.4633 28.2181151131
29.704 11.1342 21.3743 30.0035346348
29.9838 -0.0272002 15.9843 33.5197966863
26.8647 0.425066 23.7284 51.623466484
32.5983 0.741611 23.6675 36.6107457211
33.5152 3.74189 24.2147 58.2288211734
24.5284 1.93764 23.8451 56.433876374
34.1135 0.805288 18.5358 29.3842125562
25.901 9.01609 24.5776 85.3250070464
27.6139 16.0975 19.0326 35.5857376434
30.956 4.51261 24.6178 104.3059969059
25.1018 4.72998 24.0833 55.4458099622
30.2642 1.34841 38.6551 27.0291226792
26.9954 0.652274 35.9305 52.045930406
34.5332 5.1887 36.6797 34.5368466696
25.6908 8.61831 38.9781 28.4856106664
32.7622 2.8863 38.7817 27.1393327513
25.072 11.5314 42.7092 30.7080668492
27.2441 0.302628 44.4759 28.5889977977
30.1393 14.1391 35.6732 83.733074
36.7064 0.0958756 38.998 28.6706085377
32.0238 9.00956 37.7774 27.6480951334
28.7454 7.06724 35.7565 81.2194048012
26.0724 13.0123 45.1693 28.9693675869
35.4681 8.17544 41.5013 27.1684450489
34.8536 2.20924 43.8618 28.1571265756
25.9222 2.90981 35.3505 122.3513287035
35.9341 13.856 40.5871 29.0772031098
28.1715 10.0214 38.9614 32.2191978428
28.6103 13.5272 44.1828 27.665117771
29.5493 9.64036 36.3086 52.4362783585
31.0996 6.33727 44.3996 29.6882878748
32.0851 1.80164 45.1246 30.4107455969
31.7049 11.8517 36.1267 62.7447798544
34.7834 11.0714 35.9937 76.5737435447
33.5802 6.35552 40.8481 27.3169900854
36.0943 9.00902 45.5054 29.8401976929
34.8066 9.93761 38.919 27.9550761813
26.7907 13.6394 36.0002 67.3581448887
34.5117 0.809057 35.8338 80.7579061957
27.3037 1.69728 38.4826 29.5813326983
32.6957 3.01448 35.5396 87.1609202145
35.1761 14.0351 35.9334 69.6556734419
34.2583 14.6898 38.4953 32.328248403
28.5871 -0.0502229 42.1507 29.2722662742
30.817 5.0445 38.0494 28.5901734331
25.9442 5.28911 39.2687 28.2810460812
31.0945 5.66251 35.5273 82.4531765017
35.0504 4.69709 39.5401 29.2236883459
35.8315 2.11268 40.9742 31.8344164732
29.3944 6.26763 41.7617 32.0839566373
29.5249 14.3792 38.488 28.5776938084
33.2409 7.52718 35.8344 88.9384358029
31.4705 7.15449 39.6788 26.705594547
32.6146 2.32473 41.737 29.5532683061
26.7605 5.32357 36.5299 35.460860254
28.2197 11.7346 42.0054 31.7938294262
27.2374 12.5355 38.6966 29.6252090381
32.478 10.6902 40.7241 28.846448818
30.0611 9.17678 41.1703 27.8498451626
34.5851 14.0585 43.2364 28.6730647532
32.0285 12.9427 38.8339 31.3482477446
30.3249 14.9727 41.2963 32.8237556443
25.2207 13.3637 40.7015 29.8775075166
31.7526 13.0565 42.4314 28.583476156
35.7533 4.67022 45.0669 26.6962314221
29.9946 3.62552 44.4154 29.0312517106
26.4446 6.55383 41.7555 30.3996457928
35.9598 8.34937 36.4708 55.8869251142
29.3199 2.74795 41.7467 31.0973366581
28.0429 16.0431 43.3038 35.0105566087
26.5075 9.84936 35.6419 99.3591484332
28.5995 4.16957 39.5526 27.9439510511
27.0711 9.09567 43.1233 34.5697986727
25.3137 15.961 44.0376 28.2652660302
33.1525 5.0227 43.0761 31.7417177457
33.3984 10.3064 45.8978 29.4618188295
32.8957 15.5041 35.3326 110.2242999465
30.9414 11.4658 44.5413 25.4728889325
29.9337 9.01104 44.172 29.660690891
25.1185 7.57237 36.5044 36.7213727098
34.0935 9.8218 43.1455 30.3697087821
32.7482 14.2871 45.3729 31.337244047
27.7504 16.1536 35.8895 69.7356184215
36.585 14.1359 45.3503 30.0338689595
27.0961 2.98703 44.6717 30.6013841424
25.1601 4.65459 43.4756 34.0072935878
31.2791 -0.109602 42.8892 30.8394952606
30.0033 1.79926 35.6945 84.2343940265
36.219 11.4304 42.3105 30.155332751
36.9854 1.59441 36.3904 46.924291685
36.769 7.06787 43.6691 32.2555585703
29.4363 5.0339 53.8338 30.1298020678
35.1853 6.58809 46.9499 33.3597002774
36.2502 6.25569 56.0521 30.6055740746
25.271 10.9604 47.3023 29.241259854
30.0799 4.68353 50.8374 28.3887077415
30.1542 9.83625 53.5574 27.9849679018
26.5243 13.8488 53.7582 28.8926137928
30.8635 2.29774 52.0653 28.2177756515
25.6509 12.6351 49.4572 26.7787739513
25.8668 11.2271 52.192 30.4725700889
28.0618 9.01794 52.3488 31.4639411083
32.8287 1.63236 49.9468 31.0563194978
36.0395 14.0138 53.7165 30.6344800987
27.2686 14.2403 47.6254 30.8591090798
31.421 15.7254 52.9807 30.9319254218
35.4765 2.95832 50.2496 32.2884967931
25.7566 2.01303 50.6479 31.0288862768
33.1923 12.6075 47.6122 27.1219268524
35.9845 12.1588 47.2788 28.8342435446
33.4104 13.8098 49.8544 32.3915575857
35.7885 10.7746 51.0102 34.9994323753
31.5916 5.04072 48.5183 28.7185007513
28.0079 11.3498 49.7383 28.2953861512
30.0399 1.14111 48.6275 33.2387721594
34.7927 5.19532 52.3348 32.4018848439
30.9049 14.9483 49.6939 30.0010025709
27.8526 3.0858 47.5007 29.6840896038
27.3886 4.21598 49.9831 30.9483722637
35.9593 2.52826 47.2135 29.3122090145
31.2368 7.31209 54.0936 35.6222301072
27.4408 9.58409 46.1316 29.1470253447
29.1441 8.46751 49.8425 31.1730973415
32.3042 7.41821 46.9762 32.2691440057
27.8212 7.43027 47.6529 31.6513178621
25.7277 6.27483 49.2695 30.3091024612
24.776 2.41782 46.4948 27.3151378057
29.6127 11.0831 47.2348 26.1058121827
31.5981 9.80429 48.5343 30.084563015
30.774 12.4741 54.2543 29.2187929439
35.8039 15.0199 51.1496 30.9813757189
32.007 9.17018 51.2704 33.3845374877
32.7409 11.9044 51.745 32.4313091589
30.0753 13.7759 46.9689 27.7881935266
32.5057 6.31231 51.6182 34.2100879857
24.7275 3.89941 55.4626 35.1430883287
25.4379 15.2325 51.3025 27.4086086538
29.9801 12.67 51.1443 27.6722579232
32.9184 14.7332 56.2892 31.2155036963
25.7652 1.40917 54.4985 28.060091653
29.5691 9.15511 56.4858 30.070534455
36.0836 11.1499 53.7703 35.0027337536
27.8833 2.29106 52.8256 30.8366875548
32.9606 1.91853 53.8875 31.3645926903
36.3139 5.83746 49.2209 30.643968871
25.8948 7.92104 53.476 28.8771785495
28.5455 14.6847 52.2549 28.4066817066
33.1035 2.99285 47.5589 30.1548698717
26.9218 5.71666 54.8991 35.099944774
35.1933 3.44813 54.4323 28.0244363016
28.4832 13.699 55.6776 31.7815399916
29.5807 5.40005 46.9888 28.667331375
25.7596 0.432969 48.3657 31.5048759008
30.5897 3.21064 55.4376 31.2632080941
26.9038 0.148552 56.367 31.5356181042
24.7363 12.6249 56.2975 29.5421165045
26.3861 18.4266 6.93197 31.3155620947
28.3291 22.6201 7.84616 37.7210041536
26.2725 26.2903 9.0906 29.2556658164
29.6662 20.8675 3.73851 28.4025766987
31.617 24.3201 3.74658 29.0287703625
36.2618 18.0058 7.30315 29.0694168697
31.2668 25.4984 12.4413 27.8213559451
29.5473 23.4124 9.90086 26.7808493097
26.5213 24.6517 7.03829 29.0060553786
32.7157 19.4823 13.2864 29.8020027585
28.5359 26.8622 6.41949 32.1223154722
30.0124 28.5905 9.53375 32.4849406986
31.2152 26.0745 6.39829 32.8958691624
32.1971 16.9745 7.01513 32.9000359064
25.4915 31.02 4.39336 29.9767463011
31.6547 32.4394 8.56778 29.9687837045
34.3634 24.2966 5.35469 31.751220303
35.7853 17.3619 4.72343 29.7932844089
29.1048 23.4802 4.64941 30.5802630316
28.186 30.5939 4.05985 30.4677698548
31.9008 30.805 4.65177 31.0079833627
35.9316 30.2858 13.4148 29.6347975172
26.7368 29.2507 10.185 27.6880045216
25.8854 20.9082 8.13489 31.2274078705
29.0597 30.0 14.169 29.8929459819
24.9144 27.1061 12.8222 28.0480291093
32.2315 17.0237 12.238 35.4973289748
31.9834 20.6939 5.40122 36.6879492108
32.6786 20.5883 8.39906 32.2399150723
25.9176 21.5932 10.8704 33.21790273
28.0822 29.627 7.51773 31.1725610827
31.5002 31.4575 13.1051 29.564250871
28.8168 26.0847 10.5875 27.0783679528
32.1856 23.3101 9.96224 28.1861110233
31.0636 17.1121 9.63869 27.3470713509
36.7555 27.4085 7.65232 28.63043324
34.4454 26.1313 7.47987 30.589939276
28.1589 16.9992 8.89893 32.3396369804
25.0971 23.8939 4.16106 25.763893074
32.1368 26.2761 9.3373 28.8045448625
35.9684 29.3112 9.91299 29.1165201696
32.8928 18.4396 4.43221 29.4784175044
33.0517 27.5553 13.0348 29.6423707454
27.7015 31.1034 11.7866 28.5552444972
32.3913 27.9468 4.7816 36.271393677
33.4029 28.7683 10.5497 33.3516074271
36.6444 30.6647 7.08925 29.1784296873
27.7292 19.0582 4.5702 31.7885891582
28.3391 19.401 10.8472 34.7980459974
36.3358 22.4426 12.7617 29.8191045903
25.3587 20.7773 3.7975 28.1471481322
28.3354 27.7977 3.74952 27.5278823992
35.0034 24.1833 9.47018 27.6214504077
34.1782 18.0792 9.18321 28.3081372604
25.4293 30.7812 7.50744 31.5086244664
31.3095 30.7565 10.614 29.697383556
31.0359 19.8867 10.4913 29.9304642266
28.4268 22.4143 12.1421 27.4052077188
31.9899 22.4372 12.4818 28.3317938539
35.5596 21.6644 8.50043 28.398364733
34.8442 21.8028 5.83955 33.7464455499
35.5969 19.9769 11.1125 32.9297590824
34.7802 32.3649 8.04033 32.6525783925
34.6035 31.7803 4.90564 30.454254396
25.7685 32.2365 13.2733 31.8015150736
30.1684 31.4816 6.56795 29.60268116
27.6324 27.7005 12.7214 29.0068352229
34.4814 24.4573 12.5455 29.9779120471
35.4654 26.9939 13.9848 28.1086658493
28.3207 18.3688 13.6288 37.0499320445
34.2654 32.4709 13.2475 32.0493372936
28.1058 24.9022 13.4546 28.9033317428
35.0873 27.8658 3.65124 34.3866880278
25.2956 30.9497 15.8389 28.719500153
27.5622 17.8627 21.236 31.7994581971
27.2377 22.1145 15.4257 39.3472045306
28.5981 22.0372 18.1049 35.8716289878
27.2884 16.7911 24.1202 63.0363728799
31.3115 16.3753 21.353 30.9646357834
34.3029 19.2494 20.3484 30.2650406862
26.2115 22.2105 24.1913 74.8640769692
28.843 26.5348 19.818 28.7506790295
32.4977 22.8274 15.9873 29.2082228345
33.8745 27.3662 24.3351 96.7554714848
26.7681 26.5178 15.5915 32.0116492255
34.7698 17.5968 24.5041 78.2690836439
30.7166 19.2957 14.8116 31.20188506
31.6893 31.4204 24.1878 78.8876412757
29.1592 29.2723 24.4668 85.6785904842
28.3776 27.8426 17.4259 31.4012825934
27.0323 31.6928 19.2488 30.7986301211
27.6596 28.5479 21.5952 29.487605321
31.5949 18.0428 24.7457 104.0369582793
30.4559 24.9374 15.0729 30.81663246
25.6922 19.5175 15.0835 35.0861746954
31.7226 18.968 17.5189 27.8577331476
36.7819 24.7601 19.5609 27.4694223325
24.9329 18.9385 21.5799 32.5491084644
30.2886 18.8494 20.1715 31.2511884288
28.7044 31.2642 21.4028 27.9489265646
35.338 21.8477 16.5435 29.7890246599
32.2442 20.6207 21.8415 27.5785938059
29.0038 21.1581 21.0794 27.4000166554
31.8697 29.2882 15.0684 27.9689148913
35.4881 20.2537 14.3942 29.1429527174
27.2815 24.4489 18.2757 29.9339450412
29.8516 24.0593 21.2893 28.3459766582
31.2208 21.5365 17.8904 25.2470751346
32.0994 23.0447 20.0884 28.1164478006
33.5652 26.6478 21.3073 27.9404569144
26.7556 24.5057 21.0111 26.089633123
31.0302 27.597 21.5336 26.8628045386
31.1177 27.3746 24.1894 62.2370026774
31.0341 27.2978 16.6855 28.9063451685
32.4178 25.0414 17.9586 30.8796984661
33.5447 30.5291 20.3935 30.5158233835
27.1227 27.3336 24.3093 81.3849567803
30.2721 32.2693 16.841 37.0092819922
34.8153 26.2987 18.0757 27.1238725686
36.3501 28.5753 17.0751 29.1618736828
32.9629 28.5693 18.5428 30.6176231756
36.1922 17.5018 17.166 33.1365196512
24.9456 31.8626 21.1252 26.6246071516
24.5256 28.9131 24.0733 57.511271467
28.0061 30.6273 16.7153 27.7993398062
25.4606 31.5024 23.7672 52.35328399
30.3573 24.687 23.8905 66.2224445835
24.8174 22.3367 19.288 35.3259118688
31.1943 30.2155 21.8218 29.3655418446
26.3532 21.3297 21.545 27.1864030202
34.4018 31.8738 24.0806 71.8030058028
29.8136 21.8559 14.6158 25.0309388885
34.9088 20.5097 23.9889 47.8093008354
34.2486 19.5226 17.6704 29.0634532112
35.768 24.5993 15.8164 30.5704355484
34.0871 16.9636 21.9145 29.5228756081
28.2541 32.1287 23.9658 65.1147228299
27.199 24.6734 23.8887 52.7575999855
36.2273 20.8995 21.3333 30.779779962
34.7736 24.6823 23.6744 44.3557164237
35.7112 29.3033 24.0593 77.3845465272
35.2786 28.7281 21.3379 28.0672907355
34.8266 23.7822 20.9726 29.4356814663
34.2463 30.1351 16.3565 29.1603133608
30.5961 20.5775 24.1951 63.3879706014
27.8617 19.8743 24.2097 74.2221048936
24.981 28.7886 21.145 26.405370057
32.8123 22.5362 24.1948 82.3646072335
32.704 32.7132 35.2682 116.9482946711
27.9908 29.4764 36.2692 40.4643838758
29.23 18.7854 35.8516 63.7408695359
31.9203 19.7804 35.6807 82.7958611528
33.1558 25.6212 45.6917 28.5075920464
34.9549 19.1809 38.8211 27.8422803239
35.1305 27.8302 42.0985 32.8398829011
36.7014 19.4148 35.7001 90.7894822624
34.2142 18.0875 36.0577 46.9757649414
26.2968 22.3982 42.0342 31.2959185662
28.0337 32.4394 39.3925 29.6793308703
26.9367 20.3334 35.5927 76.4178471792
31.6315 21.4942 38.0415 29.7572642522
34.5034 22.0208 38.8511 27.5538054102
30.246 18.2831 44.0971 27.4922066121
25.455 32.4798 36.1027 54.9044878784
28.1603 18.3465 39.7318 30.5212503465
35.978 22.9916 44.2747 28.7596142142
30.0408 27.5345 35.795 66.2751916564
30.4958 26.6251 38.2974 28.8652766076
26.4522 27.7353 44.6222 29.8155980251
33.9924 28.4933 36.0328 57.8040409022
33.3657 26.0017 38.44 30.3313732677
34.3087 28.4997 39.1498 34.0497634424
27.285 25.7724 38.583 27.8182571846
25.0181 23.9984 38.258 30.2231110571
27.7794 24.5819 41.1839 26.1506509544
31.5348 29.8502 35.6856 72.5988218804
30.2518 27.7219 40.8459 28.304853731
30.576 17.8001 41.2674 26.8921987228
25.9822 21.3917 39.6261 27.6044492876
34.1806 22.1452 35.821 70.8206488092
33.993 32.3164 38.7759 29.0064265496
25.3681 18.0059 39.6122 28.5044912599
28.2784 20.759 38.4454 26.0740026274
25.928 32.2201 43.0005 31.5176980533
29.9188 20.929 40.8531 26.4688036696
29.6519 16.9858 38.1265 25.5640830947
27.7923 25.629 35.3849 98.2223257964
29.7742 23.7957 38.6526 27.9278666798
32.7977 20.6564 40.9303 28.7765390391
34.8564 24.2869 40.2555 33.231715756
34.3408 30.1666 43.6413 30.3426609913
28.4724 21.0294 43.2351 30.9302192939
30.6712 26.6673 44.7282 28.9703415554
25.3624 28.5614 35.6375 80.7218648267
30.1782 29.6031 44.5668 29.4762624616
31.5092 23.6561 35.701 83.4598238156
28.3347 28.7627 42.3661 28.3224386556
31.8262 26.0018 42.1911 29.2148832748
26.1644 27.0766 41.0599 30.7531822018
31.9399 29.862 40.2892 32.0088021135
28.0347 25.6716 43.722 26.6417431936
25.3009 18.6847 44.4535 31.1108527651
26.3305 28.914 38.5753 31.0041852042
30.2261 22.7992 44.5573 29.8302594439
30.0264 30.7898 38.0616 28.3732950781
33.3044 17.9593 40.8027 28.3904770797
24.6972 18.6686 35.7504 76.0886792138
25.6329 22.6468 35.7199 62.0291941734
30.4122 23.7812 41.8362 29.5632652248
35.0007 16.8875 42.8251 29.8438065353
28.7804 23.0281 36.0287 47.2999932486
32.4368 31.6098 42.5518 27.5601318485
35.0388 20.6718 42.8975 31.5732776811
32.1385 20.332 44.4127 30.1799034337
27.9345 19.2335 45.5421 29.7035441019
32.535 16.9433 38.1429 28.3599639768
28.2206 31.5894 42.047 29.2198255783
34.4065 25.5119 43.2834 32.3165503644
36.2353 24.2247 36.0144 58.4521670849
33.9254 25.5664 35.9295 69.700627547
28.503 32.3677 35.8504 76.4770102493
36.505 29.6975 35.7842 76.857993536
35.9717 30.6878 38.4212 29.2707283027
24.5215 25.7901 35.7491 68.5185492185
25.244 31.4769 38.6807 29.7237992854
32.1385 17.0437 45.7 33.1523850909
36.7 16.9033 45.5222 33.2621300101
34.4435 18.4635 45.0011 27.3179176053
30.199 32.4108 43.5225 26.0356510225
25.2489 16.4414 37.3376 32.7876079927
34.8899 23.1974 46.7017 28.8930079741
36.3914 29.0245 46.0965 30.456037159
31.2801 31.7995 55.178 35.0855030409
35.8486 20.7109 54.1712 29.314955182
31.518 17.866 50.7306 29.2058619833
28.7092 21.0588 47.6722 32.1560328135
34.7827 20.5201 47.2795 31.3779189029
26.6343 17.2244 49.7951 29.6645773825
28.9507 21.2151 50.3502 27.8677415405
33.4494 24.524 50.4469 31.6032133841
36.3178 31.2997 50.6652 29.6461613958
26.3569 25.9477 49.9569 34.6436679475
31.9087 23.411 46.8661 27.3736141141
35.7825 25.34 48.5542 34.5776643188
31.4032 20.6741 47.1853 25.7728029501
27.4084 26.8775 47.5559 31.0182625071
26.4951 30.3761 50.4677 31.9357935023
28.7225 29.4428 47.0378 28.8542298391
29.9981 30.5921 49.0879 33.1384691847
35.9282 31.3673 47.7533 35.4007508662
26.0992 30.5804 47.5126 30.7150714504
31.5967 28.2135 48.919 33.690919028
34.0697 28.026 47.2045 27.1272351452
28.2686 31.7901 54.536 32.1359822909
30.8501 18.0012 47.8475 30.0281476457
30.075 18.5986 54.5105 27.8898302904
33.5737 21.5283 49.4958 28.0469984003
35.8244 21.1666 51.3003 29.816243693
28.3357 16.9753 47.466 32.0186562627
31.8509 20.9659 53.5909 27.0508364069
26.7178 19.7481 51.2721 27.3160814148
27.371 23.5564 51.3482 29.2561244025
26.3665 21.1245 53.9108 26.6752104384
34.9589 16.4067 54.9007 29.5870367172
32.4698 23.5675 54.242 31.1039587307
29.0244 22.3043 54.3986 30.2932788213
31.5991 20.54 51.0521 26.5701901352
35.9808 18.0606 50.6901 34.916729331
28.4551 28.0534 53.5627 31.3588129429
25.5604 28.0145 51.4768 26.5170221774
28.2512 25.0289 53.4204 25.8825207864
30.3833 25.8447 47.7734 30.6552722275
30.6188 23.8967 50.3066 32.6342838895
35.1075 27.7339 49.9042 35.3371923487
28.7216 31.6504 51.3953 32.3902866972
30.3862 30.0326 53.1282 32.527004769
32.2702 27.9817 51.6443 34.1979961383
25.8499 21.6324 48.8424 31.3505267893
30.8432 16.5023 55.9557 29.0673433265
28.7234 17.5971 51.9591 29.3878905567
33.641 19.3677 54.7024 28.180510246
27.3737 24.9571 56.138 26.2841374322
25.2918 25.9783 53.7539 29.5169884267
36.3939 30.6481 56.3058 27.3320683452
27.2273 18.419 54.9187 28.6540786619
24.7502 23.4685 53.349 25.4533224453
34.7924 23.5535 52.8455 31.8827171864
34.6436 29.7657 52.1607 32.4025774145
30.744 26.5683 55.4872 32.9954871563
36.078 26.0126 53.9058 36.461845982
33.718 17.5722 52.4632 28.1340536519
31.1741 25.5235 52.5662 29.1884106635
27.8944 24.7783 46.1228 31.2210287163
36.4257 28.8827 53.9922 31.9321001534
31.4792 32.4607 47.3528 28.8719944414
25.5412 27.7769 55.9028 30.1212058407
26.1275 29.6316 53.9053 27.8927933186
24.8853 16.8251 55.4032 30.1797443114
33.5299 32.2984 53.2989 37.606167052
36.3098 24.7688 56.5895 29.6703629168
24.9317 24.7322 46.0609 29.6704926515
32.8666 30.0777 45.9364 29.1880336453
26.246 34.9331 6.03478 27.2565249676
28.8082 37.7392 4.72151 30.4029437374
27.5153 33.603 10.3471 29.6580708914
32.7543 34.6574 6.70504 37.1164922647
33.6248 43.2594 14.1076 31.1095670986
35.2562 36.0482 9.44122 30.8349426717
25.6609 40.8665 4.12099 34.0659645151
29.6636 34.2835 9.11353 34.5698533734
31.1865 34.3957 4.19696 37.8528156051
29.4548 41.058 5.45384 28.821560655
29.9015 43.5337 5.33575 30.4786863766
31.7135 39.7414 4.61645 28.9171257422
32.4303 48.4466 6.48506 33.7669100509
33.1395 39.8101 6.83547 31.098462963
36.5757 47.1778 5.99826 30.1381122909
27.4432 44.7132 5.47515 34.8658653187
26.026 42.3696 6.37224 33.0285879707
28.6114 40.3306 12.3801 28.2102885829
25.5903 36.6308 13.9989 32.2974615835
35.6411 45.4714 10.1031 32.6539585014
28.6491 47.1077 12.7664 31.0360189969
32.7335 47.8217 3.70336 31.7416946424
26.4536 48.0618 11.2204 31.9351584004
35.6553 42.429 9.7938 33.7515596775
31.8593 38.9142 9.30247 34.2755726514
31.9743 45.8201 13.959 27.0121310152
35.2257 35.7541 6.9163 27.6987622665
36.1895 46.6597 13.0626 35.5386096895
27.8733 37.9711 7.22788 30.2011173996
27.8274 40.7819 7.93403 30.5085448645
25.4318 37.2866 7.0919 30.772926283
29.7999 37.0699 9.28186 33.5584379046
31.5445 43.3615 7.50949 31.0412222518
30.2388 41.5502 9.18999 31.0597045534
34.3254 42.2715 7.25011 32.1132218072
34.7469 45.0842 5.82532 30.8409725738
33.4334 46.5595 8.22573 29.5266034635
28.2433 46.2737 7.55454 33.3953300655
26.4291 45.7497 9.7709 35.734711139
30.8017 45.8 8.41496 30.9673004738
35.0634 38.2401 5.99087 29.7797841579
32.6968 41.178 12.7629 30.4104203301
31.2263 45.2906 11.2989 31.9989650698
31.0314 48.2927 11.296 30.7340936418
26.9328 36.1557 11.4252 33.4088526961
30.84 35.8561 13.7835 34.9534995019
35.6384 34.3121 4.3002 31.9680573781
28.9371 34.1533 6.03902 33.926849154
30.5591 42.4699 11.582 28.9721646906
34.9127 33.4439 10.6919 33.6948580898
29.3501 37.7867 11.8518 32.8924520217
25.6811 33.3411 8.47089 30.9229654211
24.6727 37.5913 9.80756 32.4529508519
34.0576 47.8422 11.3045 28.2957101366
35.1289 40.3283 11.46 31.8643757797
33.8645 37.9402 10.9889 33.0162981523
33.3594 36.7467 13.4817 34.7703182831
28.8013 44.2896 13.2932 29.2809067288
26.499 43.8015 11.8082 33.7319559132
26.9954 41.298 10.589 29.461373336
36.2565 42.246 4.94824 32.3406744529
27.8984 49.0033 7.1587 29.1164183291
28.8386 34.5089 18.1676 27.9980784399
36.3912 43.9745 14.1343 33.7193223499
30.2045 36.6051 16.4844 32.9066742611
32.2323 34.8199 18.001 31.5128771982
29.1186 40.437 15.4865 31.0370901105
29.3771 45.7066 24.5403 85.813843081
27.226 42.7207 24.0969 73.5684020965
26.2961 39.5339 16.7571 27.1780761853
29.7358 39.1027 18.2109 29.8285349937
35.5208 41.5095 19.218 33.2663736023
32.7443 35.0527 23.7728 56.8399089387
25.2593 41.6706 18.683 30.7937400877
28.6365 43.0293 15.676 27.3244719888
31.157 44.421 15.9897 30.9618432032
33.5154 43.1474 16.9586 32.4107325211
33.8755 40.5485 16.3943 28.3341108468
26.912 40.5428 20.8575 28.5329629127
34.3522 32.8303 17.1825 31.4701380775
25.9325 43.1287 16.0336 29.5738206579
26.4031 39.9754 23.7615 44.0209335526
30.3753 46.5437 17.8926 30.342129804
29.476 34.2053 21.0367 31.0405977622
32.2916 34.8539 21.0425 29.5010038333
25.1999 37.9946 21.7426 27.9961604008
26.2754 39.2661 14.1116 29.6762435387
29.7921 33.2581 14.2672 29.3031508299
27.3494 37.2301 18.2113 29.5990718802
27.564 36.3738 21.3259 28.7919460647
28.522 42.301 18.8687 31.9256799059
32.6896 39.5178 18.9056 27.828048448
33.8956 37.243 18.0584 30.4403022474
29.6617 41.6645 23.6456 35.4193667151
33.645 46.1045 23.9471 56.7301483953
28.5642 45.2719 19.2355 27.7023540276
26.5607 46.1943 21.1384 28.1975202067
32.8105 44.379 21.4185 32.594923914
27.4327 34.613 14.5365 30.2370889447
26.636 46.6265 24.1465 68.1404463381
26.2612 45.481 17.3199 29.8893628317
34.8461 45.8287 17.4683 30.5782597404
32.8053 46.2169 19.3295 29.8555257602
34.0231 47.4277 14.8946 30.6764867688
25.716 47.7214 16.2776 29.8586513252
36.1108 48.4457 21.236 29.1758859249
27.5306 36.5486 24.0493 64.7091373298
35.9597 37.4573 20.1167 27.1409316723
33.1827 41.3419 21.0092 27.8618075859
31.0369 47.2205 22.3547 25.3195601553
36.1979 35.0103 21.3873 26.9850699438
32.0098 38.0357 24.2393 82.9059711592
34.5325 38.7313 22.111 29.0470285731
35.5602 34.4064 23.9891 66.7978028223
34.0637 42.7102 23.7448 37.6993260301
36.056 36.5761 16.3103 25.2910003728
29.2044 38.6056 24.3701 90.9093373964
29.3755 38.725 21.089 28.0366072699
34.5656 39.9781 24.4354 106.9018133223
32.22 37.7837 21.4085 27.8941702842
29.71 48.8435 24.4832 104.519261836
31.8956 39.4359 14.7212 32.6183819813
36.3269 39.3823 16.0412 29.4329572784
26.7816 43.3981 21.5617 25.1238357601
30.0471 48.4389 20.2652 27.3250142741
31.5105 43.4193 24.5424 103.6903962267
30.498 41.4667 21.0249 28.4105819982
26.1648 33.9979 17.1262 32.0276948933
36.1591 44.4412 24.1119 92.899255271
29.7525 44.5753 21.9682 26.4751599665
33.6205 48.4744 20.8748 25.9770559128
34.7643 34.8343 14.8192 32.2704212748
36.5764 43.8219 18.943 30.2784013821
29.5936 34.3888 23.9431 67.8461175615
34.3529 33.1187 20.0629 31.3598265755
27.7349 48.6528 14.7613 29.9014816625
35.0187 48.8123 24.5539 107.2460269154
26.8921 44.9316 35.9343 67.3863404306
25.7026 35.7795 38.8791 29.128005806
25.0741 47.5975 38.6975 29.5787554662
28.8008 41.5728 45.4661 27.1680933571
28.663 38.2985 35.5849 84.0874180198
35.6555 43.6666 41.4828 27.7357457712
32.0457 39.6239 35.7289 72.7182818723
36.3868 34.3704 39.8369 28.2000185825
25.4273 47.5042 35.8873 59.6284852472
26.042 38.965 35.9804 47.6578237254
33.1477 43.55 42.8865 28.4373898685
29.6257 41.42 36.1345 45.8728072517
30.692 34.4661 35.9582 43.2743382871
36.2978 36.7099 38.7853 29.9819516412
30.4493 43.9083 35.7721 76.0802309537
26.3391 38.3428 38.6572 29.7767540906
29.92 46.3413 43.7777 29.4859729689
33.1678 39.3618 38.306 29.7277019386
25.2734 35.178 36.0876 51.3665294973
33.2183 43.962 36.019 62.4611748895
34.9526 33.9604 43.7835 30.0896663165
26.5574 41.8234 35.6256 99.9565879377
27.634 44.9727 43.5759 30.8950404869
28.4343 35.9273 41.5102 28.9290182648
25.8219 39.587 41.2622 30.4388438554
29.5087 46.4684 35.8258 76.4934334523
35.7031 46.962 42.1743 34.7051873596
27.4925 38.4754 44.9358 31.7974361636
33.7833 46.589 35.907 94.2411603614
30.701 34.9009 42.2357 27.7795857843
33.5395 33.8302 41.144 27.7220488502
25.7364 46.5084 41.9633 30.1672695361
34.6678 39.9066 41.9774 35.7270269847
28.2456 35.1115 38.7507 23.6859192595
34.3302 46.1151 39.8484 26.6351127363
29.4694 37.8314 38.2083 28.4791652939
31.3075 35.8046 39.6468 27.8066263837
25.2784 41.7837 42.5486 32.8262126084
33.7217 37.0301 39.833 29.8310878012
27.0492 44.2028 38.5076 37.4476312432
27.8606 42.3226 43.0339 30.1344225732
30.0586 44.2165 38.9785 29.8601200348
30.6517 40.5734 38.6717 30.3357199077
34.9263 41.2664 39.5254 29.0782506569
31.4126 48.3504 36.364 38.4644449433
31.9402 41.1401 42.3403 30.1442257387
29.5045 46.9914 38.5381 25.7589821632
28.0665 35.5978 35.7816 68.9429242977
31.7501 41.1593 45.9077 30.5413444004
34.3677 41.3745 35.8031 83.2453236933
31.4555 45.3264 41.6485 31.239403706
32.6667 36.7893 35.577 91.423244454
35.3265 36.7085 36.1084 56.0997775022
25.3766 33.9531 45.1178 36.3750052216
27.5635 48.1026 39.6621 27.5920919473
34.3094 40.0812 44.927 30.4419577826
35.1442 36.8781 42.2739 27.1418300871
25.3478 37.8944 43.3361 27.4818617675
31.0423 33.4664 38.3385 26.9465322736
28.6252 38.8207 41.3301 30.8196615338
31.2915 36.8927 43.9731 30.3555200985
26.0077 35.4002 42.7248 29.0702121441
30.1492 39.4295 43.7431 27.0464737983
34.8814 33.8373 36.5096 33.4708542859
34.9669 46.0593 44.8333 29.5235305796
33.8652 37.1362 44.6892 28.9865066455
35.8038 46.7067 37.8242 32.6688025919
33.4882 49.0887 38.7233 27.2589445887
31.5384 47.8107 40.146 26.6706346703
29.8642 41.8677 40.8919 30.055759684
33.2155 43.6935 38.7882 32.4970685542
36.0985 48.7597 44.8909 29.587028597
24.8811 48.0942 44.0911 26.2720006657
36.8634 44.1745 43.8407 28.4586940105
33.1076 43.5316 45.5401 26.648130062
27.4452 35.6598 49.0695 30.9664690389
30.2866 35.68 46.0966 31.4916169949
27.442 46.158 56.0803 38.0885003115
35.214 40.7911 55.6044 33.9978112652
33.6701 47.7523 50.2226 29.2717462577
28.664 37.6496 47.4224 30.571089781
32.4935 41.4081 55.5841 31.8513806378
31.8416 34.1163 49.6998 33.7027635793
30.6694 39.5058 48.402 29.9191259013
34.2503 34.1957 51.3391 30.9881334121
35.1628 38.3267 47.1654 29.3775877494
36.4626 42.1432 53.4205 32.5416064704
35.6889 44.8801 52.7837 25.3105926913
26.6691 40.3917 46.6935 29.3071698999
36.0635 45.8028 55.2648 29.2356320729
27.5394 44.9083 46.3139 26.8851006515
24.9704 37.7285 52.7235 32.4052822027
32.7158 35.7613 47.5185 25.9255718237
30.0026 43.6508 46.9492 30.9462130832
34.128 33.3205 46.4323 29.9523117875
34.2446 46.1045 47.5821 27.5160633334
36.6553 47.6378 50.7692 28.5805016666
31.0011 48.8393 55.268 29.2381881603
29.3267 34.4602 50.3525 31.6090741387
34.933 43.5594 48.8415 31.1976741153
34.6722 38.0553 56.2578 34.2207665454
29.1782 36.419 52.2558 36.2801350399
31.6788 46.0281 46.346 30.2835702705
35.8542 35.5787 47.5679 31.164646235
26.9011 33.259 47.4398 31.0657775935
33.5529 36.8809 51.534 29.9171298663
24.8776 37.5306 50.097 31.9837741988
29.0363 39.0523 50.8718 28.4981612323
25.7088 42.7578 52.7997 36.083084055
32.9444 37.9278 48.9949 29.3380353379
36.1679 37.2359 52.3696 29.8781596948
35.185 40.5974 49.3465 31.0396796052
31.482 46.4061 49.4876 29.8139798727
26.7678 39.7619 49.4592 34.1298057227
27.0815 46.1339 52.127 27.7181261065
36.9695 35.5367 50.4176 31.7829764147
29.0126 47.6459 49.5448 28.8069322661
27.649 42.6299 49.8353 31.905295931
30.4132 42.1287 49.83 28.2827898953
24.9522 34.3864 50.3686 32.7076525279
31.2831 44.5206 51.4229 28.9794204938
26.828 45.3957 49.5459 30.3201998299
28.1974 39.8041 55.8359 33.9025510315
25.9848 33.5728 54.7309 33.6727284664
26.5828 36.0773 56.3544 32.3764541494
27.4233 37.768 53.8514 30.5011029837
25.5602 45.14 54.1371 33.0865323565
31.033 46.8941 53.3078 26.7544591103
31.2834 37.0441 56.3025 36.3402210195
31.8793 40.0982 53.299 30.7264850167
31.5389 37.388 53.1748 33.7851709788
29.1459 40.3833 53.1253 29.3160293296
24.7899 44.5152 46.2411 31.5775161612
28.564 43.1693 52.4236 26.6977305047
27.5704 47.4538 47.1355 26.4949581872
32.6916 40.9793 50.7886 27.3709459858
29.4012 44.8883 54.3114 28.9066990693
33.7026 43.2785 51.4862 29.7817234123
35.6809 33.6796 54.4056 28.2697325389
29.1678 33.0158 46.0266 29.7363330042
33.6511 46.825 52.6994 27.7374167122
29.0858 48.7058 52.4683 30.9739109004
31.23 43.9368 55.9991 31.9953335824
36.2662 36.3849 54.7373 27.0792848194
25.3301 48.4059 52.3663 32.4522897663
36.5112 39.9447 51.763 32.132956115
35.8844 42.4997 46.0879 29.034755143
34.7434 48.8469 54.7103 27.7078018931
35.6395 48.506 47.459 30.9276497067
33.6174 45.1625 56.4585 30.6881048853
30.1603 48.8127 46.0175 30.229388227
46.5672 15.4335 10.0448 30.3308517731
46.5809 1.34585 12.7898 28.7906533462
48.9758 15.2858 12.5418 30.8352862018
39.3461 6.47808 10.8802 29.3864129171
42.3743 8.90139 11.8347 29.6710732611
44.2836 0.0247996 3.6444 30.3088404459
41.6913 4.31733 4.6487 30.8924621257
43.2922 5.01878 6.55868 27.1488004373
48.0907 0.947013 8.77613 28.2709576176
42.4184 8.00009 6.37934 26.6848209517
38.0652 0.0280837 10.9904 30.8493162302
48.6988 8.22705 6.74282 29.9563789837
45.9432 6.3407 5.60158 25.7527309092
45.4947 8.16611 7.25113 27.4587103933
44.2389 15.0635 7.48636 32.0754265915
47.8642 13.4976 3.92898 28.3236582789
44.7668 10.6008 6.3829 30.2523230442
47.8967 9.72062 9.35878 29.6089269298
39.6804 8.72786 12.4461 28.793795507
44.0818 1.70655 8.50579 29.899158635
47.2261 8.02797 3.75008 33.0109009019
48.9638 5.18734 5.3875 29.5058335051
38.2972 1.79703 3.64345 34.8455858553
40.1809 13.3412 12.2503 29.9965821102
38.0261 10.8436 5.91094 29.6961480029
41.9256 2.13468 6.91387 37.7941471498
45.265 13.1687 5.41076 28.7834485054
46.5371 11.834 8.27434 29.1153828494
45.6627 3.95278 8.03033 30.7291623496
38.5994 5.38618 6.72528 31.725949414
40.464 3.84086 8.45253 33.7447452476
38.8073 2.74567 10.5718 31.2071809094
41.648 6.29192 8.57842 25.872827708
47.7057 5.22472 9.73094 30.0124036142
45.9367 7.64215 10.0311 29.4939868161
39.3873 7.78495 6.1182 29.4756110307
44.7145 13.1291 9.96783 29.8161401502
42.0257 14.827 10.0473 32.4989702519
42.2664 10.6744 7.71379 32.1240780534
39.8249 8.75122 8.94606 29.9888097062
38.5042 4.52882 4.10092 29.0629186796
40.2732 14.3297 7.846 31.2405006211
40.4358 12.108 6.34797 31.7707868592
46.0466 7.24879 13.7607 28.2914294035
42.119 11.5198 10.6821 34.2463329349
41.8119 12.6145 3.87358 29.9795917307
44.2687 9.67344 13.7792 27.8838839863
44.1381 2.19771 11.8222 33.4586916876
40.2612 4.20647 12.5655 27.7645766163
47.048 9.53261 12.1436 30.9579547967
48.4263 2.73142 10.8637 28.5193518898
46.8892 3.19066 5.71508 30.4024866056
37.691 9.52698 10.3076 28.0298845799
48.7415 14.8795 8.39853 30.5154597187
45.6529 12.1867 12.5709 31.9168294007
43.5008 6.79031 10.5987 29.4573146352
42.7633 4.92745 12.3813 31.1091224699
38.0306 8.70068 3.76379 29.8304568386
48.282 5.76239 12.6246 32.7241734699
38.0447 12.2047 10.8671 31.3749095697
37.9595 15.5754 8.11148 30.080817553
48.4198 12.8617 6.63863 29.5693977063
41.8655 15.8955 6.18285 30.0281226927
39.9175 16.1177 12.398 31.1215928428
38.3354 0.502563 14.0396 27.908549387
43.991 14.9784 4.1136 28.5233599067
41.6881 0.964966 23.6717 45.3711713339
47.5685 13.3272 14.1964 30.7112535335
38.8561 2.01302 24.1178 72.2380569479
44.016 15.6402 21.7305 27.3078329493
42.2222 1.68764 18.7387 30.2689885029
47.6866 11.4463 19.4134 33.4178091487
49.0903 2.32027 24.234 93.1296320264
41.0777 5.58418 18.3359 28.029522106
40.9423 14.9843 23.7391 47.4185639459
44.7732 13.7152 24.1802 77.0159707705
45.8181 3.97683 17.2026 26.6202472246
39.0727 7.27761 19.1923 26.5662604923
40.6418 8.57197 21.4717 28.99338123
48.9481 1.24686 19.2865 34.2759833746
44.8063 10.7352 24.3691 102.1286873313
44.4736 4.96159 14.7326 27.2082561403
40.7345 2.01369 14.657 28.270226206
38.986 16.1564 15.1801 27.3835437423
44.1742 12.7806 14.9042 29.8297251218
43.6354 1.9427 14.5317 30.3155376707
39.1166 13.3302 16.9184 31.1117877363
43.9821 13.2949 19.5263 32.8372394608
47.0879 6.49921 24.2446 99.8540494624
38.2615 2.65268 17.7628 26.261659995
48.1085 13.1254 23.8302 42.4587390005
41.9632 5.81133 21.3891 28.7524888711
37.0722 15.9089 19.842 33.3345752051
44.8433 2.54752 19.2378 31.5384222498
40.8301 3.17876 17.1304 26.8217394829
37.7696 7.80529 16.3679 26.6330124418
42.1786 6.44511 15.8687 29.0443050898
41.0757 9.00912 17.345 26.4871567067
47.6023 5.3984 18.3383 28.9474237939
47.1815 6.16876 20.862 27.3904852591
37.4799 6.86069 21.6938 26.4509417153
38.7091 10.4905 17.5879 30.4998428566
37.9345 9.97292 21.4499 29.4827241043
44.2743 8.4276 20.7106 30.6507248947
47.0521 7.5199 16.4038 34.1548988685
44.1315 8.51711 16.6672 26.8475459506
41.9391 10.6178 14.9381 29.3376663648
44.6461 11.1543 17.1501 32.7617356023
41.6037 12.5409 20.7865 31.4616747047
46.3443 13.3891 21.4228 29.1900020922
37.9679 4.15222 15.0178 27.118385805
47.5742 15.2312 20.1603 28.45685398
46.6645 1.23482 20.9433 33.4193725171
47.8185 2.02661 16.8845 28.8302677868
45.4466 15.8881 15.1346 30.445568776
42.539 5.87843 24.1956 75.5834520493
37.1151 5.30279 18.0295 28.1652188208
42.641 15.3322 15.603 28.5149040146
44.9361 4.56769 21.1954 29.3444250021
46.7034 1.1095 23.6338 40.6516012664
39.2521 2.40094 20.2082 29.4132464309
40.0702 4.60958 24.5946 89.6509296593
39.5387 4.86545 21.7935 28.7603904481
38.1292 6.6 24.5802 93.8418657603
44.0717 6.35707 18.9345 28.798213794
44.7678 4.59183 23.8208 41.8680978675
47.1333 9.40756 23.5454 35.7774249979
39.6498 6.58787 14.6067 30.3764853856
38.6892 12.908 24.2957 72.5290070035
40.891 13.2535 14.98 26.7877085279
42.3267 12.2629 23.663 39.9995061781
41.1795 9.96777 24.262 82.9574820132
42.1912 10.1931 19.537 30.089501312
43.3024 8.34909 23.459 33.5465758742
46.9888 9.07437 21.0426 35.5359319985
38.5361 10.6784 14.555 29.1840846463
37.9269 12.8829 21.5789 32.7699366508
38.1908 9.53335 24.4131 77.7886895763
47.1914 12.9776 16.903 29.8929222788
47.1208 3.75972 14.0907 28.0886018436
39.746 14.6563 19.754 26.6920474696
47.7554 15.6082 17.4255 31.8192671501
42.8717 15.6561 18.4279 29.0199704903
38.245 15.9382 24.4882 87.4925082083
48.0163 15.6285 24.4843 94.5639902361
44.1285 2.06726 24.4656 112.2292991426
41.9702 4.70833 40.2177 29.7309425864
40.5119 5.17778 35.8082 88.645410663
40.3076 3.56899 38.2618 30.1494747394
46.1873 14.4082 40.7263 32.7915283558
41.7305 8.51232 35.9292 98.1343570219
38.0196 2.45095 42.4815 32.6154161476
38.6238 14.5733 36.197 55.6919481158
47.5551 2.72082 40.2075 30.2951640313
44.1225 4.64348 36.1226 70.319872566
37.3363 4.34333 35.9355 96.5808074569
45.0263 4.43394 40.6394 31.4665689231
46.2645 2.53805 37.3198 29.5223664122
46.2065 5.71059 38.3772 26.1093208598
38.0526 15.6377 41.1918 29.4434710963
48.706 7.7749 36.0677 51.5458061028
48.6471 4.92498 44.599 30.3916445151
38.8618 13.5819 44.4555 29.3461784326
47.8221 0.807806 35.7712 88.475035256
48.6729 13.6331 42.0759 31.4883293092
40.7607 12.4981 38.4883 28.4479932729
46.6467 -0.00886545 44.6617 34.0016160735
39.4106 7.37522 43.2355 28.0278548889
45.4921 10.7143 45.8414 34.9837840091
46.0313 11.2659 35.676 86.017459063
38.3613 3.79483 45.3124 29.0611565791
40.9127 7.88771 45.5108 33.0169233679
39.7218 0.680573 36.277 37.4441263913
45.0233 15.1333 44.6467 33.0004547935
47.1658 5.08951 35.5818 97.5962518806
46.6755 12.5702 38.5347 26.0603629557
36.8711 11.8386 38.8492 29.6542821736
37.9473 11.74 36.0913 75.496456932
44.829 15.6531 38.6053 30.4274683979
47.369 14.6678 36.7827 32.9289941535
37.5835 5.09157 38.4679 34.6047810629
41.0637 7.41946 40.8154 31.3070908334
44.4256 13.7132 42.5279 29.128255161
39.7228 0.598536 39.0477 27.5939919793
39.1636 9.1417 36.4635 55.8162201383
43.6486 2.10118 41.8292 31.1189727691
39.2579 9.84569 39.2159 28.6511100405
42.1962 5.56131 44.5142 34.4110739508
40.1808 10.2504 41.8387 32.0578266811
45.6536 6.86986 41.8905 33.1086227009
43.3641 8.95238 41.0744 31.7002043769
48.7772 10.1029 44.0741 29.4998479158
47.9025 8.36106 40.5123 30.1527684913
39.8318 13.1855 41.7605 28.8311475005
44.6379 7.9722 38.4699 28.3386326441
44.9325 10.9667 42.9761 34.8059232774
48.9271 6.52464 38.776 30.6909542362
42.4429 15.7656 45.7703 30.0215813249
47.2693 11.0756 41.7486 28.0289457759
41.7622 2.37571 35.7489 92.7259264051
42.3359 6.42424 37.7185 28.2919996821
42.7033 11.5682 40.49 27.461474898
42.0921 14.6654 41.6064 29.2690690533
44.4795 11.1054 38.6424 28.1313621563
48.083 0.212571 38.6978 29.0741161447
40.1603 4.91196 42.9164 29.0935684982
40.7354 2.20235 41.4827 26.5785011012
43.5593 3.10605 44.2119 29.7779359359
46.1051 6.45475 44.3317 31.0927803372
46.2188 2.75046 44.8283 30.4544517953
48.8461 2.82408 42.8586 34.8498933572
48.8522 10.9386 39.0034 30.1725853828
38.2904 10.9775 43.9397 29.2914889511
45.8778 8.61624 35.9295 75.0256618018
43.814 0.875722 37.0671 33.4217775769
39.5125 14.9397 38.8456 28.0334577839
44.1639 14.9858 36.075 76.8756692716
41.1917 13.594 35.8561 92.4860438373
47.1744 8.5442 45.8028 26.7056791052
48.6651 12.4318 35.3964 112.156242206
37.2918 7.90708 39.1088 30.7958446605
42.04 16.3109 39.1564 27.3926839849
38.8149 0.133666 44.4053 26.8887359557
42.6542 0.0575158 39.6445 29.3960814056
42.9176 11.2305 36.4393 44.7598479493
39.6176 6.69899 55.5298 29.2225729479
48.1611 0.782317 48.849 27.0107638319
42.288 1.42837 46.1516 33.0780583746
43.3128 2.41508 48.6183 31.4589309997
48.3081 3.27074 51.919 28.1305144522
46.8109 15.7132 55.485 27.8339857599
43.8958 8.76457 49.0931 29.9909349118
45.5707 4.68695 48.81 30.9508085211
39.7567 3.74146 50.5979 29.8877312256
45.8137 15.6325 52.8758 27.6966825737
38.0929 10.5109 46.9626 30.3692509545
41.3681 11.0849 47.8951 34.2518673845
38.4977 4.82475 48.2137 32.4127478231
43.1353 9.24737 46.5617 30.956614861
47.9612 10.2047 49.6572 31.7738243216
45.2912 12.7928 54.7833 27.4780873325
39.5215 1.70452 46.3254 29.7950605134
38.3276 13.1353 55.5518 30.6400716413
46.914 14.2881 49.2431 31.0201738638
45.6308 0.861055 49.9286 31.6954564046
44.1675 6.47413 46.5288 32.1806212944
47.0036 2.89071 47.4927 28.5447066535
46.4999 7.63938 48.5017 26.9329147442
42.8928 10.1609 56.0979 29.6549001903
45.3129 2.4768 56.1407 30.9731197162
42.0625 6.92008 50.2156 29.5344661037
42.3075 7.53702 56.6894 29.2871250123
42.5439 4.2166 50.3734 29.0308819822
39.0972 9.33173 49.2121 26.6487265208
46.2946 0.673032 52.7999 33.6834188885
36.8964 12.95 49.6311 27.6939907858
44.1949 5.64166 52.6507 33.9743731522
46.7246 5.59833 51.4889 30.5057526992
47.6555 8.36978 51.8867 29.0806445056
39.6343 13.1382 51.3291 31.5438913463
42.4109 10.5527 53.5165 28.8867795251
42.0142 12.0124 50.4846 28.7347484086
44.45 10.8175 51.1493 29.5486510545
44.9178 8.7034 53.0588 30.447627026
38.5375 10.6739 54.6535 31.0174704125
46.8192 12.1148 50.7918 30.3998275647
38.6022 15.3414 53.0769 30.4550017672
40.156 7.33524 48.1186 31.6804177092
43.3535 14.7216 51.0385 29.1448231365
37.5738 1.26358 51.2109 29.26083082
47.7942 13.3666 53.2585 28.6354060799
45.6122 10.0367 55.2625 28.4326004669
43.1229 4.0502 55.5484 28.3846651738
38.9559 4.57301 53.1416 29.5910621958
41.8897 3.39182 53.1905 32.1338015712
39.8552 10.0969 52.0928 27.9616003263
47.3471 2.64738 54.3106 30.4597964759
48.5408 11.1706 55.2913 30.4553558265
37.05 6.87111 53.248 33.9407481857
40.4841 7.45572 52.5048 33.7525147059
44.5557 6.18105 55.9512 31.3915416167
40.8064 14.334 55.189 25.6778619244
39.0609 14.7922 48.7922 29.5401711041
42.9002 13.5219 53.6379 26.4369805044
46.6574 13.2496 46.184 34.0338683988
41.7222 0.643227 53.0883 32.3623284661
39.5868 0.967494 49.3477 29.0942809327
37.6747 2.16836 54.013 27.6894854324
44.4305 15.3399 48.1196 35.3694441821
40.7454 13.695 46.6013 37.2575268606
41.9979 0.0550703 50.1987 27.1574919075
37.0073 8.27838 50.5649 33.9641666628
41.3084 16.1068 49.7301 27.5874746415
41.7572 30.0603 5.5337 30.5647256557
45.2707 17.5207 8.69464 30.950146783
40.6357 20.6063 4.54349 29.0071906813
42.2634 17.8214 13.0633 30.7030866684
42.5074 31.0704 12.9885 29.4559380305
44.5402 30.1444 5.24876 28.3703978116
48.0583 18.2842 5.01758 32.9490987664
41.9298 22.701 5.41398 30.4846023752
48.7068 22.2132 7.77033 28.5887896575
40.0872 23.092 7.61797 34.1549827791
48.6456 28.1705 10.8622 31.0791390672
41.8425 27.1567 4.47074 33.2772607653
49.1053 25.4453 11.8988 29.2171406065
44.4367 26.4425 5.69176 30.551227356
45.3626 28.4036 7.75073 29.5342800445
38.6227 30.346 5.02473 32.122220264
48.3388 24.5341 5.69064 29.82796214
47.759 22.7258 13.2929 29.1346845557
46.6897 31.4878 6.85509 33.4820776704
48.0922 27.5939 7.96602 33.9726736888
48.9445 29.3157 5.19046 28.8631381461
45.9554 25.6512 12.4117 31.6161787253
45.9996 17.007 12.6936 32.4692835221
38.6001 18.1645 9.48488 31.9693650316
41.272 19.1476 8.74911 31.8061119075
45.0319 19.2743 6.21299 29.9386158419
37.7854 20.2402 5.42557 30.7074292086
47.7578 21.9136 10.5945 27.8842535287
41.124 21.878 10.0941 30.7230989918
43.3396 23.3228 8.98586 29.8796088051
44.4185 20.2739 13.7338 35.2146026417
43.5266 26.0654 8.72131 31.86311833
37.4293 24.8082 10.2828 29.5173390244
40.8866 27.3785 8.69938 35.7867409412
45.0357 23.2586 11.0994 33.6553614295
39.7912 30.8179 12.496 29.8360034503
48.2026 24.8681 8.67611 33.4408085575
37.2869 31.5563 11.0113 27.1309818966
41.0555 30.0544 8.29357 32.5247336205
41.4732 26.0649 12.8986 29.1818823573
40.8095 16.6035 3.6043 31.6501959735
42.8721 31.4666 9.90764 31.1213852323
45.0744 29.5989 10.1648 30.4067890164
46.9633 29.691 12.2613 27.5527617346
39.3416 28.0942 12.5076 31.6029563482
40.7414 20.3392 13.3553 33.7141171308
47.2293 21.3297 5.49533 29.6320289049
47.0085 19.136 10.4864 35.1433351455
40.2001 24.1387 11.3283 28.965039692
38.897 22.7122 13.2465 31.1671377796
44.3448 22.0364 6.81888 34.67809987
46.1378 28.0616 4.03693 28.0395871032
38.7586 31.7204 8.54614 28.5900346675
37.5584 17.7569 12.1821 31.3391617724
43.5625 26.9474 11.2798 30.3265564777
47.9752 32.1737 11.1449 29.8548414184
42.8378 17.6251 10.1204 32.8633650114
38.0901 20.6623 8.26085 30.7704246531
36.9875 27.1842 11.6092 29.8415410222
44.9816 17.9855 3.72369 27.2997621863
48.5307 18.4063 13.261 27.8419109878
44.8854 32.5671 12.6253 29.0877341659
38.9644 25.4751 4.90556 35.1578363058
42.2309 18.8027 6.2342 29.6705014477
45.7046 24.0977 4.74274 30.2190787122
47.4732 31.4552 3.6648 26.9840037368
38.9886 25.8191 7.98673 28.7919460937
37.3147 27.7653 5.11944 29.3279182085
42.6888 22.4276 12.8732 31.4896292266
38.2877 18.0075 3.54919 33.9514948824
42.9904 28.5346 14.0034 28.4582616452
48.5375 26.2795 3.64218 26.7246471301
39.5422 20.568 16.0906 31.6141269851
37.9855 27.2461 22.966 35.4274424337
44.4051 29.6605 24.1618 63.6560645317
40.2436 16.6638 17.4471 29.9518664837
41.7454 24.3483 15.1508 29.774944567
46.1818 17.6577 20.6545 27.7624799613
44.4182 32.1424 17.9174 32.9931955855
48.903 22.6116 23.8987 39.9458391022
48.0381 26.7692 16.0231 27.7258752984
41.8946 22.2482 17.4641 32.7337261172
39.6607 32.6059 24.5348 98.2377017869
40.1138 26.5673 17.4167 27.8240939999
46.4795 20.5814 17.3109 32.534972414
39.1146 20.6259 20.1163 30.2505473591
40.8396 27.9762 19.8865 25.8698105032
48.9544 28.6592 23.7997 47.4513269355
42.4906 27.8513 16.6982 25.0732082341
46.9554 23.4927 17.5503 26.0413274999
45.7176 26.5494 18.2694 27.5398154927
45.565 29.2483 17.3018 30.541043806
37.571 18.6747 15.0561 28.2052541757
44.8196 23.6318 23.9782 58.6532021902
43.7788 25.6153 16.709 27.8346882572
37.677 21.7828 24.6609 134.9585710413
45.6828 32.1946 23.5185 37.3471455075
38.2663 28.0151 15.1697 28.9623822441
38.5741 17.9128 21.0085 32.446683578
43.9958 17.0654 24.2031 86.6869565792
40.0296 28.7575 23.8718 63.1910386315
42.3786 27.6304 24.5664 105.04813938
47.1767 24.8433 24.3291 78.1946295514
43.5176 18.3601 15.3851 26.6199450196
40.917 18.052 24.2904 91.1430930173
43.0555 18.5455 19.8712 28.8226473332
37.5093 18.5821 23.6268 36.7039744232
46.5131 17.7646 23.6943 32.334684072
48.8911 28.1564 20.9686 25.6420273111
41.7655 20.8678 20.6889 30.6998174661
41.789 19.164 17.4542 28.5143990624
48.52 21.984 20.9782 28.2971597271
42.2259 32.1732 24.5662 89.452132372
40.3915 30.0563 15.8187 27.6376397005
38.2778 27.0906 20.1472 26.7892646943
42.506 26.7419 21.892 30.3637424218
48.2589 19.756 19.4898 27.079095393
44.2562 23.3886 18.9804 29.891450919
40.2859 24.1581 18.8783 31.2830110102
47.5238 24.2985 20.1863 24.7333221347
49.0356 26.1413 18.6942 26.2336694286
44.0661 29.0078 21.2637 27.4113948712
43.0207 29.7737 18.6828 26.1871869043
46.2083 27.2825 21.3592 25.5689819471
44.9256 21.1166 23.0122 32.7853075685
47.5697 30.6254 20.2689 33.7504292399
40.6729 22.6278 23.6358 48.112327574
41.2391 16.3013 21.2008 26.3366391988
46.2845 27.5712 24.2421 76.8578735633
42.3679 31.8477 21.7811 28.1519525324
44.6029 25.004 21.2912 29.1777487276
40.346 30.1115 21.4311 24.4221719194
38.1635 31.5098 15.063 28.3293510639
38.9711 23.1753 21.403 29.8010110591
45.571 17.7579 17.8047 29.9548146074
48.6371 29.5798 15.0403 31.3883006882
41.9728 20.2978 23.5447 51.1157281309
37.8333 22.4168 18.1904 28.2829661924
45.3145 32.3211 20.5795 29.3243299437
38.7255 24.2757 15.9071 30.6940667569
45.4221 21.0045 20.2879 28.8123002225
39.9567 31.035 18.4257 26.2393225001
46.2783 24.9567 15.2129 29.7756340216
37.7216 29.6723 19.5069 29.2478269669
47.8622 31.2615 16.9538 32.9537550452
38.1462 31.227 22.9633 31.9764970772
45.6287 28.1945 14.3156 28.8833109478
37.4988 24.5415 23.8119 69.066134606
42.4581 24.7811 24.1185 78.306210106
47.0994 20.3144 14.3886 30.4770565007
47.1566 20.456 24.679 121.4685860223
39.4064 18.9374 38.3405 26.532053131
44.4482 26.0142 41.4894 31.0989538069
47.5949 27.2152 35.7029 92.2903831251
45.2012 21.4268 44.9482 32.0286874729
37.9293 28.2794 41.9881 32.3252379794
44.3374 19.5903 35.6728 71.9687422716
41.697 30.0035 35.7084 78.9826538473
40.7867 21.7021 39.7307 29.4888443371
43.089 29.1253 43.5721 26.6620250711
42.8662 32.0115 42.7856 28.6047809656
37.2719 18.0598 39.8192 30.6239461112
38.2163 24.3525 43.0282 31.3873211154
44.1455 19.8121 38.5828 32.2850274658
41.8634 18.6752 39.8892 28.5541213577
45.3272 28.9519 45.2308 25.1863789419
47.3437 22.9862 35.9551 66.6840649153
47.8095 30.453 45.827 29.6586726275
38.4179 30.6429 40.1521 32.8192000574
37.408 19.3454 42.3004 28.475807097
38.2992 22.0183 35.8446 81.1506810342
37.4632 23.9578 40.1841 31.3921841484
40.1671 28.7044 38.4772 30.5567880662
44.8067 28.0634 35.9149 67.9236342979
38.0179 31.9939 45.6973 30.923837508
44.9361 27.898 38.8691 31.1066721241
46.6996 17.8894 38.5552 30.4186988123
41.4076 31.2685 38.3735 30.3853417078
38.5681 25.6486 35.913 88.319825515
47.1929 24.1465 38.595 32.8343602144
47.6252 31.5669 36.0179 65.9078890905
44.1818 31.9077 38.6595 29.4179639793
46.6591 18.0448 35.7388 74.7139197523
49.1425 17.5776 42.958 33.1334092957
41.4733 21.0061 43.4279 26.9285001247
47.5872 26.8561 38.631 29.1946692213
41.7858 16.5605 36.1072 58.8537712072
38.9494 17.4192 36.0721 64.6330343141
45.5089 19.5147 43.0637 32.6436751822
37.3025 32.4866 35.6135 87.5066651102
49.1289 17.1588 39.9562 30.3022066667
41.3163 16.7041 43.3818 29.6461863839
43.5236 22.0784 40.5134 31.0545073678
39.0423 21.671 42.0848 29.7039633825
46.2007 20.3963 40.5035 35.1008641974
43.3963 22.8865 43.3478 30.9731614713
44.4352 24.4929 39.0699 31.6089049135
48.7522 21.9857 39.7403 28.1321144107
39.5487 24.5198 38.2382 29.4762627036
39.5928 26.3437 40.9605 31.4803016306
42.1394 26.7163 38.3822 26.9474203265
44.6549 22.431 35.314 127.5321238468
38.1137 21.9816 45.6021 33.024781915
44.903 30.6975 36.132 58.1199469647
41.59 32.7846 35.7449 60.103380587
48.8392 31.7426 41.4469 34.022497301
48.5619 32.1386 38.7118 28.191675008
46.5396 30.8824 42.9451 26.9939507059
44.6398 29.8281 41.1992 29.1789302695
42.7584 23.9486 36.4106 44.6638108255
39.7853 19.8069 45.3747 29.9317457008
42.1992 27.7738 41.4003 29.7628109257
42.7771 18.9451 42.5871 32.3413305885
