10.2175 39.4053 38.3965 29.2167832941
11.3977 43.5536 35.8884 60.6502486178
11.7246 42.7781 41.6455 30.2068525898
2.36378 45.8567 42.5259 30.7856587856
11.0883 36.7834 35.8045 73.1458747637
4.53116 48.5253 39.7375 26.9902128679
0.515695 40.4025 36.0299 63.3646305145
12.0201 36.9951 38.5646 32.3158922384
12.3245 39.7225 42.9234 26.74666951
0.827568 43.7932 43.4107 29.2969534653
1.12578 39.2061 55.7248 27.8734863479
2.49904 42.3649 45.2311 29.2633517432
3.28829 39.9099 44.1192 32.6765796534
1.38895 48.5186 54.2541 30.1356768167
7.59495 40.208 45.3941 29.1147756618
9.05563 43.4862 55.1589 28.7869989935
9.65692 38.4518 46.1121 29.9242185406
1.09069 41.8872 47.3264 30.3364767166
4.22049 40.9121 54.6415 29.3995678665
9.09863 47.0971 43.5181 26.430937756
5.87441 48.7583 43.6684 31.0280194255
4.76755 42.8717 47.0885 28.6438982317
11.3939 37.5471 43.793 27.2007077795
10.1698 44.0988 44.4775 32.7490847097
8.04884 46.3583 46.1102 32.1494017391
11.8743 42.8703 54.9866 31.5866632953
11.2103 46.5604 46.2741 28.7310185362
3.44576 47.451 44.8118 31.6475923062
11.3816 40.2711 47.5838 31.0043255782
5.43272 44.9038 45.2103 32.0450997653
7.19518 43.4705 43.2938 32.03561431
9.97347 39.1229 55.7419 28.362808387
5.68122 38.4924 44.915 28.4876104407
4.56442 38.4639 47.3632 28.5254623705
6.9123 39.1966 48.7596 28.2906677111
9.60757 41.1972 49.9154 32.0338687351
3.30852 40.4418 48.5843 31.0299884111
0.13049 42.3107 51.3034 31.2492758251
4.49727 37.3742 52.4227 32.7866981613
7.34352 47.4328 51.033 28.5072447318
4.39345 44.6458 49.5454 31.2375553165
7.18899 41.6898 47.588 34.8926104619
6.96139 45.2258 49.0468 32.4986466824
8.86169 44.0131 50.4436 28.1040443535
8.98886 45.6777 52.8061 26.5645897416
2.76692 47.963 49.4803 34.7524738016
2.91642 45.7538 47.0822 32.2073863902
3.70714 44.845 53.1937 30.4788558576
1.02412 47.3213 51.9079 26.8244500654
7.87489 36.7329 47.9218 29.7944962384
11.0735 47.1365 54.2344 28.8535277947
10.9275 48.8793 47.8607 27.0827991388
5.66708 41.8787 52.5962 29.6216056523
1.40229 45.7298 55.0398 29.6226989501
10.4298 47.2791 50.5088 27.4144567498
6.24467 39.3901 51.467 30.1811471645
1.53261 38.3326 49.2802 30.5228075142
11.6717 39.374 52.1536 31.5296975519
8.73124 48.0241 55.5379 33.1182309159
0.358353 39.4484 51.3908 31.9300062183
7.99103 40.7307 54.8565 30.1035488608
2.72839 43.1455 56.0122 29.6792992826
2.24075 39.1408 53.3684 28.6399711569
3.13941 42.5901 51.1873 33.5922843328
6.52286 44.1069 53.86 31.137988982
4.44262 46.9936 51.5875 28.7344111116
8.94852 39.6106 52.4094 28.5584576488
11.3555 43.4495 52.136 29.4631828573
10.547 45.1654 48.6617 29.7606928954
5.17914 44.9923 56.5552 32.3553336426
11.6989 41.6428 45.1006 33.0778361628
1.21892 38.2808 43.1515 30.1046550141
0.161864 44.6631 47.1829 30.3022191066
23.1733 1.52372 7.61432 29.4381463498
13.948 10.45 16.1865 27.4480476617
19.4234 0.175261 9.93803 33.1915134181
24.435 1.70451 12.3324 30.0128227243
14.4854 0.254745 16.4234 30.8441511494
24.2947 7.76663 5.04463 29.0555769367
14.5338 6.99095 6.0656 32.3125962623
24.1335 7.77359 13.1258 28.8100348888
20.6042 10.7653 10.7572 25.937685093
17.6142 11.342 11.1572 29.6224504326
16.7982 5.2783 5.55478 32.5854429363
21.5526 6.71447 5.98103 27.4128404219
15.272 5.82297 13.4595 29.2611687958
19.9398 2.962 7.2178 32.6451659606
16.872 8.35244 14.5625 29.565695706
21.7992 3.51064 9.54159 30.4979709943
14.2323 7.13618 15.82 25.5344487605
12.7526 0.39857 14.4899 26.3479338453
17.4094 10.9612 15.9979 27.0060382621
17.6885 7.5269 8.54123 28.0650481316
12.5665 5.35878 5.77903 27.8312546892
13.9632 9.93356 13.1969 26.7441893358
24.7431 4.54483 16.1815 33.9090762673
15.897 1.30028 4.05857 34.3124874374
13.7203 1.59713 6.13843 29.3421113428
18.9098 7.09601 5.15162 29.4996776761
17.2886 4.34253 11.4287 34.8431810279
14.4033 9.52348 5.18434 28.9528991604
19.913 2.7756 11.3434 33.3196780668
23.3204 10.0367 10.9096 28.4899267803
14.338 10.9896 8.73284 28.1010039338
15.1445 8.37444 9.19114 29.9678434375
17.8236 4.56297 8.10408 31.4919897458
15.9167 9.29658 11.734 25.3798244631
17.735 7.01124 11.2635 27.7487412638
22.0497 3.87886 15.4546 32.6321420232
22.9177 9.25342 7.32567 27.4972351427
24.1539 3.53003 5.52408 30.4396601841
16.1516 11.0548 6.17445 29.3442207299
19.9971 8.40038 9.32584 27.5946676279
12.9861 7.33917 12.6008 27.2475992307
20.3133 10.3288 13.5832 31.3859885811
21.2958 3.88286 5.0582 30.6718579454
12.5115 7.85729 8.43127 26.4076628579
19.1303 9.75256 6.56211 29.0282746169
22.0552 10.6748 15.7823 26.4445508219
21.8219 6.54711 11.7392 31.3649508367
21.8772 6.28522 8.82541 27.7837641848
16.3043 0.279683 9.54189 33.4270444887
14.7895 3.98905 15.5108 30.3976609457
17.1503 0.887267 12.4072 31.6591011265
14.7129 2.16492 13.4414 29.6942816101
20.8597 6.55799 15.6429 36.2593668425
21.4562 1.79855 13.5148 31.1933679542
15.5079 2.97896 8.8211 31.5098650335
23.8026 4.37557 12.7447 28.8096759407
19.7327 7.71886 13.1562 29.8003192798
22.1924 11.7731 8.33226 25.4990097522
21.6095 9.88928 4.71738 29.4051763366
14.2663 3.8292 11.358 29.656690633
23.9908 11.4567 13.6066 31.3814500515
24.3755 0.299196 16.043 28.6126436919
23.068 7.95021 15.7654 29.1991884609
12.983 12.1436 11.1734 29.3561915607
13.0602 3.89019 8.0163 28.8115179922
24.5723 7.74114 9.37601 27.6173186839
13.8258 3.74808 3.79522 30.4672826951
18.6564 0.941368 16.6432 33.8085626652
17.7692 9.71194 3.37331 30.2319159964
17.1718 4.7569 18.4182 28.0639944765
20.1159 -0.0751289 24.4588 85.9248094932
14.6456 11.5732 24.4118 84.2173121449
19.2701 2.25636 21.2492 28.3285627511
12.372 6.73292 21.653 26.939189651
21.2017 2.34284 17.5278 29.2023351043
21.9328 1.45817 21.4961 26.0664098398
22.7842 5.49926 21.6933 28.4909180924
20.2927 8.73982 18.5383 31.2446362315
16.192 1.55209 20.2473 30.8573289951
16.0643 8.93767 18.0034 27.2419374508
14.4767 6.04324 18.3605 28.9330375881
23.6285 8.14698 24.1117 71.7527928072
16.5579 2.99901 24.2875 84.0909664649
23.0117 3.43806 19.8932 29.346032386
23.2579 9.38554 19.2686 30.7563902681
15.4355 3.67435 21.8596 29.0517846424
18.1603 7.00089 17.1855 33.5332198202
13.3683 0.308391 20.4322 29.4389973051
19.52 2.80472 23.9341 45.2547049584
17.1786 0.205325 24.6504 98.7368760475
22.7996 1.64847 24.2583 65.5718220151
24.2661 11.4672 17.6701 33.2188511535
17.1912 5.86537 21.3896 28.4066871367
14.0918 8.47482 20.1167 26.1589188762
16.8387 6.01864 24.1886 76.3354126044
22.6711 0.108918 18.0309 29.3726799766
20.1521 6.51243 21.0828 28.584103105
19.6929 6.00425 23.9006 56.0208922478
20.7327 8.75128 23.6277 38.9695775764
22.0264 4.36008 24.4322 90.0452011379
16.5791 2.45753 17.3336 31.76422263
12.9275 7.68322 24.3335 98.0201431531
19.8887 4.09743 19.3217 30.5526789056
19.0854 9.27773 21.0376 26.3861985887
15.6306 8.95481 24.2497 61.6713832064
16.5146 8.5411 21.5955 27.9264304608
18.4847 10.3329 24.3184 95.2396098538
22.3707 10.8274 21.4819 30.9372813047
22.7187 11.0919 24.5492 89.8538659905
14.5904 11.7127 21.1916 31.6280228307
19.7669 11.3633 17.5701 32.2359549604
13.5289 4.85417 23.9599 61.0029455635
16.4707 11.7193 18.8652 28.1513564267
12.4693 3.31224 21.2336 31.3701743316
18.6915 12.0032 20.4288 28.5981447279
13.7951 6.40617 38.585 29.2421311957
16.3217 2.6386 37.8782 31.9920792833
18.093 6.46105 38.7567 27.3728225213
18.5682 3.79524 37.0143 40.3688574732
20.2411 3.56825 39.0644 27.7736899834
13.849 8.67817 35.3406 103.7285818086
20.7277 1.9021 35.8066 100.1836845253
23.8313 10.826 41.7888 35.6271054929
21.0885 7.47821 35.8056 76.6623600315
15.9888 8.62489 38.383 29.4075155356
22.943 1.73209 41.7632 27.6497197553
14.1516 3.0019 36.2232 68.6510509856
18.4347 6.60681 35.9472 85.8281254169
17.7923 8.54594 41.2699 27.8581566599
20.8436 7.79954 38.8177 33.1470040692
13.4235 11.3895 36.3067 34.1860317758
16.6025 8.75075 35.7385 68.396461516
13.7046 11.1466 38.8961 26.8823879177
17.8459 11.1989 35.9771 45.7818339086
21.8445 3.84926 42.8367 30.9648907057
19.4008 11.5401 43.4362 31.1605968048
13.327 7.65186 42.3706 31.4252945495
22.1356 10.0825 35.9375 45.2388799524
18.4195 10.7944 38.7594 29.5164750233
15.9071 4.87943 40.0064 30.7807253755
15.3364 2.32249 41.2245 29.5124102139
22.2286 1.50656 39.31 29.6566579684
19.3834 4.41656 41.2499 27.4999960218
17.8895 1.81978 42.0439 34.1929853843
22.5737 4.96534 38.2225 29.823367756
23.2947 5.51256 35.615 80.3923012401
24.2756 10.3225 38.6017 30.3713859716
21.2332 10.3364 41.7138 31.6667534157
23.4103 6.35056 42.5347 32.3576359418
15.9317 11.0424 40.4837 30.668862116
14.7345 10.131 42.6921 30.1421511958
17.362 6.1162 42.5061 28.2422814831
21.4115 11.0669 38.4262 27.5500035629
13.8009 6.04069 35.7336 92.0571310143
13.7509 3.16403 43.0929 28.1533683914
20.7584 7.59133 41.8178 28.4358531421
23.435 2.7448 35.8382 69.6660450843
24.3361 5.90904 39.9712 31.7652588028
20.3966 12.0732 35.2087 116.9746338983
13.3056 1.89197 45.4494 32.9308333633
21.4937 0.455475 47.6744 29.7265664704
21.1951 -0.00537569 52.8304 27.9194250093
18.1591 2.36297 44.5607 31.3108930866
22.9492 12.1934 51.7603 29.6965561095
24.021 2.25473 52.3226 30.2432804519
15.5457 5.8505 46.1416 27.8052993337
20.1608 0.376892 45.2205 33.6967536285
12.7228 12.3348 52.0401 29.9275590625
18.2311 10.0956 51.0589 26.2890355826
21.3456 11.0527 45.5909 31.0289062123
15.7681 11.3494 51.5246 28.7932439287
16.4832 12.0977 44.9969 28.6884414383
17.6809 7.81915 46.6369 28.6968141175
20.2068 4.07211 45.1205 27.657498204
13.6239 12.1889 44.6416 31.1881343054
14.172 9.11055 51.0035 28.9790654745
21.7406 7.94893 45.4173 32.7034496081
16.4048 0.899535 48.2751 30.4210594491
16.6896 3.74265 56.1766 29.2969220388
23.2446 4.56356 48.384 29.5086806551
15.8883 3.03515 46.4935 29.4001711754
20.6088 1.23494 50.3263 29.4906511681
24.0203 6.9546 46.9553 30.9131115856
15.1472 9.83521 55.5287 30.3043267368
13.1942 6.77699 47.3611 34.0017572015
15.3625 5.01017 49.1434 28.8623095123
17.5189 3.24044 49.2721 27.3501219536
18.526 2.5295 51.8529 26.8833920849
18.581 4.94535 47.4964 29.6498716232
20.1254 5.06019 52.6302 29.6062337844
20.7004 4.47298 49.7055 31.0879488203
22.361 2.83576 46.5869 29.8910950221
14.1503 9.19478 48.0457 30.8363499669
16.8296 10.4322 47.4892 31.7653372824
17.2543 9.68461 43.7275 29.3120428206
13.1318 3.62686 50.5896 30.8544878803
17.3166 6.20209 52.7048 29.0409500878
16.1659 7.1803 50.6088 28.1374027545
20.6328 10.3026 48.2775 28.8526125213
12.4357 4.76999 53.0034 29.6966357689
18.5954 7.88172 49.0858 27.5437396498
18.2416 8.76071 53.867 30.4511385682
19.5323 6.78702 44.453 27.3920221559
15.6068 2.62106 52.2516 34.4670092242
18.7938 12.0915 49.2518 28.8821703532
22.8541 10.6674 49.4226 27.5340609201
14.043 7.88776 53.6036 34.9991055683
12.5803 11.346 47.4195 31.848358482
24.6112 8.2229 53.3268 32.4116073774
15.4233 4.96987 53.7571 29.5834580651
22.6027 4.10489 54.1037 32.4315575059
23.4512 6.90623 55.3021 29.5357184648
23.8206 9.77458 44.3694 26.8384821605
20.7356 7.48337 55.6764 28.7663357848
20.577 7.99931 52.4078 30.4654575326
20.5106 11.0772 52.8637 30.5692083204
18.7916 1.95973 54.6756 29.3611993996
21.1049 11.6716 55.4437 32.3833194192
21.5319 7.36038 49.8077 32.2174720896
21.4274 1.63835 55.0207 30.8195654331
19.7977 4.76337 55.891 29.1413044544
14.9066 5.5154 43.6736 30.2240155539
24.2932 1.93411 44.7002 27.7714558678
24.4348 8.5392 49.766 31.687292067
22.5677 20.0048 15.9094 28.7271620797
13.6141 20.6889 13.4294 32.6902618579
24.4684 20.8564 5.97369 28.7867187615
14.2761 17.8903 6.53343 33.3886079585
12.7984 14.6111 7.04891 32.8169781592
22.5325 15.4704 5.36298 26.7817855789
23.7358 23.4069 3.9957 26.7546586011
16.0732 17.4012 14.9504 33.057110719
17.6369 15.2798 15.8067 31.0836049687
18.9951 21.8388 14.0507 31.5367381603
14.7652 13.2917 13.7999 29.0730699384
17.6866 15.1861 10.8292 29.7873190587
14.1636 17.5983 3.70558 37.7850667888
20.2098 21.6157 6.56171 31.750799742
16.4458 21.2317 4.778 29.46609923
15.6878 20.3022 7.50202 31.6898601468
20.5208 23.8517 12.8895 33.2421387273
19.7652 18.4124 5.2942 30.4550025951
17.9091 23.4357 6.21611 27.2843080237
13.9734 18.1584 11.919 34.8838579487
23.2024 19.8606 9.3507 27.2727513781
23.7389 17.8459 7.03998 30.0300390047
21.83 21.0156 4.60285 26.4943724017
15.6609 13.8371 5.76801 32.0083980738
12.8661 20.5271 10.2807 29.626887332
19.3734 15.5687 4.02519 29.9008119048
14.7317 14.4631 11.0593 30.7952105798
17.0769 16.3725 6.14128 29.4033318519
12.7138 16.051 9.39016 31.2778847907
21.7033 15.3751 9.59761 33.3661987003
18.0278 22.4185 9.0178 27.4725297924
16.4884 19.4807 12.0456 30.9180011275
18.5212 17.4787 13.2277 31.5035479844
13.3068 21.4613 16.8296 32.0620879157
20.1339 15.0453 6.67766 27.1705011388
19.845 13.5098 10.459 27.2938763601
18.2205 16.8887 8.82202 32.2923377451
23.5022 17.466 10.8785 30.4627785048
20.9079 17.839 7.82469 26.9512186462
20.5319 20.1738 9.94162 27.892603007
17.6034 19.6233 9.34692 29.4593811355
15.8651 23.4011 10.5698 32.965335978
24.0978 13.9593 8.97851 31.6215793136
22.6427 22.7527 7.98536 27.375899292
16.5751 13.0907 8.98857 29.6551204754
23.8459 23.4095 10.8923 29.8307759246
22.2513 13.874 14.9375 33.5811135725
23.0486 20.1472 12.8854 28.1960327923
24.1488 17.7637 16.3347 29.0448542846
20.5628 23.4253 9.89834 28.6039020441
16.9737 18.3976 4.26548 25.9788555226
16.578 22.207 13.0276 31.9688686276
13.8525 16.0867 13.912 29.8690003614
19.496 14.6046 13.4989 31.5849076669
23.0083 23.0026 13.5676 28.8105601078
14.5508 23.3024 14.8366 29.9201252386
20.2441 19.8087 12.5132 29.5234368419
20.6927 17.7541 15.3433 29.5000162276
13.9979 22.5781 8.26962 30.7836808189
19.2868 12.417 7.74816 29.0435658795
22.9995 16.7094 13.9076 30.8585109903
17.7848 12.358 13.7527 27.8430505705
18.3652 12.5968 3.77975 34.7393372574
14.1691 22.4169 3.70041 31.34296255
22.6785 12.3273 5.61068 28.6667322024
22.4194 17.8208 3.72668 28.573761774
15.5394 13.5322 16.8251 29.1433904096
13.9058 15.3372 24.3841 66.5892989493
22.9606 13.7397 17.7458 28.7978578081
17.6195 16.6224 21.4814 30.0249775673
16.3121 14.236 21.2932 28.6667767893
20.4323 16.2204 21.6529 29.1027298348
18.6442 22.6878 24.2809 78.6375837463
22.2438 20.4087 20.0031 26.1822083204
20.6359 19.5768 17.9846 29.702932704
19.6521 16.2309 17.414 32.7157020713
23.9375 20.7958 23.6712 37.8435314029
17.3921 24.5011 18.6819 33.7384590354
13.5114 18.2979 21.0393 32.9046469279
24.4405 15.9133 18.5891 32.7529468178
13.9297 22.6531 21.4918 32.3103915836
16.4402 22.1429 20.2032 32.8992080856
23.9487 21.0803 18.0602 25.0628823026
22.4513 13.5617 21.4774 29.6159967495
14.3404 15.1095 18.6742 29.7300714218
13.6181 15.3791 21.5103 29.7917601949
23.0498 23.5569 17.5487 29.8554687238
23.8259 24.3556 21.2296 27.3321048466
16.3434 14.0806 24.2569 65.9416110833
18.2182 18.1553 19.1785 28.9126764252
16.1147 21.0694 17.583 31.6556833569
19.001 12.9128 23.4591 34.564395316
17.1077 17.0196 24.3738 72.494015994
21.6582 13.6235 24.1964 54.2263769162
19.8719 16.07 24.3941 74.6282833655
21.361 18.5263 24.4198 85.1086074869
22.3139 18.0991 21.3923 31.4958511706
13.4561 17.9713 24.6335 110.8427501752
17.9667 20.2262 21.1685 28.5260275191
15.5615 19.1346 23.0917 27.9846741215
18.7055 19.5072 24.1057 58.5646766118
21.6637 21.9374 24.1193 65.7983584712
16.0755 21.5666 23.8424 54.3757759518
20.5192 14.1665 19.2735 30.8412036021
24.9192 21.7057 20.9796 27.8186484168
20.4126 21.6744 21.5385 29.0027529791
20.2484 23.7011 18.1266 29.4004327614
13.6726 17.6793 18.2334 27.068566291
15.9897 18.5337 17.6167 29.172071796
24.0854 15.2313 24.4148 90.8603806524
24.5385 18.1427 23.9431 48.4775205215
14.1561 23.7587 24.2781 96.2388507304
18.9607 21.631 16.7467 33.3309959028
22.9312 24.4128 24.0362 63.0360251072
22.9561 18.1758 35.975 57.3569750898
14.5879 17.18 40.038 29.2106085103
15.7991 16.2578 36.0296 60.754601321
12.8467 20.6141 35.5355 90.5609523473
24.3777 14.5297 39.8796 33.1329638572
24.3594 20.3798 40.0741 28.4385884297
18.7857 13.6546 39.2222 28.8371887667
19.6165 23.8897 35.8514 90.262245216
22.8697 18.5491 38.8019 29.1721680906
19.9024 20.5762 40.9263 26.5099398534
15.3737 19.1796 35.7025 76.8374572446
18.5468 14.5897 36.0339 55.2460683357
17.3579 20.9961 35.7857 72.0681974596
19.1067 18.2158 37.9911 30.4856635551
20.5604 16.6824 35.8437 72.0134877666
20.0092 19.9638 35.7865 83.2167262647
22.478 14.6715 35.8275 67.0748059677
18.1715 23.1531 40.8776 27.4006855689
13.7938 23.465 36.0308 56.3678547137
14.5507 22.5491 38.6966 28.1430894396
16.7871 23.8409 36.0867 72.9529498026
24.1079 22.4753 35.5151 100.4031457631
16.3446 23.0108 42.7451 27.5983741289
21.616 21.8282 36.821 31.8155220608
21.5955 13.8989 38.3321 35.2013984316
19.0104 13.9094 41.9064 33.0926069126
15.7216 12.9862 35.902 70.5065668298
12.9984 19.3252 42.8759 28.0202862936
17.7298 20.7922 38.9016 29.0257968312
24.3554 20.0452 42.7935 28.6180851027
14.422 19.7669 38.351 27.763379493
15.7086 13.6637 38.5562 28.7339170738
14.5656 16.9189 42.9493 30.7260717493
16.9104 16.2242 38.8508 32.6303401182
16.3109 20.0759 40.9285 29.8562543856
22.0741 21.9445 39.4361 30.4907159088
20.6265 18.099 40.254 31.7882964185
20.6205 16.314 42.3636 32.3919674465
13.8971 21.7246 41.7583 28.4339298738
12.9263 15.6422 35.5885 84.7129195698
13.1977 15.1279 38.9172 31.4017247836
20.5594 22.8744 42.8629 27.8498146299
13.2609 19.0267 45.4854 26.8033102175
15.0017 16.0024 46.6504 27.9640264169
14.4396 21.4656 54.3737 30.2196381226
18.118 16.406 44.9546 29.9245999795
19.3284 15.5489 47.5783 29.6328898651
19.9012 20.1611 48.5242 27.1788659161
20.6939 18.0017 46.7046 31.7086472553
16.2596 18.5458 45.4084 27.0614993214
19.9832 18.4431 44.1537 26.3770911174
17.8013 19.9108 43.4715 30.1228259352
13.2844 15.0164 44.6397 28.3861848465
17.2371 18.5338 48.1826 29.1111834786
16.8078 21.4051 47.1696 29.5234937408
16.7812 13.7166 47.4324 30.2795369347
22.2572 14.2351 55.6449 29.1324891425
12.7613 17.3619 52.4944 30.3959967125
23.8735 22.25 47.2199 31.3848706755
17.8149 22.5044 44.8965 28.6828602956
16.6448 23.3294 49.3196 30.8382980887
12.4326 22.4245 44.062 27.6454491304
15.8852 15.4495 53.9124 30.459897575
23.2656 17.0833 48.3471 31.7670399085
24.47 23.8215 44.5382 32.2899794684
22.263 14.5834 48.384 27.1549845652
15.3291 13.9056 50.0013 29.2022435075
18.007 16.1089 50.2114 27.6937458857
21.8387 14.7106 51.2353 29.144548669
20.0555 24.0609 45.5288 30.8365417955
18.5929 22.2757 55.7503 29.1233917348
15.4721 19.2185 50.2389 30.2679634994
17.6628 19.5883 51.8318 27.7781454623
19.672 17.91 51.5274 29.027228479
16.5969 14.6647 43.3582 35.9739709835
21.8451 19.1482 50.025 28.8009715037
21.8865 15.9251 53.7844 29.8325178075
21.4455 21.6476 46.3234 29.3946233159
14.3935 14.6516 56.2458 31.0207863734
22.5296 14.8873 43.6043 33.261410801
13.6113 16.7179 48.6976 30.6316998308
20.8555 22.65 49.6148 29.7021823119
23.3833 21.4319 50.4922 28.7267023792
21.5925 13.7688 45.8909 34.1301682371
14.2381 23.2053 50.949 31.1041321222
24.2803 17.5192 53.929 30.6747062083
18.9755 13.9456 51.388 27.470289477
17.9228 17.333 54.9121 29.9108387137
13.9427 21.5486 46.4999 30.8571251033
14.6447 24.0603 53.4361 29.8026588997
20.4003 18.4131 54.2257 28.2642814819
15.1215 16.3776 51.3824 27.1377518046
13.2257 20.5271 51.0896 27.9698782031
17.7378 13.3861 53.5669 32.8552838334
17.1581 20.3318 54.3276 30.8202791342
21.0551 21.3981 55.1575 29.1406658821
18.5113 22.1514 51.002 29.7381379854
19.0164 23.6222 53.114 30.8795768737
23.1605 20.155 53.3159 33.2190955382
21.8963 20.5577 43.8583 29.1472243587
12.5973 13.2813 49.2445 30.5678658475
24.2496 17.3549 43.6682 33.8859383711
14.6195 12.2662 54.0684 27.888902824
24.2745 12.6892 48.3439 27.6747265655
21.5452 24.448 55.6083 30.8993837239
13.7837 29.7727 8.16562 29.0870932482
14.8574 27.1577 8.44666 32.6509151117
18.252 28.1024 4.53258 28.7136990748
19.3342 25.7156 8.55374 29.0241913948
22.3718 33.7831 15.9798 31.8678818976
22.2062 32.1854 7.70235 28.6029071746
12.2657 31.9728 4.71087 33.7009078834
13.1758 26.7841 10.9913 31.5754909542
14.5491 31.1653 6.01069 29.5039239122
20.517 26.5589 6.24915 28.3163696153
16.604 30.4576 4.02384 27.988086607
20.0646 30.2521 6.16183 29.6929109971
19.1201 24.859 4.30338 29.1276086893
23.7817 34.1142 9.42751 29.713411391
16.7326 35.1806 4.47285 27.3599039087
14.5769 35.9267 6.26657 27.5632560515
20.1694 34.1712 6.5531 29.6059181585
18.6224 32.6155 4.69621 28.7590715962
21.4531 35.9272 4.87078 34.7776056965
16.7837 25.916 9.97045 30.48857773
16.1487 32.275 11.391 32.3442206135
18.7056 29.6319 9.09443 28.7120044016
16.7964 28.751 7.19237 34.3151039944
17.4073 29.7844 11.6223 32.5344322509
22.2771 35.1131 13.7382 26.2737203366
22.8061 29.0808 8.80847 31.4547333846
19.8929 36.036 14.0062 25.2886749494
15.1437 33.3377 7.50785 31.333759049
16.685 34.5418 12.8346 29.1737938018
17.3811 26.5725 14.6685 34.5771740473
13.8389 31.3316 10.4775 29.2170067576
19.7207 32.2563 9.05171 27.8067637847
17.4527 33.5722 9.45204 29.3189143597
23.411 31.4258 10.7572 33.6032161271
20.5242 27.9154 10.0006 30.2289159548
12.7479 35.9566 10.6178 33.5871729826
23.7322 25.4496 14.7059 29.0524738444
13.4678 28.9104 16.1007 34.3877459938
15.3259 24.6431 7.072 32.0989038547
19.6295 35.9313 9.81276 29.6502474061
17.9272 35.6252 16.1965 32.8216768199
12.8274 33.6269 9.10334 31.9434021892
21.2133 33.7188 10.9532 28.2452027108
23.0998 25.2275 6.3711 27.3903042917
13.5328 28.7869 13.3228 30.9569515418
16.1553 27.4631 12.253 32.0613426541
22.809 30.574 14.7092 29.7954668063
20.3439 31.9907 15.2029 27.1542253239
17.6353 28.8807 16.2546 33.5880218342
20.9956 28.0911 12.831 32.0415919393
20.3946 26.018 14.3878 29.3433216508
23.0061 25.8028 9.15628 31.4635449716
15.2374 35.0291 15.0328 28.2498934401
19.2675 33.2909 13.1504 30.7286768716
19.1157 29.8551 14.0104 31.9040937043
23.6771 28.104 13.5802 30.5508439345
17.7751 35.5342 7.29657 28.1934721715
22.3176 28.61 5.52402 24.5980289676
12.6174 24.8696 13.1538 31.0842435739
12.4133 35.7359 16.6888 28.5436344087
14.4048 25.0356 4.38677 33.4448518166
15.865 25.1604 16.5415 32.4006713287
12.5595 33.3487 14.3321 35.7456404158
24.4419 31.762 5.78016 29.1871180316
12.2633 35.3473 4.57422 29.9132488774
23.0414 31.3958 3.49017 27.8238221139
19.7106 36.257 24.6321 109.0099261522
14.1801 26.8276 20.3519 29.1875309634
22.7921 28.3683 20.757 30.7321789769
12.1409 33.0834 23.6487 46.4700811144
15.4442 32.7977 17.4223 37.1370324124
23.1852 26.1874 19.1742 27.2167228073
18.3396 32.8034 17.4385 35.0351942347
14.7998 31.5798 19.7079 27.5957613376
18.3649 28.7659 20.3843 29.4517322671
21.9111 36.2318 17.283 30.2007884654
17.0036 31.0929 21.3616 27.3973525909
21.5351 36.0897 19.9104 31.2763143455
12.2845 24.8218 21.4111 27.3330126809
20.462 25.8116 23.5955 35.9862082451
19.72 33.6208 19.5581 33.7674855132
14.9593 35.374 18.4357 28.9620570341
15.6559 29.0709 18.3616 32.4256725029
18.0065 33.5774 21.8023 26.7013833181
15.5015 26.2796 23.4539 36.9296643154
16.9867 26.3142 21.1413 33.424718745
20.8087 31.2253 20.7458 28.3114579525
20.7359 24.5177 21.0456 33.224655722
17.827 25.3285 24.3239 104.4070634776
21.7592 28.3955 24.7231 109.3287765972
12.982 28.7072 21.6449 30.5046074356
14.6942 29.0084 23.9004 88.6232444176
14.8326 33.8423 21.2927 28.3520384919
16.4606 30.9519 23.8301 51.0196204561
21.2543 32.9773 22.8656 30.1073722645
19.2843 30.63 24.054 67.0265036324
20.3051 28.6996 22.1053 27.0961754651
23.1873 31.2149 24.1744 66.2346132911
22.5515 35.6514 24.093 54.652047447
15.2826 33.463 24.1994 69.1214331898
13.5871 26.4982 17.5427 30.7151730657
19.7887 28.9089 17.8525 29.8747371773
18.5135 33.5549 24.5234 85.0363973227
20.6807 26.3035 17.113 31.2280734022
23.4865 30.8991 19.8084 30.8800834598
16.0526 35.916 24.539 82.8594610656
23.6836 35.2824 21.2831 32.4920295229
22.3941 29.6139 17.4074 29.4058931697
17.2021 36.4883 21.7332 30.6572863404
24.2054 27.403 16.9538 28.4225166458
24.0107 24.93 38.6394 31.4751543123
23.6563 25.5281 42.4199 29.1135410934
23.8964 31.0832 35.847 66.2797141123
17.2233 32.3172 36.3898 48.5117849229
13.3203 28.408 38.6047 27.4407856256
21.1246 26.1745 36.021 59.9726107207
18.7341 36.2175 35.9814 46.1091968346
13.0767 32.4893 40.8164 30.1452099998
22.7352 31.3663 38.2932 28.6159612041
14.7961 33.4975 35.8909 50.510740015
15.0475 30.8923 38.9001 31.310563997
19.8683 33.2975 35.7285 66.2595354537
17.7542 32.759 39.2274 29.733303262
20.0438 29.8196 38.8235 30.716012427
17.2412 29.5278 36.994 29.8842066609
19.594 28.5665 35.86 84.6700398513
22.7619 35.1066 38.5997 32.1333769796
13.4664 28.1779 42.3206 32.0376039384
13.2109 30.8957 35.7625 82.8026137599
15.8083 35.8436 35.2323 105.9324465297
21.9014 35.5864 35.8663 79.2158015123
13.2254 34.1691 38.3041 33.6743970744
21.1065 30.8649 35.2844 112.8837771628
14.9895 32.7659 42.8237 32.6267288257
20.3797 32.9299 38.3629 33.3264635601
15.374 25.5884 42.8459 29.4553674503
21.7779 24.4245 40.8726 29.4675518823
14.7533 26.6629 40.0337 27.9553194864
23.0314 28.9779 39.8678 33.8536573807
23.8486 32.5803 42.5897 36.0116223278
19.0049 25.9445 40.9752 30.9405780727
13.0203 26.3808 35.5349 104.0230690994
20.6998 27.1545 38.9354 33.4594858921
16.007 34.7637 39.523 32.0177339972
17.2256 27.8632 39.6511 31.3924219203
17.646 30.4315 40.6065 30.9744719243
22.4866 36.1194 41.2672 28.5281864477
23.9041 25.5862 35.701 85.5690582053
17.0841 35.8562 41.9662 32.7131227031
18.1904 36.4575 38.7474 30.1451507059
14.8682 28.6894 35.9791 79.6986845241
16.4147 24.5791 38.9399 32.5675600398
19.3122 36.2265 49.8803 25.5120469491
13.599 34.9529 46.5878 33.0975930563
16.9908 26.7281 44.7295 32.8615867194
16.8461 34.2679 44.5044 29.1089204487
23.3745 27.9632 43.4677 31.7615395024
13.8799 24.5168 46.8502 27.8417639189
12.3781 33.3547 48.5767 30.8033153204
14.3487 30.2674 43.9249 34.2660667211
16.8109 29.5551 45.0749 33.5946991759
20.9508 29.0981 44.4009 38.2215885033
18.7043 30.3703 43.2754 34.6623205022
16.1739 34.1415 47.6062 28.9766312151
22.8807 34.0816 56.2034 28.8921820965
12.4214 25.6067 53.4898 28.751324857
19.3445 32.812 44.3354 36.7680176976
23.9456 34.6586 44.7374 29.1676397598
19.5337 26.2455 43.8093 34.0068519661
13.3663 27.7986 49.83 31.3252609025
13.7508 36.3926 53.9562 29.0597821247
15.9848 27.3252 49.1659 30.9991697607
16.3305 25.4066 47.1805 28.1699452993
19.7541 27.8199 51.3734 31.7635299232
16.745 26.2643 56.0597 30.1825373044
12.848 24.9788 49.3658 28.2669226824
21.2863 25.4745 53.0077 31.579938527
20.668 27.0191 48.902 33.1090852284
22.8715 30.535 51.8034 29.7291166407
17.1896 29.5645 47.8936 31.5125044673
19.33 30.8948 48.7164 30.395414616
21.3301 29.3281 47.1626 35.7584872064
23.3695 30.5308 48.3272 32.7209201776
24.3002 31.5292 54.0936 30.3511102117
18.8867 33.8348 51.4174 27.6233170962
22.2845 34.9388 53.7178 34.1129194267
18.9423 33.0221 47.0765 32.0904415251
19.9122 32.2735 55.4976 29.3757490682
20.6405 35.2199 47.9245 27.4812281506
22.7785 34.3722 49.3601 31.7466434777
24.0716 33.1021 47.1333 36.0167585921
12.9633 28.1408 52.6072 30.9712331033
14.0408 31.8624 53.1409 36.2219794119
16.3098 35.2551 53.2216 26.1980578161
17.8951 31.0798 53.9665 30.3351675536
19.3037 24.7539 48.0606 32.711033941
16.9195 27.7206 51.6488 33.691264987
13.0742 25.0703 44.3478 28.3050317644
16.443 35.5245 50.3327 25.0403632091
13.7109 35.1838 43.8387 29.1540127314
15.7243 31.6249 48.8946 31.3225191408
15.3243 29.513 53.4377 28.4933450539
16.2776 33.1442 55.4509 27.3922959347
19.9847 30.5431 51.5802 29.7126800058
16.4647 32.3959 51.5747 27.2138262429
17.033 25.5141 53.5328 32.4724295369
20.6464 29.2861 56.1588 32.1256807393
22.013 28.2942 53.4826 30.157451766
21.5305 34.6761 43.4007 33.2609551188
19.1551 34.8848 54.0601 26.6205858727
13.7732 33.9587 51.0347 29.0593877
21.8834 33.2869 51.4523 31.0982582944
13.2808 33.6828 55.5173 30.1303688264
23.2892 26.3796 49.3005 33.201610755
23.3305 27.2034 56.3232 27.4373717292
14.7536 28.4417 56.0601 32.7525267381
23.0216 24.4284 51.1423 29.4873279024
13.0089 30.5728 48.6357 28.8474008424
24.5476 28.7774 50.4335 30.4176368742
12.4698 29.88 46.0951 34.0353758167
24.2718 36.6245 50.0391 33.6171806089
23.3044 37.1459 6.80989 33.3851126643
19.4427 48.9959 14.1036 32.1023537418
13.4123 39.9524 8.32408 28.7925118064
23.9854 47.0653 3.99123 30.274526457
17.3964 38.1989 7.79283 30.7953908617
12.9242 37.1685 8.21348 29.4882931024
20.3165 49.1011 7.19402 28.9523119601
16.388 46.208 6.00568 27.1160753986
22.507 39.6312 5.41701 30.0132091021
15.6927 42.2682 7.21639 27.5756007091
20.0496 46.9432 3.67163 24.917606175
13.0684 43.6033 6.99627 29.2750104267
15.5845 36.9597 11.6113 31.9802920039
19.8891 39.7308 3.92892 35.4700939683
23.4889 42.6671 5.19773 28.3329730888
15.5795 47.3876 12.294 29.5277596655
16.2356 47.3375 15.3084 32.8934052576
23.6982 40.0122 14.2317 28.0663068069
15.0114 44.0428 15.2793 25.6341574646
23.1265 45.2752 5.92178 29.6116972336
23.4555 41.4609 7.71982 31.1947165591
15.667 38.8441 5.82259 26.6340663647
13.598 41.9739 12.7565 28.6690571072
15.7793 39.1836 9.75963 29.2402553366
15.5918 40.3851 13.8319 30.3701240558
17.0176 41.4733 4.86936 32.3356877878
12.3896 44.4611 15.4407 26.4670025534
19.9072 39.7526 7.18158 33.360412615
16.8262 41.547 9.79312 25.9898842518
19.7127 42.0539 9.07149 28.6591388498
19.1305 43.5791 6.77745 31.0732644519
23.5774 43.6147 9.96053 27.1265071776
20.7078 43.9312 11.0442 32.1879955704
21.7027 40.2206 10.1443 27.8849570454
18.7791 43.7437 13.1703 30.2179883242
19.0244 36.3939 3.39236 29.7756115731
15.4479 46.4045 9.69929 29.7554879485
17.1515 44.7074 8.03566 31.574145389
24.3232 37.2399 14.272 28.6389427902
16.4953 44.8484 13.1404 28.9337728912
20.4613 45.9067 6.26035 32.4291730118
19.8316 39.588 12.1159 29.2624626169
23.3675 48.1978 9.44059 33.1806512358
20.7288 46.954 10.9003 36.3955628743
23.8976 46.1626 11.6094 28.3064976797
15.3269 41.6367 16.2128 28.2673313867
22.7368 45.6345 16.1163 30.6722149526
13.495 48.5584 8.33343 35.9895367665
13.8893 46.4626 6.29137 30.3850502522
17.793 41.2765 12.4771 28.3820613268
23.8959 41.521 11.7653 26.697319114
20.3019 37.9735 15.9511 27.9625650641
18.5445 37.259 12.1502 30.008294012
21.1216 40.2511 14.3175 28.0962426846
21.033 46.7084 13.7137 31.1301563682
15.2368 43.4069 10.9681 26.5495215535
13.5043 40.7621 5.447 28.2330547608
20.1242 42.6609 15.4302 29.6120731736
17.8445 48.4835 5.77871 34.6266746436
22.3505 43.8211 13.7882 29.1223824714
14.6229 37.8144 14.1337 27.8857023871
23.3335 48.306 13.7097 27.1162933229
21.6045 37.7659 9.07434 28.4182430622
13.2213 44.4189 9.65402 27.9551864292
13.0422 46.7492 13.2701 32.1119491103
24.3534 45.9615 8.26614 30.1259894425
23.4195 36.7198 10.922 30.8245545339
12.6694 47.5819 3.72439 32.718146829
21.7268 48.912 4.4944 31.6333617358
19.216 44.1856 3.56379 27.3297079742
21.523 42.9845 17.8956 28.4662370355
21.0922 46.8282 18.5509 30.8597445487
21.4228 39.3387 22.4599 29.3307088926
12.8107 44.72 19.741 25.9623516057
15.4213 47.2042 24.2508 55.7720101797
21.4392 40.3405 17.8963 27.7225372695
16.4168 45.1277 17.2856 32.079479533
15.306 37.7131 17.0491 25.9636567995
20.1298 41.9405 21.4006 28.1040051238
20.7118 44.386 20.302 26.3305997498
14.7712 40.283 20.3276 30.4296175171
18.5011 47.5089 18.0745 34.3347028664
14.8769 46.0693 19.7022 28.7996601919
15.5538 47.9309 21.6305 28.714294012
13.0274 42.2544 20.8897 26.6451488457
13.9747 39.8118 17.7651 26.4634981247
24.2197 46.8089 21.4366 29.8000239791
17.4435 41.1113 21.1959 27.4423610882
23.9888 46.8845 24.3106 74.350342927
23.018 41.3767 24.1086 81.2777183809
14.9352 40.1055 24.7568 130.2300495064
19.0486 38.3993 23.0519 28.2128643436
24.3794 39.1541 19.379 25.534158807
17.6978 40.4431 23.9961 60.1673440195
21.5624 38.6256 19.859 24.5633886652
22.9727 43.5467 22.2601 29.0269707189
13.4741 37.4993 23.7623 34.9913782514
15.8789 43.905 21.3832 28.2975543271
19.8959 42.3885 24.0811 78.3272746847
17.8927 43.4059 19.0091 29.9004936319
12.6283 47.3589 24.6192 105.5934721538
18.411 38.6124 19.9748 30.65881363
23.647 38.3167 24.1324 86.557447648
13.8876 42.5814 23.7186 36.1536171848
19.0971 44.9243 24.0385 66.1849773945
18.3683 48.6034 20.8853 27.3510287644
21.2242 46.2965 23.6523 39.2941780407
18.2798 45.53 21.4818 28.1544192693
16.1344 44.3071 24.2265 79.7361654434
21.1248 47.9046 21.2803 25.9023936441
14.6245 37.4585 21.0974 29.7146243346
17.928 38.4751 17.3774 29.093415144
24.3196 43.379 17.4179 28.8544275046
12.7184 48.2919 18.0053 26.1311706989
24.1394 40.5034 17.0588 27.8235895146
18.0161 41.433 17.0335 31.3387056246
23.7842 38.2306 38.6522 27.2499541142
15.9988 39.8084 35.5189 87.1579056998
22.4444 41.0404 42.3633 29.7945038136
18.8885 38.8648 35.6332 86.3945914679
21.3676 39.8236 36.263 37.8003371824
23.1268 46.512 36.1764 47.5761608419
13.8206 40.8741 37.7578 28.026970202
12.771 43.6646 38.7515 27.6835503439
17.0394 40.5732 41.7376 27.5955184142
16.0267 42.7626 38.7368 26.9552898008
21.1544 42.3997 35.9632 49.7209018625
17.508 45.4829 38.5335 28.3644095365
16.2163 42.6084 35.9456 50.9168477503
18.3812 41.3657 39.7845 29.7393764488
23.5357 38.4896 41.9306 27.1047070171
23.6412 38.6474 35.8096 75.5006264968
14.492 46.1959 38.5978 29.9759410583
14.0997 37.6618 35.8268 51.4134367522
14.035 44.2235 35.9632 64.5927475834
13.898 46.8843 35.92 64.8089196821
18.782 43.5882 35.4714 102.8008215121
14.6366 38.51 38.6763 28.3517322354
23.6119 43.5986 35.3957 105.7707742248
22.9647 45.7894 38.9154 29.7210341593
14.4333 39.5244 41.3296 28.596351692
20.6704 45.592 40.6795 30.3399429999
20.6477 39.3339 39.1568 29.59051996
18.6271 48.66 40.0887 32.43425846
17.42 39.1127 38.3387 28.2445867323
19.8856 37.2354 40.923 30.8760187847
18.0511 46.0498 41.1822 36.1717901196
14.6688 42.7944 41.2596 31.7371301929
19.8825 43.5303 38.4325 30.3843469468
20.8786 48.0561 35.8169 81.497790194
16.2151 48.4365 35.6275 113.9767516103
22.1613 41.6666 39.5679 30.7061896234
19.0345 38.792 43.2605 30.7068313631
16.1679 44.9982 43.1181 32.9411730803
22.2184 45.4169 42.9959 30.8468038897
18.5549 46.4559 35.8723 63.4133942038
20.893 48.1271 38.7712 30.8248077866
14.8933 37.372 42.8792 28.7201787767
16.5619 48.7927 38.353 29.3381694651
14.1852 48.584 40.3147 32.2666624664
15.675 38.7093 45.2817 29.7479809485
19.0246 38.0379 53.786 32.0194392403
12.9991 38.1207 46.597 29.6405740029
23.5013 37.5223 44.5609 29.1865494837
14.2128 37.1657 49.205 30.8214196785
16.0575 37.8639 56.2709 29.5935936382
18.5106 48.0759 50.8152 29.0025124115
24.1918 44.1237 54.4933 30.0417815118
20.8026 36.5455 45.5965 28.345910161
22.2338 48.4687 43.3681 35.2509188329
14.3239 43.2108 46.2532 27.5110090907
16.4195 41.3676 45.4871 30.2917293058
14.3996 40.7028 48.1122 29.7269531802
18.3405 42.1371 47.4552 32.4581069659
21.1663 39.6389 44.6287 29.2785987969
12.4977 40.1226 54.7252 25.9885518301
12.5085 36.6579 51.5959 30.951074274
22.9554 47.2788 47.3976 30.9529945201
21.4314 44.3479 50.513 34.4269976546
17.7113 42.6115 43.5352 30.9272159864
23.6597 39.8678 54.0907 36.3522515701
13.2974 44.4542 44.0653 29.4143486964
21.696 45.122 45.9297 31.7993030227
12.6383 46.091 51.9509 26.5363306742
20.5782 43.0671 43.8348 35.3016310654
17.8823 36.9993 45.0221 28.052422121
13.8981 48.0056 49.7707 28.0933910761
18.8218 42.8291 53.9908 31.8749926259
15.317 46.6104 52.907 26.2553880323
13.8042 48.5 43.3489 31.4230129107
16.079 39.2027 50.3983 28.4199018779
18.6322 39.6638 49.1434 28.8033587074
24.5957 47.8575 53.1842 27.3294620331
21.3777 38.3916 48.2051 30.717812513
24.4053 48.1144 45.1501 28.5199142813
12.7571 43.5123 48.4861 27.8472446161
17.142 43.1989 49.9452 28.7131084675
15.1879 41.7771 51.3767 27.0599859425
18.9042 45.518 46.8247 35.3562111093
20.1831 40.9886 51.0553 33.3329569334
21.0612 41.1017 46.9461 28.8882143076
23.2885 42.9855 47.0028 31.9194429791
15.7036 45.9281 46.9794 31.6154176898
22.512 41.6135 49.5728 29.6997536023
15.3984 47.4748 55.3834 31.7986822428
14.7547 43.8571 53.3269 28.3581631827
15.8972 48.8904 51.2532 29.3894995552
14.7009 45.1252 49.7151 29.2887854418
15.1353 40.7303 54.311 31.3809142434
16.0392 47.5837 44.6392 34.6443540463
18.1165 48.4981 55.6954 25.9988453687
17.4717 44.5606 52.4803 25.9529794887
20.6323 37.9629 51.3307 27.5995734766
18.2639 48.3648 46.927 30.2516022462
16.3349 38.2054 52.9719 29.3901756887
18.8414 47.1497 53.158 28.3486498283
22.1223 46.5026 54.4047 28.0169254154
20.7371 40.5572 54.3161 29.1031582563
21.0784 44.3384 53.3004 28.9098704222
16.5413 45.1794 56.371 29.2216562685
18.8305 45.4478 49.6908 30.5187370598
23.6224 46.1936 49.948 30.4825948502
13.752 48.3433 46.6349 28.0889092045
24.3873 39.1046 48.7795 30.9745587788
21.5572 42.7616 56.0836 29.9346476384
17.1489 37.1204 47.9146 28.8626553328
14.9499 42.7298 56.3269 30.3121375905
23.0281 37.4395 52.4346 35.5089215502
12.6474 41.3893 50.5451 24.805723476
23.4629 48.906 50.6216 26.9812750605
13.2092 37.9133 56.3535 28.2841422654
26.2872 9.88872 13.1212 28.4027285399
31.9748 1.83908 14.7171 33.5329430805
29.0119 2.70742 7.26471 33.2190144325
30.6624 4.14742 15.4609 32.5779259807
27.7985 0.115847 12.8037 31.7934857098
34.6709 4.41867 7.47834 30.6363843369
30.5165 1.96723 11.0553 33.6498792477
32.9668 2.65871 5.85945 31.7639794422
35.5216 1.9246 4.22594 32.0261991462
27.4877 6.81387 6.86664 29.3764789025
27.5621 8.1488 9.91068 27.0959013241
34.751 9.63181 14.2053 27.5364069419
30.1328 8.84805 6.47708 29.2528102887
32.4459 7.965 8.22673 29.7655498966
31.7769 4.66095 4.39862 27.1002356863
36.9657 6.1475 6.84996 30.9764002182
31.4915 1.54425 8.03768 33.8318104273
25.3379 0.808867 5.15333 33.9970979551
27.5555 9.53095 7.40151 26.3918063753
30.8416 11.5517 5.06073 33.1287063327
25.323 11.2467 9.221 31.7400022478
35.8732 8.38584 5.63546 28.2948743082
34.9144 9.0379 10.5621 30.7731320917
33.5529 11.1545 12.1715 34.1163704019
25.2454 4.33224 9.78029 27.2572297224
27.2127 0.724152 7.00311 27.6288325836
35.7666 3.85688 15.0265 35.0679555476
29.8595 4.69195 11.5024 28.536856284
25.5085 1.59895 9.49837 30.5505815311
29.4042 11.6335 8.26725 30.5356963181
34.1436 2.28548 9.43558 34.1915315393
30.4139 7.21532 10.0625 32.1491980487
34.5901 6.28635 9.90495 29.9935056951
32.623 5.7939 12.0676 33.5088295623
32.8247 7.44735 14.2331 31.4202254933
33.0213 -0.227869 4.15369 31.2799174442
34.3359 9.91746 7.69953 31.1986321379
33.4146 6.48816 5.85162 33.1704234887
34.9043 3.71943 11.9454 30.4869529046
28.2431 7.49833 14.1928 32.2178684071
27.7005 10.7764 10.8847 26.7184793205
28.067 4.77901 9.4863 31.4886030322
30.5178 9.02502 13.6473 32.1629440434
30.6547 9.9591 10.9308 33.7658017098
26.6725 2.31339 14.1337 32.5906852423
28.2753 4.73325 13.57 30.1428885654
29.2732 3.80414 4.88865 32.1211036237
28.5222 0.359551 10.1905 30.308468067
31.7065 11.3294 14.5916 32.9317571433
33.0686 1.37799 12.3545 30.9759569301
30.3867 7.12524 4.32577 28.5635337482
34.4803 2.16313 16.4582 33.4248454195
35.8099 6.71987 14.8181 30.0665852788
27.2762 11.8198 14.8514 31.5083411787
27.4549 5.89499 4.16899 29.5851776323
26.0923 6.09299 11.9697 27.269098725
26.3282 9.79987 4.8543 32.4675494242
25.0015 5.59056 7.2121 28.0272839905
32.405 11.6954 7.38867 35.532437735
32.1541 5.97149 16.9572 30.7122236444
34.1701 8.21732 23.5562 37.5374532322
29.2525 2.77731 21.5098 26.9581993226
30.6228 1.43473 19.3249 28.4201830569
32.8298 2.90332 21.096 26.8675600007
35.0594 11.9769 24.0181 55.5255443863
29.2372 5.2645 19.8709 28.9943275464
29.0336 3.46589 17.8519 30.8351932805
36.6096 0.648399 18.1892 33.4016127413
32.5856 3.3246 18.1744 30.3987285865
30.0991 7.66187 18.0611 34.2912989922
34.3036 8.91428 20.5335 34.6201368053
24.7032 5.60767 24.0404 60.4284968755
35.8468 7.87941 17.2524 31.8497059498
30.882 10.2575 18.8848 33.0912581095
36.1743 0.766794 21.3437 28.2021596556
26.9031 10.4142 17.0123 31.272726625
26.6247 2.43772 21.0589 25.9386622004
24.4917 0.360895 20.1995 28.3491442734
25.9192 3.04529 23.6204 37.3102030027
33.9681 6.41081 19.1873 29.3189033374
28.1525 11.331 19.3682 36.9650423657
31.9065 3.09417 24.0177 55.8365541357
36.0917 1.06556 24.1837 62.0783364482
34.4962 3.62345 24.2325 68.3603014187
35.3668 3.45526 21.6296 27.302875202
27.2659 6.54997 21.5536 28.9945612497
35.0913 10.6858 16.8817 32.0204735734
27.9128 6.26618 24.1731 76.4749892932
28.8304 3.21111 24.3843 87.7378569283
30.151 7.82475 24.2694 88.7371854247
32.5989 6.14623 23.5408 43.3730407029
31.9827 5.5716 21.0387 30.6608239251
32.1466 0.14996 24.3814 73.2911041724
28.3182 0.393079 24.39 68.1590272069
26.5519 2.35278 17.198 27.959274016
28.0226 10.0191 23.759 49.1503452739
27.7095 9.36147 21.1084 32.6915011116
32.4922 10.4182 24.6746 117.9299139078
36.062 11.1968 19.5531 28.3450111053
31.938 10.0815 21.5458 30.6648598039
25.6654 11.3708 24.3425 91.3735988056
32.6036 11.5322 17.2882 31.0359409792
27.6006 7.80132 16.8764 31.6558364297
36.4864 5.15534 20.1925 31.263597919
25.6118 4.23887 19.3544 27.1108240104
25.0425 7.04057 17.5122 29.820374811
25.6307 0.369436 24.4218 80.4265843514
30.0938 11.766 23.7186 50.6347292757
36.6198 5.46717 24.4903 103.3082331582
24.7605 6.93398 20.4177 26.2972379514
24.8788 9.30459 22.1414 28.4005574592
35.5048 5.51256 38.8175 25.0092739597
27.8153 8.10061 42.6356 29.8120927053
25.9599 1.04224 35.841 73.723628281
32.9621 0.637934 35.8747 70.1164963242
36.619 10.3698 40.8474 27.5818695639
26.6523 8.81586 35.8716 58.4092987599
25.5683 1.69506 41.988 27.3531171554
31.5819 10.0202 40.5119 26.7129097103
36.7925 11.5932 35.9966 60.7768843078
25.5434 7.90185 38.4753 32.8033643054
28.2674 4.77724 36.0058 53.5356372412
28.3402 4.42256 38.6934 30.615043974
32.9607 5.53978 38.7425 27.2335646952
28.5675 1.98694 35.7806 85.8179987796
29.6001 1.9111 39.3946 28.1955489712
31.366 2.89701 35.9253 68.7828662227
29.1313 9.47306 36.0961 61.1197207258
30.2696 6.95741 35.9503 82.3298095251
34.923 7.52383 36.0566 62.5315837262
34.1505 10.4568 36.0236 81.8561732778
36.0936 3.7646 40.8084 28.2290394897
32.8503 5.68651 35.9393 76.1367851205
33.4506 9.15441 38.7492 32.8665980997
30.4752 6.18827 39.8782 27.9519072242
34.0388 8.10366 42.835 29.2987413174
32.1183 2.79858 38.6135 27.2264948872
28.0283 12.1414 40.3676 34.1503200298
35.4824 2.63992 35.9234 84.928738892
33.3381 3.3692 41.4904 27.8536533468
34.7718 11.6723 38.654 26.9529260368
26.183 3.67242 40.2638 29.3387235917
24.96 1.9708 38.5768 28.6278579238
28.2427 7.92831 39.8797 31.3630260484
35.4789 1.93528 38.6975 27.975342133
33.6967 0.585944 41.9975 31.340894298
31.0622 8.13895 42.1122 26.0778041272
24.8037 10.7587 35.5928 88.0504443855
30.5398 1.16212 42.0546 29.7861361947
29.4498 10.1562 38.8208 29.6998394728
35.6047 7.67749 40.5082 26.75282744
30.5467 4.20303 41.7689 27.9760266386
25.9288 6.1555 35.5445 92.7290967092
36.5186 5.00152 36.3678 46.0188022892
28.5173 10.9961 42.9458 30.1776016886
26.4643 5.71385 45.9494 28.5482628703
30.2166 3.32618 46.5491 33.0348341862
27.122 0.778171 51.9478 28.9563650912
27.9128 11.4217 53.7728 32.6339043574
32.5818 1.97978 46.5975 31.4086276488
34.4266 3.824 45.1896 30.4285543315
31.3514 5.99282 46.2377 34.1474816674
29.9965 7.36358 50.9605 30.0405588731
27.7428 6.72958 49.2376 28.9167646493
27.9785 4.26693 48.2412 29.2592778144
28.7597 7.78023 46.4772 27.2492266348
35.43 3.74599 54.8218 31.0803474431
26.3738 9.13628 47.4327 28.986782132
35.0689 9.18077 49.5993 30.3072915264
29.6804 1.7681 55.7055 33.5633380212
26.2489 2.32728 54.5055 30.8307137491
35.5773 7.0773 54.0795 29.7944341556
35.5743 5.25925 46.9312 29.4217986636
25.1521 4.52761 56.0301 30.9428361552
25.9568 6.47052 51.4698 33.2023007558
28.9323 2.21878 44.209 28.270519581
35.9258 4.05844 49.4527 34.1681343291
29.8754 9.42845 48.8491 35.2905440485
32.7565 5.38893 43.5581 30.5181298535
35.3086 7.704 45.3104 28.8045880265
26.4022 2.26969 46.2521 30.3038049469
31.4893 2.7727 50.9407 31.4845163296
32.1953 5.64943 50.7336 33.8381930905
36.4966 11.4863 44.9505 27.4002193157
30.1781 9.39214 44.5281 30.6637730363
32.9494 10.6883 56.0094 35.9825474931
28.3979 5.94841 52.7281 28.2521253077
26.9076 4.02922 43.4985 30.3298130571
33.5817 6.7775 48.0191 33.4457269787
28.817 2.49591 50.3933 35.0312163499
29.11 6.03969 43.8409 27.2699627625
25.2596 11.2704 46.1001 29.1166930574
24.9962 3.79504 50.1376 31.2460992219
32.8963 1.33038 49.3133 33.9747137752
27.9184 11.4053 48.9547 34.4211208882
35.0613 10.0307 46.8863 30.7830671641
36.8921 9.82056 54.9521 29.8222979698
25.6375 1.16235 49.3014 32.2767627892
34.7699 0.639697 44.5869 28.2681427464
34.3707 10.9145 51.4691 34.2525233565
35.1771 6.48525 50.9737 30.2247412422
27.1341 7.57766 54.6405 30.1369288006
32.857 6.33004 53.359 29.7189567478
25.4399 7.5358 43.9572 28.693742713
34.22 10.7832 43.4283 26.0902386618
31.5766 11.6254 48.014 33.6409969532
31.6768 2.41302 53.5904 28.8661827696
28.8067 3.32502 53.2021 30.1882722851
32.2361 10.9497 53.311 33.184638276
35.7147 1.53013 50.5657 32.6852658626
30.5709 7.35116 54.55 29.3913892162
25.0291 10.9828 53.4836 31.1669401988
30.0381 9.57974 52.9388 32.9735185233
32.9278 4.26005 54.9106 27.8334569986
36.3809 1.9448 53.3785 29.1170595284
32.478 10.8663 45.4567 31.3904645824
26.2298 12.1995 51.088 31.4593665624
28.6619 9.54411 56.2616 30.7506414804
34.5051 8.53633 56.2818 31.336110907
28.0772 13.4253 10.257 29.5607301381
28.3742 14.2082 6.97069 30.8532259272
25.0694 13.9342 13.8464 30.5597390682
36.5106 20.7106 6.04168 26.4579396829
34.3668 16.1165 4.57113 30.847121824
36.5332 13.0286 4.65502 33.6608045619
26.8674 17.4673 4.39312 28.5173754462
29.6994 16.4184 7.57983 29.8560422835
29.2289 18.2986 5.63271 31.0117383413
33.0133 21.09 6.71259 34.2585779992
29.8338 22.0398 14.0914 29.3296091345
35.6393 19.1831 14.8302 32.1686016654
32.8318 19.8019 15.9642 30.8767190371
35.9763 13.892 8.9471 32.9228072815
27.5853 23.3313 4.70001 27.6333725915
30.5679 22.4629 7.52586 31.014241304
30.9588 15.3434 15.7304 31.8364672718
25.774 15.2301 5.6251 28.0204047367
34.915 23.0139 7.65894 30.3723388988
31.4149 16.1545 4.10454 34.4204386334
24.9466 19.3735 3.7684 25.9167955766
32.3179 15.6349 11.0945 34.3007022157
36.4835 17.8183 7.73233 29.6892765697
33.8374 14.3022 7.18172 34.1532306002
26.3537 22.5892 7.05254 27.7971744301
34.6907 13.8079 11.5771 36.4804700921
25.9584 21.6119 13.2048 28.4031942838
33.7204 21.6224 4.07598 33.1783040535
28.5833 16.7642 12.3413 29.7201252544
28.6262 20.6941 7.00854 30.3756375887
32.3463 16.1531 8.44363 32.8777332565
32.5347 18.1701 12.0674 30.8059841659
34.4022 19.2867 10.4041 33.9459450523
33.9936 18.4627 7.85006 32.2600787966
27.1503 21.4807 15.704 27.0740400525
27.8153 20.1011 9.5657 30.7727424234
31.2538 24.0548 9.94505 32.4979632596
30.2958 21.4354 10.8547 30.1364750277
25.3159 12.4622 4.99972 30.9045170201
35.3111 23.446 10.4462 30.8659583079
29.9599 14.2058 12.1182 32.7520208872
26.2057 16.8985 14.1573 25.6657792992
33.0124 21.7167 11.6478 32.7048036062
36.038 22.4716 14.4665 29.6623275448
33.121 21.9463 14.4162 32.1406300593
35.4003 15.6054 14.577 31.482287965
29.6607 14.0406 4.42983 32.6665211877
25.613 16.1036 8.04238 26.7239317213
25.8849 18.9917 11.9886 29.146115964
30.068 19.1614 12.6814 30.5676744504
28.2031 18.7235 15.0747 27.8263852328
26.0084 15.1991 11.3364 29.8151536928
25.5954 21.5592 9.7072 27.2294468525
33.0488 17.0464 14.7057 31.2411380466
30.3775 23.6037 4.72788 25.9460194606
28.1385 23.1564 11.9494 29.44525948
27.9438 17.1226 9.24411 30.5769290647
36.9555 13.0915 13.4385 30.5783472699
29.7657 13.1448 14.4377 31.9426587184
27.91 20.3821 3.66086 26.9620151359
35.2498 18.9828 4.12012 31.0164190646
26.3852 15.1089 16.5153 35.4341725074
35.4146 13.2015 21.5244 28.9257847548
25.276 14.5399 21.0347 30.9428591272
29.4139 19.0705 18.6294 29.8936892896
31.582 14.8343 20.0865 30.067425886
25.1896 17.5223 21.3295 29.4713012276
29.2869 24.1403 17.7635 27.2786516503
26.9716 19.9779 19.9943 25.9048241293
31.5125 22.7332 18.5796 26.4587725739
31.2903 19.9807 20.4573 28.4842805936
28.8604 16.6291 16.7634 29.8393539217
33.6222 19.8951 18.8988 31.1165954438
35.7041 20.7041 21.0448 30.0851867678
27.804 13.9558 20.7275 31.6478895247
31.4129 17.8846 22.3273 29.068484508
26.4894 14.0172 23.7504 37.7995872189
30.5934 23.7523 21.451 26.6363124803
27.2078 18.5952 24.1537 65.6332312454
32.7267 18.4137 24.7152 124.3614570041
28.2138 17.68 21.5193 26.6782849713
33.1687 24.5132 21.3178 32.3137197327
30.9781 23.8225 24.3163 87.4241283807
25.9039 23.9023 16.8514 28.3827199206
26.1083 19.6576 17.3833 27.7289308225
28.3356 16.088 24.6543 121.5691541755
28.9941 15.9235 19.7183 28.7351862357
33.3958 23.591 16.9921 28.5391291606
32.3995 13.8623 24.3716 81.8281457177
