14.7993 21.4503 20.9017 27.5694601449
17.0749 19.2903 17.9855 26.6787173766
14.8355 23.271 14.9954 31.5425597605
12.919 25.4021 16.0136 31.4228448336
12.6267 29.5619 18.7865 29.7013696201
16.1498 22.1268 17.6369 27.1305954751
18.2158 23.1692 15.7405 29.7193768533
9.90213 25.1529 17.2884 29.8657913252
13.6897 25.1651 19.2065 29.8792993636
12.1992 31.8693 16.956 27.4128208934
11.3886 27.0378 18.9332 31.2943775749
12.938 22.1704 12.9969 26.5450409737
17.9743 16.4735 16.7729 30.1425987501
10.5059 31.9184 20.8379 25.8860323779
19.2984 22.4535 21.1842 25.6783015329
15.4884 25.4367 21.327 29.046459387
15.2843 17.5669 24.5192 107.7985317591
12.5687 23.0762 21.1562 28.4448322696
11.5633 20.2247 21.2296 30.436111
18.3408 21.3789 23.6797 61.4913812328
11.1962 19.8145 24.0154 58.9784537042
12.9834 23.788 24.0084 55.1845014549
10.894 29.1692 24.4214 94.8061794735
13.5577 21.0402 24.439 104.7785623188
13.1556 30.9524 23.9527 53.6208832264
15.4036 25.2167 24.1489 75.8983205433
10.4357 32.4559 23.5527 39.2693313567
14.1993 27.8638 24.5245 89.3805348962
18.6635 28.2858 24.538 85.3034301822
18.0403 24.3202 23.6682 42.3323291295
11.3663 26.1721 23.8931 46.4420548583
18.7168 16.9479 21.3419 27.1038493173
9.92519 26.3169 21.2663 29.3652730154
15.4772 28.2439 21.7156 33.1174866397
16.0315 20.3199 23.2835 33.762302714
16.2296 29.967 24.3178 61.9554561117
18.5198 28.7865 21.4437 29.1148265518
18.7639 32.3005 21.6424 28.9888234397
18.9132 25.6205 21.2389 27.0828633009
14.7288 30.9854 38.4029 26.9376820296
15.5561 28.6279 35.5119 98.1066901013
13.8836 17.8297 35.5713 99.0649052122
17.8001 20.6231 35.787 94.7196991334
18.0114 30.338 36.9962 28.9204158218
11.2408 22.7582 36.0758 60.1503951506
12.3428 18.0257 38.108 27.5382709662
10.0975 31.6923 36.4375 33.4830349463
18.5488 27.575 36.6027 32.1665492418
13.5402 20.9462 36.0485 67.0334609493
15.7142 22.8095 36.2125 52.3764755865
12.7358 29.0771 38.2935 28.2522973538
15.0249 31.8114 35.9726 60.4012581483
11.8437 25.6837 35.7398 79.3834942474
14.6002 25.7948 35.9413 55.3973191453
18.9223 21.0274 38.4479 29.2788122799
17.5521 25.3825 35.5729 104.5517118121
12.2987 28.5909 35.7429 70.9643173129
14.0801 21.194 38.6851 24.5504119471
16.3095 18.6248 36.7717 30.8057349292
15.9302 27.8882 38.3833 26.4270438462
19.6149 23.5302 36.4527 38.7437690383
11.98 23.9018 38.7834 30.1230244642
10.3069 18.4096 35.9798 76.0386017311
19.0873 20.3387 46.9989 29.618254392
16.5038 19.1164 41.9301 32.5200594475
11.0396 17.8649 42.101 26.5785381846
16.7565 17.2071 45.3917 32.0643335349
10.2227 26.1492 47.2721 27.6071803747
14.3094 17.908 43.7295 28.1985349903
19.0407 17.9383 43.3097 29.6831162275
13.8991 17.9394 46.9952 30.1519165277
14.2976 22.2667 41.7632 28.3523295937
10.3909 28.2494 40.0303 30.2467926688
19.456 20.6206 44.2079 29.2972837359
14.746 32.3404 42.4435 31.0343479793
12.8271 24.9365 42.5519 28.1169638219
16.9708 21.7918 43.135 30.1222477457
15.4138 25.0378 40.8366 30.4149003948
11.8923 28.2837 44.0397 27.594158344
18.2107 23.8766 41.4885 28.1670040841
17.5956 27.0625 41.5825 29.0454168155
10.0071 19.9791 43.6381 26.6236918406
18.4847 27.3205 44.1671 30.0511720427
18.0579 29.7113 47.3938 30.1945995583
11.8524 20.7894 40.3099 27.5376236355
12.7446 21.7755 45.745 30.0501885349
14.7105 29.8578 44.0417 29.0876406042
10.791 23.4639 41.6009 24.5169053458
15.7919 27.4355 45.2438 32.0843947959
10.4674 22.8773 44.5559 29.8530424736
15.7419 29.1354 41.3631 28.251230048
11.5928 16.9365 45.2187 31.2534782559
12.7645 27.7395 41.6222 31.1489118674
16.6182 19.0762 47.4689 27.6404663753
17.1002 30.9951 45.0315 31.020641827
12.9814 20.3348 43.3674 28.1606043278
16.0725 23.4294 45.145 30.5549789468
13.9338 25.2377 45.1053 30.3255922004
12.3385 29.8152 46.293 30.8187542095
15.173 18.7922 39.2087 29.129965572
18.5392 24.4878 45.7501 31.4813623942
18.7256 31.5365 42.6958 30.7741997139
17.2582 30.5882 39.9176 25.3703108901
15.5859 21.5593 47.2046 33.3687313179
18.8177 27.9084 39.4338 26.8387315935
10.1461 31.5501 45.6359 29.1957729816
11.8915 20.1388 47.496 32.9830012233
13.7918 26.2835 38.8495 27.1430367128
10.026 30.8384 39.0059 30.1976070259
16.5356 22.6571 39.1023 31.6716837845
14.9234 18.5575 51.6557 33.4642303592
13.5087 31.6317 49.6295 28.738783391
17.1859 20.9597 56.2723 27.8928454232
10.2085 32.3188 50.2744 29.7142873173
13.3257 23.9958 50.0023 33.5985441665
10.4536 21.6992 54.5904 30.4883246543
18.654 17.4062 52.6659 28.5992349965
17.1316 25.2138 50.4651 27.9250755434
15.7213 22.9208 49.7138 30.9433954119
13.4058 24.4126 52.8481 28.012420399
14.078 21.7759 53.1973 27.3931212142
11.4759 25.62 56.0203 29.5829218289
14.1199 30.1841 55.9527 26.0333445785
15.6155 25.887 52.6928 28.0770610402
15.7805 23.321 55.2416 31.711124442
14.3029 28.4772 51.6186 29.8819701709
16.9799 26.8211 54.987 29.5217391304
16.0003 20.9031 51.6003 28.9610498363
11.196 22.048 49.6712 32.784241635
16.6271 29.0917 56.264 28.9270285235
19.1185 23.5332 50.92 31.7520618166
16.2572 30.2051 49.6604 28.4734766755
11.4346 16.7315 50.1767 33.9589607253
11.5621 29.6214 50.8213 30.8396555567
12.6343 28.3716 48.5229 28.1069490169
18.582 27.3867 52.3274 34.3304275637
17.6048 30.1293 52.1972 30.4939252878
18.3872 18.1982 55.5109 28.5558350924
13.0909 27.4801 54.1437 29.5475206156
11.519 20.9099 52.2056 32.9329043108
18.8754 31.161 56.0411 30.7507169341
18.5893 21.2127 52.1565 32.8671337936
10.5495 27.7718 52.7939 31.4243197404
17.0399 32.4409 54.3482 28.3966179995
14.6731 19.8123 56.0426 27.4075019169
11.9842 31.9478 54.8175 28.1746419791
17.3717 18.0428 49.8732 27.8009721431
15.4602 27.8551 48.4118 30.0948665273
14.7384 30.7645 53.2319 28.0836557183
12.1055 18.2676 52.3238 35.6573550525
10.3909 24.852 53.4519 30.9583477633
18.0457 26.735 48.0716 30.8283294454
15.6561 17.6286 54.1721 30.3269311458
12.5206 21.4463 56.2473 28.0482869195
19.6211 22.7231 48.3197 32.7771563971
12.7765 25.7871 47.7354 31.2488579604
12.5084 35.7453 4.29717 30.3068702616
14.3193 48.724 7.52893 35.6188788122
18.4274 38.6281 5.66352 27.0559923953
12.7941 39.1259 6.62148 31.3734054829
15.9292 38.4006 6.34123 29.2788123677
17.1819 48.4508 8.12788 35.7344964891
10.9811 34.3273 8.40513 29.4774019047
12.2856 41.8332 7.97488 30.3367406868
11.6419 42.3823 4.43783 28.4362735667
13.4656 34.968 9.50362 32.6136939702
10.2198 37.9874 5.43998 31.431168405
15.3322 34.0096 7.4299 29.7272570537
14.0878 43.4869 6.17562 28.2689505491
17.7097 40.9553 4.82474 31.3650211241
18.0404 34.5714 7.32512 26.6962427687
9.98073 40.3965 3.72012 29.101678988
14.9096 41.0982 5.13663 31.1731660464
13.8935 44.5115 9.95506 33.7545631766
10.5634 45.8278 4.05409 35.4037774289
12.035 45.7568 8.2365 31.0889161168
16.8569 44.3103 6.99069 34.8612336857
15.4185 41.5153 11.537 29.8051321524
17.9106 46.7841 6.16276 31.7913194559
16.4618 36.431 3.55453 30.1244682537
16.3522 48.0489 4.04453 36.3869913598
9.77809 36.6229 9.97771 30.315666259
12.8372 47.2156 5.66623 35.1539256049
19.0489 35.8333 5.14671 31.9603144111
17.4748 36.5294 9.3 28.036420316
16.9226 43.3565 9.8859 36.6064045197
18.9576 43.1187 5.9593 34.05162589
10.4367 42.9297 12.2817 30.6163138757
10.1177 43.5131 6.38301 29.0552497686
15.8857 35.2165 11.3094 30.1204554302
11.5049 39.0649 10.395 29.73458708
19.2757 44.7443 10.9917 27.8011183867
16.04 38.8336 9.64896 32.6214257217
13.5559 37.8977 8.98804 29.0852213608
14.5366 36.063 5.81627 27.5835678621
12.7805 41.908 10.7765 31.2647830901
18.9654 47.2812 10.0652 34.9782293654
19.0084 40.813 9.84459 33.338110668
14.1323 48.7665 12.1837 31.9373881706
14.1166 45.3311 4.23889 29.2571581762
11.9153 48.4039 9.43105 32.5357555971
10.1956 34.9074 5.68173 29.479355714
9.97931 48.7683 5.77123 32.9705391501
13.7432 45.853 12.2338 31.6085090508
15.3443 35.6467 15.1035 26.8661458068
17.1108 33.5225 17.1694 29.7659934913
14.6563 37.254 13.0069 27.3449482057
16.3729 38.2622 16.5643 27.0424184448
14.4598 40.0015 15.0221 29.3674446348
19.1022 44.3126 13.6599 27.1469820829
11.9193 39.3086 14.6037 30.5860967762
16.4816 39.0887 12.6988 26.2621978906
15.0916 45.3772 18.8804 28.1067159312
15.8145 42.1659 14.1523 26.4142578366
11.107 45.054 16.2002 28.6163904338
18.4072 48.0495 12.6317 28.7750025485
16.9069 46.2165 14.4201 30.8235122853
10.8305 34.7126 13.8187 31.1298689893
11.117 45.3539 13.3719 32.2550370858
13.027 34.155 15.4836 27.9430129455
12.5187 47.2809 17.1247 29.9533621893
16.8602 46.5679 17.2659 32.2465229696
13.114 34.927 18.8362 28.8008745303
12.7086 46.3408 19.941 26.4283174781
17.3246 38.6555 19.0927 25.7826148005
14.7041 44.3806 14.3323 30.7901698926
14.6175 32.712 18.4694 28.6474303269
12.833 36.8843 16.8841 28.6939636156
18.3875 39.6646 15.2372 29.6769148531
18.0737 35.7088 13.9079 27.3674122313
14.1538 48.2226 14.7388 30.5831972564
10.4089 34.3881 19.5868 26.7122208267
17.6328 41.7047 18.5218 29.2172315563
14.2144 38.4016 18.935 29.5269816318
18.0079 48.6645 20.4484 26.8766176954
14.9913 41.1479 17.9603 30.7957219757
11.9101 39.939 20.2051 31.3665276513
18.0955 42.3212 15.6693 26.3469979339
10.1574 44.4143 19.577 28.0933731442
10.8953 42.4409 17.6198 31.4884510233
13.7474 43.6445 17.0497 31.0304830773
18.1356 44.1168 20.9964 28.5777340835
18.5218 35.8718 18.0311 30.5790484918
10.324 37.3883 16.1087 29.073560986
18.9651 33.1571 13.413 32.0503084339
18.9383 44.5836 17.0792 29.4815532743
18.6259 48.4025 17.934 31.8592232034
12.6954 42.604 20.7895 31.8459612215
11.9071 37.2996 12.6571 30.7052091114
10.1255 39.7585 18.2896 32.2274599812
14.625 33.1948 12.8939 28.2818885068
19.3466 39.6132 12.7227 27.5172172377
13.8451 45.11 24.2246 90.0031161015
11.5576 35.0494 24.0972 75.7913377673
10.6534 39.0647 22.5871 31.2672484016
19.4495 41.3322 22.1827 29.5260256394
14.3874 33.7925 24.1512 69.1147908059
16.695 37.8131 24.2796 62.703021664
16.3847 41.0505 21.6491 30.7264865482
19.1445 44.1798 23.7344 43.6377007825
16.041 46.8652 21.4024 27.3542217815
17.3298 32.7261 24.493 81.0192782074
12.8008 39.3955 24.2979 96.1832991071
18.2908 35.4399 24.1852 63.7167977836
13.9166 36.6811 24.1423 59.8604254278
16.6259 43.7381 24.4083 88.7209637348
15.2344 40.7173 24.3039 66.2968019437
15.6338 46.9639 23.9261 52.7967095771
18.4109 48.3733 24.3949 95.7744663719
9.95505 42.7448 24.0239 72.9773163199
11.0951 36.4135 21.7441 29.3123791927
12.5973 42.37 23.6317 39.7745802808
11.5792 46.5853 22.7867 34.1030245935
18.432 40.151 24.6871 103.664578068
19.4046 46.6839 21.8281 26.9562339271
15.2712 43.7518 21.581 26.4208452764
16.6709 37.8744 21.4547 29.791504303
15.1773 34.0919 21.3246 31.0626618181
17.803 34.9983 21.3299 28.7838599707
13.7912 36.5398 21.3266 26.4735589371
10.2441 48.9216 38.6751 31.4203103712
16.029 36.0384 35.6075 86.0320387673
12.7971 46.6016 35.7792 84.6180296478
17.8095 38.5445 38.6187 27.9239916619
12.6572 32.9852 35.788 85.5165102997
17.2236 33.5827 36.1075 45.4258956395
18.3855 48.1704 38.8566 30.6162127044
11.921 40.6457 36.3561 56.6721626069
13.2639 35.7246 36.0569 58.6515677869
14.8142 38.7662 38.1793 27.5763676978
12.8233 47.8689 38.3766 28.8445101262
16.6233 47.1027 36.2563 49.4605596902
18.2559 39.1353 36.0569 51.5967979143
14.7762 45.3271 37.8068 27.6487611487
14.5848 41.3258 35.6908 88.6089408633
15.9519 44.0314 35.7276 91.8377779066
11.822 43.7377 37.7843 31.5607464789
15.5198 38.7401 35.427 94.1883767335
11.1271 37.833 36.547 43.4128109856
18.4746 43.7625 36.6363 28.634307469
19.5098 41.4695 35.6653 86.9913555197
18.1267 33.9011 38.7616 28.3028280832
10.2302 45.3705 35.6482 92.8791970016
19.4923 36.1791 38.8878 26.0944682933
10.077 35.1764 38.4888 28.4645603192
14.2472 35.1761 38.7716 30.7709404817
13.067 33.9526 44.0954 30.0151426641
13.7646 43.8327 40.6536 26.8679474327
10.715 39.6978 39.5223 28.6637264892
10.9555 43.8876 40.9851 26.9798782565
11.5561 48.0949 42.8769 29.3157084738
13.9671 38.7785 41.9558 28.4892562792
12.2814 37.4993 45.8688 34.9014627283
18.1439 41.5651 45.768 29.3655488062
15.7611 37.1219 40.3988 30.3924731512
11.2886 37.4205 41.8824 32.7178956574
15.6198 41.2642 40.5269 29.7981980258
16.9469 48.059 46.7234 26.891794263
18.4654 34.6647 44.4897 32.1119146276
16.4838 41.695 43.4095 25.5036987553
15.1618 44.1531 43.3469 30.2060201175
17.1933 33.5103 41.5819 29.871666802
18.7603 45.4901 42.4761 30.438911428
16.8399 45.8743 39.5818 28.4438367342
10.7731 33.0436 40.3216 29.0161357086
12.9676 32.833 46.7821 27.4599644162
19.0374 44.2135 39.7157 28.6891589304
10.477 34.9486 42.9958 25.6631348052
14.1867 36.359 43.9895 31.5690388461
17.7616 38.396 44.2825 27.4350673376
11.0333 44.7919 45.6076 34.6755720551
13.1054 46.6559 41.0921 29.5361080863
15.667 46.8719 41.874 28.9318652422
16.0092 33.3105 45.8738 28.6968342464
10.1912 35.9446 45.3902 28.6551648269
15.4281 39.533 44.5529 25.5989060807
18.9794 37.0578 46.612 27.0726520719
10.4294 41.5447 42.0367 31.603332921
13.0757 41.5303 42.8197 29.0625462874
16.218 36.175 46.4321 28.2287665269
14.7263 39.7584 47.2505 31.7513306499
10.0082 45.6526 43.0821 30.3476296482
17.1734 45.8413 44.8932 29.9931676742
13.8942 45.2421 45.8051 29.9050343998
17.9626 36.3446 42.1455 28.4944468283
19.0402 44.0888 45.8175 29.9988181717
13.5231 47.8886 46.9447 27.0337421725
12.6944 41.4777 45.7526 30.6406374212
13.3931 32.9521 40.0157 31.4702945181
18.8339 41.9933 42.213 27.762583405
17.9624 41.6449 39.182 30.2742030245
10.1969 33.8527 47.4825 26.6031186138
12.1134 37.0605 39.1546 25.7991818898
13.9907 43.2845 47.4612 27.4561346249
10.6819 40.637 47.3855 34.1526135501
13.2578 41.0464 38.9791 26.993073713
13.2937 34.3151 54.9559 28.043953588
16.0423 33.1321 48.7565 30.3996381375
17.3404 42.5402 50.6106 30.1511814734
14.1843 38.6276 54.492 30.9414854935
13.4148 43.292 55.1264 30.3968659121
18.3099 38.5914 53.7765 33.3485653575
16.358 36.7146 54.0761 24.7316475345
16.7746 35.3089 50.6317 28.3094164239
13.1988 35.6102 47.6619 29.7585575695
13.4291 40.6691 52.1603 36.4513988521
19.2203 35.7238 49.3769 31.5951511273
14.7928 41.0681 55.3031 26.4588148295
11.6932 38.1317 55.5508 31.9229452423
11.0535 45.38 50.4643 34.9294023032
18.0067 45.3171 51.5909 25.2992617547
16.1573 45.7426 55.2614 32.6883694933
17.9319 38.7454 48.6156 33.2401955472
15.2933 37.3635 49.0391 29.1508312973
15.3383 42.6648 52.5889 28.4643825923
11.5013 46.614 53.0749 32.62345722
13.0866 32.8104 52.0372 28.8567831186
15.6764 45.7315 48.7341 28.8243598186
10.727 44.2386 54.6449 32.7561380113
19.0534 45.2337 54.9436 29.4364224026
14.4953 35.4005 52.3643 27.0028297883
17.4914 41.0715 55.0275 31.5015683562
10.7781 38.6329 51.4192 28.8961801957
17.8478 34.7031 53.0815 27.0431747388
19.0852 47.5945 48.4098 28.8731427607
11.2896 36.2349 52.8897 27.720875696
10.8224 41.265 50.287 32.2740514865
13.5359 37.795 51.2494 30.9052748234
19.4731 39.0545 51.2515 32.7555528876
18.8398 47.6373 53.5384 27.2423959238
18.3357 44.7825 48.7622 27.6172782764
12.8795 43.0811 50.0581 31.9962319486
15.166 48.6219 49.3197 26.4435790008
15.0021 45.1356 51.425 29.4029061458
18.7662 42.8639 53.5916 28.0064629732
14.2134 46.9887 53.6224 32.0617457705
17.993 48.323 51.0236 28.0151526867
11.2917 47.7521 49.1083 35.9775943291
11.1889 35.3985 49.9952 31.8341205571
18.9231 32.7282 49.1951 31.1601574988
15.6848 33.7355 56.5229 27.9537236778
16.2474 41.839 48.1154 30.2199890245
21.1752 5.09875 6.3509 26.7709994904
27.1478 4.44953 4.69315 38.7141575084
29.459 5.79988 3.92253 30.7219000657
22.6005 2.89447 4.31046 31.7617349558
24.9437 15.8278 8.0609 35.2255713165
25.0624 9.07415 11.5368 30.8996501919
24.75 1.81832 5.11509 29.4239211678
23.3902 2.18735 11.769 30.7087219585
22.3374 11.8156 12.2866 27.566600141
27.459 14.6148 7.73419 32.9648939743
19.8711 2.41944 9.33985 32.1816843613
28.662 13.8011 11.768 30.7855931091
28.789 9.01768 6.36319 31.1239672701
20.8493 0.703684 4.43086 30.0095965844
20.3167 13.154 7.36947 31.8374683591
26.2583 7.84435 6.05216 27.839292372
25.3271 10.609 6.45958 33.5405085448
22.155 11.4171 9.20681 33.4490558473
22.0667 14.8684 8.82506 31.0326943098
26.2393 13.942 4.87952 35.1092297112
22.0191 4.22959 10.0126 30.4371111827
21.8406 6.09656 12.2793 28.4830421482
21.6585 14.7924 5.28165 34.6919071275
27.3074 12.2192 9.37689 29.2829919364
21.0637 11.9339 4.40512 29.1658832764
22.8903 8.25852 4.81591 28.8541702162
28.8191 9.94342 9.29076 30.624436114
26.4468 1.19768 9.20052 27.4692012611
27.1705 1.59415 3.76861 31.4272407971
23.3559 5.18391 7.96446 30.9896531438
20.8018 8.0061 7.21654 29.5641290492
25.221 3.17322 7.4853 34.0458154732
23.4276 10.7681 4.24304 31.6143403782
27.3745 7.72279 10.246 29.3630238485
21.2903 -4.71855e-05 10.3194 31.1335521011
20.5655 9.4419 9.73933 30.2452972555
25.3429 6.87178 3.58658 37.1842907679
28.0711 11.7858 5.47077 27.8756182804
21.3521 14.4421 11.458 31.0628133009
25.0146 10.8038 9.3683 27.6774584572
23.9142 7.9424 7.76028 32.0578955152
25.2777 13.0303 11.6172 30.4781852727
27.8173 0.311898 11.6817 30.560647336
27.0074 5.82112 7.9563 31.9454327
29.1015 4.10181 11.3953 30.5746399681
29.2511 2.15559 9.1588 32.9893804634
26.0915 3.25231 11.4651 31.0060280448
26.1499 5.96143 12.3753 31.8293479633
21.5087 6.17648 3.70159 31.2677576725
21.2173 10.3691 17.2048 32.0035650986
27.6215 15.1459 16.0086 34.5896064496
23.4171 0.858093 17.0563 30.0748834169
23.3254 2.57828 20.6257 27.3219231687
21.26 8.312 15.0574 29.6410415339
21.0183 0.0755987 13.0216 27.4348533931
23.8256 6.18144 14.2852 29.3009596983
24.5483 13.5519 19.2553 30.039247961
19.943 11.3521 14.1666 32.7256405728
21.7261 5.8239 16.9579 29.0413199515
25.9942 7.29235 15.6591 30.8226676925
25.7036 10.9589 13.6445 29.535018478
23.4336 12.7976 14.7352 29.0209887828
21.9934 3.1222 17.8411 26.2836327879
28.3299 11.895 13.6806 31.821224873
25.3912 0.486985 19.3362 27.1418342726
24.4697 15.5132 15.072 29.3732185483
25.6247 15.58 12.4552 30.8193908417
28.6523 9.70861 17.4563 29.8484266988
28.1688 3.7838 19.329 27.3548892652
24.1489 0.880358 14.074 28.1051824144
21.3073 7.11229 20.2082 25.6213203442
24.8263 4.03828 18.1231 32.399135391
21.9423 14.7536 18.644 31.2829069651
27.0582 1.85457 17.2368 30.7623316114
28.6259 3.7094 15.3776 30.1623748086
27.3106 6.81332 18.2471 29.5052931139
28.2678 6.15065 14.2117 29.5685829818
23.8751 9.30105 17.7623 29.0607152403
26.1818 9.90647 16.2526 26.7220335137
23.4489 6.97244 19.0061 26.8128975365
28.809 15.9111 13.583 30.2367327758
20.3913 2.92964 13.7975 29.3271844872
23.0417 3.41238 15.0538 29.4912926327
21.2718 13.1338 16.3041 31.2331951726
25.8084 12.8074 16.7304 30.6361992461
24.0753 11.1675 19.8277 28.1173523645
28.273 15.8314 19.3894 29.4280880465
22.3079 16.2662 13.315 31.031597061
26.8591 1.67332 14.1013 29.0833891565
28.7796 12.1832 16.3407 25.2422111009
20.6927 9.85059 19.8953 29.1761401563
28.8544 10.6279 20.5025 30.9882970137
26.0601 9.95576 21.1704 30.7988489236
19.9215 5.69268 14.107 28.920373016
25.8332 7.40936 20.4909 26.1728847317
22.4499 8.8357 12.4074 30.1595704669
24.8995 5.90822 22.6533 30.7254082417
28.5077 6.27404 21.6086 27.2512904675
23.1272 2.63917 23.8545 60.9878233247
28.1339 4.45258 24.1572 63.2322762084
26.0828 2.33274 23.9924 72.5305022801
21.9077 11.3206 21.5949 26.3952612509
21.1954 8.12685 22.8508 30.1551556885
26.5453 11.8524 24.5894 98.3300461171
25.8358 3.82731 21.281 26.2813490147
23.5088 7.66913 24.2774 100.2553488811
21.5083 0.578161 21.8637 30.2993833791
27.4012 7.21219 24.2106 82.2796804007
25.9114 14.5086 24.1129 48.5227237502
21.7006 10.9198 24.332 91.9792188935
23.2939 13.3964 24.4477 101.1786893912
28.4551 13.0515 22.2464 25.417402904
28.7431 15.4176 24.5291 103.7438539661
24.7019 10.2175 23.6554 35.368816054
21.5057 5.21522 23.9811 71.4303576215
21.2991 4.36649 21.1914 28.2872454312
21.9754 15.4205 23.0801 35.257803017
27.239 0.870797 21.5117 26.8010561345
20.8144 13.8629 21.2395 32.8276918773
26.2561 14.3165 21.3201 31.3292932376
23.845 6.02678 36.0728 55.6262207269
20.0287 8.37109 36.0902 64.3963712676
25.0978 3.50375 35.9873 67.4265093114
28.0333 3.38024 35.6432 90.5862042659
20.7902 1.25015 36.0538 61.5562928661
24.7216 8.58588 35.6643 93.2264581635
29.1327 13.5861 38.5433 29.1422556498
22.2017 10.1308 35.6837 88.3468193884
23.759 0.938929 35.7005 108.7609579535
27.9125 6.89345 36.4079 49.1149689687
24.3221 2.2203 38.6281 31.8588518298
21.0228 5.79401 35.8749 78.905883808
29.3237 12.1722 35.6735 86.3971087545
24.7768 12.7844 35.7862 83.4874230519
26.1939 7.84426 38.4526 26.5140522441
24.0385 5.87757 38.7923 26.9250964979
21.1081 14.1377 38.2171 27.8370487615
28.4259 14.6428 35.9071 70.7102619876
22.2666 13.0248 36.0061 53.8379540628
26.8399 10.5661 36.2563 43.7083438286
21.5067 2.19644 38.6644 30.5547098949
25.8458 15.3172 36.3532 37.9472940704
20.7719 4.9683 38.4744 27.8324959864
29.6829 9.0825 35.8139 76.9067331396
29.0443 0.40212 35.7402 86.5733744836
23.0985 9.91106 38.3805 27.9961462615
29.4601 5.2643 37.6932 26.499351376
26.9084 7.83319 42.1274 28.5793057325
24.9444 4.8084 42.7959 26.4866695891
24.0645 13.65 43.958 28.9667868782
28.6105 14.7586 42.8026 28.7427965302
28.5198 3.81222 39.8075 30.2680554871
25.183 8.60019 45.302 26.5586736341
28.0006 0.680872 40.2759 32.8492742775
27.7419 5.25901 43.4313 31.3439074068
22.1329 4.351 41.2975 29.9470037596
21.488 7.77907 42.1659 26.8726841486
26.7666 2.25691 42.441 31.4477405003
28.1329 9.78299 43.7777 30.115491664
25.6398 0.793373 44.5163 29.6614165287
24.5751 9.13381 41.4189 26.4148133133
20.6374 2.12575 41.8249 28.4567227401
24.4604 13.1517 46.6577 28.4018375797
25.9378 10.7299 39.2349 27.6553515948
21.1716 6.69861 45.9619 29.3058613449
22.3467 0.377578 46.2998 27.6910969854
26.8727 12.6189 42.614 27.9063196919
21.8082 15.1978 43.1177 30.5463515471
22.642 15.3467 47.5399 29.9217372462
20.5725 5.476 43.5051 28.3287795168
26.6501 11.2928 45.7366 27.141753715
24.4133 12.8844 40.6451 29.8630107468
23.7231 2.80975 44.7883 30.2906007133
23.7404 10.9267 43.2574 27.3616466825
28.3214 13.5807 46.1125 27.2199125709
28.5258 7.4217 39.8568 26.2807274562
24.8418 4.45226 46.5158 28.6251333216
27.5194 4.73277 46.1274 31.3841656876
23.7956 7.19899 43.3371 26.0597052036
26.3288 15.2997 44.6408 27.9199253815
25.3034 15.2403 39.3237 33.1862458284
21.9963 12.0859 39.6968 28.3087132305
23.2853 10.3303 46.2069 27.8418654241
21.9846 7.71045 39.5923 26.133644709
20.9456 2.43346 44.5474 27.8516002234
25.6594 4.17531 40.1164 28.4414591451
28.8536 2.33485 46.961 29.0953633287
20.9474 10.821 42.1437 28.224894943
27.9706 15.5564 40.0285 29.526865017
27.027 0.165161 46.8451 30.7012013203
28.6405 7.05059 47.4655 31.0338153931
28.3759 11.5445 40.1814 28.3524408626
19.7498 13.5857 41.9404 27.8191541274
20.7349 9.56589 46.1727 29.5225296513
23.6619 7.01338 46.8722 27.6000448035
29.4295 0.816693 43.2422 34.8183546913
20.918 16.0931 45.5671 30.5356717902
20.3094 1.33799 50.8636 33.2080636405
21.8135 4.06711 49.8274 36.2735874233
28.9967 10.1694 56.3793 29.8762292583
25.1572 14.896 51.0607 30.8010303053
23.8733 10.9312 49.1156 30.4439139321
24.3309 3.70306 48.9827 29.7356573246
28.6409 1.71447 54.2637 39.5103139346
23.2245 12.8944 54.7561 28.0666254151
20.3986 11.8477 54.6941 32.3268600454
26.1601 4.35485 50.8523 32.4619563551
25.8866 8.35997 51.0096 28.3462927586
26.7761 1.98467 51.9935 33.4542387838
20.5417 9.35868 48.8448 29.9227973079
21.9517 9.58637 52.8841 31.6121371718
28.5573 10.7624 49.4009 28.3615101795
24.2786 9.94713 54.3783 31.9473382897
25.36 15.2681 53.6586 27.9226102588
26.3218 7.95169 53.9937 32.4253593561
23.5776 8.03344 49.5171 29.7165572704
26.9798 9.10089 47.7692 28.2480069375
26.1671 12.0985 53.605 33.4208560496
24.4529 1.20818 53.1675 32.983240177
26.3783 11.0803 51.0122 30.7708489548
22.8085 3.38036 54.4508 38.0519792346
21.8365 11.3945 50.8801 29.2712177149
24.7024 5.7641 52.962 37.9227943465
20.4346 0.889532 47.9328 28.4795247729
28.6298 12.5232 54.8516 31.462258922
20.879 15.5853 53.6042 33.549202366
27.6927 6.48905 50.0825 32.8479045132
20.1525 4.31304 54.3119 29.4447996136
22.1676 6.48103 51.6438 32.1926121939
24.5327 1.07495 48.2442 33.0413379407
22.625 14.0396 51.8502 27.7064379055
21.1736 14.9746 49.865 29.3022064424
28.9927 8.03691 54.9044 33.5907423881
26.5187 13.5464 48.9186 31.1930180197
20.1185 5.21544 47.8666 31.0275174467
29.3571 2.24974 49.6919 34.1636053552
19.701 12.6038 49.2271 29.1442219974
23.9322 15.0044 56.4767 29.9236467227
28.3752 14.9138 56.5202 30.5542235595
20.686 23.761 5.06258 29.0615443119
20.0636 28.2685 11.8298 30.0959753353
27.2553 19.8208 6.49271 31.6147362969
24.663 18.4481 6.87802 35.2194807529
20.8426 30.8023 10.7899 32.0230604582
24.3302 20.9982 3.81302 31.4020456197
29.2143 22.346 6.32793 27.6038172503
27.0736 20.9721 4.06317 29.2353107675
23.1641 23.0199 6.24022 30.5447971106
20.6855 19.1149 10.3857 29.2352809411
23.6633 28.469 9.43853 27.3104050057
20.3994 23.6353 11.3914 31.4676594871
20.6332 31.8861 7.07621 31.1623916425
23.5081 25.7205 5.70212 29.84352607
26.317 28.8356 6.01937 32.062847552
21.153 29.3047 8.35675 27.776347989
22.4471 32.0815 5.01942 31.5556854876
22.9653 32.5363 10.2732 30.8338997528
20.2687 17.4565 5.47034 27.9593189828
27.5884 30.1255 8.02629 31.7898896868
23.824 29.7241 6.85772 27.5883981388
21.1304 21.2558 8.52608 32.726993573
23.8399 20.7328 8.15107 31.6172606046
22.6034 27.0991 11.7035 32.6032026585
28.0855 24.5937 7.4295 29.9913890433
27.2638 18.615 10.1853 28.9803130447
24.1261 18.1112 3.74623 30.0233571097
21.7542 24.2219 8.95757 31.8246945023
26.3165 26.0879 5.82987 33.191509783
27.9904 20.9561 9.00223 29.1665408922
25.5547 21.6266 10.1232 28.851150881
25.8974 24.1912 9.45934 32.4094686695
24.9806 17.2717 10.4212 28.3819101006
26.1818 29.5984 10.4552 30.5139795994
23.8685 25.9676 8.45258 29.3732511475
25.0831 31.9722 8.24583 28.201842646
27.8136 27.4508 11.2959 30.2677996127
23.1035 18.6763 11.7212 31.5074051102
22.0777 27.8672 5.44881 29.7349149209
29.1732 17.1822 8.57775 37.0605065104
20.5515 17.1837 8.35401 31.8038656064
27.1693 29.9965 3.71365 33.3222141392
20.6937 21.1247 5.81843 29.4277950638
26.285 24.1502 3.85543 35.3551713544
27.041 24.4702 11.8227 34.7995508295
29.4762 25.6338 9.73388 27.0362098994
26.9482 32.4916 4.17013 30.6155850416
24.6736 31.2038 12.1747 31.1754758206
24.2057 26.1335 20.5651 29.0300478379
19.8922 20.8405 15.0247 28.9841863508
28.8537 31.7372 15.3094 31.1066295758
25.6404 19.1918 17.5553 28.8856715557
25.9945 19.8666 14.4715 32.0290541132
29.1604 22.5471 17.0777 28.5118399791
26.7835 29.5591 18.9952 28.4891837921
22.4241 21.9395 14.076 32.1897138012
24.2799 25.3142 15.2192 32.39592507
20.4239 29.7225 16.3325 34.7040184961
19.9919 17.3874 14.5951 30.2615103564
28.0309 18.6452 12.8593 33.5446411007
19.7091 32.4494 16.9032 29.1840008576
23.7489 26.6862 17.525 29.6503662864
23.8704 28.921 13.8291 33.4251452254
23.2895 29.2596 16.5131 28.3041953436
22.0745 24.8256 13.4087 31.5046330649
19.6385 22.2927 18.1716 27.2634172072
26.0336 27.04 13.6328 30.4452842797
21.9679 24.1326 20.5401 28.372207085
29.1242 31.9081 12.2669 29.6576283849
27.3345 27.6986 15.7058 29.214789312
29.4998 23.2983 12.6802 28.99978808
26.3016 30.2967 16.3353 30.2249979366
25.4377 22.7904 16.0512 31.1879828885
21.5956 18.4443 16.5874 27.2825755985
26.4339 32.2671 19.6152 31.1386197133
26.66 26.4878 18.1238 26.4166075271
28.0593 18.5878 21.1591 29.0912590367
25.506 21.4091 19.2469 29.4656533885
22.4816 22.101 18.7734 30.9111551237
23.1513 20.474 16.4635 27.1650124895
23.8004 31.7633 18.0093 27.6713241736
24.4734 20.8381 12.4817 31.3140911407
26.8954 23.5741 18.2756 31.6278944354
20.0829 25.6408 15.4759 34.2721337415
20.1738 28.7113 19.1939 28.9841345722
20.997 25.9488 18.4298 28.6926955912
27.9356 22.0029 14.6898 30.3726159542
22.2467 30.4802 19.8482 25.6928190277
23.7628 16.9092 17.3081 29.5805382511
28.6012 19.8585 17.8364 32.6439360408
25.5719 17.0259 19.6282 28.6181343216
19.8424 16.5949 18.7178 28.7769727541
24.5126 28.9278 20.6636 28.9160902252
22.8697 20.0422 20.9385 33.4228823549
27.6393 26.6387 21.133 29.165524369
24.9727 20.2188 24.6561 130.5929780017
27.2438 21.2943 21.3378 31.9610856895
23.9666 17.5077 21.816 33.5914070277
28.5093 17.9126 23.7978 44.1515987789
21.4664 27.422 21.8691 24.9319588674
22.4723 21.0887 23.7277 46.7392798964
28.338 26.4763 23.9232 53.8535562479
26.0987 22.4422 23.7193 46.6638357949
25.4486 25.4352 23.0086 38.2828768765
27.3034 32.6551 24.035 58.913429269
28.5015 32.3855 21.5507 30.0071214514
20.1715 25.8362 24.5646 111.8096628792
20.3862 19.4399 24.2764 102.012388116
27.5737 29.4476 24.2296 88.6587871938
19.8363 31.1221 24.4287 76.8210065417
21.8711 29.7423 22.9763 29.4598101251
23.1535 26.7766 23.9408 91.1233089811
24.7811 29.5165 23.4377 41.8845716495
21.7313 23.8719 23.3697 41.9419500892
20.0948 19.7689 21.3796 26.8383015045
24.6967 32.1323 23.9951 63.9911370506
29.1544 29.4108 21.8636 29.3469039408
25.5143 17.7056 24.0152 61.9806978505
28.5636 23.6057 24.6221 129.0784488986
19.9664 16.8335 23.9975 73.671844573
21.623 32.3688 21.4802 25.2981195669
20.2723 31.116 35.6407 97.0368116752
24.9875 19.9427 35.8879 59.0228832075
21.5367 16.8115 38.4935 29.1906857463
28.4424 27.8066 36.0458 59.6404550178
20.5208 19.7596 35.8418 64.9475422736
22.6843 21.2867 35.623 78.6675534993
24.4135 17.3 35.391 114.3143567118
24.5074 24.8886 38.4472 28.4943940925
22.9417 29.5145 36.0501 54.9222763558
27.1885 31.9823 35.7066 68.5379315985
27.7228 20.7929 36.1279 50.4639977482
27.5073 23.7169 35.912 75.1130881687
29.5942 30.4604 35.3808 95.5414626446
22.391 24.1371 35.5988 93.1196808494
25.2584 25.2223 35.9211 68.046027549
21.3429 27.0247 36.0924 65.5631619757
24.4156 32.0647 35.6395 86.9293729936
25.6076 28.141 35.8621 83.4541301715
21.4159 17.0487 35.7232 60.7951734548
22.4307 26.6643 38.6398 32.558684765
27.5659 31.2168 38.2873 26.9962196471
22.9229 22.509 38.3861 32.0175863511
20.3616 32.6008 38.5119 31.1260416437
24.7447 19.8526 38.8453 31.6885226312
27.8341 23.5817 38.7047 29.6844629782
24.5479 31.9651 38.7354 30.5833950285
24.9778 29.6184 42.4286 29.154851487
23.2603 21.5733 41.9046 30.2005175086
21.3012 18.6347 47.0337 30.1934056307
23.6062 31.5537 44.6005 28.3320626925
25.3922 19.7312 41.6663 26.6237057163
21.9938 26.2981 43.7228 33.9333358114
20.7047 22.3116 40.1184 30.9351094444
28.9053 29.3655 44.6279 29.7557642344
27.4098 17.7714 42.515 30.9222944129
27.158 16.6778 47.2902 28.6775769807
20.117 24.3894 43.5071 29.060239618
24.4469 24.118 43.3634 31.5939425003
21.2316 19.2286 41.77 30.2619792622
28.4082 18.054 45.2128 30.0909436377
25.3035 27.8331 40.219 31.5775133004
27.3244 20.8358 39.1276 30.1233928873
20.8964 28.5793 44.3432 29.9859397208
23.5808 29.0284 45.966 26.4183941967
25.9241 24.238 40.86 29.1295932374
27.869 29.3744 42.18 26.3629807972
23.8856 17.4629 39.6828 27.6912927005
21.729 22.0761 44.413 26.8621553136
24.2004 20.713 45.4576 30.3944804688
26.6258 30.8822 45.4919 29.631304844
25.052 18.1736 44.623 30.3104885788
23.1965 17.2575 42.3584 30.4273526496
26.2244 22.5053 44.7299 29.0869751956
21.8307 30.7418 42.6337 29.0730514308
19.7246 18.3444 39.6455 29.8951494123
27.1721 22.0337 42.301 26.8645663924
22.4904 25.9894 46.7324 31.6572235085
27.4576 24.748 46.3807 31.6803341574
21.861 23.0916 47.0062 30.1558016414
20.6125 29.9982 40.0851 31.5157897183
28.4298 20.7953 45.8673 34.2643609199
24.8964 27.0221 44.068 29.9020258462
29.5318 27.1195 46.342 37.4169830757
25.2667 26.4894 47.1989 32.5985458755
27.2181 26.5685 42.176 33.579145086
20.8409 29.3787 47.431 28.7991965585
29.2119 19.6921 40.9031 28.9777371908
20.0462 24.9845 39.0097 32.9654576149
23.1489 29.5147 38.9581 28.7733065226
27.9085 28.491 39.0201 29.0425709281
20.7572 26.7422 49.0157 28.8608270601
27.3611 24.9416 52.8019 32.9689961222
27.2558 19.0881 50.7568 30.0280311303
19.97 26.3041 54.6499 34.0053020118
28.6273 17.0677 51.7679 28.9013489291
26.1878 29.6398 54.1592 33.8450701508
28.45 30.7887 50.5611 30.8009350251
24.3289 21.5664 52.3301 28.9849945163
27.7914 16.4045 54.2803 29.9533402523
21.3461 32.0923 47.9978 34.5235534563
25.0262 17.6158 50.1775 29.8774276343
28.4742 20.6568 48.8059 34.1987211463
21.2712 29.1036 50.6802 32.4995087455
23.3497 20.7847 48.0105 37.3911498421
28.7732 22.6403 53.5955 33.9853412598
25.5872 27.1124 50.0452 28.1586937576
23.3073 27.1876 51.3702 31.1662319121
27.4039 31.4989 48.2232 30.7257934196
20.7226 19.2947 51.8967 34.2903502198
23.1319 31.0043 49.8181 31.6943973512
28.1836 23.4462 48.62 30.3035570031
26.4326 31.9363 52.8081 30.5134384454
26.1949 24.5019 50.1958 30.8817859992
21.4765 30.8335 55.6835 32.3383056685
25.3152 25.0274 54.5046 34.853796836
26.1906 18.79 55.0667 34.0509953481
23.778 22.989 50.3074 33.5339332033
23.9782 27.8734 54.0196 37.8167724073
23.3294 19.0191 52.0593 30.6395403319
21.1583 23.8326 55.071 33.1386798451
19.7363 31.6356 51.5747 31.098944042
26.8644 20.7931 52.943 32.9743662462
28.4467 27.7965 50.3867 32.2155497875
23.6916 22.7362 54.5941 31.3737661087
27.8464 27.9397 52.8531 30.6546038486
21.8564 24.7855 50.8705 33.5921017103
21.7548 28.2387 55.9036 33.4846250161
23.069 17.2624 54.0589 28.4066627075
25.1375 29.561 48.2689 32.4938590236
24.0627 32.7008 51.6213 30.6172980116
20.1444 17.8327 49.2877 33.0488441402
21.2325 19.0018 56.4743 31.3174145198
29.4022 16.659 48.8167 29.7386822387
19.8105 21.4535 55.0734 32.8483426913
21.7597 32.6035 53.3878 29.9947055169
24.4568 17.5053 47.6925 29.1261855936
29.3132 33.4973 5.11273 32.8891573839
20.5229 42.8078 9.66471 28.7737187451
22.5985 34.9478 4.46285 33.8868890388
28.729 45.9266 8.09978 31.0101451491
24.0861 37.508 4.55059 30.4626194494
22.551 40.5583 6.7982 28.0733274992
21.4057 38.764 4.42984 31.9062645644
24.47 40.1037 8.83634 32.6497549871
25.3067 43.8658 5.75358 28.6299222748
20.1841 39.1254 7.88187 33.5394860852
27.3024 44.4082 3.74891 27.030567412
21.6082 42.8657 7.15643 29.1927700221
23.9281 48.6157 9.20176 34.1060683209
28.3673 38.431 11.0786 32.1579615536
24.7857 41.5351 4.54013 27.1218701964
25.5419 46.6469 4.40772 27.2981618679
26.586 33.3575 11.9705 31.5802203507
29.3365 38.4257 5.07737 33.2610485727
25.0935 33.5145 5.81326 30.7014636781
25.9805 36.0811 6.66946 28.7596889582
20.7348 44.9936 4.06644 28.6700106319
26.2772 40.2063 12.3625 27.4494386634
27.0504 41.4422 8.92977 31.3476492297
26.9759 33.9353 8.79517 27.4121709355
23.54 40.5087 11.5092 32.9994490805
26.3533 44.9265 11.3871 32.5706548601
20.4486 33.8773 8.97329 29.6997116847
20.6654 47.2324 5.5559 33.5636450528
26.7095 44.0712 8.29267 31.7007354554
22.9751 45.1236 6.82764 29.9903001746
23.0658 35.487 10.3322 33.9439278807
26.8382 47.9941 7.30186 31.3787601884
28.6057 35.8668 6.34817 30.5461605519
28.7345 40.8416 6.57127 31.8816974092
20.1215 36.8461 9.40725 31.2479854514
27.8072 42.5028 11.6614 27.1983964178
25.6622 39.3984 5.94072 30.2356215736
24.0933 45.8793 9.36014 32.7962450771
24.8853 37.1467 8.76802 34.5253980303
26.7598 36.2553 10.7012 29.7441550335
22.1823 42.8681 11.8462 25.8385307763
22.2388 45.9181 11.6066 29.6414124946
19.7382 36.956 12.0492 28.0455136599
28.4469 48.8356 5.34843 30.4279860585
23.728 48.123 6.21057 30.7138149834
29.0511 32.7278 7.91142 35.0014055647
26.988 39.6996 18.0647 27.0082140987
22.2335 38.8416 13.3123 27.1006744244
20.5376 34.8502 19.8955 29.6581511914
21.4606 47.8486 17.4507 31.4723196818
25.0511 37.4452 13.0613 28.6994436589
20.4708 46.607 14.7308 28.7387557728
28.4601 47.8824 19.6362 27.4465309189
23.6274 39.4872 15.4871 29.2797214017
20.7838 42.1818 13.8855 28.1943186724
21.9378 44.9113 16.9241 25.8835098265
27.2935 33.5036 17.028 30.0632389521
29.4264 39.863 19.6199 27.4461204497
26.8375 37.9152 15.3333 27.2106878007
26.4692 40.741 15.0434 25.3998696824
23.5816 42.553 21.1712 30.0770580104
19.7947 36.9457 15.8637 31.1600799198
25.1002 42.5848 16.5648 29.53081156
23.1354 44.8696 19.6919 31.4572112052
28.8472 35.467 14.6831 28.4244141898
25.0726 36.6937 20.483 30.4069964074
29.459 45.4029 14.968 32.6540317942
21.4556 34.228 14.5337 30.3955896857
20.2067 42.8938 19.2604 29.4350497908
24.239 43.9204 13.2108 33.720140719
28.5712 42.6875 14.4061 34.2387627063
22.1117 34.1975 17.6371 28.5117325883
26.2695 47.2931 17.2463 34.0861708856
27.4571 45.3348 20.7656 28.0468565385
21.7423 47.1931 20.3835 31.184112233
22.4344 42.0315 16.3407 28.9580325872
25.6421 36.1513 17.4497 29.4999463356
22.4376 36.1381 12.8454 27.2231964472
22.2025 40.7889 18.9802 29.4258411813
25.9214 34.6028 14.412 28.6173791841
24.271 38.96 18.63 27.7104410608
23.5598 47.1248 13.8447 33.5451848495
20.1547 39.1648 20.0465 33.5948112581
28.0879 37.0782 18.8576 29.7580142402
24.4218 45.309 16.2179 31.1191771018
26.8895 42.1972 18.7405 31.5725959408
22.713 36.8071 16.9361 32.8297471609
25.0551 46.8525 20.4191 28.4903193105
23.8773 32.8494 15.0334 33.4716923407
28.1592 48.2777 15.368 29.8316438325
28.019 46.834 12.6612 29.768952242
29.2263 44.1379 18.7328 34.6434786183
29.3306 38.1386 13.6213 28.7003058227
21.3148 35.7046 24.2798 76.12144194
28.2567 46.1355 23.4698 38.8875871265
24.2872 33.535 21.2179 31.825314337
27.7923 36.6437 21.7808 27.3898017903
20.7853 38.6238 24.2378 61.015308219
24.1571 35.3594 23.4643 35.7683727539
26.9908 35.6059 24.1682 78.9998756901
20.8181 46.5915 24.3967 71.8918549869
25.7443 41.1127 24.7304 100.3488778613
21.9211 42.9323 23.3699 34.3283695629
22.9327 40.522 24.415 80.7588386695
26.3492 42.4655 21.6145 28.9423718446
28.9424 40.5359 24.3962 89.1464111375
25.4247 38.169 24.03 61.7156596729
24.8625 47.2902 23.2834 33.0262211808
23.3705 45.1327 24.4621 96.9217086074
21.368 37.1438 21.5216 31.4903739954
27.507 39.7273 22.287 29.1705585752
26.3095 44.1446 24.0082 70.3103385347
22.0663 33.0419 24.356 79.3571674791
23.9616 39.0356 21.7422 29.6202381688
27.4526 48.6272 24.0366 70.2678471994
22.8566 48.812 24.5349 107.7967376484
22.946 34.5722 35.9287 54.297325684
22.4143 37.8516 38.5414 27.4171950608
19.9908 34.0592 35.492 92.8027483703
25.4629 36.3219 35.9524 56.1710771944
22.3976 40.7295 35.7976 59.1812346767
27.8054 34.4885 36.4857 29.7781171996
25.377 40.4852 37.9832 27.825276134
28.91 37.7553 38.4648 28.2410437752
22.9439 38.1112 35.6191 81.1289788355
24.8083 42.2656 35.6368 80.3472731135
25.0913 36.4414 38.6361 28.730570493
25.9777 39.1034 35.5172 85.4104221108
28.6267 38.6678 35.9983 38.2107817141
21.6428 43.9541 38.3717 30.771462915
24.5748 47.4343 36.5781 41.8871467265
23.3821 44.643 36.1659 57.2025243793
27.1983 46.981 35.8052 86.8152967674
22.0579 41.0962 38.4581 26.0661748911
27.3333 44.1357 35.8667 79.2606521265
20.3114 36.7523 36.2422 44.3509750641
27.0097 42.8202 38.3642 27.3513148894
20.5228 45.1024 35.5509 112.4877819279
27.5006 46.4587 38.8205 31.4795628069
29.2429 36.1779 35.2362 125.4652247298
19.7825 47.7066 36.2343 58.5825114577
22.8479 34.3099 38.4377 27.6604314473
22.3615 34.5743 41.7336 31.325184884
24.7619 34.5583 44.9615 26.1977416582
22.3134 47.3064 44.5573 30.4880614493
20.8139 33.5339 43.761 30.3869007631
27.625 35.4245 39.3109 27.5749832162
27.4746 32.9157 40.9984 28.7082724389
24.718 32.6078 41.5555 29.1271097581
27.2917 41.9778 42.0182 32.3229168144
20.5878 36.8809 41.1257 26.9499026669
29.3482 36.5115 43.4585 30.053950586
25.9469 36.76 46.3945 30.7247530929
24.1381 41.4753 40.504 27.9089827355
22.9696 44.6381 40.6796 29.9800387774
21.1104 43.6125 42.5546 28.9845841371
20.305 48.0998 42.9997 27.942372987
25.995 44.0921 40.3181 28.0705076464
28.1407 38.1058 45.4231 27.6353469312
26.5491 45.8204 42.3627 29.2816422712
23.2068 47.3595 40.6733 32.7995090267
26.8624 33.2802 44.0471 28.4629660444
28.3258 40.3138 44.0469 30.4384888993
29.0121 47.3795 41.604 32.015052865
27.3959 42.3946 46.5202 26.3807062589
20.4048 39.7922 46.1351 28.0215425489
28.0402 40.1338 40.0808 26.2216814534
27.7505 44.7185 44.7017 29.9913009996
24.0469 36.4494 43.2068 30.2769845974
22.3536 34.0862 46.0922 31.6354922195
23.0205 38.8698 41.2803 26.2198194872
24.6326 47.7149 43.221 31.728818691
21.9987 36.7648 47.0358 31.2621651018
25.6035 40.2972 46.3195 30.4498612007
23.396 38.6877 44.9223 30.4950727717
26.9091 35.8273 42.128 30.5023206314
20.8549 48.6691 40.3791 31.1296878207
22.217 40.8072 43.7314 27.5696185126
24.7142 41.7769 43.6359 30.4667363066
21.6772 44.5882 45.2597 28.6104229995
24.5575 44.5894 44.4983 31.0579918776
19.9968 39.2814 42.8381 28.1103229417
28.9819 46.7686 46.2472 30.5747707477
20.3185 39.8794 39.9227 26.8252006126
25.8174 38.4405 40.5153 30.1860445832
25.6206 44.3499 47.4632 29.6938372359
25.3705 48.5758 39.1506 31.9286515962
23.2395 37.42 49.0849 27.1931802195
26.7753 34.2063 48.4358 34.8128808896
24.4813 36.4017 52.9392 27.5612214408
24.7201 34.9745 50.2424 32.6310898956
27.5078 37.0355 51.8895 28.2258924129
21.3587 36.5786 51.0455 30.6820154451
26.4087 37.727 49.0372 25.4684840149
22.9454 48.072 55.7003 30.363240112
28.4764 41.8257 48.8336 25.3715884039
20.8481 44.8188 51.5063 30.8802532272
28.8851 44.1939 50.3808 34.6316275753
28.6849 39.021 48.7825 27.1425956869
28.8745 46.7691 49.0576 27.6408586607
23.1713 45.2825 56.1736 27.9268162661
25.7575 48.5493 55.0066 29.8097867347
25.2383 42.5322 49.7563 31.8773808903
26.0718 46.8008 48.5083 37.4280063173
21.3888 45.6859 48.8074 30.2407900099
23.4106 47.6596 49.0355 33.0583465478
28.3567 47.3895 54.1879 31.6230128954
20.2524 41.7361 50.9283 30.0110414582
20.3686 35.1837 53.5101 26.5049493837
25.0039 42.9156 52.5779 31.1210240315
28.144 42.9149 53.4579 28.5859941643
26.59 33.9542 54.7396 32.0592263925
23.534 34.4487 54.7113 31.4211711124
28.8282 33.369 52.2101 28.9993167032
27.8897 38.6131 55.8918 28.5098651849
22.8385 38.8206 52.7444 26.7718339557
27.5345 41.0771 51.3748 26.3499894149
25.4112 39.4917 51.0743 26.6430937021
25.1711 38.0054 55.1713 29.2283213474
21.5428 41.3971 53.5856 27.9683737637
22.8082 43.9551 53.6453 29.7329127807
24.4699 40.6695 54.4135 27.5422163978
28.5992 34.9366 50.1653 30.8039172922
26.3053 45.0567 54.1734 36.5225040857
29.5001 38.9942 51.6453 31.0519620828
20.9168 37.86 54.5118 31.2390250409
21.6351 47.0192 53.4326 28.6761185584
23.8899 40.2258 48.821 26.6126307079
22.1592 41.2786 56.4548 32.9614267336
28.3506 35.941 54.3552 31.2962168195
20.1201 34.1443 56.1749 29.1600705651
27.2867 41.4338 55.9293 28.4552384025
21.4098 40.9092 48.3616 30.6890700024
22.7882 48.6307 51.7192 36.252066714
28.7374 48.8045 51.1869 33.6968205765
29.2744 46.7458 56.5619 30.2831668975
22.6285 43.3785 47.8257 32.3247828333
38.3264 13.8726 10.8962 27.9957250343
33.2586 10.6673 12.2496 32.281703616
31.1473 3.48242 6.43512 32.6348768644
36.179 2.31355 6.01595 28.7136783522
38.0829 4.61464 6.38639 26.6096247112
33.3469 5.66286 10.6042 38.8366664066
36.6815 11.8237 9.89202 25.4399322429
38.6064 0.416256 11.8882 28.4861797628
35.053 5.72097 6.72841 29.221876079
36.9584 7.7856 7.90232 30.9895437037
39.124 6.57102 11.5723 29.7933583892
33.0446 7.77764 6.1109 30.317558336
38.3305 13.2321 7.63187 31.6140528215
33.5368 9.99083 7.37657 30.0719271664
36.9486 12.1906 5.49454 32.5041290371
35.452 14.5772 5.5995 31.5435640509
34.509 13.2933 10.2387 26.815510171
32.6906 14.245 4.5248 32.3772282612
30.013 13.3062 6.65933 30.2937995497
30.4823 15.8413 4.88055 26.5703507082
36.2292 6.90201 10.7344 28.0777603792
31.9713 12.8598 8.85085 31.5197235296
33.6026 0.56565 10.4223 29.1037524393
30.7583 0.505108 6.60642 31.8143372815
30.3921 6.66668 6.04113 27.8809790124
33.2031 3.83664 4.66154 29.6055377984
38.4648 0.503046 5.45117 28.4195346639
35.0619 2.26112 8.88562 30.9914373035
32.2562 11.5969 5.53586 32.1763173605
31.6528 10.1583 9.79192 29.0733933847
33.2983 4.12607 8.22741 29.6558141035
31.4516 7.23307 9.30631 28.8531790439
36.8187 3.99579 10.651 30.1792776295
35.9071 4.90478 4.04733 29.584974405
35.5264 15.2536 8.3296 29.0979656285
29.7224 5.10917 8.71447 26.6393711702
31.3543 14.1338 11.3488 26.7273345395
36.0578 10.4068 7.59048 31.3522944247
38.8352 6.92385 5.30101 28.8444131738
31.4509 16.2844 9.88489 32.6666438666
38.1308 0.911716 9.23445 30.8170830947
35.5841 16.0104 11.463 29.7450636331
38.8344 5.24473 9.20584 26.6562874965
29.7665 7.01543 11.5048 30.0705489105
37.2305 16.3806 4.61465 35.4516299458
36.8479 9.74335 11.4501 29.6816510133
34.0395 1.25063 3.82431 30.5921671919
35.5867 0.993164 15.188 27.0850453936
32.4606 0.459675 15.1079 30.2969946529
36.9569 14.3322 15.9326 27.4715924456
30.8335 2.80581 13.6212 33.6608261554
33.1924 10.7012 19.202 29.9170122398
35.0497 4.33953 14.7196 30.9187229003
35.0867 6.78376 13.2511 30.0265447414
37.6215 6.76365 14.0432 30.0003466869
36.9383 0.581481 19.5516 26.7488185128
33.3311 8.02354 20.3764 30.0930870447
35.3549 9.62909 14.303 28.8265131924
39.0198 14.088 18.4 29.3778747411
35.9652 11.7814 18.6564 26.5228820599
37.07 8.98651 20.2442 28.638351284
30.6088 15.4701 17.0601 29.6860422671
31.2339 1.16468 18.7933 28.4057813754
38.2773 11.5952 17.1007 27.0757271598
32.1257 5.39503 19.7181 28.8993831736
36.2272 13.6754 13.3067 26.4195807313
33.9768 0.135819 21.086 28.6486441854
29.9636 5.5052 17.9543 26.3825648123
33.6412 4.97321 17.056 30.4628968785
31.425 3.00806 16.6835 30.7317121295
33.5994 14.6608 20.6143 31.3449973548
33.6867 3.03656 20.9072 28.4070746037
37.9704 4.47163 16.0593 25.5597973934
35.7648 3.98688 18.5429 29.0225684846
31.6246 10.7514 16.8432 30.1677070297
33.1949 7.87172 17.1629 28.0881387649
33.6446 2.04612 12.9807 30.0828925817
35.6858 9.12814 17.1527 28.7358066852
32.4277 8.62935 14.6461 31.602557503
37.4421 6.1343 19.3613 28.459284459
37.7983 7.34494 16.808 26.5481189992
34.6382 13.5643 17.0629 30.9561520841
29.6809 1.83595 20.8685 25.3917401303
30.1134 7.37663 16.1035 31.3097592722
32.3838 13.2491 15.5346 30.1789349063
31.4497 15.7832 14.2588 28.1417331049
37.4829 11.4307 14.1802 28.8139081908
32.0325 12.5234 20.7138 27.4042845475
29.7035 12.8143 18.8519 28.7872481527
36.8087 2.56841 12.8733 27.0042094073
37.2738 1.97211 17.0721 28.4358734637
33.5293 13.2197 13.0431 25.8010900054
33.6088 16.2901 17.6885 28.5915166197
30.6727 0.277497 12.5319 29.0321217568
30.2894 9.76079 12.6784 35.8131250803
36.6918 9.03385 23.204 43.4872258966
30.5485 4.26927 21.8828 25.6384686704
34.5648 5.86317 24.4725 93.2212979817
36.9425 2.62766 21.5074 26.7020043984
36.2516 2.07423 24.303 73.8721899415
31.0572 5.8226 24.4634 78.3622852197
32.1158 12.1739 23.5119 33.0068793963
33.7979 8.2762 23.0989 30.8496535756
35.8527 5.17632 21.7676 31.1190053992
37.0397 4.64127 24.5518 97.1954604402
34.3755 14.8908 24.0468 78.3422603782
30.6623 2.67758 24.651 93.6062536841
33.4438 0.540288 24.11 62.0305141618
33.9781 10.4892 24.4833 121.0413579493
36.1131 12.5991 23.9681 60.1260088101
33.3482 3.41033 23.6604 31.7501654937
31.4216 14.7278 23.82 47.2359730332
30.586 8.38492 21.3779 33.1632809545
38.641 14.2305 24.3954 103.0439976679
35.8626 15.7603 21.8507 32.2620340936
30.2108 14.9759 21.3075 28.15814222
36.9828 11.7587 21.1744 30.2991787866
29.947 8.40422 24.2306 63.5056070304
29.5888 11.202 24.3443 80.6473247927
38.376 14.2916 21.6025 24.8762413878
33.1659 2.85833 36.1781 57.8692348636
30.2187 1.84989 38.0155 33.4280730725
35.5452 13.6694 38.7782 31.3229516467
36.0643 2.63083 36.1506 69.4854017743
35.6145 13.1224 35.6192 110.4977536669
32.6397 15.1455 35.7721 85.3573952919
38.5329 4.22374 35.8533 101.1625317202
30.8746 4.14197 35.5653 100.1834443487
38.5161 14.0566 36.2205 45.6748240455
36.1209 6.17716 36.6028 52.0543133994
33.4744 5.79499 36.7581 34.1970188335
35.8917 3.78412 38.9007 26.6650978068
32.2563 8.13487 35.7176 100.1116005542
38.7255 2.8148 38.4778 30.6977604513
32.0258 13.6256 38.7876 31.5318065088
33.834 10.5249 36.2001 48.5159483239
36.5131 9.08643 36.1195 85.8739972376
32.124 12.6815 36.2348 42.9174089718
39.148 9.80879 36.2828 61.8149679222
37.1673 0.0217626 36.3145 38.2328924037
35.1981 16.205 36.1401 52.2718563257
29.736 9.49304 38.7765 30.7281059369
37.9316 0.0751363 38.8435 27.7772332788
32.69 3.56952 41.0905 29.4149817039
34.4223 6.46357 41.2028 29.274116456
35.5439 3.14207 41.603 29.2595380725
30.6458 16.2824 44.3221 29.9284208764
39.2137 10.4858 44.1397 27.0727228541
32.7995 9.13639 42.9214 28.3949739248
32.8499 11.9192 43.0118 32.3239156519
36.5922 5.17159 43.2796 26.0589105707
30.4195 5.67245 41.1027 27.746319318
34.894 7.99522 44.0831 27.258362337
38.1683 13.8068 39.4563 26.6417822665
30.525 9.57928 47.2992 30.3423744499
37.9922 2.80983 44.8902 30.7620781645
34.2537 12.636 45.4144 28.7290019612
34.4674 1.83352 47.1819 27.8296932088
36.5281 12.0023 42.2424 30.2153228008
39.1523 12.6315 41.9444 28.4014797268
34.0417 12.192 40.4267 29.214381834
