28.7564 7.42414 49.3217 28.6522101973
30.5833 4.07857 51.8277 27.6030610856
35.3146 3.66204 55.9868 35.767874875
34.1559 7.0561 48.9889 32.2444481521
35.0506 1.73428 51.2225 29.0332210929
28.4077 5.77253 51.3794 26.1098741736
28.3012 11.4963 50.3981 28.9816064088
30.5377 8.82683 52.6297 31.9650826106
31.2313 7.97345 48.0842 31.3119296776
32.7161 9.16662 50.6752 39.790313093
32.3784 4.90198 49.4987 32.0271036068
27.0657 4.88683 55.1858 28.5698479003
35.5628 8.43169 55.5878 27.5973933467
36.3139 10.3153 45.3024 31.0913341283
35.6032 7.04412 52.2711 30.6381063912
29.9831 11.4603 52.7123 29.9942617555
30.3993 4.17768 54.4252 28.2185556419
32.8882 2.31512 54.8945 28.0581704495
25.6044 7.84619 51.1859 29.099059094
33.7223 11.676 44.7839 32.8082491293
30.9305 11.1865 49.3152 33.8093496662
26.6389 6.97058 45.0985 26.3414157795
26.7725 9.40144 49.1548 26.7559712447
35.6386 7.93382 46.7221 36.4152611746
27.1496 2.34087 56.1069 29.4837185455
29.8345 1.8073 55.4696 25.9714606385
32.0069 6.68246 55.4095 25.6825668747
32.8735 0.661559 48.8696 30.1142114127
25.7516 5.3022 52.9362 28.7181608866
24.6579 12.0744 46.432 30.419931662
26.7192 0.663155 52.0642 31.0123917831
36.7713 6.08232 49.875 31.220312495
32.4085 12.3803 53.7231 33.2594004413
29.1519 0.218541 53.1356 30.6162479083
31.9575 0.157419 44.7501 32.089596758
28.4742 9.78334 43.8242 28.714014674
31.9942 14.8686 7.56379 30.9554964279
26.4616 13.8377 6.45727 40.5832468943
27.0349 19.4878 3.88297 29.7537053878
26.185 12.9395 13.5052 28.0457674525
27.6109 14.4094 15.8882 27.7621421886
24.8288 18.5254 9.36667 34.1565868674
36.0615 16.2098 8.8768 31.5004883324
25.8635 21.5803 8.89598 27.2071031889
28.2286 22.6137 10.1785 31.6876738666
26.7073 13.2606 9.39313 33.4340679102
34.6661 23.5507 4.31035 32.7984580749
24.8547 21.4676 3.79377 35.3844779152
30.8906 17.2319 5.7535 36.4213169292
28.6068 19.0925 6.02194 33.0548380212
34.7652 20.3387 7.41259 31.9387980531
35.7175 18.6465 5.16821 36.1493467191
25.326 18.0189 15.7065 28.5899324379
33.191 23.561 10.3761 32.8555549237
30.5559 20.8129 5.51793 30.0409219267
36.2224 20.4715 15.6679 30.529640667
35.9941 20.2868 9.81191 30.6055420336
34.4454 22.9113 6.95771 32.8097649188
26.2167 22.7001 5.9605 33.3029484331
29.7588 15.3201 10.5215 29.8430154699
31.459 12.8338 5.55792 32.6130803203
33.8216 12.7419 8.43868 31.2327699866
36.0407 11.9065 11.4064 31.2112775029
31.2978 18.0508 10.6724 29.7631968956
29.3945 14.0362 8.07238 30.6288554633
36.8804 22.3964 13.7151 29.5020072204
27.8111 17.5237 10.962 30.8589356406
27.8938 19.2631 8.74757 33.6078568385
26.5491 16.7329 3.72954 34.3859239578
32.2553 19.1558 7.54611 29.1061201465
33.1941 16.9058 8.99408 30.0623989041
33.12 21.1971 13.7284 32.5258801791
25.344 14.5966 11.3139 30.2436755653
32.9991 20.9533 16.3584 30.9396700586
31.4899 18.2857 16.0076 27.9525920621
31.8351 22.3959 7.77149 29.9652289245
30.339 20.4857 9.70648 28.5622270175
30.4359 20.8158 12.5798 35.2371716689
35.0204 21.8017 11.6939 32.4159932001
27.6539 22.5413 12.8731 34.1935315296
24.9094 21.7968 11.582 30.9627193876
31.4611 15.0098 13.3659 27.8093675747
25.2297 15.6241 14.6292 28.6233433839
33.6795 14.4683 14.8657 29.0509436271
34.7878 17.0809 14.7072 31.1789119567
32.7311 18.5147 13.247 32.709572572
26.7169 20.5206 14.852 27.8927663397
36.0008 13.6926 16.6443 30.7075341292
29.3767 16.5974 14.824 29.6361412684
28.7362 18.6599 13.3486 28.7334822608
28.6527 12.8414 5.08437 28.8034470735
28.723 13.1917 12.4244 30.830267875
32.8655 14.5752 10.8107 34.8588020511
28.9562 23.2732 5.26795 29.7595213176
30.0975 13.1163 15.216 26.8986365872
36.7714 13.5642 9.19741 30.1829710908
25.4468 17.1122 12.2014 28.9635322628
29.0185 19.8264 16.7477 30.2037433851
27.9288 22.8318 24.3408 77.9135389647
31.5228 16.4208 18.2266 27.7435149519
33.3073 19.8828 22.3707 29.6456134608
35.4616 20.9519 19.6818 27.7831858096
30.4931 12.9504 23.8323 38.822612384
29.0182 15.7006 18.4537 26.6725161554
29.2773 23.2857 21.8473 29.7981036417
26.1298 15.4484 20.521 28.3196414103
27.3527 17.8897 17.6938 29.7837524011
26.3443 16.73 23.0001 28.7556697869
36.785 12.1606 24.2093 52.0559417401
29.2291 15.0484 21.509 27.7694622079
31.1441 22.5688 24.1177 74.6799486791
34.316 17.4275 21.2736 28.6655698006
34.7358 15.4242 18.6552 25.7063243551
28.138 22.3845 18.0534 29.5538003701
32.3394 13.6844 17.3837 26.2708347076
26.729 12.7605 21.4984 27.8036790601
33.7759 18.8118 18.8904 24.846733217
33.6089 22.624 21.3091 26.4114802667
33.9334 14.7621 23.5502 30.4363590431
25.9819 14.2412 24.4065 97.9629874406
31.4284 12.848 21.0231 29.9694919765
31.4837 22.5435 19.5263 32.8790949624
28.8433 15.1902 24.3159 84.1812916158
25.0292 23.8477 24.3487 85.3295214804
28.5413 18.6403 23.9552 50.4156063192
33.9609 14.0616 20.9109 27.8150257206
31.116 19.9242 19.0075 27.1699429588
36.4631 15.1298 24.3812 103.766096016
31.0244 17.287 21.0606 27.4570433172
33.4935 12.5809 24.7086 112.1828106544
31.5441 16.3711 23.9768 71.6549856122
26.2522 18.7023 20.2813 30.2702650469
27.5148 13.2403 18.5356 28.222319171
33.6184 23.5187 23.8197 55.2251111465
29.0639 19.2497 21.1794 32.323530062
27.0655 22.339 20.3829 30.1531696463
26.5308 20.4227 24.5742 104.3439816198
31.2549 19.6852 24.3065 98.6072823816
35.7577 20.1598 24.0312 84.8105419146
25.9152 24.667 21.6078 27.4357172546
31.8391 23.4918 16.8138 31.9883543067
25.7223 22.2942 16.7448 32.8474814208
35.7378 17.8811 17.1871 28.360568372
27.0358 17.123 41.7552 32.5112700533
26.6369 15.7558 35.8823 85.5693853159
29.3036 16.2642 35.8384 81.0170284391
29.7352 16.0902 38.7162 31.6091329481
30.3657 18.6262 38.9135 41.0481586832
30.947 14.0198 36.1054 60.3332365455
33.7217 14.9006 35.8602 87.8166042608
35.0233 12.737 36.4891 36.0657381276
27.2919 12.3334 42.8031 29.1944774704
25.9492 18.5285 35.94 59.141121376
27.8531 20.6137 35.7428 73.8347171835
29.9526 18.964 36.1065 45.4686060089
32.7681 19.0511 35.602 103.8387481496
32.9628 18.5851 38.3265 28.5864498592
32.4066 21.7948 36.1677 43.0962527487
35.6011 20.9003 36.602 33.8070167121
31.5392 14.016 39.296 28.3688056053
29.8538 22.7203 35.9858 60.4881719296
34.8333 23.5881 35.3313 116.8064201118
25.7314 19.5583 41.8648 28.3685651735
32.6952 22.9773 42.4486 33.9270624575
36.5352 18.4106 38.5857 25.6947985025
28.4183 14.3245 40.994 30.6625798743
24.8999 23.2814 38.8594 30.7231183968
35.9109 15.5552 40.6031 27.0088806067
26.2021 23.1361 35.7685 78.2222295469
33.1394 15.0201 41.8641 30.0032302542
26.3071 15.7362 38.7986 30.7973328136
24.775 16.3038 43.04 30.5413516591
25.352 18.1101 38.5677 29.3032748311
33.753 15.7892 38.8568 29.7242053288
35.2277 17.4554 36.1026 55.3678027458
29.6896 22.5392 38.747 31.9511478447
34.5605 20.2722 39.938 32.3665978645
32.5366 22.286 39.5513 31.445291173
35.5819 18.2155 41.8829 26.953088434
26.7556 21.0023 38.6427 32.469245363
27.6089 22.2042 41.2347 29.0807130958
36.7388 21.8489 38.8472 29.4885071102
25.3069 23.5689 42.4223 30.0858571307
34.1783 24.2146 38.1611 27.0799040902
36.7256 24.5716 39.3032 31.1837246951
29.1477 20.6443 43.2727 34.2951517218
30.519 14.5109 43.1056 28.5383563242
34.606 12.5929 42.1927 28.5071754258
28.4435 15.7249 46.2074 27.3096797407
25.0532 24.21 54.077 35.0737952366
35.1204 13.9372 46.1475 31.1292231133
31.1016 15.2239 46.5621 27.3948167973
25.1332 16.7571 54.2234 29.0012168096
33.8425 17.1521 49.6028 32.7121182251
35.5788 19.2797 46.6506 28.9533911027
26.7719 20.4349 44.6958 31.1178043886
27.3569 18.4459 46.9491 30.803815845
31.4921 18.6118 44.2554 37.0763564492
31.1985 12.8471 45.1023 28.6567795938
33.5101 21.1978 47.1656 29.6364536593
25.7969 16.4432 49.3538 30.0139479436
34.7568 16.6726 45.8441 26.9458157882
34.3091 19.6197 53.643 26.8953479147
26.0596 19.3555 53.1698 30.6147155636
33.2553 23.5676 50.5486 25.5599065097
25.6478 22.9115 45.2495 32.991951284
33.4127 16.4915 52.4066 32.6423723181
28.3361 19.7453 54.3283 26.6239562358
29.2546 22.14 48.0354 30.2920345515
30.8109 20.8646 46.2997 29.5116494973
34.0448 23.8432 47.823 25.5914111256
32.4699 24.1952 45.5213 26.809610771
33.7648 17.0338 43.5103 29.6856575358
26.2003 12.237 52.1048 30.8274629161
27.6865 14.2199 48.8507 32.7160558694
35.0596 23.1203 44.0136 30.2922991351
30.3457 22.9191 44.035 29.8211782266
34.4365 14.4088 48.6782 34.4318042633
25.7191 19.9138 48.8564 28.355946186
29.8207 17.6466 48.6335 28.335981343
30.5843 24.2364 50.3188 29.6244147037
32.3204 17.9313 46.9387 27.1125164328
29.8371 15.5993 50.5742 33.8528687413
32.8222 20.9076 50.0499 29.7582923676
33.607 21.9684 54.9674 30.6976976192
27.0518 24.0229 47.7182 28.7512883882
30.0157 19.9855 50.2228 27.8637969468
36.1192 20.3582 43.954 34.9088525846
26.0777 22.2439 49.7258 32.3316764182
30.8843 22.4578 52.7843 26.6757092552
31.735 16.5426 56.2044 30.5314851187
27.0795 14.2834 54.3153 27.4022933445
31.6074 13.8885 48.8361 32.4151306584
29.2392 16.8774 43.905 31.8854913811
31.481 19.4518 52.7203 27.9698645428
36.4574 13.2221 50.4374 34.6216725183
28.2203 16.1701 52.5947 30.0047934366
36.3624 23.2367 50.0484 30.6940717597
36.0743 21.7815 52.3188 27.1994070211
34.3357 17.647 55.8375 33.1590093857
35.5696 15.1097 55.1388 34.0177541915
34.4692 13.7959 52.5469 31.3062695645
28.1161 21.6845 51.7319 28.7221719554
30.2205 17.5393 54.1505 29.9895125916
27.2427 18.3534 50.6952 26.8103584299
26.6167 13.833 44.9821 33.3748623984
31.0105 20.9728 55.8576 31.7082087618
35.4693 19.3368 50.5999 28.5076452525
24.7782 13.0372 49.4906 29.3241214341
27.655 22.8046 54.2984 30.4965986092
28.8088 14.9439 56.2867 28.479199262
31.4898 13.7767 55.8931 32.6266375055
30.0228 23.583 55.8212 28.0254176403
36.1815 17.1688 52.2832 26.5794037749
34.4774 24.075 53.0415 30.2898157843
36.6141 24.0877 46.4205 27.8174780165
35.565 25.2319 14.9523 36.3774834007
31.6254 31.2598 15.0655 29.5151805358
27.9762 26.5468 5.2875 30.0817396199
33.9043 31.2839 12.9862 27.2451645165
25.6929 25.3688 6.71052 30.299233756
36.8525 31.5557 6.40191 30.5284571694
29.8826 33.07 13.6428 33.5465116999
32.3333 35.6066 9.56298 29.5939972491
25.5023 29.554 6.11772 29.3276478223
35.1532 29.2785 10.7527 28.9796055453
28.0238 28.8269 6.6895 29.2548232159
31.3498 31.6016 7.18426 32.4578230823
32.6798 28.0098 9.90863 29.1905701103
25.9921 32.9301 15.6374 29.6465823961
33.3575 28.6903 14.1448 30.5504885332
36.0281 26.7725 3.99786 28.4674146038
27.3792 36.4253 13.3747 28.4660804071
25.5852 32.2197 6.79959 28.1490904325
28.8326 32.7728 6.77878 28.909929727
33.3565 26.0317 3.49612 27.8209387765
34.5199 33.9302 5.94773 26.7639344882
26.5374 25.6015 9.34703 31.3140067836
25.7727 28.1725 10.2456 29.6375845276
34.9782 25.0877 8.87394 29.4710694726
33.5949 27.3971 7.5598 31.9108053349
28.9171 30.5233 4.63803 33.9320357705
32.3824 25.7185 11.6119 32.9792652227
29.7212 27.4837 11.0138 31.9024369663
32.4543 35.4662 4.72892 28.8574826471
28.1724 33.4412 3.7476 27.6042981871
28.5431 29.5768 9.18648 30.2732080069
27.0512 31.4737 13.442 29.5451202248
31.0437 30.3524 9.63803 32.491836888
35.5007 34.5291 15.4951 27.565852044
31.9553 32.4619 11.3099 31.2860000863
28.846 35.5204 6.83537 29.7384794479
31.2856 35.8366 15.0166 28.0788709203
27.5128 33.8191 11.8322 30.5153223842
36.6063 31.6144 14.9624 29.7553360643
36.893 25.4394 10.5368 31.4218514586
29.0527 24.6003 16.6103 33.3138383921
27.1849 32.466 9.14705 32.7022575016
33.4449 33.2728 8.29852 29.0234396964
25.1209 28.4626 14.5904 27.691862686
30.2388 24.9119 6.88684 30.2825969939
35.6402 29.1269 6.59627 33.2556422569
35.1898 26.8484 12.4741 29.6601366879
31.4802 26.0022 14.6149 32.6725636401
34.3835 34.3594 11.5304 28.1917083707
31.7865 29.8891 4.95482 33.2866329784
31.7032 26.8801 5.46341 33.6627575775
33.0624 34.0859 14.0317 28.2191054965
29.2849 25.1353 9.34221 32.2140994148
30.0155 35.8176 11.047 31.4645508822
26.9589 28.8475 12.84 28.4840825013
29.2229 27.312 13.777 28.3924299982
29.5462 29.2979 16.0776 30.5340009222
25.0104 25.5987 14.3647 32.3246960016
25.2674 35.4786 9.8251 30.8475888195
35.3546 32.0133 10.0502 27.7327709579
27.7173 25.1079 14.2122 32.4811920625
36.3526 36.4671 12.7645 28.6181969299
33.5042 32.1071 3.98277 32.8799776137
34.9314 29.5211 16.2738 29.8609974264
25.8509 34.295 4.55049 29.3818729922
31.4197 36.6375 6.99596 29.000576824
28.0205 36.7537 9.25647 32.4536048141
27.3045 35.4384 16.0496 28.8147065237
30.3846 27.1401 24.2257 80.8892972425
31.1026 32.0663 20.4306 29.2345715347
30.9948 27.9442 20.0159 30.2846877631
32.3257 35.8152 18.1706 27.9733868852
34.9103 24.8865 19.9166 30.6803236943
32.186 27.8349 16.7645 26.2633443619
27.109 31.0054 17.3517 32.3236050976
31.6749 35.5609 20.686 31.9595249896
26.303 28.3091 17.0459 30.7371688611
34.6967 28.3776 21.4494 28.0146262699
33.9497 31.3175 20.9835 29.5158187089
34.3399 36.6122 21.7602 31.352512706
25.7648 35.1785 19.1121 30.6489140996
32.0625 33.3822 24.4685 98.5645413263
29.9591 31.9692 17.7311 31.0146292763
29.2105 26.015 21.9935 29.0693111379
33.4968 29.4889 18.7267 27.2587585985
26.9966 29.1167 21.4929 30.2844518577
35.5683 33.9295 20.7864 29.9850581869
36.8765 33.9709 23.5891 53.1966945501
25.1557 32.4257 18.9045 28.2862481085
27.0991 26.0047 23.9046 48.2913745305
34.6102 34.1333 18.0358 30.7150564454
32.8529 26.4975 21.3574 30.0291389489
26.2553 28.6005 24.3743 80.360266527
26.6875 32.126 21.8956 28.137237427
26.6603 26.8704 19.9619 30.164541405
24.9763 32.37 24.6996 98.97840645
27.8584 31.3064 24.3176 62.8923305993
30.376 29.7972 24.2342 69.9133322881
29.653 29.8811 21.6925 28.9273283989
33.0332 26.3454 24.1467 73.5600494858
34.6996 28.3769 24.1508 76.5303021234
25.0511 35.4123 24.1452 56.6131035884
29.4534 33.7314 24.0938 55.7282448522
29.038 33.6088 21.2202 29.7803460869
33.1018 31.0032 23.9277 62.9902404522
34.3972 35.1448 24.2152 82.9237877838
28.9288 27.0818 18.2455 31.7996748925
27.524 36.3857 20.8158 33.7338118066
36.5581 30.6754 19.8081 35.0723214817
28.0553 36.1453 24.1339 77.1415111832
33.0328 32.032 17.6347 28.6610995785
33.5582 25.4113 17.2478 32.7713380875
29.6454 34.8558 17.4319 33.6232306408
35.7223 35.2557 40.4047 29.1223405617
35.1917 26.7937 41.5327 29.9756272642
27.8527 28.464 38.8114 25.2707735448
27.6082 28.9756 36.157 55.2629403269
32.1874 34.5667 38.8118 28.5280228004
32.5038 28.6028 35.6777 84.6543988155
27.8776 33.5609 35.4871 91.9095772468
27.0585 31.1329 38.9467 28.1577641022
25.9353 31.5895 36.1967 46.4187339496
29.8962 29.7565 42.1218 31.5404047809
30.1294 30.1075 35.7068 74.5286041924
30.4971 32.8073 35.624 83.7550317639
30.8498 29.2029 38.2255 30.0458624692
34.2493 28.6931 38.7604 27.6257868709
36.6409 30.9662 38.682 32.2968599117
35.1247 29.0626 36.1496 54.1079555779
29.7002 25.4885 38.6493 28.7913272975
27.2978 36.377 35.6287 88.6168227755
29.7665 32.7733 38.6129 29.6800347627
31.5317 27.0737 42.3399 30.4419868457
32.6363 34.7214 36.0451 54.4757840182
28.0799 34.574 39.8776 30.9097913456
34.8935 33.5581 38.7018 30.6504261494
35.297 34.0406 35.9287 71.6726730148
27.2441 27.8344 41.4048 29.0243570368
32.4744 25.792 35.6871 73.2757339231
29.7503 25.489 35.8778 70.3144618672
26.8936 30.6768 42.079 30.3298105827
36.0664 33.0387 42.179 29.5536194954
32.9126 25.2932 41.103 26.1746464941
25.213 36.3048 39.831 28.7075131556
32.5032 26.2541 38.6104 25.5759297669
36.5887 27.3091 38.9349 26.6028648181
26.6934 26.112 35.9117 67.1082813933
31.8487 34.7729 42.0174 31.6674650295
31.2961 30.9722 40.1178 30.1050628911
35.4348 29.2296 42.947 29.0878662153
29.2279 34.7753 42.4917 30.6660212944
34.1344 30.9981 40.4996 28.2379925061
36.3724 31.5682 35.6683 96.4738835602
25.3134 36.7462 42.4829 30.7013175638
26.27 25.9832 38.4605 26.3437181741
25.295 33.1868 40.4583 29.8267859039
24.5814 26.4895 42.6943 27.6539778889
33.2668 32.5275 43.0625 30.296284452
28.1084 24.9236 40.8648 28.4033576185
29.3941 25.8021 43.2799 31.1307907541
28.2915 32.4972 44.0004 31.5069777644
36.3878 31.3382 51.7973 31.4554110121
36.0554 34.9599 49.3385 29.578615412
24.5848 25.1235 48.3301 30.297212395
25.1818 29.143 46.2503 31.5197454973
33.2085 27.1096 45.6263 28.0393363061
28.4321 34.1872 46.3609 31.8209024812
28.1354 30.5477 49.0641 33.5793443289
29.0777 28.9463 47.1022 31.2717635512
31.2704 33.9329 46.4491 30.2653408548
36.6889 28.1223 50.7636 34.1371446806
32.917 29.0114 43.7892 27.4979222418
29.4137 35.3704 50.8819 32.5252374195
32.6267 31.8089 45.6615 26.9099965068
25.6454 26.5056 45.9332 31.0706300303
33.3772 28.7678 55.3118 30.9420380377
30.2218 24.7079 47.0209 27.6548006183
36.5622 25.1629 54.7052 29.7678035699
30.1378 30.6929 44.913 31.5868275716
32.3869 35.8648 44.9713 33.2616066384
24.527 35.8801 49.8006 28.919845092
35.6026 28.9295 47.9428 31.7448164116
26.4229 29.006 50.5183 28.5999697038
28.2769 26.5618 50.5114 36.2753419889
27.2509 28.3168 53.1401 31.1397573528
30.673 26.9809 48.8644 25.2366516761
32.5283 27.6777 51.3295 30.6751214458
33.8329 26.638 48.8268 30.5314399416
35.2764 34.7936 44.8382 34.2220840686
36.3979 29.1181 55.473 26.2514239838
27.1329 33.1589 48.4712 29.5732247102
32.412 29.036 47.3903 27.5047780133
30.7365 29.9065 50.0701 29.3458658028
33.0874 31.4172 52.8664 29.8864378171
25.0082 27.1276 54.8001 30.080663706
34.5709 31.6149 47.6991 29.5019548994
35.3001 31.6125 54.8938 27.3107861622
27.3747 36.2681 54.1659 36.8827753448
26.8088 34.5809 50.8111 30.965830405
28.3613 26.5767 45.7246 32.1169404607
29.7605 35.6111 56.65 27.5369172032
32.8106 31.8397 49.9374 30.1234002851
28.9966 25.4715 52.9458 28.4530213876
31.4935 34.2255 49.3585 32.5072368045
34.6579 33.6872 51.9188 27.8887128595
26.1478 29.765 56.0847 32.0666594473
27.8057 26.3722 55.641 33.8945868155
36.3204 33.422 47.1617 27.9465087396
26.0779 32.7985 52.6547 31.6234203132
28.3036 32.1433 54.2148 31.0792776593
30.9445 27.7596 53.6378 30.1144778342
25.0786 32.29 44.4472 31.5986564275
34.549 29.0445 52.6232 27.6325271028
29.8311 34.42 53.5452 30.1091484961
35.8122 27.3923 45.6084 30.0827926544
29.8532 30.0053 52.9391 34.1526159511
32.3596 34.0414 55.0428 32.5213118754
31.8845 24.9251 54.2839 27.1019551748
33.3767 36.0859 49.514 30.8165915098
33.8504 35.9948 53.2706 30.3217158867
24.8009 29.2946 43.6426 27.8653147027
24.8627 33.9846 54.963 27.6536106042
36.626 36.4993 54.3199 27.0575991316
35.7972 46.6715 3.96914 32.3560695697
32.9341 46.0707 15.65 34.1570241297
28.6436 40.1097 4.09942 31.166643887
28.9451 47.8769 7.59134 31.4046763265
33.141 39.7297 4.26054 28.5243503185
27.0359 48.6205 12.2183 33.0844971563
30.166 37.5976 12.9216 29.2949512295
33.0928 47.4887 6.42994 26.7721398722
31.7929 39.3467 6.81583 32.9897883063
26.9923 42.1265 13.9642 26.6239272844
29.3818 41.1411 6.46497 29.3834209789
35.067 41.5719 4.73503 29.37353036
28.4239 45.9537 15.6832 33.9344680904
25.8602 45.924 5.42044 29.3694556398
36.7715 37.3891 4.04169 29.4520359562
32.7519 48.287 11.198 33.5515120201
29.9789 43.793 5.06132 30.8108880543
32.9368 43.9956 7.84053 33.1677769258
28.5175 46.1844 5.43274 29.6961376932
32.7272 45.1149 4.75787 29.9278352
34.6118 36.6566 7.49066 27.0913408736
27.2996 39.5589 13.207 26.8877486495
27.8707 37.4169 4.85804 33.3585247785
35.8757 38.7474 6.33511 28.9218512046
33.6878 40.0331 11.2 32.4349946718
29.4422 40.5584 11.4024 28.5562877751
25.6886 46.6526 13.9325 34.7820601218
33.1965 38.1845 15.0085 28.893616093
27.5306 38.7484 15.9827 29.3959230881
35.9974 44.3914 8.52265 32.1516529249
34.8333 45.8345 10.8521 31.5266133363
28.5036 39.5182 8.97069 35.0756029464
27.2039 42.6216 7.37024 32.6489602322
24.4236 43.4991 5.07095 29.3827317881
31.3326 42.1949 10.3117 29.9831770154
31.8593 44.9307 10.9138 27.4797955487
33.4001 40.9672 8.49671 30.0744928366
34.6025 40.6903 15.5641 28.8787930688
36.1366 37.3837 15.3396 28.1798617173
26.9973 47.0934 9.35523 34.4124561852
30.075 42.2474 14.4725 30.5058977792
29.6961 44.0076 8.45174 28.2900613728
33.722 42.6066 13.6138 33.0837598824
31.2249 46.7142 8.51149 28.6056151569
35.8072 41.5522 7.51468 29.2792517984
30.3248 38.8365 16.3237 30.700762501
33.4935 48.7248 3.73563 24.8029846311
25.4202 44.9554 7.97516 32.4557637655
28.5651 45.284 10.6599 29.2435151037
27.5855 43.2912 16.5583 26.1680327034
31.8073 39.903 13.2305 26.2013059056
35.1391 45.3732 13.636 28.9814449224
31.2432 44.6596 13.6666 29.9740179822
29.3273 47.0467 13.1294 30.4616610759
24.849 36.7655 12.2672 31.0285154215
27.0238 43.0929 11.5657 31.8947376615
34.6299 37.4134 10.3853 31.9875795911
35.9977 46.7449 6.78854 32.133578674
26.1635 41.1065 9.54068 31.5355059031
25.0246 39.5548 11.8703 29.8811651573
36.4101 41.2538 12.2538 30.7723057484
25.2277 36.9471 5.15586 32.0622926902
36.024 48.3371 10.6825 28.8275516892
27.4337 39.2537 19.83 32.266198308
27.8268 45.455 20.141 28.4590835073
36.0318 38.4788 18.5358 30.4643823604
31.5176 39.7968 19.609 28.3997723664
31.3195 48.1156 21.7093 26.0897499332
24.8845 42.9221 24.5166 99.6555392138
33.3108 38.3661 17.8329 26.4767564428
29.0789 43.3028 18.9612 30.3080336957
27.4562 43.6278 22.3683 28.3637746648
31.955 47.2047 19.3808 26.8630092282
28.6426 47.8831 20.9341 26.7796317075
33.1908 41.6234 17.7388 30.8291220777
34.2004 40.9517 21.2457 30.0709553031
30.1311 37.7831 21.1145 30.4732534568
35.6361 43.1506 21.6896 30.2491681
26.3042 45.6255 24.4863 92.2851957236
24.8881 44.0058 17.0003 29.6393566733
32.6419 45.3683 22.5748 28.7933461675
33.7842 44.4009 17.8223 30.7940568945
36.0781 38.803 21.1245 27.9100225432
26.7164 47.402 17.8617 30.097363438
28.856 41.1459 21.251 26.4606407975
30.0609 38.2771 24.1399 76.5975050519
24.7956 48.4571 21.4075 28.8928543194
34.1064 48.82 18.6748 29.0022040793
32.6689 37.9036 24.0623 68.3457809289
34.4324 39.9642 24.079 60.3154548928
28.6544 40.7874 24.108 74.3868028955
25.9647 40.5161 24.2357 68.0329834117
32.0799 48.3897 24.5542 88.141976486
30.1391 43.4205 23.7114 43.6788349077
31.4085 42.1325 21.2645 26.5445381869
32.9722 42.5731 24.3082 89.0120421469
29.5383 47.6159 18.0473 27.3909005596
30.3076 46.3039 24.5587 99.1076774916
28.2749 47.7322 23.7107 38.5000465987
34.5957 47.1661 23.9188 41.5419747842
35.3544 47.5621 20.9923 28.8264282952
35.2174 44.5 24.508 93.3203736529
35.8177 45.0787 19.4365 27.7409850419
26.3756 40.6224 17.5605 29.0629059177
31.8891 44.4248 19.8799 28.9348720167
24.8423 42.7644 21.2615 32.0563214177
25.1303 40.0668 21.4443 31.9125499294
24.911 45.864 20.4222 29.7642915451
24.8997 37.1047 16.7946 32.400210808
30.3685 41.4035 17.0287 28.3794289543
28.2174 41.3919 35.4609 93.741622898
27.0587 37.6055 38.2123 28.1607271069
25.4694 40.4977 35.8618 72.3518639813
29.4003 38.7056 36.1047 45.3588496907
33.7846 39.1051 36.4464 46.9879418234
33.5944 48.7453 39.0932 29.3048045723
35.8683 43.2187 40.1824 31.3430678355
28.154 43.9008 38.3603 29.9728295175
33.1732 42.1156 36.6634 43.1580972227
30.6528 43.1558 35.5935 101.2666729283
32.1098 46.0094 36.3082 68.59576099
27.9272 44.5365 35.7318 79.8853628431
32.7682 44.431 41.128 30.3514680429
33.5886 36.9845 40.6757 28.8466167887
25.1043 45.2693 35.8853 74.8297481794
25.9938 47.7882 36.0907 68.7409998628
26.8376 47.0419 41.8474 28.3027528594
28.6799 46.6843 39.4957 30.7837039162
30.3515 43.5973 42.7494 33.8870137178
31.2617 41.5236 40.6901 26.3121191712
35.329 43.8777 36.0559 92.7277911726
36.1691 47.9331 38.9041 29.1014645213
27.9719 40.7503 38.3156 28.8864803149
26.1881 40.4194 41.4884 26.4364254739
32.0391 48.4667 41.6004 29.9970176593
28.673 39.6197 41.2377 27.9525711229
31.2913 40.0522 38.1823 27.9336090076
30.8067 43.4139 38.3602 27.1570497852
29.1893 37.0771 40.0397 28.6553083397
34.6994 39.2183 39.3121 29.631722981
25.4441 43.2844 41.5994 27.5399059232
27.6339 44.4031 43.1831 32.9146921952
24.6945 47.8329 39.0709 31.9996785783
31.5471 46.247 39.2816 31.1824002428
33.9102 41.4274 41.2542 27.4140636615
28.4984 47.2165 36.8073 35.8346869131
36.2034 47.9169 41.8147 29.660973287
25.0424 40.2565 38.9846 27.4587808719
25.2456 44.4409 39.0813 28.7990610221
33.6237 46.4696 42.8074 30.9374160494
36.1371 48.5079 35.9734 82.4071492118
31.6869 37.2692 38.65 27.5879646541
33.2187 48.5689 36.094 68.2180154172
31.881 37.5729 35.5531 119.462282517
36.7388 38.7026 36.027 89.6690731408
28.0881 37.2639 43.1131 30.0345735242
31.1504 40.0095 43.114 32.0555896553
33.8994 38.7365 43.0968 34.2195306447
36.5605 48.572 49.22 27.0657189611
33.1773 45.1936 46.8278 31.820151044
34.0346 37.3857 56.1212 31.1256603155
26.0 44.5319 46.8034 28.9688998896
29.9246 44.377 47.3157 33.6757741376
29.9765 40.3799 45.7171 30.4395755931
26.5961 44.3854 50.5107 31.3140823248
34.4677 47.7118 47.9617 27.8730041486
32.3487 41.3453 46.5368 32.4788143911
26.2668 41.679 56.503 35.2889166935
25.0945 39.336 45.7692 28.6274876805
25.7152 39.9138 51.0592 36.0500161088
30.9255 43.7789 49.9958 32.5518525645
35.8772 46.6885 51.3788 28.4096495305
33.3416 42.9146 49.1288 34.4415946071
25.3201 46.8941 51.8216 28.6063498028
34.827 48.3084 45.3628 27.7837140286
35.6983 43.9048 53.3941 32.4195901275
28.6546 47.8034 56.2222 29.2313146483
32.604 42.2767 55.2088 29.6533466138
29.7049 38.327 47.5222 33.0280514872
28.4847 39.8869 49.8408 38.8545294628
24.6697 36.9843 54.2724 27.6845255366
33.9637 39.3712 47.1938 31.7137112323
31.5314 45.842 44.8217 29.3399678491
27.3333 45.3983 53.2936 29.4295515572
26.7384 47.8895 44.4669 28.0272073243
28.8649 42.1691 51.0771 30.8348187861
34.5162 40.2018 50.0931 32.152156714
31.1095 40.638 52.7111 31.0586441804
34.0939 41.4691 52.8777 31.9423948142
33.0298 38.1402 51.6731 31.4979046285
27.8541 36.8472 46.0129 31.0415631124
25.7831 47.5115 47.3342 26.9289790469
31.2082 46.0391 51.5532 36.4873708426
29.7612 46.2998 54.1859 25.2804016603
35.4664 45.0119 49.2405 32.0446676639
36.0674 44.7581 45.6234 30.6556320877
30.1847 37.3629 53.9467 31.1685641559
32.2763 37.3247 47.2075 29.4888316088
27.3375 40.2143 44.3515 31.0952053878
35.9991 42.4457 43.8246 31.4896535675
25.4721 37.2179 47.2148 32.1943465782
28.0039 46.2841 48.6221 36.6909881814
30.1995 37.9801 51.0807 30.8298971554
29.4789 47.5444 45.7147 32.4143386387
28.8508 41.8363 53.9385 32.3584491218
30.1727 43.6821 55.5332 29.7523704724
30.8948 39.6277 55.6151 29.375263434
36.405 48.7842 55.0773 31.8861136734
27.9562 43.0485 45.6227 32.7078438664
36.1771 39.6965 54.1637 30.3291806135
25.8754 47.2171 55.1053 28.1823507637
33.7376 45.8774 52.8095 29.7967145505
32.3755 46.6123 55.1768 29.1580333691
32.7976 42.4994 43.9194 29.0465860938
26.0078 43.0749 54.0627 26.8466459277
24.7179 43.0373 48.5228 30.1873703034
35.7538 39.5997 44.9382 31.2914217496
31.7167 48.8245 51.6436 30.4802804599
34.7501 43.8195 56.199 29.9813192083
40.5685 4.57975 6.30762 29.177665824
46.0119 8.69169 3.87464 28.3707493134
46.7176 7.31306 6.05377 29.8518292324
43.1956 0.78862 6.48999 33.2901171043
37.2191 3.99417 7.95374 32.817307479
42.0588 2.6581 4.54916 29.0757073177
45.4616 1.00793 8.20571 28.7234776484
37.8442 6.44566 11.9519 28.3650831453
41.1204 4.82417 8.90846 25.4189394257
41.2731 12.2151 5.30653 28.6312907006
38.6505 10.5774 14.0676 33.1378154216
40.1308 2.69667 10.1739 27.960553494
39.0036 2.95233 15.1436 28.0406703329
43.7645 4.69284 9.13342 27.3483721079
39.2478 8.27985 7.46879 32.084511984
45.9812 11.5939 11.3963 29.0041292297
37.9694 6.36601 6.22495 33.8288086773
48.1983 10.3949 16.5973 30.7823286749
47.721 10.1567 13.6034 31.9099964922
39.2234 1.8975 7.4659 26.5998257161
42.6446 0.311616 16.5811 36.323848478
44.8828 5.25398 6.4283 27.8385812713
37.2616 8.27404 14.983 31.2073376662
46.6342 3.59733 7.58307 30.1296610126
44.6992 10.5265 14.126 31.792187882
44.1374 10.473 4.36222 29.7355420214
37.7254 1.26876 12.2813 27.0439886288
39.7661 9.93099 11.4527 29.3695442793
42.9771 10.8908 7.35548 31.3878255686
39.9493 7.00334 10.1168 29.1839859601
44.3151 7.74234 9.34662 26.8790027758
42.382 6.24314 11.6355 26.6673115526
37.6153 3.84225 11.0276 28.5887742808
47.0743 4.11558 10.416 27.4258925707
44.4526 0.247711 10.8179 28.7182441006
48.2748 5.86852 15.2841 29.8906089937
42.2592 7.97343 7.43631 29.3207679411
43.6012 10.4781 10.3247 28.4334058094
48.809 10.5904 5.90184 28.3631075189
46.0247 2.95901 14.9835 28.5642497369
39.5167 1.13581 4.61245 35.3278041214
48.2603 10.546 9.60664 29.1187809212
40.4994 3.99194 12.6668 26.7730706531
41.1983 9.20591 4.37968 27.1214240181
47.5729 1.42275 11.973 28.1064503038
46.4416 9.06697 8.40576 27.6592984518
44.0378 4.33533 13.5321 27.4303630065
44.5418 2.97105 10.9714 28.9324800511
41.2878 10.071 15.148 29.971172831
39.0521 6.16294 14.275 28.7992347334
42.5136 6.46525 5.09217 30.4890343972
42.0881 2.88364 14.9586 28.4229243589
45.9267 6.21829 11.3779 29.5306098222
44.2983 7.19253 14.0824 27.9418536596
48.1728 7.34968 12.5531 31.1632680922
42.5262 9.14587 12.4632 26.9056392451
45.0628 0.256634 15.1336 32.1401875131
41.6416 7.11853 15.1478 27.7929538322
40.3893 0.827135 13.2144 28.7809809806
45.851 11.0329 6.6351 28.8860794795
37.9922 10.7693 7.72033 31.4318660411
45.1972 3.24643 4.33637 29.7052591187
48.186 3.0472 4.76542 33.8856629838
48.7578 5.68635 6.33197 27.4311506591
37.3948 9.852 10.4212 28.9571077586
48.7137 2.56144 14.8761 26.8697298604
49.3559 4.2405 12.6168 30.689581215
41.8038 5.01713 16.9245 27.1804423757
45.8915 7.15837 16.4093 28.4184179624
39.7389 6.48162 3.74737 28.5732639345
39.3557 2.4322 21.0456 27.1741398601
49.3301 6.89431 23.7272 54.54492608
48.5274 3.70255 20.6773 27.49608137
42.0092 3.13887 21.6204 26.9102639039
47.7837 4.36662 18.0857 27.3080182869
38.699 8.11081 21.1289 27.5488546967
38.4951 7.60163 23.7981 35.1808399611
42.9494 10.8785 17.2307 30.3448581522
42.9342 1.83357 19.2623 31.5742832299
38.9105 4.66002 24.5632 88.682008573
44.4057 5.36289 17.7548 31.3547760791
41.9985 10.5614 19.9862 28.404475789
48.3218 11.3258 23.5914 42.2609470143
40.139 5.7809 19.5341 29.7627013139
47.6442 0.0371944 23.8746 40.5108917367
37.8093 8.60271 17.6381 31.0728353185
40.6653 8.25228 17.9116 33.9435920402
45.5828 2.72938 17.7522 27.237284655
44.9085 0.410634 24.2721 80.8626422133
45.6664 9.81619 16.977 30.1329159261
47.8707 4.65901 24.3703 97.3026518076
46.1414 8.6328 21.2357 30.3457979681
45.625 11.4374 19.5453 28.9878727151
42.2442 1.61668 24.1972 55.2606354734
41.4969 5.65505 24.3237 66.1677350397
43.7084 3.94056 24.375 78.2775022579
45.6224 6.23648 23.9563 54.4426232374
44.9018 5.42436 20.686 29.7740760296
46.1325 3.42971 22.1311 28.2913822041
42.2355 5.96571 21.564 27.7706891804
41.1588 8.67785 24.352 85.5989112619
43.2522 8.57091 21.5309 29.7149040467
37.2954 5.25887 20.8657 26.4160316982
47.6771 7.15208 19.369 27.6050843912
44.0019 12.3639 24.0658 68.2036114449
44.0173 9.42583 23.9931 63.7980448128
47.0763 0.714118 19.1059 28.390277515
39.4564 11.3312 24.2444 64.1452935004
40.1184 3.0951 18.023 30.4207206727
39.0832 2.00685 23.966 46.6474300783
39.8518 10.7185 21.4109 26.9243091577
47.2039 8.80112 24.1465 86.5272310384
45.0281 0.830655 21.0274 27.9084754487
48.2277 10.9251 20.6003 30.4319852266
37.5883 10.6992 19.3803 28.1059612733
37.0186 2.98361 18.7102 27.5707807456
40.2412 2.15224 35.6775 91.1020286064
44.5965 11.7795 40.6414 29.0544743561
37.8828 1.17354 38.8263 28.8573412519
43.7352 1.10418 36.3618 33.1823547972
37.2674 2.00007 36.1213 57.4111868424
47.3107 3.683 35.803 77.6832573727
40.0843 0.919514 41.9805 27.4757067266
37.7217 6.89249 35.7897 80.1813604046
41.7267 9.74318 40.651 28.5229159932
40.3178 8.15918 35.8577 91.6748014158
43.5183 2.1662 39.0086 28.9684741164
43.0462 8.36313 38.5264 27.8847192082
42.945 3.55722 35.5153 105.6589872559
46.3293 0.686259 35.7843 87.1888798185
46.6542 4.58409 40.2551 33.2742071924
39.3298 11.3807 41.077 28.1604648717
45.991 8.69066 40.6671 27.8114924051
42.2518 10.1139 36.187 43.3896059806
37.9544 10.0946 36.359 49.0737253418
37.9274 6.9221 38.9714 30.7327288553
44.9697 9.81679 35.8008 91.0927114143
41.1713 6.33108 37.9493 28.0571174824
45.3751 5.78471 35.7083 95.7511198129
38.2148 2.98206 41.9243 31.0755854038
37.5884 4.30976 39.3043 28.1750675468
40.2621 7.50269 40.9567 29.9672556307
48.0487 10.0041 37.7602 30.7383655742
45.6712 0.504582 42.6712 33.2253489686
46.0483 1.52972 40.1609 33.7953185449
41.9896 4.96332 41.1709 31.4818118912
41.0434 2.73886 40.0072 25.6191156825
39.8432 3.86074 37.8789 27.2941677711
49.3709 8.94635 35.5316 100.2641712552
45.6821 7.85897 37.6751 30.1757856695
44.6456 6.42236 40.6969 26.7869685915
48.7268 8.50377 40.209 31.8812194199
43.6529 4.88259 37.7782 27.8165055371
48.9006 4.28674 38.4083 30.1744235408
40.6678 12.4108 35.5036 109.0252069558
37.8213 10.0134 43.1966 28.9229654127
37.0311 10.6355 38.962 28.580460865
42.0008 11.8644 38.5454 30.4903198747
47.383 4.53329 42.92 30.0699932464
42.7956 9.30434 43.4965 28.3231559784
41.0172 5.69713 45.6082 28.3265118643
42.2385 2.38424 54.7104 28.2917722994
41.0234 1.38014 44.3297 31.8340662857
43.0068 0.502615 48.1895 34.5732886354
46.6536 7.55455 43.3637 26.9563569032
44.4478 11.4286 47.9584 33.4644312114
48.0779 2.22767 46.6634 32.6964680063
43.5115 9.83152 52.3959 32.047687085
40.7591 10.8714 47.1193 26.2299558722
38.2084 7.35379 47.8498 29.1413303825
42.4946 4.3051 43.8973 31.5551433854
37.6252 4.31474 53.7821 28.9420798192
44.7794 0.628863 55.881 28.6054384986
47.939 10.2906 44.5658 30.2741507011
40.7891 8.36749 45.326 28.7590454361
38.2576 10.5458 47.2088 29.6332377788
37.649 7.00079 54.7801 26.7609476876
43.3637 11.8403 50.502 34.7315302307
47.3321 8.36159 53.2133 27.7799829715
48.1958 2.36272 52.942 29.2062326233
39.6169 4.72756 47.878 31.2274332322
38.3343 9.88388 53.0956 27.8591387527
44.9639 5.11904 47.367 33.4617867022
42.1629 7.85165 54.9916 27.9757899114
44.9864 7.25028 54.6312 28.2811987066
47.3574 11.9129 53.9044 32.0163092193
46.8605 3.65304 49.0377 32.2696483447
38.4123 1.9174 55.1144 30.6895765319
42.3957 2.40112 50.2227 28.5158243882
41.8349 -0.0124601 53.0103 29.3965634555
37.4106 3.55543 51.1288 29.9791151461
42.2833 4.47281 48.4733 32.1808857572
43.5403 3.85546 52.5489 29.2567566518
44.7949 7.39574 46.265 26.8494770552
42.6278 7.28308 49.5112 32.5081230992
48.268 5.78326 50.1562 30.0095630198
38.4119 11.0313 50.3464 32.1832263725
39.8407 8.63481 49.695 30.5791745945
48.259 10.5756 51.4916 29.0580972284
43.2075 9.10648 47.4816 28.3644598723
44.1889 6.76088 43.6285 25.0236727842
41.6312 11.9201 44.5574 29.8648673308
44.4156 1.43729 45.0092 30.7448824175
38.3538 2.39176 46.2235 30.0231894662
47.4207 10.746 48.7143 33.9450189132
48.0023 4.02214 55.0412 32.3616334945
38.392 4.78494 44.3531 30.0842146254
45.8879 2.84087 51.4164 31.18018268
45.4223 3.88264 44.6208 29.7808676447
45.2635 10.3836 43.2246 27.4349262294
47.4096 8.49056 46.6899 30.2115229856
39.1002 7.42149 52.08 29.9037932553
41.5409 6.14737 52.8664 30.4708710815
44.9166 11.299 54.5876 29.3087114972
44.5575 7.26924 51.724 29.6976085378
39.7569 2.00544 49.8872 31.8442058807
46.8357 8.00037 50.1879 31.1254579364
45.404 4.40297 54.7956 31.3859518246
48.5318 9.90351 55.999 29.8891464297
40.1998 0.417047 47.2989 31.4599229348
40.9888 10.524 54.0759 29.6584832639
40.5782 4.54969 54.6931 29.6521802124
39.2657 0.843948 52.659 31.4727272055
38.5865 9.66809 56.2064 30.4760850437
38.9951 7.47799 43.1788 31.6390605979
37.2459 17.121 13.2829 31.7901931035
37.1237 16.6638 6.44089 33.1795524202
41.6483 13.5141 13.7394 29.1732822727
41.2043 22.1686 4.97319 30.5995396281
44.5737 13.8773 6.96729 28.7965812109
42.0943 13.3998 16.5629 30.299224986
47.4896 16.8335 11.6547 32.0909493961
47.8475 15.82 5.76966 33.3426274883
48.0186 21.9974 13.8464 29.4236566048
42.128 23.3277 14.0713 29.0741517162
42.9807 19.9754 9.20547 29.3052542552
47.2857 14.0296 10.2879 33.5918220874
36.999 12.9276 14.054 33.3666396019
38.3845 21.4423 9.10794 34.4343358964
43.2223 13.9474 9.69412 29.491405771
45.518 21.5405 6.40514 33.9212333704
48.446 18.8469 16.1634 30.8845415719
48.8789 14.2795 15.3083 34.2444084268
39.5966 19.4552 4.69117 33.7476863812
43.351 14.1879 4.71138 28.8671551398
43.464 18.1215 4.2967 28.3854433775
41.5011 24.0505 7.37103 30.4261303743
45.3487 24.1785 7.37074 26.5504709367
37.2063 17.8666 10.7142 32.1330264949
48.4464 24.1484 9.3726 31.5550303526
41.4811 16.228 4.60181 27.932107265
40.846 15.0826 8.67625 30.3031990018
47.499 13.6884 7.27372 28.8748797527
39.3692 23.2077 15.1709 27.9568594253
45.0084 16.6907 6.33916 33.6711624423
37.0712 14.3087 4.68717 35.2933144698
38.873 15.0317 13.6686 28.278339789
39.8837 17.3071 6.8319 30.3489130844
40.2853 19.4621 8.74673 31.5965787941
41.4733 23.2657 11.362 34.9341048851
43.0492 19.0254 11.9886 34.0649382087
44.3239 15.8282 11.5156 27.4003455479
45.0159 17.6804 8.95983 35.8511291483
45.0012 19.7989 13.7178 31.0796750512
46.6383 24.0649 14.6136 30.6800289761
43.0388 20.1741 6.12349 30.5821510231
43.1052 22.5969 9.17806 27.7662821305
47.8568 20.044 7.53391 40.7253416431
46.37 21.3103 11.9931 30.9965365339
45.581 23.6209 10.1446 31.048722448
38.7573 24.0982 8.29991 30.051023367
41.9582 16.1471 12.6341 27.3242300834
47.2978 19.1831 10.2331 30.1615356354
39.086 14.4163 10.8962 29.2061418948
40.2394 17.2034 10.3912 29.6735587751
42.6732 20.9364 15.3264 29.162989394
39.3245 13.3227 6.99458 31.6413135109
46.1219 14.7826 14.8593 33.2258973378
41.0974 12.3398 11.1606 30.0865892932
46.5458 17.4542 14.4621 31.7336797756
38.8451 19.1929 13.9399 34.9306395523
41.5329 18.0719 14.6823 27.7378702179
44.4938 13.429 12.7815 27.1835473998
38.7455 21.4762 11.9427 33.9591683838
40.0252 16.3045 16.3521 29.7737111578
44.5191 22.9198 16.6278 31.5251114516
43.3902 17.723 16.7324 29.3884860799
45.3865 22.231 3.78055 29.9859904159
41.0092 14.9185 18.4268 26.9983395556
41.5182 17.8135 19.2827 31.2227686474
44.9191 14.713 21.3204 29.0773174233
38.6954 13.0568 17.9285 36.49306263
47.5432 24.2989 21.9272 30.3989906365
48.576 12.9393 18.0219 32.1725242694
43.5565 12.1362 21.5957 27.8472093559
47.9292 16.339 21.0078 31.9742341979
38.4754 17.7213 18.2028 27.8949902852
42.2337 23.7786 18.3468 30.9766457548
36.9964 23.123 24.2825 79.9188221353
45.9877 19.3691 17.8861 34.0164338759
40.581 21.1616 21.4477 31.092614988
37.2355 23.672 21.3604 33.1087929573
46.4844 21.8996 18.4504 32.9929304319
37.9629 14.839 22.0631 31.513961849
42.0593 16.5977 23.8444 43.6536728287
45.6927 14.6792 24.2308 61.485877444
44.5274 17.2186 24.616 107.3850748017
48.7123 13.9737 24.5811 105.5128735588
47.9971 21.013 22.5994 31.2053565565
42.3394 15.4933 21.0151 27.4224770924
39.2046 20.4127 18.9263 29.3290398425
44.4673 15.2905 16.9016 30.3777256099
46.3866 19.5921 24.3671 73.9933314365
40.0067 18.8482 24.423 94.4143370477
44.8026 19.1219 21.6923 33.8712770828
44.5487 17.5175 19.5 28.020664079
47.9962 16.7609 23.8456 39.9076576888
41.2869 13.526 24.3608 96.5528674725
41.9491 18.8816 21.8377 30.4447951997
39.5943 21.4605 24.3828 76.6996521899
42.7857 23.0632 21.331 31.7487836921
42.173 22.682 24.0607 56.7677540494
45.7 22.1878 21.2068 30.1564474383
37.6098 17.9592 24.0159 55.8617615476
40.3792 13.5066 21.6835 27.4840219514
46.1145 14.0901 18.9099 31.9582174886
45.1771 22.1551 24.2625 74.2097058667
37.4279 20.8729 21.7964 24.7019145495
37.4773 15.5198 19.4136 27.5462406112
48.9364 18.1105 19.1957 34.9983949995
37.6884 24.4048 17.1576 29.6333868278
37.031 18.1686 21.2413 29.578590184
37.044 21.7299 17.7737 28.0071424041
40.7391 21.7506 16.9851 31.3172343682
41.1265 23.4411 38.6757 32.9674194337
47.6836 17.9828 43.1718 34.1119391932
38.2767 15.6069 39.1026 27.0898730939
49.2777 21.528 35.9357 66.2709110975
46.5007 12.5952 39.0009 30.3511004968
42.9072 14.7834 39.1832 28.0369878013
44.8606 14.6999 35.939 74.6895545351
43.4539 14.2466 41.8513 27.4347197857
45.4763 21.0339 41.3662 27.099736276
39.4252 13.1453 38.4152 29.5296569349
40.0991 20.593 35.8836 63.8993365765
38.0227 15.8985 36.4334 44.4117060775
40.7531 17.013 35.6427 98.4415454407
45.0795 17.4262 36.0268 66.1411343996
43.7322 18.9874 38.3789 28.5493295294
42.4753 19.0555 35.9506 52.9118210496
37.2265 13.2562 42.0689 26.9845900529
46.5611 19.5063 39.071 28.126993217
47.8098 16.8181 38.6184 32.1715230373
42.137 14.6289 36.3115 37.2966472415
41.7019 17.3475 39.9372 30.8207768024
39.3193 21.1214 38.7528 27.8608815083
40.0777 23.6366 35.692 81.2126816574
46.092 13.274 43.2397 27.2211370509
43.6161 21.9775 38.4965 27.9566064046
46.2552 19.9942 36.1261 54.9814731108
44.0518 21.5827 35.7142 87.419006799
40.8467 13.4959 42.461 27.3594126831
43.0107 19.6948 41.4855 28.6165628371
42.9909 23.2508 41.3536 26.2760387034
48.2675 21.6619 38.6538 26.0452618075
37.8201 12.9923 35.8668 80.3002984033
40.8366 21.4121 41.2597 31.3214142176
46.1625 23.7101 41.7308 26.5767172775
39.1971 18.5784 39.4728 25.6539365769
46.1188 23.1322 38.5242 24.5662365551
45.5823 15.1842 38.8386 31.62441813
46.2957 12.4034 35.7853 72.5979896211
48.0423 13.3142 41.1132 29.1843413846
39.015 15.8411 41.8342 26.6192833262
38.3396 18.5395 41.9382 27.8597741586
48.7701 17.3251 36.0357 65.7600270119
37.8028 19.2166 35.8156 84.5093991728
46.3389 23.4206 35.8859 54.8801670501
42.7713 17.0928 42.9117 28.3501425765
48.8536 19.7325 41.2542 28.7617540758
38.1809 13.4075 47.743 30.26201416
38.1606 22.5063 53.735 29.9773325029
37.2656 20.0645 56.3698 29.4885309274
37.5821 18.6272 54.0476 29.4244179339
48.1013 15.2887 46.273 28.6384308524
44.0199 12.6965 45.3238 29.2318806882
37.3263 21.7201 47.9943 30.5256623145
37.4669 16.6941 44.3942 27.6314943106
41.2234 15.4366 44.5175 27.5654227232
44.5888 18.8285 47.0439 28.3095791481
42.7106 23.4175 52.852 33.8536344965
45.384 16.3119 46.2558 30.8368933702
47.7144 23.2575 44.635 26.7606498475
45.0412 22.5671 46.6155 28.6907723807
40.497 19.7055 45.7431 30.7002697335
42.9027 19.1823 44.9619 27.8284638389
37.6381 14.0071 44.7055 30.5394735118
44.2036 13.7314 54.9611 33.3506265379
40.8628 13.5861 48.1879 27.0121085969
40.6884 12.5909 50.6967 29.7885427182
42.819 22.6625 55.7846 28.310918986
48.5842 23.6265 55.5562 29.6270114357
39.4534 16.2055 48.8701 31.3482072231
48.8655 13.5526 44.1686 28.7739818929
41.7187 23.8898 44.2377 27.5353153487
42.8888 14.6886 46.6572 28.7559853827
45.2626 23.9017 51.5937 30.488938939
48.7055 17.0231 48.5322 30.2787161598
39.0137 20.7442 43.6563 30.9160095739
39.7284 24.4631 52.3248 32.214133956
39.3836 14.5949 56.515 26.4612328833
39.4601 17.0545 46.0251 30.3640055014
37.9194 13.8202 54.3384 27.643755973
41.0704 20.0605 50.7585 33.1341771514
41.5001 17.3075 50.5809 30.9369009051
44.8303 18.4401 51.4945 28.9037745572
43.6394 21.228 51.4388 26.4170062551
47.0273 19.6523 48.4415 27.7350451361
47.3337 18.8197 51.1647 28.2146575707
46.448 20.679 44.3072 29.4108110444
40.0539 21.2083 48.0244 29.7861560445
45.5673 18.0715 55.3069 32.8128830331
43.7139 16.7214 49.1514 31.7580736442
37.6953 18.7173 48.6188 35.5485938348
43.2521 21.2447 48.4715 31.2828512872
47.5032 16.5779 55.897 31.6356849028
41.7927 19.8628 55.5964 28.5976275391
47.6713 21.8434 51.8248 31.2890807959
41.3708 12.7983 55.3921 26.1409857512
48.9678 22.6729 47.147 29.3102909231
40.5923 14.1628 53.1108 29.0571999793
41.9629 16.6589 53.1959 29.7071719283
39.7243 20.2285 53.1302 33.6407861599
47.5228 14.8565 54.0226 27.4629789482
45.0455 14.6486 50.7053 38.8459323686
47.8153 15.6128 50.9755 30.1214826229
43.4619 21.6939 44.1263 27.3420786155
44.5639 15.9924 53.1001 26.4858781148
44.3576 20.5821 54.0977 29.1157739158
40.1272 17.2441 55.1056 29.3945676292
41.1365 23.7122 47.8023 29.4684388226
47.3801 21.0967 55.007 35.1845497083
38.8399 23.7204 44.2858 29.5236216422
37.9786 15.2935 51.6143 31.5461246347
46.5047 22.1725 49.0839 28.5482416852
37.2032 22.8281 56.516 29.6148595038
48.7892 12.708 47.212 31.9837763461
45.4235 16.3518 43.6034 32.4623692637
41.6649 29.1259 7.65239 30.4582028725
44.5584 34.3277 4.09606 32.2575814598
46.6102 32.7276 4.09072 37.0601261576
42.6257 26.8981 9.43275 30.0180580915
43.5412 26.1453 6.90385 29.7070662315
37.5281 26.5428 6.41155 32.0154432847
37.2425 34.6557 5.12167 29.3404041496
45.9847 27.8342 6.44434 31.5327163199
43.7021 34.2364 6.68281 29.4149374111
42.304 31.7579 15.8144 29.6262725179
43.8305 31.1202 6.73267 28.7474131698
39.9324 34.68 14.0497 30.0695651127
45.0609 36.1223 8.29196 37.044979277
40.489 25.8535 15.3209 30.4303782682
47.1175 28.4344 3.96703 28.0782846236
44.4856 26.1892 11.3442 29.7700863341
41.1247 32.6106 7.59713 26.9516043751
44.9201 36.0047 12.6601 28.0225423561
40.7693 35.068 5.83726 29.7260883683
47.0467 30.8858 9.24973 27.7648576341
46.8933 34.4189 10.2494 30.0120044324
41.6722 30.8098 4.98664 28.1931382776
38.6383 27.5856 11.6048 32.732382334
37.8395 33.0482 8.65692 29.3503132427
43.0663 27.0688 15.1622 30.3756630258
38.2606 33.7918 16.2342 29.6015834579
48.0145 27.8525 8.9863 27.1093040222
45.3877 29.014 10.8741 27.7426191042
39.2814 30.3291 8.97836 30.2903336656
42.8966 30.1669 10.115 31.987703133
44.142 25.2263 13.8188 28.7755783666
38.8247 30.5289 12.0736 30.2807126347
45.2545 33.4773 13.7206 32.2011267482
41.1115 31.7894 11.5176 28.2203502497
46.0928 29.2218 13.2944 33.2887170806
44.1975 32.6851 9.50835 29.0562555554
46.4731 30.6892 6.33973 29.2842006035
46.764 32.1473 11.6901 27.0390574872
45.7489 33.8939 16.5791 29.9085590527
37.1532 32.4531 12.31 26.4497509062
37.2164 35.8781 7.87199 30.0003665334
38.4304 34.9028 11.9773 27.3729233821
40.6342 34.0118 9.91218 27.3704223496
43.2769 35.3903 10.279 26.2409777659
47.5124 36.4108 12.3318 33.9984510401
48.7316 29.1837 14.2217 29.0325767176
39.7411 28.4292 5.11157 32.4379613403
47.3047 26.6175 11.4434 30.3447558673
38.1586 26.7624 14.3971 29.6468326354
40.3102 25.7015 10.2294 33.1520914959
47.8245 25.6717 7.21339 28.4089634521
42.276 33.1698 13.4676 30.9460402435
43.7518 29.6757 14.7125 34.5920283653
48.7731 34.9542 14.6388 31.8610850867
38.393 29.3679 14.9864 30.4490521523
38.2235 30.4959 4.1309 31.7518328612
42.7218 25.1778 4.0089 30.546089767
46.4961 24.6318 4.47959 29.1232219824
38.952 24.2179 5.18587 31.9055230081
37.102 28.4608 9.05255 28.4050560034
49.5003 32.2913 4.26894 29.3597913219
39.955 32.8725 4.30525 30.3989281763
48.9275 33.1789 8.69941 33.1483636968
39.8005 32.1738 17.9794 30.3130246669
40.6819 29.6365 16.8572 30.7775670374
39.1475 25.9389 21.5699 30.7461000843
44.0048 27.392 21.4058 29.3392298634
41.9518 25.5715 21.4461 28.3721465391
46.9101 27.1791 21.139 36.3238681581
46.5247 27.162 18.1719 30.820826005
44.1463 32.3011 17.9488 27.3654020688
41.1655 36.3832 17.0503 31.6701308569
42.3574 28.1404 18.9611 27.4739896434
42.8626 29.7957 21.4028 29.4601450501
48.7481 28.8306 17.5723 30.6195851299
40.4779 25.9282 18.3115 29.8228954765
47.111 30.0995 21.2737 31.2751264137
42.9523 34.2902 21.2539 35.4206859357
37.3262 26.3568 19.1444 28.9548046573
45.837 35.0241 21.2653 33.2402992597
44.6371 29.1703 17.5699 28.698213608
46.8483 30.7838 18.4643 26.9445563089
37.6016 28.7468 17.5353 31.5315828001
37.6081 28.5415 21.7469 28.9527398722
38.691 25.5098 24.3854 71.3438425404
37.7152 27.994 24.4904 97.9244013013
41.6513 25.2138 24.4175 78.629453008
43.1849 27.4027 24.383 80.3713524537
46.1033 27.1659 24.0115 58.1526336938
39.7299 29.859 24.1575 65.171177132
39.8001 30.1589 21.048 32.1516058017
39.5141 32.4708 23.9808 70.1710451676
42.6141 30.1617 24.2344 63.5975495665
44.6121 31.8285 20.7523 29.2998998898
44.6996 32.0992 24.3663 82.9768524322
43.8812 26.0104 17.4959 29.5313534551
38.1326 34.9925 20.093 30.8861366328
46.8096 30.1162 24.2314 80.1071036029
39.8271 32.9918 20.8578 30.2340168666
48.7779 35.4897 24.3823 91.4989903426
42.1779 33.6381 23.8939 49.7787796037
46.0075 34.9962 24.1801 69.2534646631
41.8856 34.0252 18.5783 31.5080355193
38.0558 36.3396 17.5231 31.3660401784
48.0094 33.094 17.6825 28.0293727869
48.0368 25.2419 16.7253 32.1991962631
40.7365 36.003 24.4593 102.4175111355
46.8392 24.5405 24.4855 98.8356379445
48.5736 34.1551 20.2442 32.8009161545
38.1966 36.0295 24.1784 60.8638821954
45.5082 36.6165 17.1791 29.5976455433
40.3033 27.9194 35.9295 59.9552275718
41.0129 33.5095 41.0728 24.6462320697
44.7776 25.7776 35.8032 66.9825199797
42.9818 36.3277 38.464 31.6221620905
47.7187 28.0438 41.1874 29.6485797083
39.3239 26.2945 42.4819 31.8320502609
40.5148 35.0305 38.9597 29.1125388662
41.4471 30.3168 35.3752 112.6872559745
39.2661 32.2827 35.6244 77.5177363993
40.8825 28.261 38.7732 29.8197983383
41.8189 30.9088 38.3836 28.0783624472
46.7275 28.4318 35.5119 90.1078064883
44.1513 30.8376 36.1107 52.1228538073
41.9929 25.6844 35.7686 73.5757221996
48.4766 29.5573 38.5872 27.2626610722
48.2889 32.4931 39.029 30.9547080649
40.1062 35.1019 35.7286 95.1344372393
43.6895 32.7266 39.7353 29.8667195774
37.6127 27.2345 36.2194 57.3898244334
