0.301297 9.67855 52.1982 28.2309626146
5.13638 5.28378 46.9782 30.8243840567
10.1164 7.56575 55.1132 30.4413729009
4.3936 5.98668 56.4139 34.8385366197
7.58526 2.56895 48.2338 30.3737539116
3.26938 2.13555 47.7363 28.5200927972
2.02811 4.06148 54.874 29.1143783998
8.15483 10.5919 49.4292 31.1070404554
3.64216 9.0151 49.3239 28.6447661508
0.617584 6.90862 54.5208 28.8229404952
8.3751 5.75815 44.6217 35.9585037158
4.46013 0.375979 45.4979 32.1753710097
2.97289 8.35513 53.5433 32.168487483
6.35399 1.52038 53.5367 29.6081890048
1.57317 4.29645 44.414 29.4180199475
-0.077936 2.49251 54.1944 30.6807765292
4.77479 0.0866652 49.2137 28.483152629
4.27933 3.36611 44.9532 32.4522584914
3.62595 10.845 54.7903 28.3761668121
7.21566 8.20823 45.8027 32.5024310918
9.0995 9.64345 47.0984 33.7683809425
7.51112 7.42513 54.4484 33.3568076774
4.15692 6.5955 51.7025 34.8752993548
3.74655 4.35695 49.1681 29.8401166612
0.566321 9.1787 44.3984 29.531157356
8.48607 0.214331 51.1587 28.9846307572
3.64458 11.1184 46.7443 29.1354182529
11.5479 4.59261 45.3953 32.8394906619
12.0781 6.72953 52.7586 29.0142999043
2.354 4.30955 52.1905 28.6388021235
9.45921 2.72887 53.5342 30.8207766289
7.9399 5.53199 47.6414 31.8713283441
11.0895 4.30028 48.1152 32.4777766472
5.57428 2.74266 50.627 27.4544601856
0.470355 0.58936 51.419 30.9701028563
2.96202 11.8082 49.7611 31.1748490185
11.9169 4.14175 53.5141 30.8560972596
7.35572 3.22228 45.0529 32.4897384153
3.37442 9.26559 44.4425 32.5531318333
6.1708 9.24943 50.7675 32.0606422583
4.51684 7.93525 46.829 32.5623198783
7.86558 7.17386 51.638 30.1406182026
10.6953 10.8043 44.753 31.218610861
8.09254 11.6251 54.3868 29.0170141503
3.85684 1.84724 55.0594 28.1462062817
3.19713 1.58324 51.7472 28.4761691219
0.820818 6.50051 45.5727 32.7934141977
9.64252 10.9924 51.7881 32.5956254369
0.560406 2.27076 47.6995 31.1819365653
10.1957 7.82386 50.7096 30.0376655005
1.51873 7.87279 50.5133 29.9830865419
0.508392 4.59988 49.4793 29.9789612142
9.6191 2.57634 50.0494 29.0703659762
7.74134 4.22745 51.7409 35.5346944621
6.20501 9.87197 53.4792 29.9473710848
0.494206 9.81159 47.2143 33.1500440109
11.264 1.02299 43.4722 29.8596479501
12.1438 0.932156 49.8685 33.8179074646
0.396461 2.03256 44.9902 27.005872466
7.5554 1.14856 56.0365 30.5191969587
0.088445 14.5378 16.4382 32.6305710086
4.87982 22.2655 11.2034 27.399402008
4.4151 16.3306 4.52082 28.5996547742
3.77492 18.8675 5.55378 26.7310056603
11.817 18.3195 15.9137 30.4858948189
6.39551 14.526 8.4035 32.3956380711
2.54762 22.7167 5.3761 27.9027721072
11.7886 21.541 5.82292 32.9166791209
1.14583 19.1256 6.32079 28.8529689709
10.7777 18.0116 4.5436 28.0758051584
8.97561 22.4741 6.25036 27.1955707133
0.341045 13.3271 9.73744 29.8993107776
9.33515 17.2729 7.43078 31.632927755
11.2632 21.4637 11.701 30.5213752233
11.7486 16.5703 10.9809 32.14804634
10.8581 20.9149 15.8825 28.3953667521
8.02999 15.2517 6.23305 32.5474520546
4.09263 22.2627 7.56692 28.4523642353
5.96302 24.4652 6.49547 29.3992678418
11.1692 23.1485 9.37002 30.1298507131
8.86913 12.7817 14.1072 31.0976088773
5.17603 23.8083 13.5614 30.239570296
4.59777 16.7447 8.15794 31.3340172825
6.66585 23.6762 9.39376 28.4488259517
7.87536 14.7819 10.8326 30.2468793237
5.63987 15.1203 12.4828 32.7441645461
8.8911 20.1786 4.19411 26.3478838341
12.2855 14.0869 12.1796 30.83623555
4.33909 17.3236 11.1897 31.4968679144
6.11718 19.6506 10.4117 29.5948746242
8.01453 19.5497 6.83388 30.0727969692
5.37947 19.5091 7.58896 27.8523696652
8.48526 21.7383 8.90777 29.0091369237
8.7052 20.4202 13.9348 32.85389796
2.28827 21.3217 11.7203 31.0517256819
0.948189 14.8888 12.0209 27.7514956336
11.5576 24.2566 5.05206 29.5011211194
9.3721 12.7199 11.511 34.3211299398
5.0714 19.9643 13.2094 25.7681877943
6.58797 22.08 15.0621 28.5205216327
2.96564 14.2929 6.04418 33.2724565225
8.93982 19.7569 11.0333 31.7977608502
3.24665 14.1768 13.3578 32.0680127154
1.72894 17.7036 12.0061 29.7749757732
3.48636 14.7827 16.1194 32.3673236458
4.16361 20.9757 3.83353 27.2498443143
1.58485 20.1243 8.85563 30.418759237
7.68817 15.3392 14.1575 29.1280913688
0.559422 20.8426 4.15081 31.3343839875
9.0683 17.1431 10.2106 31.9135468786
9.69802 16.6746 16.117 33.9816090278
2.35747 23.3769 9.38702 27.2736946918
0.189526 22.2004 7.31073 29.5430527781
0.591772 20.5589 15.0402 30.0553457652
2.74061 18.9049 13.8981 27.879928401
4.37608 17.6111 16.0139 28.4440128917
10.0173 24.3714 15.3142 31.9253013257
7.06277 18.2896 14.5028 28.5716767099
6.42168 22.7191 4.23994 30.475808452
11.4699 13.1041 14.8329 28.9938663136
2.02528 15.4468 8.63475 32.4116061484
9.67918 13.0556 5.63786 32.3954197241
6.21782 14.1366 16.36 29.7999647827
2.64575 22.5123 16.2302 30.9861497077
12.0539 22.3861 13.9539 25.1096704215
4.79253 20.6415 16.4692 27.6517145932
1.09393 14.9536 3.86627 32.7006114138
1.28495 13.8879 24.4259 85.699664981
1.628 15.7445 18.8281 29.1133595746
4.67489 15.9654 20.1508 27.9015329474
3.9463 23.2021 21.6336 24.9876647392
4.18213 23.3267 24.294 56.5775061445
1.13242 22.7704 19.5562 27.4954925526
6.95292 15.2191 18.7621 27.6490584487
5.47877 14.9915 22.736 25.9013983469
1.29774 21.3582 21.7965 25.4290456243
6.82133 21.4021 18.5732 29.2401720411
4.994 18.8831 19.56 27.8570836101
9.18702 19.9747 18.4243 35.0906242759
7.89152 23.7373 17.4144 28.1716003726
2.4693 16.71 21.9665 27.1045308231
11.6218 22.3885 18.4718 29.6299328245
7.04537 22.3092 21.5804 27.485985484
0.566472 18.6238 21.6376 28.4046165028
2.5579 18.3962 18.1573 31.2426963732
9.65012 14.4591 19.9753 31.1490779558
6.30592 12.9015 24.6324 107.9353757604
7.54106 16.6813 21.6424 30.8741924912
6.57043 12.7141 19.8503 26.7022821893
10.7859 16.1771 21.7364 30.4683562023
7.95576 15.8586 24.5646 95.5992639298
10.6081 14.5173 24.0861 59.800117845
12.144 17.2619 24.5264 89.4245959255
2.10689 18.4098 24.6909 97.4372177586
4.02533 20.6172 21.6448 28.5716361921
3.44501 15.7382 24.3387 71.5600343839
6.88698 19.8023 24.3722 78.8462885003
9.76262 18.4558 24.0465 44.3078348736
7.24885 19.5402 21.648 26.6534872367
7.03156 18.1459 17.185 28.1320488494
1.55523 14.3145 21.4171 25.9608008393
1.18954 22.4915 24.3545 69.1095831771
4.19213 20.3546 24.4591 67.1165116333
6.9242 22.6041 24.2522 66.8629551102
10.3158 22.4472 21.762 26.3160420995
9.84408 24.37 19.2725 27.0770446912
10.4085 19.8404 21.3058 28.9639877392
4.33403 12.7563 21.5178 26.8591932924
11.4915 20.861 24.3454 71.2636058162
9.01613 12.1214 23.9251 44.1204832519
9.94276 23.8157 24.27 63.3189822022
11.114 14.509 17.0966 30.2265878823
3.43101 24.2416 18.3902 29.2156520469
3.83919 13.4107 35.8173 92.440447997
5.68463 19.1288 43.2545 28.7029172948
2.67561 24.1755 36.1452 56.2354989364
6.22718 15.2163 35.6494 92.9993387035
10.8928 12.949 35.9065 73.6533973514
0.933469 13.2996 36.3211 45.5336577218
3.99745 20.8325 42.4263 28.5238892017
4.3674 18.2563 39.3007 27.6547083158
3.84504 17.3847 36.4454 42.9404770238
7.95085 15.9684 40.744 27.2935019692
7.27618 17.6375 36.235 34.4457011926
4.54157 20.9517 39.8167 32.1614527526
9.97766 17.7492 35.2852 122.5285462756
7.7328 24.0946 39.3512 32.9571843311
2.68709 21.375 35.8081 70.4652737925
2.06382 21.7589 38.6853 31.6856740015
5.24205 19.6318 35.5856 101.3856170107
7.55916 21.2227 36.1019 55.3924229896
7.27311 20.7835 39.0966 30.2070858924
1.81691 19.1448 41.7377 27.4979506472
10.4594 20.7275 35.653 82.5599414755
8.23933 13.1574 36.2119 47.1607026032
11.9722 16.2812 38.8807 32.8782348148
1.00354 14.1376 39.0121 31.5475550834
2.62212 16.0829 41.0348 28.5184540585
3.96931 14.9909 38.193 29.6596363649
8.13722 13.7451 39.1642 31.6075730693
8.50201 20.3342 42.7816 31.8868420597
4.28819 13.3114 42.4552 31.0731967321
6.60394 24.3337 41.9116 27.4188531376
11.4549 13.1049 38.9084 28.5096725057
9.21175 16.1894 43.0385 30.4352707322
5.51318 13.167 39.8859 32.1648089507
0.279554 20.4663 35.5602 98.6828659216
5.59228 16.4331 41.8203 27.5315748267
10.3194 18.0809 39.6965 29.5400120837
1.2081 17.868 36.4535 39.9427323164
11.2361 20.4059 38.5589 29.8017972948
11.6938 15.7407 36.1297 45.4118125666
7.10142 17.9159 38.9051 28.6737239879
10.7749 18.5277 42.478 29.0630847707
9.31976 22.0091 40.5038 26.4285201401
0.993732 17.8412 39.2311 26.5717027708
7.45759 23.8543 36.311 68.6425098231
0.529677 24.0064 40.0399 27.8965601012
10.8076 13.6606 43.0312 29.5695997491
3.79708 15.2181 44.6412 27.1710298763
6.85687 15.6125 53.0067 30.0053416575
3.55907 12.7086 52.6536 29.2623265652
5.80189 12.8853 46.5034 33.6624835229
11.4067 13.2938 45.8732 31.5568849515
3.29965 14.7515 54.6618 28.3105470729
5.15592 18.9128 45.8003 28.1770600589
2.3425 18.3551 46.403 28.1834500389
7.79353 20.1807 47.0743 29.4803959353
3.59355 14.5598 47.4222 26.6231235023
10.0304 19.7092 45.3059 31.6755847484
1.62384 13.0286 45.3637 29.6530651107
10.4715 22.3122 50.7276 32.9126361425
9.88389 17.831 49.2396 27.9127600741
11.3952 24.2705 54.9874 28.0840416625
11.6738 17.7741 46.948 32.6191722874
10.7341 22.2268 45.8354 31.4983657024
10.1294 18.2975 52.1234 29.5101928749
1.318 14.3816 52.4261 27.4205618198
0.777081 12.8049 48.0966 29.6080480737
1.26303 19.0535 51.5552 27.3137096504
4.99712 16.8409 48.8592 29.0497235413
4.91376 14.3671 50.5238 30.2017320705
2.41629 20.3459 48.3959 28.2978792979
9.04601 23.8095 44.5481 28.0665074702
6.64591 22.3284 44.2584 29.1242727688
1.14057 16.061 47.5729 28.2259197439
0.564998 16.2006 50.3093 28.7205128604
8.25865 20.226 49.9884 29.274107747
9.49404 14.7408 47.3845 35.1348009768
3.71172 23.7711 53.7692 30.314544675
9.50966 17.2312 55.0312 28.6302187939
3.52874 21.1127 50.7113 26.1510718753
9.48288 13.6379 51.0418 31.1729921963
1.72174 21.8383 52.8503 31.5708007565
7.20267 13.1763 48.8829 29.191377735
4.88083 23.3823 49.9233 27.6008571542
7.42397 22.7924 51.3189 29.9412773205
3.76017 17.865 54.4871 27.1654822383
7.55874 17.316 47.0493 27.4863488441
7.46306 21.7245 53.8012 26.1706899712
1.71108 16.5427 43.6518 28.9347177949
0.319207 23.3588 51.1817 30.4789046453
5.91948 13.4413 54.8309 28.4201289716
11.7292 15.418 49.8633 32.3408536633
0.853408 22.8193 44.6173 27.6412158184
10.1785 21.9264 54.6251 29.8885152523
9.67878 14.3223 53.6827 28.3882691549
6.28057 22.6175 47.5507 32.9394786976
1.36667 19.0937 54.6178 29.3591156403
4.07936 21.6445 46.2413 26.9198900449
5.70468 19.0439 50.6545 29.5066040807
3.47549 17.1042 51.6651 29.5832543166
1.74832 23.1289 47.2188 28.4372161928
7.37958 18.3954 53.1407 26.2450272141
7.53732 15.9338 49.797 26.3474288778
6.54984 18.7093 55.8428 27.5095807247
4.76847 20.6114 53.5662 26.9944094845
1.04428 19.9516 44.2526 28.2355993393
6.93722 16.3176 44.5963 27.9432739457
11.7704 20.6689 52.6104 32.4354698291
3.31888 23.4967 43.9225 26.9259223659
6.73607 13.35 43.7763 32.3758984485
12.3149 22.6766 48.144 30.5468015258
10.9044 12.5952 55.5567 29.7443167853
11.7192 16.1487 52.7336 34.5654657067
6.4886 24.1386 54.5574 28.5292116871
6.99237 15.8442 56.2599 28.6857267315
9.21023 27.4318 13.9481 27.8970474748
11.3814 25.6154 10.4981 28.6018376194
7.27308 27.3405 7.54646 27.087928397
0.554838 28.9052 6.53877 24.8066346997
-0.0729407 25.3104 14.1244 31.1403403689
7.2158 35.2018 13.7941 31.103525246
2.80304 24.918 3.8173 30.1897151278
5.00862 33.9396 10.0337 27.7200942155
3.84759 29.6891 9.62821 29.3119582253
2.70048 24.9516 14.8358 28.9584057604
0.610098 32.2822 16.5948 29.1339225296
3.22106 30.8569 6.72602 28.0254752852
10.7933 35.9579 6.77372 31.651162436
9.66238 31.9673 5.269 27.5674242128
2.0575 26.787 6.48796 29.9805769266
1.60317 28.8841 16.1203 31.0900482357
1.29023 36.6516 8.43252 26.3602655799
1.26145 32.9402 7.97456 28.1547782661
3.12556 34.1153 4.35339 30.6345339527
7.4069 33.9814 6.26201 31.5546870201
7.03698 35.9231 8.30197 29.1740612321
12.348 33.4995 6.41424 28.5958164563
0.343806 31.885 12.6774 28.2691430219
7.86297 28.446 10.1914 28.7220993651
11.9932 25.1353 12.9158 27.9304377997
9.17059 24.9866 7.44193 30.6299604684
7.96982 29.7337 6.23259 28.6993954973
11.2318 29.2558 5.80371 30.0327423504
3.47779 29.2348 12.2101 26.2927283095
6.65172 26.0447 10.8168 27.5546321298
4.47506 31.3439 13.5962 27.6617218402
7.59245 31.1085 8.94515 28.4229987324
6.48145 32.2213 11.469 29.5632168054
4.61748 28.5928 5.47161 26.300652833
10.6462 28.2652 10.4732 32.1311365012
10.2771 31.759 8.18681 28.0055740107
1.11096 29.8959 9.29912 28.3832053527
5.34229 26.167 4.21697 30.5331500038
3.83006 25.8044 10.3883 28.2466821872
5.53691 32.2809 7.78049 24.952604782
2.5217 33.5579 11.2227 31.2055803935
8.81923 33.1708 12.8857 30.0802517118
10.1754 33.6471 10.3415 32.903338723
5.42097 32.0545 4.73323 27.3493461771
3.51993 34.6772 7.32896 27.64574048
4.34645 26.7625 13.1879 27.8867497853
6.85392 29.3222 12.9463 28.6395287846
0.997941 29.3333 13.3541 26.7825450169
3.42383 27.0433 16.4175 28.9945612141
9.97251 26.8023 5.37003 30.2841331735
5.22855 30.5626 16.0341 31.7846818932
1.81103 28.3583 3.59469 29.9556656238
6.30844 27.6322 15.4603 29.1887058319
11.5753 29.4794 12.6881 31.6269951621
4.83228 34.7255 15.2395 30.1974611803
9.18027 30.8572 14.1967 32.5526276045
2.396 35.947 13.1603 31.1381536015
4.58948 27.4731 8.13165 26.373141911
2.49244 33.1575 14.2994 28.5373266803
9.77906 29.8209 16.59 27.2995913258
6.42595 36.2805 11.3507 29.003685808
8.84811 26.8431 16.8395 26.8136555426
9.51006 36.2476 9.4548 28.4323617829
11.6846 33.8035 14.0911 34.204154742
11.941 35.1634 16.3736 29.5620862854
1.41276 27.0544 9.99969 28.1145255087
8.18857 24.8928 12.9941 35.9118164319
0.426628 36.6801 5.76939 34.0679319802
0.223195 24.9868 7.76632 27.7617468219
12.1423 28.1408 16.998 30.5075373466
8.40355 35.1631 3.69289 31.0252352601
5.06295 26.0645 21.6626 28.7234033294
7.40807 27.697 19.8253 27.4774985233
1.53551 26.2632 19.0112 30.9467483195
10.1251 27.764 21.3607 27.2603556576
7.8066 32.8651 18.2131 31.0469845286
0.414577 28.1056 24.0717 51.5452538457
4.84859 28.9763 20.7984 34.1056298631
7.53463 30.9721 21.0602 30.2372980568
10.5248 31.9722 18.1165 29.7257607807
8.1164 33.2292 24.2354 82.7745360496
4.6373 34.6659 19.9575 30.5157428629
4.86845 36.3141 23.9636 78.4881037637
7.39399 29.8764 18.0991 28.3680773452
2.76242 31.1207 17.8747 31.9246255675
4.96396 33.2482 17.6944 31.574930456
9.60467 34.6603 21.5366 28.8101337104
5.86867 25.6983 18.089 31.901893397
2.23379 25.6317 24.6404 98.3235907474
8.15174 26.0815 24.3143 83.3319396522
8.02716 25.3346 21.6569 27.9512576885
9.42597 35.403 17.6171 32.9233550898
11.2858 26.5462 19.1031 28.6330717714
2.54011 30.4698 20.5565 29.0872817034
3.907 31.5526 24.3447 97.6153691459
3.35771 32.9252 21.53 31.8507308548
5.59613 29.3606 23.6543 43.2183749176
5.17541 26.5212 24.2328 75.6637889686
7.94177 30.5665 23.9684 66.3878412121
2.18876 36.8603 17.4087 36.0663808431
9.87718 28.4339 23.9782 54.1594028118
1.25776 30.5272 24.5368 99.3717284255
5.61208 33.8775 23.6607 38.6380611858
7.02834 33.7651 20.8736 28.5143473639
0.580482 28.2615 21.267 29.619341985
9.77581 35.5055 24.3068 101.4643854155
11.526 32.6448 21.6872 29.6537431921
1.894 25.3054 21.7329 26.8939920322
0.520949 33.1943 21.6325 30.8370140519
10.5506 30.3497 20.5369 31.1149262591
12.4307 32.1528 24.4477 96.4464019465
6.41831 34.6914 38.8138 27.1268759515
3.9908 29.8164 36.4487 49.2307616559
8.93512 33.7804 39.3203 27.3379057782
5.26812 25.6785 36.4476 80.330895383
7.00993 29.2508 39.7038 31.7716661021
6.80783 27.0727 42.0171 30.0344172837
5.75646 35.2142 42.1137 27.4402319729
10.4175 28.0551 36.1308 64.9058475656
4.50943 32.3809 35.4319 123.7934450182
3.82018 35.7937 39.828 29.7734378442
8.26936 30.2564 36.1098 85.304419952
10.9566 31.4859 35.9999 70.7116911984
6.47417 28.3948 37.1696 40.2705865678
0.460383 25.131 42.532 28.9086527806
9.96732 25.2058 36.1758 70.9495502874
10.7772 28.672 42.8966 29.910795847
2.1607 33.8954 36.0377 47.9987978142
6.47201 34.1605 36.0455 52.7586052342
0.404075 30.9086 42.4776 32.5190499998
0.751679 28.3881 41.209 27.7562889757
9.25085 33.9485 36.1289 65.0278733719
9.38817 34.1022 42.2083 28.3521563869
7.12272 32.7579 42.9663 27.6149280194
0.962435 33.8287 42.0394 31.9987933343
1.36426 27.6824 38.4445 27.5408869052
2.66711 30.2209 38.9444 28.4535649784
0.441744 25.3288 35.5963 90.201873704
10.8837 36.2454 38.7726 28.9871278005
1.68771 27.9712 35.7943 88.2742393222
11.8993 28.0968 38.4982 29.7264458667
6.05365 32.331 40.0589 30.646569949
3.0702 33.1013 38.8222 28.915756463
0.878102 34.5152 39.3915 26.2205738094
8.75643 31.0893 38.7517 29.6999966594
4.33988 29.0932 41.104 29.2485228142
9.35573 27.2317 41.2012 28.8398730793
11.2505 29.9827 40.4417 31.5434980894
10.333 25.0223 38.9314 29.3865442692
11.7048 32.5702 41.4018 28.2137316041
4.03944 25.0495 41.4968 30.1088445042
10.6912 36.2928 35.9991 56.947227249
3.03005 27.2551 42.6118 26.7919862612
2.72773 25.0453 38.8969 31.42348485
2.612 36.4868 35.4567 100.7867503457
3.57683 33.3993 42.7188 30.0929775719
9.82495 24.5221 42.1783 25.7162193546
5.01204 30.6034 43.1454 28.2243296609
1.02559 26.0781 54.7315 34.4213883196
8.74587 33.1517 52.5539 28.8099982692
7.94979 25.304 46.5533 34.344938022
5.71706 26.5265 48.845 31.0910237227
10.866 26.2895 47.3368 30.901686137
9.08406 30.2108 44.4956 34.1677701985
2.61534 30.2076 44.567 27.3012216505
1.17587 35.5819 46.1116 27.3656932639
2.16092 32.1878 45.9041 29.0469572281
8.12701 28.3061 48.0805 27.6328874565
6.50033 29.4065 45.3848 31.424138718
9.62357 32.9582 45.2619 30.8330959403
11.2282 29.0156 46.7547 27.6606514448
11.3675 27.9829 52.809 27.9059875158
11.2619 24.7051 51.5669 27.646738184
9.50538 27.2697 50.4488 28.4391736896
0.719075 26.1627 50.5385 28.8139772938
6.74184 33.9304 45.5526 28.2022292409
2.70404 30.7783 55.4236 30.4669668503
9.88978 36.4962 45.4094 31.3235763026
3.45338 25.9619 45.4854 30.6790815822
4.78321 29.1124 49.166 28.3769285986
6.06065 36.2724 53.7612 33.2739890723
9.9399 36.0982 50.3228 32.899849577
2.06111 34.7349 52.2546 32.6743924394
4.64287 36.0875 47.8633 30.4456671792
6.61343 27.8449 51.9048 29.9031672414
3.73903 34.6462 45.4432 26.7771820592
7.20147 36.6408 45.5289 29.1334272422
2.85897 29.8269 52.9945 26.8553747541
4.69726 30.9565 47.2619 29.3364983985
6.89601 32.5366 47.9533 30.6696105136
5.46361 29.8228 53.4446 28.6692159847
10.2652 33.9747 54.8707 27.3812998119
9.35732 31.0383 48.0303 27.1558389255
2.83792 25.4309 48.7051 29.7521133747
1.76044 31.3677 48.8824 33.8204839302
11.2571 30.4097 54.2899 29.4665117165
5.61665 34.1316 49.7297 32.0638824663
5.8406 32.2321 52.0158 27.9172116576
11.2956 33.2767 50.1348 29.8731336493
0.0657741 35.9122 43.4733 32.1265737618
8.08509 25.464 52.2707 26.4330333525
2.35342 27.159 52.6934 31.5119312101
10.9666 35.8675 52.8545 31.9788193056
6.28035 33.5439 54.8094 30.7936105613
8.77215 31.2782 55.2262 30.1898639068
6.07157 26.4751 44.6892 30.7323523715
7.26815 30.1681 50.3399 25.7398925917
1.02405 36.3317 50.3139 32.6197509582
2.14299 28.6514 48.6241 29.926642949
9.67449 26.2418 54.354 29.5652562583
9.87554 30.9831 51.3881 28.3136683627
12.0575 34.8164 44.0082 28.7174695419
4.79849 25.6388 51.7376 28.2211062351
0.0318254 33.7806 53.8615 34.1456895589
1.64986 27.9642 45.921 32.2966737693
11.6509 29.041 49.4308 25.8704967045
7.29235 35.8936 51.0933 29.6971423707
3.11194 32.2783 51.1067 31.2698500217
3.45887 35.7449 54.4171 30.8032951506
8.16057 27.2494 56.4257 31.0988071932
11.9375 32.9158 47.4683 29.4353504474
0.74175 32.6218 56.4023 30.6672857721
6.3504 29.7413 55.9518 26.6668234333
3.1718 38.4622 9.09265 31.3289300004
4.1967 37.7116 11.7364 32.0739655284
4.64774 37.2664 6.87614 30.3526418352
4.7145 39.545 4.65642 35.4081651728
-0.0131418 48.3822 13.6039 31.0736619672
8.57071 37.7164 4.64273 30.9126446123
5.22514 45.0714 15.7396 30.3962871997
2.63832 45.0357 5.9914 36.0608462777
6.61195 43.5716 5.53161 32.6976560516
5.96015 40.8721 6.7563 31.460034354
10.8994 41.2875 10.2049 31.1833204895
10.1635 42.2159 5.35753 31.27615458
9.68916 44.9561 12.7535 28.408840245
2.21516 47.6257 7.16417 31.8425697281
6.29159 48.0736 5.35763 29.4596554557
0.107902 42.6461 7.97395 29.6818054674
8.70919 37.9385 11.5948 31.5552264355
1.55308 48.5097 15.8557 36.539213743
10.4248 46.8629 4.72649 31.178290245
4.09978 37.0989 15.3771 32.6151737697
8.07346 46.4873 6.99474 28.0827711362
4.1852 41.392 8.75591 31.0464291633
1.21817 40.3317 9.56457 29.9680628598
0.123532 43.3738 5.33248 35.3870439895
7.73271 38.8754 7.25638 32.8501395049
5.60491 48.4784 10.1793 29.9777522466
10.6096 44.7595 6.48419 30.1720987225
9.47689 47.0773 14.9359 27.8695781611
2.9526 36.9506 4.5516 32.4805229014
6.28741 38.3933 16.4471 33.4165471766
9.50197 48.38 8.42354 28.1571357038
5.27307 45.564 9.0853 31.4276447046
2.89831 43.6639 8.28257 29.3507397409
5.85236 42.1344 10.7317 28.9370881363
5.37948 44.3566 11.6518 28.8010720186
9.90388 47.741 11.1797 29.995275402
10.0275 40.3818 7.64529 31.9023955371
8.31614 40.7938 11.5084 31.4518526139
2.24141 45.3241 10.6505 32.2464411667
0.336053 41.0259 4.02175 37.3473168404
4.46832 44.3884 3.9234 36.5804429561
10.0786 44.0023 10.2238 32.494662088
7.36995 48.1422 12.2697 31.5203688036
7.49627 44.1046 8.30465 31.7706782006
2.7925 47.9866 9.86652 32.6106366563
10.3371 45.4666 16.973 29.6267127261
8.33229 36.9429 15.6365 29.2334822742
5.39189 40.1069 12.849 32.7566325311
10.2999 43.1329 15.0195 31.4160014562
10.0497 39.041 15.1155 28.937930485
3.26707 42.2692 13.4429 39.6223861938
2.8704 44.7845 13.5345 33.0075805639
11.7452 45.9298 8.982 27.6441440481
6.27941 40.843 15.4534 35.4231736094
7.08156 45.4088 13.4221 31.7187469538
8.74263 40.9939 14.2229 29.0347268037
11.2015 38.5911 4.77458 27.6301773372
1.19186 40.6145 12.2034 33.9413512489
10.9183 37.7432 13.1372 30.9994966077
11.9716 47.6346 13.9187 27.5042140229
-0.126716 43.848 16.7269 30.0048776525
2.47877 45.7585 16.4834 31.0727173688
10.5069 41.8591 18.1727 30.6505501194
7.38755 48.9783 24.3243 67.495669139
5.9238 38.3795 19.4848 35.4384287698
5.29911 40.6601 21.2742 28.391724389
2.30993 48.3699 23.7685 44.0894004796
9.53554 40.8861 20.8794 33.1396949248
10.9931 39.2168 17.8326 33.230953028
0.312924 47.3873 22.1048 28.4735181636
1.64219 42.0593 18.1728 34.5583332793
4.05333 42.4397 19.614 28.606615406
10.0622 45.1243 21.3131 28.1749525986
9.06542 38.2724 23.3341 37.5818147586
7.34578 42.8768 21.4945 28.6307922324
8.18661 43.4164 18.5317 30.8785316956
6.51788 45.878 21.3624 26.8397499844
6.57736 46.9681 16.8988 30.3049133025
0.754698 45.5706 19.9555 28.5925947504
5.7959 48.0788 20.084 27.0591467669
5.74697 43.0685 17.4852 33.2878485336
3.4978 37.0948 19.9894 30.3797998227
0.683064 43.7881 23.7308 39.0168296023
8.63487 46.2377 18.9445 24.2771111453
2.22927 40.0277 21.2895 30.8215874961
1.90577 39.9097 23.8869 38.7830849303
8.06969 38.1699 20.7521 29.580058105
6.15091 38.9184 23.5785 47.3728747102
9.7717 48.8233 18.804 29.396347937
11.8879 37.0317 22.0448 26.9952932688
11.4759 42.7564 22.1911 29.0745645327
3.46844 43.7828 24.0184 49.1215621351
4.07048 44.4454 21.4292 29.1392369663
4.62436 41.1329 24.4494 96.6267473815
7.76146 41.9527 24.4179 93.933154084
8.65988 44.6552 24.0205 55.8600116793
10.3885 40.6405 24.1553 93.6089608085
0.948121 37.029 21.3472 30.0291363578
6.4172 46.4906 24.0419 48.3329849122
3.82718 46.3601 24.6977 121.7495527525
3.32331 46.4735 19.1523 29.7935340424
11.4958 44.7886 24.4345 94.0236634547
0.966818 39.5141 17.4906 36.6811536488
2.03529 37.14 24.5717 121.2730034137
9.44107 48.3877 21.6143 29.0150284949
0.769433 43.0465 20.9731 27.3074588867
2.5454 48.8319 20.1586 29.0064350427
10.3226 48.9571 24.3595 83.7236323087
10.2309 37.0025 19.7567 26.9543680061
8.99366 39.9889 42.4987 30.956984985
2.83725 41.655 35.8739 84.597615013
9.32211 47.8768 39.7137 32.640419538
6.59907 43.7276 35.6816 93.5685045744
8.068 39.2272 38.3234 28.8262468855
7.18381 39.0544 35.734 70.350689834
9.90817 38.8724 35.4952 97.0426912281
8.87334 47.9221 35.9089 82.9346643351
1.52811 45.3744 41.5106 33.2898451326
1.1148 41.503 40.093 27.1659775441
5.65616 41.2386 36.1293 46.8976361618
11.6881 40.7601 36.3581 32.0372021768
4.65234 45.9551 35.8444 81.4297034152
6.75638 44.6147 38.3308 30.434183201
9.74049 37.0119 41.3328 30.4670623946
3.73888 46.6031 38.6136 28.500527084
2.18726 44.2766 36.3189 35.8545405472
5.59853 36.8945 35.708 82.3753598718
2.77278 43.9181 39.2098 29.8828907086
11.7849 40.9552 41.2119 28.3731148853
9.64448 43.9211 38.3517 29.9416003461
5.27764 48.2142 40.4977 29.9535813512
7.13775 46.9378 41.8797 30.1274909891
10.1441 43.2722 35.6165 87.2986492664
10.9825 46.3925 36.5539 29.3791339863
3.68739 41.0896 42.1809 29.2798151081
3.12355 37.5385 37.9266 28.0722806314
7.25445 37.4857 40.1704 27.5851261788
6.63423 37.9974 43.0947 29.705640696
4.70719 38.7522 41.0638 30.6944582892
10.0942 41.1824 38.7067 28.9685311633
8.28011 44.1874 43.3248 27.6074195993
11.6692 46.2473 38.9846 26.8257397075
3.09021 40.228 38.3409 28.5759822822
5.8384 40.6658 38.8496 27.1614032906
1.11191 42.7077 42.7034 29.5304815049
8.50793 42.4276 41.0622 30.2939948261
5.86076 42.9299 40.3784 27.4841993622
6.80693 47.5591 37.8075 27.689239328
4.52416 44.9516 42.2009 28.5398358904
-0.00503546 40.7267 35.8785 72.1808156602
0.250822 37.9461 35.8856 74.5149417824
1.12359 47.7763 37.8471 27.6358841704
0.30769 37.1082 38.8575 31.8511626366
8.38721 46.8633 55.4766 28.7669498504
1.23313 38.0355 46.6487 28.0468897033
8.90328 41.919 44.6195 28.8621463665
11.3381 43.956 53.4559 33.3854934679
11.2509 38.2029 43.4612 29.6935510673
0.590702 46.3133 46.5666 29.3395239997
0.0718418 48.6792 55.168 36.9059070625
10.6462 45.0164 43.6135 33.5497336472
8.65405 39.7021 51.3839 32.0082340717
8.79973 48.6111 45.4257 31.9998870438
1.88665 42.1096 45.8915 29.3522835666
3.02393 48.5748 56.3498 29.4308356944
11.5804 45.4503 46.3677 32.7431554515
6.58549 38.3581 55.6414 31.9858306821
10.5125 41.1333 46.6746 27.7197247661
4.79888 48.0883 53.3144 28.2117247828
7.22689 47.2621 49.3325 28.3586696874
6.47783 41.9178 46.018 28.9802495372
3.03164 44.676 46.4026 26.7820334947
6.66425 38.3121 50.1958 26.956868077
2.45825 39.5932 44.3787 26.2387408166
10.7557 47.7591 47.0723 30.6339263417
1.89448 47.7708 53.0819 34.1860588756
2.89586 37.9567 49.0683 28.6768783671
4.39972 39.1492 51.171 27.475486008
4.02051 40.529 47.1542 28.2007614218
5.92509 38.3924 47.2161 26.4709154345
12.2064 48.285 53.8269 29.8573880945
2.51492 40.23 55.2181 32.8056970862
12.1123 39.7144 48.4115 30.739689561
1.65574 41.3827 51.0392 28.8980167818
4.22069 41.7545 49.6275 29.8849622572
6.68527 46.3109 44.897 29.7066611923
7.29831 41.747 50.0366 27.6555138005
4.65897 44.5052 48.6682 29.8691598301
8.31575 44.3974 49.3213 30.922814792
10.9212 43.4043 48.208 34.1029428811
10.9446 40.4848 54.0571 29.4742202215
10.4179 47.6451 49.8403 29.2453660701
2.853 46.7347 49.1228 31.8830322662
6.89393 44.3544 47.0443 29.25270633
5.4821 46.396 51.3123 32.0409136458
10.8635 37.2051 47.8858 32.3243072718
7.00333 44.1631 52.0863 32.8641852471
2.61087 38.3169 52.9895 31.1458757715
7.95738 40.4344 54.2368 30.2983701536
8.67257 44.4768 54.1981 31.5810158148
8.08397 40.193 47.8575 30.6630670829
11.4851 39.3672 51.0408 32.9368919535
6.74001 49.1423 47.1134 26.2653423526
5.51721 46.7279 55.7005 29.3554595916
8.28619 42.4194 56.0461 31.7926397149
1.28801 45.4915 51.4071 34.9486934607
1.59056 43.2278 52.9678 33.0066207653
3.81915 42.4398 54.3216 33.4251775206
5.809 41.5957 52.6996 28.9022546868
4.52243 42.9561 44.0587 29.1882243373
3.92632 46.4517 44.7579 28.2220299105
9.41767 48.7839 53.7076 29.6782215853
0.403751 39.0848 51.9991 33.2133192411
4.22953 37.3362 44.3447 30.8910829598
0.316449 48.5627 48.668 31.6319489485
1.66744 48.4855 44.4452 28.8965457627
11.8845 46.356 51.687 30.0610016703
12.2129 41.2505 56.4182 29.0275496885
0.241531 38.7054 43.2257 29.6338881103
12.5393 8.8741 13.9793 32.5734979943
17.9895 5.58996 5.37426 32.4893134523
23.7876 6.90294 8.69195 31.8883268255
15.7712 1.64222 5.52227 28.7651661006
15.6192 6.99743 14.9576 33.8020308727
21.639 6.70056 4.73052 28.9059254761
21.4531 3.06572 5.30594 33.0904828186
21.1957 0.22682 5.79871 30.1753338894
23.4769 5.08368 16.6051 24.5962360434
21.3124 7.42994 7.79691 31.8119885548
13.462 10.555 9.75895 27.5847806228
17.9089 10.301 8.77848 34.3144401658
23.6925 5.09788 10.7105 30.8847098305
20.1563 10.9068 4.07272 26.4535336514
21.1528 3.97006 10.3312 29.899714871
20.662 0.881061 13.966 28.6690100378
14.2604 -0.0448843 10.6045 33.279740153
15.0528 7.61094 5.76718 27.1560112856
22.2946 9.58153 6.08771 32.6860005816
18.7539 11.776 6.3922 28.5806852593
12.3091 6.75617 6.11551 25.7926544288
22.0834 8.00458 13.7727 28.6736427759
15.3881 4.34275 5.28166 28.7030152022
15.8285 1.92862 10.0116 31.457231495
17.1557 2.12836 7.82944 29.2086793555
23.9892 6.04922 13.1661 28.0796373174
17.1346 2.89341 12.8399 29.5123331333
16.8165 11.4377 12.9909 27.062177627
20.5189 4.44985 7.74368 29.6348096465
18.8788 7.12053 11.9665 33.3570669866
12.6471 4.52886 8.03799 33.9848695756
15.4568 6.07797 8.1592 29.2115932038
15.6048 8.17358 10.4421 34.4225153416
17.9283 4.65957 8.02501 26.7106964247
19.8583 8.6506 9.86155 33.3972935072
24.0552 3.32802 5.63605 31.1831682047
18.8647 4.08565 15.6479 32.2876959182
23.935 1.23067 8.17879 33.2384539109
20.2191 1.88502 16.6914 33.5874734193
19.5299 11.7292 14.179 28.4838601152
15.2315 9.70972 7.85161 28.0099874984
16.6013 8.89875 13.0197 30.0644844809
13.2873 11.027 15.5293 29.7599399865
22.0396 9.73833 11.3832 31.0230033714
13.5507 10.2883 4.66293 26.7297022664
24.553 1.5935 14.3419 32.732670286
13.414 2.40043 16.609 30.4510362167
21.5739 1.42987 9.65357 28.0915562075
20.1874 3.8067 12.9695 29.5425111129
12.9047 4.8293 12.847 29.7914890215
14.499 4.35253 10.5729 32.2395569939
12.8702 6.2052 15.1248 26.4291046414
17.5476 4.89164 11.0023 29.9612084782
15.6306 4.05631 14.7216 31.1909476598
22.724 3.79667 14.1535 30.3012493119
19.4397 0.746781 8.36221 30.1872687311
19.4207 9.01702 14.6333 31.0152069792
16.7768 10.8152 4.9963 26.769690754
23.3504 10.279 14.6288 30.5152029541
21.4664 12.2591 7.06526 30.8371770457
24.4426 11.998 11.1384 30.5736695879
18.1603 0.343661 13.0754 29.7639079592
20.6392 12.3105 11.4996 33.0714930989
21.768 7.21905 16.5594 29.0885510237
15.7125 12.2527 15.3851 30.0243046872
17.6247 1.10775 3.70881 32.8684513531
14.3073 0.71915 24.4548 83.5090027307
18.619 -0.031564 24.4841 104.732058975
15.9821 11.3981 19.4582 33.3335957605
23.5567 1.74493 21.3011 30.3433841192
18.0195 4.0257 21.4372 31.5164234396
21.7867 4.7878 21.044 27.4053714485
19.5644 5.86194 17.8428 30.3107284302
22.3564 4.33157 24.2997 96.7606296116
14.085 9.76794 18.1336 31.5429720453
16.2541 5.86126 19.7744 29.6844678765
19.4694 8.96823 21.1245 31.4632382393
22.263 7.68796 20.7383 32.6206054894
12.9619 2.65628 20.6757 29.6162798779
22.8619 7.85397 23.4536 36.2939586061
15.0824 7.64623 21.5288 27.4992011817
20.7481 9.80152 18.8291 28.3892501937
16.6494 2.19934 24.2601 69.36952942
12.9022 3.13846 24.2352 58.7871091608
21.8297 3.69114 18.2351 29.6422006708
23.3677 1.71948 24.2079 66.7523790083
19.427 6.20021 20.5539 25.8660736611
15.8678 7.76568 17.6258 31.540188125
17.4894 5.13757 23.8204 49.849995631
20.3553 2.12188 20.5618 30.5009180417
14.8634 5.06281 24.4033 76.3625640225
24.542 7.61789 18.2068 25.7779545406
14.5549 7.99751 24.4107 88.5633523764
20.106 6.37153 24.3112 91.0859556621
19.8192 9.18484 24.2236 65.6060606804
13.1718 5.38311 21.8363 28.0154618443
22.5056 10.6951 24.3607 90.3098972476
14.5598 0.10058 21.3925 28.5824401544
16.682 2.73221 17.269 34.5021392123
16.8804 9.74943 21.5747 33.1126696006
17.0229 9.77319 24.3081 77.4544159361
12.4436 5.83424 17.9399 30.1643566532
14.3742 3.8796 18.805 27.6889631949
23.2912 10.0319 17.5452 27.6199479068
18.2313 0.962322 18.8993 29.7581026231
12.7171 0.546693 18.7572 30.0847868221
17.3494 0.921026 21.6706 27.5533649458
12.7289 9.27386 20.8851 29.2596979025
18.6355 8.86378 17.2699 33.2097431591
13.1502 5.33798 39.2882 29.1058083918
21.3127 0.153165 39.1871 27.7231052291
13.7605 3.75183 36.2336 44.5022636332
19.7421 11.6615 40.7744 28.9892085366
18.0364 3.23225 37.775 29.7503076837
20.119 2.98825 36.2207 62.5137323945
17.3949 10.8055 38.1699 27.6534891402
16.2221 2.5706 35.6237 100.3754239361
23.6155 4.18688 39.6682 30.1843702935
15.2008 10.4333 42.5292 30.0234349916
15.0337 7.0992 35.7903 62.9798232803
17.559 5.57265 35.7945 75.920841558
19.3459 7.74684 35.8388 73.5294938404
19.2747 8.52661 38.3861 27.2012370055
21.3858 7.67394 40.6553 28.1019283419
15.2805 6.93561 38.6164 28.9150477407
22.709 4.52806 36.1302 64.3294434625
19.5122 2.65695 42.4062 34.1111428678
14.4019 10.1271 38.6967 28.8198513676
15.0574 9.81908 35.808 66.4407920099
17.1751 12.1476 35.5251 78.9005607819
12.5638 10.4396 42.1838 28.0148959712
17.1505 0.698482 39.0168 34.0492197216
19.5833 10.6556 35.711 71.1220514621
22.2347 7.14091 35.9685 70.7083955021
23.0586 8.3836 38.5391 30.7723317855
23.7444 0.0831881 35.7857 78.8169116694
22.1941 11.7682 35.7968 64.9807254287
23.7816 9.44209 35.891 69.4772392589
20.9571 0.365413 36.024 70.5618671236
24.3069 3.00819 42.2725 29.6638845547
13.8294 7.41068 42.7091 28.7458032759
13.7815 3.62067 41.4127 29.9698101076
23.374 7.44253 42.4854 28.7601372735
17.8497 5.74976 39.0232 29.3016676275
14.8588 0.935082 40.605 28.1745501898
16.3683 5.94494 41.8947 28.2504376482
21.382 2.88962 38.8548 28.9487490597
19.2531 9.09802 41.8134 28.4754288529
21.0461 10.886 38.5585 29.9564954702
20.0199 4.80829 40.5553 29.9841539631
16.6096 8.76088 40.5535 26.8746216429
20.6645 0.236643 41.9607 31.3949832294
12.4786 6.09895 35.525 93.209890107
15.2866 11.878 51.3883 36.4583765532
24.4628 8.82221 45.4886 32.1857403418
13.2214 5.01322 56.3852 26.9245266303
20.0953 4.71655 56.1019 30.1080258169
12.6199 10.3139 51.2052 32.4045322122
17.7937 11.7771 48.3613 32.5025387171
20.2692 3.02799 52.7273 30.7762878358
16.0815 4.22402 47.3812 29.4541547007
13.8284 2.78625 46.182 29.2383954397
24.0826 7.10679 56.128 30.4790127138
18.0164 5.02012 45.549 29.3567676986
20.3613 7.36321 46.7007 30.5926388402
21.0511 4.34229 45.876 28.3266004279
23.2762 5.60257 47.0633 29.8692766993
17.1509 5.10858 54.793 31.5682740551
15.3746 7.3174 47.0279 28.7588059958
19.9337 8.34005 55.9166 31.5157591603
24.3781 1.70343 51.9322 30.813750572
17.7253 7.379 43.7963 27.0937174245
13.1708 11.5566 47.6308 30.1043494511
22.6232 8.79154 47.5949 27.8288767121
13.425 2.77878 51.5863 29.9602876915
15.5078 11.7377 46.5601 30.6878912597
19.3541 1.05905 48.8076 27.1792669944
23.0551 0.789631 45.4944 30.3577058187
21.6473 5.11283 50.749 29.8901111383
21.3399 2.02957 47.6399 30.9028363699
14.5453 6.95616 54.6971 32.0146451068
17.058 8.10154 56.253 27.6142014118
16.1531 2.1138 51.5747 29.8458374817
13.7013 4.75918 49.2708 34.1530602845
14.0573 7.29217 50.5919 31.5301737489
17.7058 2.99314 49.4638 28.8085589427
18.2975 6.28999 52.5257 27.9572673252
24.243 7.38247 53.4812 28.8397765184
18.9499 5.26009 50.1584 29.2746372757
18.5622 11.6288 54.6787 28.2481453121
14.0655 5.79504 44.9067 29.3846594875
19.8842 11.4989 46.1284 33.3724534246
16.4695 9.92628 54.0303 31.154449899
18.1168 7.0649 48.2824 28.1907074132
18.2073 9.27495 49.7942 30.262853078
20.4566 9.54709 50.999 30.359551263
22.8493 7.70962 50.8517 29.9997471692
21.3787 11.0308 48.4077 32.6047611998
22.2699 4.93444 53.6791 29.254649957
20.8725 11.8294 52.6753 31.9285955884
13.0645 9.4446 53.9816 30.8129156438
20.4484 9.25007 44.5202 28.3332062302
17.7765 2.62393 53.9039 29.6210684217
13.869 1.22516 53.9508 28.0751176671
13.0091 8.69054 48.1745 30.6523719879
13.5697 12.0065 55.3057 29.6155185721
16.2112 9.35584 45.1663 31.0612764356
13.117 8.93373 45.1454 32.0447509642
16.544 8.09178 51.555 30.0884500833
21.9486 2.84608 43.8772 28.3333494436
20.4739 7.45284 53.172 30.0841781738
16.7499 0.152488 47.6989 35.712957303
15.0662 1.93187 43.6314 28.7923767501
23.0565 2.91899 49.5372 30.1707934314
12.7768 0.445975 45.8124 31.8805135595
24.6856 3.48763 53.9982 31.7312956532
21.7084 0.574951 53.155 33.7407905785
23.0199 10.1787 43.5828 33.6943433145
24.5302 10.1454 53.0033 33.2003072357
12.9016 2.31303 56.3109 28.1163249313
20.6771 5.80951 43.2529 29.8920889062
17.1611 3.69659 43.4156 31.4715353919
14.6482 18.56 9.59335 28.887662177
12.7252 17.3329 13.5273 33.328002782
14.8982 24.2535 7.93284 27.9592155936
18.0045 21.6371 15.9945 29.326706964
16.1806 14.9915 6.16058 30.8497189029
22.8097 14.3601 5.42012 28.4151522162
14.2597 12.216 6.42741 30.9625429021
18.4978 17.2749 9.45305 29.8370059592
20.3627 16.2507 5.40509 26.0106941686
17.942 12.7103 10.4621 30.0607306168
13.5774 18.1547 6.18004 31.3294311945
15.8141 20.0273 7.3186 29.7835051909
13.3515 21.9524 8.27455 32.3571425333
18.9172 18.2265 4.05686 28.8640557056
18.4509 18.7093 7.19146 31.3564197744
21.0201 20.1883 7.61901 27.5282982107
17.3991 22.2287 8.38407 31.7235938009
19.2567 19.3042 14.217 28.136438035
12.3666 16.3312 8.09143 31.5032834385
21.0937 21.7167 5.58306 31.0101487785
18.7503 14.6635 6.94593 28.5982359086
22.5575 15.8132 9.22159 28.4938424657
18.289 23.4286 14.0281 27.5942252405
23.3865 13.2589 8.8142 27.4033642794
23.7026 14.428 15.3276 33.5261146637
15.2165 15.8093 8.75952 31.9651619735
19.9788 14.8951 9.38263 27.3471066163
16.7599 19.0783 11.237 26.4605067866
18.1144 21.1392 12.3563 24.8858309381
19.3103 17.3219 12.0927 24.6148650746
21.3212 19.5037 11.5661 29.1255923215
22.8076 16.8106 11.7432 32.9767462257
15.7601 22.2833 10.6225 29.2051121245
16.3189 19.3173 4.58659 32.0646423574
21.6779 20.4876 15.7112 33.5794444778
19.7843 21.7652 10.1965 28.6784788474
20.5078 15.1966 12.8031 30.1590989429
21.8662 12.2721 15.8937 28.9963619369
23.2553 20.2195 9.51028 30.9403258651
14.2886 12.3757 11.5965 30.4135792841
14.2249 14.7485 14.0633 28.4627634735
18.2526 14.3093 14.7825 27.9621746504
20.5662 15.4102 15.9574 31.8263621803
23.5852 22.9617 6.24779 30.4618801072
19.0085 23.7962 5.79895 35.0746532775
11.9517 13.9261 6.60161 28.1842427238
14.6242 20.9597 13.1904 25.9676639159
16.4341 18.5524 14.1629 27.1502452912
16.5596 24.5091 12.0595 28.4354246194
23.273 17.3899 4.28285 31.2109113116
22.4841 17.836 7.00681 28.6896761611
16.7141 16.02 13.0865 28.3664382482
13.1741 19.4444 11.7422 27.752980772
22.447 21.4205 13.3256 30.2496335777
15.0356 16.5173 4.08923 28.2366751559
15.1862 20.9578 16.0819 28.6179493973
15.9743 14.2556 10.8682 28.4351820173
21.0319 23.7803 13.0777 32.4703960033
22.4786 22.9185 8.9252 29.706371031
12.3484 15.3396 4.25012 33.5272707491
14.6328 23.9914 14.1878 28.9408624106
15.5608 15.2668 16.8978 27.6935458307
16.3401 13.21 3.73132 29.0122299291
23.5283 17.5451 24.0938 48.5149286658
24.6638 12.792 23.1967 32.6171163773
19.1064 21.7428 18.5186 29.7176242663
19.513 23.1492 21.2966 26.4948219931
17.4237 13.0014 17.5779 28.0127308611
20.9648 13.4871 21.1961 35.9837837115
22.1466 24.3075 20.9206 26.3922798558
16.4161 23.2194 18.9225 28.7663611674
15.4903 15.442 21.336 33.6728130546
20.1079 17.8267 17.0417 32.3926567592
21.9392 17.7763 21.5777 32.8334798659
13.2524 17.0184 20.315 31.0694394789
13.6478 22.4639 24.4096 75.1791166006
22.5216 17.7021 18.7042 34.7313506669
17.5849 12.7776 24.4663 87.6485072141
13.9367 20.7125 19.1839 28.9605419366
16.6456 22.8303 24.1006 62.9870000656
18.1325 19.9238 20.8755 32.5176439979
12.5735 12.4481 23.8113 59.1412417449
14.3235 19.2223 24.1956 60.7282714286
20.8862 20.6703 21.6067 27.7593301781
13.8401 18.2939 17.9086 27.5940431715
13.5447 14.8944 18.4073 29.3341088875
17.9157 15.2396 19.5917 31.4248783878
19.688 15.8538 21.6562 30.6763636724
14.947 13.6203 24.0725 64.9950797938
23.1222 14.5611 24.5522 104.9822151766
15.4176 16.407 24.2619 74.6352120086
17.2575 19.8851 23.8231 47.7434253885
15.9504 21.6442 21.3373 28.4472325845
17.9608 17.7576 18.8957 30.6168456183
20.7547 17.4236 24.408 71.74601766
19.9091 19.9484 24.5954 97.6339752791
18.3077 15.655 24.1209 61.1202973012
24.2555 20.1841 24.4399 91.2744090965
13.2861 19.6735 21.6928 27.4534083895
19.4864 23.4744 24.1439 66.7010024094
22.9251 14.9473 17.9337 29.3752636318
22.1708 22.1456 24.1521 65.4050142696
23.309 24.4328 23.5402 37.3252256859
21.5998 22.8407 17.7611 28.4309249666
14.0187 13.1226 20.7492 30.3644578284
23.1235 21.6035 20.1903 29.4364411478
13.0307 23.1601 21.7254 29.2902028706
23.8073 24.6266 16.8845 28.973145965
23.6811 13.4822 20.2224 32.7960805666
20.6756 12.9343 24.2233 61.4596721187
23.9971 19.8924 17.4947 29.8383734485
14.14 23.4106 16.8845 31.4187014856
20.1442 12.4917 18.6003 32.2165725337
16.2072 17.9232 16.9759 27.516964093
14.8428 16.8489 38.7608 26.4833401682
17.6667 14.7799 35.8922 61.9077354395
16.2552 21.9385 42.1517 30.0673567649
14.5798 15.7308 35.9147 55.106081567
20.7348 14.6585 35.5632 86.2088240312
14.0684 13.1292 35.6415 77.9758948916
17.7226 13.2514 39.6068 29.1487276956
23.2001 17.8774 38.986 28.1163277192
15.4077 18.6457 35.4883 101.7529518752
14.2146 13.122 38.3266 30.7609713666
18.0253 19.5571 35.764 72.5169548753
20.0343 17.5916 36.0446 56.7600161567
21.6558 19.3163 40.6527 26.3394411965
20.0651 15.436 40.835 27.7087824549
22.865 23.3854 40.9859 30.8850634885
16.6881 23.1467 36.3564 37.3518468046
12.8193 13.0721 41.5036 27.9184765298
14.844 21.3646 35.8864 59.5248230316
19.7416 20.2951 42.6572 31.578084718
21.7601 20.8847 36.1794 57.4226800939
14.6296 19.7758 38.2981 31.2047925559
21.0919 21.5372 38.9303 28.4061550349
22.9317 18.2727 36.0995 62.0637255012
15.7372 13.1962 42.301 31.6491475161
15.0434 16.2546 41.519 29.3911600482
18.3073 21.882 38.8532 26.8374296389
14.6915 24.0923 41.2183 28.4924353014
19.8895 17.5461 38.8649 28.912591206
12.3415 22.3948 41.5819 27.3543211031
24.1474 22.1942 38.777 28.0147880429
24.1244 19.8093 42.373 33.6556314569
23.8182 12.9163 37.455 27.7159288748
17.444 19.4702 38.5214 26.8533388934
17.533 15.9018 38.5012 28.4194864974
17.7562 15.4487 42.4353 27.4848074531
16.0066 18.9236 41.2558 29.5772550438
20.9381 13.8869 38.4828 29.1173880754
22.3638 16.7957 42.2249 26.5642316936
18.7022 22.6061 41.4824 26.5144282237
23.5872 14.9933 39.5609 28.8872225104
19.2699 22.5703 35.8034 79.2871576255
13.2029 19.9089 41.3214 34.4281952199
12.2535 22.9073 38.7195 27.4472939575
23.6568 22.8079 36.1417 62.3758738579
23.4384 15.5833 35.8542 70.7136588191
23.198 14.0919 42.5897 29.4440312588
12.8237 16.1183 43.0554 34.0972004989
12.5749 22.6156 35.7097 73.2531073429
21.1182 12.4328 43.0328 29.5095894426
14.7391 23.8943 48.4761 29.3328231797
23.2375 12.4393 53.7639 27.5398737529
15.5747 15.7154 46.7241 31.7277890198
20.0167 14.8512 47.1873 28.7810631588
23.2232 22.04 43.5298 31.4336585044
19.2939 14.3872 44.4754 26.6217812402
15.4918 22.1528 44.8471 31.5638520729
17.8042 18.462 43.3837 30.0076864402
15.5875 17.3715 50.8536 31.7096033025
22.5299 15.4809 48.2937 29.2661492241
15.3319 15.1479 49.4814 30.5910444499
16.8528 18.2654 45.9601 33.9478291553
17.7389 18.0947 52.1753 31.8308040056
20.9375 21.4225 45.1356 33.2091184337
18.6772 17.4093 48.1594 31.1003752434
20.6238 18.9642 46.4444 30.5959698095
20.3614 17.0501 44.2696 28.1210016649
15.2675 20.1707 46.7659 32.51751075
15.046 21.2041 55.6169 32.0376107424
24.0453 17.4985 44.3786 29.4862709962
19.0402 24.327 48.8404 27.1924692081
20.6295 24.1757 46.6136 29.1847769249
14.4695 23.8709 51.6637 29.3195814153
23.8477 14.0667 51.8 30.0672322343
12.9776 15.743 45.7879 31.6883315048
21.7598 12.9239 56.1065 27.8920236074
15.5718 13.6997 53.607 30.9313600709
20.0402 14.1424 51.3661 30.7005384937
23.57 12.9173 49.0262 33.8934708984
15.3039 23.9203 56.0281 31.3055152618
21.624 16.2713 50.8371 26.1408414934
14.9903 19.9464 50.3006 30.1788196445
13.359 13.0226 49.7691 30.4238586667
19.8662 18.6703 50.4044 29.634544879
19.1426 22.5963 54.5062 28.5250993371
21.5353 22.6326 51.177 28.6470773722
18.2147 14.4083 49.3234 29.9615968999
22.4415 19.7555 51.0951 29.8815854258
13.004 19.8633 48.3396 33.2574238721
22.1743 23.367 48.6157 26.3337024833
16.7835 21.5528 48.6237 31.256783952
17.24 20.8112 53.1269 31.0571529163
19.639 21.1734 48.8861 30.5954262512
23.4677 19.0514 46.81 34.6451024206
14.6462 16.5141 53.6366 35.1625927737
24.2181 21.5879 47.4769 30.8249943507
18.4503 14.383 53.7075 27.9713081313
20.5215 15.1942 55.6077 27.5319778917
22.1604 16.5805 53.7825 29.5034891201
18.6847 22.5927 51.7198 28.0727019981
23.4835 22.8252 55.7816 31.7696000485
14.5737 21.3123 52.6593 28.1643208149
22.8059 14.9412 45.2657 29.8880873793
24.2425 17.5653 51.2999 26.7516148318
20.1392 20.4274 55.8582 30.8776245207
17.4516 16.7312 54.6326 28.8281766942
22.1563 19.4328 54.1367 34.1766795979
13.0823 23.2624 44.3529 29.7650663515
17.6456 23.7719 45.5864 33.3835655571
16.5795 13.6889 45.0893 31.0519209024
24.387 15.1785 55.2274 27.7794816494
21.5532 24.2318 54.034 29.2985402365
12.4863 20.1327 56.0531 32.7679816346
14.1641 25.0904 5.49312 30.6970713026
16.236 28.3355 7.79059 28.3202773781
14.9987 32.5028 9.17904 27.9585891369
24.0953 28.2229 10.6924 30.1036699213
12.4465 30.3966 9.04306 27.7677418103
20.4912 28.8329 9.54333 30.3890422745
18.521 35.5739 14.0213 32.5038201972
17.1828 29.0073 5.18288 31.5382408934
17.6897 25.723 7.72828 30.756106012
14.6351 31.366 6.46015 29.0820407582
20.4581 26.3719 6.5165 28.8513236102
18.8469 31.2309 7.54904 27.4193184329
21.7336 35.6196 14.1489 34.003244401
20.828 34.9202 7.76892 30.366767938
21.4501 32.4225 6.94953 29.8505569807
13.4349 28.093 7.74493 29.6161130677
14.4993 27.8727 4.36268 35.2128956643
15.8044 36.7654 10.4053 29.2959870098
12.812 30.4121 4.10545 27.1411137712
23.9601 33.0059 5.17838 28.477643779
13.9188 26.1136 9.54414 28.6677386406
23.6378 35.0744 7.47985 32.6195899292
20.5231 35.7747 16.734 32.2281751804
15.448 27.2176 13.8402 29.2640436774
17.9948 27.5986 14.7175 29.4393983836
13.9717 30.5585 11.5852 26.3940022147
20.2154 29.2515 6.36721 31.1567523432
17.2756 30.3238 9.73762 28.6729802387
22.8781 29.5806 15.7514 33.5882067259
17.9698 26.2964 10.4582 27.1043771246
22.318 26.6343 9.32317 30.7399787341
20.6514 30.7997 3.75591 31.2154652736
22.9721 25.3737 14.4112 27.9324668844
20.0777 36.3647 5.35289 31.8028481935
17.7626 34.3865 7.15548 31.0018843229
17.4721 30.8825 12.8443 28.128011081
18.6613 33.3005 11.8665 29.7457371026
22.0864 31.1591 9.28618 33.0358174801
12.933 33.594 11.0725 29.3369673681
23.9088 27.8925 13.7809 33.7343180138
24.7129 35.7007 15.0759 32.7899072115
17.1544 34.3327 9.96798 32.4597562472
14.1828 35.2379 7.69592 27.719943534
17.8677 25.2732 16.3134 29.3205851716
21.1173 33.8161 10.5812 30.1875906112
17.006 32.055 5.53708 29.4024253573
15.838 36.2807 5.94337 28.4566222129
15.339 28.0352 11.0247 28.3708832611
23.1026 26.6744 3.78261 30.8997564195
19.0272 28.6458 11.8959 37.9757621432
22.1499 33.0351 12.9944 33.1540379088
20.8783 27.2208 15.8525 35.7140673919
14.0315 32.446 13.706 30.2299639178
14.9969 30.0163 15.0612 29.9797167808
18.7648 32.01 14.9802 28.3685536389
16.4508 33.5639 14.7272 30.3714036982
23.3549 25.7942 6.61925 28.8513121034
21.3941 31.8775 15.4516 31.5941787966
17.469 29.8799 16.2315 27.9243781498
12.4877 27.3099 14.2297 28.6183382046
13.2399 36.2972 11.871 31.7301714166
20.2092 24.752 10.4629 31.7285100578
20.3247 31.3171 21.3221 27.3178907773
16.1951 27.0424 21.9955 26.4722780351
18.5451 28.972 21.3677 28.3608480227
22.8079 30.2378 21.6131 26.1902517412
15.087 36.309 23.6538 37.0050714352
13.2485 33.1356 17.9161 29.3732433467
14.689 29.8676 20.1235 29.4461880607
17.2287 32.3769 18.7965 33.1750526201
23.5266 27.1747 21.6309 25.0083308698
19.6179 30.7637 18.3926 29.3754548248
24.5284 32.374 21.0855 28.6255062641
23.8984 33.0891 18.2755 32.0200236098
17.9725 33.692 21.6114 28.7162567428
20.3676 26.9534 21.2882 27.4124325411
13.7795 33.7971 20.5305 29.2608306593
16.6785 34.1635 24.4042 89.048393516
13.8535 25.5839 20.2303 30.3077178227
15.4346 28.7715 24.411 68.1189464184
13.5635 30.2907 17.6818 29.7664608445
22.9292 29.8159 24.56 82.7558382905
22.1693 26.6316 18.6741 27.2227430315
17.6983 36.3397 20.2476 33.1050189737
18.1295 29.1736 24.3423 70.2117117425
12.2215 25.0875 24.3659 71.8341358589
19.3493 26.4527 24.1147 59.3034824418
21.1413 33.3107 18.0857 29.6697144691
16.5972 25.6877 24.1133 67.8336773995
20.2078 30.926 24.4101 70.4931472235
15.6047 26.2707 18.0682 32.2315764809
15.6369 32.1858 21.698 28.9979988802
12.4788 35.0074 24.0459 64.9206280681
16.8248 28.7017 19.0767 28.93468879
22.2955 34.6134 24.3071 69.9380016019
19.697 33.5746 24.3402 69.4418410604
17.8846 36.4979 17.4114 31.491924238
