19.0949 10.4615 55.9411 30.5786367851
23.5797 12.8548 56.1938 28.3507366848
18.5194 12.5228 54.1511 26.0631873441
22.8393 12.8589 49.6047 30.8102804693
24.1292 3.55532 55.2943 29.1886251887
22.8402 0.206013 53.6744 28.8031959795
16.6038 2.55607 53.8732 32.248078747
12.3623 11.5769 52.5645 30.9094750268
15.021 14.6787 49.1605 30.8208841519
18.2203 1.49029 51.7768 31.3692642357
13.3809 6.18626 53.507 32.1321058317
16.494 4.90031 46.093 30.7524993389
17.4677 4.89621 55.2374 30.5778640007
16.118 7.34789 54.4235 31.5322038361
21.9007 5.66948 53.9001 30.065358955
18.2569 13.5368 49.1464 29.0204719836
22.0635 15.6813 50.4862 29.897029482
14.3775 0.529924 49.6771 29.3124903102
23.9986 16.3547 52.3791 29.8418027652
12.5201 8.5775 52.2197 30.1823548421
24.281 8.9443 48.1373 29.3302569306
13.3163 10.3309 56.4351 31.4805741836
19.6795 0.44966 48.6459 29.592674026
16.4948 9.69719 55.997 28.0918419066
12.5001 10.9449 47.1455 27.1862838898
21.9521 8.07173 56.7584 32.4931802913
17.0926 14.0408 55.9142 27.6830420113
24.2607 4.11092 45.9714 35.5908242397
15.5439 7.78556 46.1102 28.8256622374
19.9225 9.00875 45.8751 31.2398041082
13.8615 28.8517 11.5066 27.1866093011
22.4819 24.91 3.64361 30.1698409721
19.4219 17.2565 5.23788 28.3070313675
24.192 26.8136 6.9881 31.8811161799
20.8299 19.5904 5.33276 29.4677383995
17.2339 20.3095 7.64993 30.5799844871
22.6811 18.0959 6.86344 30.1083509115
20.478 21.4354 7.51572 28.0041726217
19.1955 31.554 10.0931 28.7551614548
22.6152 23.0714 7.27189 32.0421866039
12.7837 19.9288 6.82494 31.9311766318
19.7148 22.1245 4.02231 31.912867284
15.3554 27.5679 4.60597 30.1400900022
16.0954 24.4033 5.00036 28.6295009732
20.0659 27.8244 6.78122 28.680075917
21.9053 25.5481 6.27996 28.2865860773
18.8886 24.46 5.84568 31.761608897
21.7597 30.0815 6.82796 33.0163509228
16.9123 31.8779 11.8756 29.5202027424
16.2632 23.25 13.9412 39.8147320446
19.4321 26.4629 9.22552 30.6264276539
21.6419 30.1418 9.69066 34.6922076796
19.2463 30.2707 3.90052 26.4163690825
12.9 31.2478 12.1132 27.9823180075
23.3634 31.1438 11.6599 31.3816651165
14.5018 18.3757 10.5048 29.896518155
12.9307 30.9801 8.01668 29.83506535
20.2662 32.0825 5.70209 26.9321301466
16.7487 19.116 5.11539 33.4558185295
13.8065 17.9159 5.05258 34.3975763625
13.2369 25.423 13.3662 29.3139626045
18.9215 16.8857 12.4438 25.278215703
18.8396 18.7218 9.1421 32.229179452
18.3798 22.9265 8.39714 31.7758669243
22.5161 23.7998 10.15 34.1973466105
12.8302 25.0881 10.5078 29.6519832126
14.7074 25.8475 8.82873 32.3054461496
19.7944 23.8973 10.5015 33.1754491456
15.54 23.4001 7.79452 30.9720366498
21.5208 27.5932 10.6541 35.3256376522
24.022 26.0074 9.79924 33.6649705436
14.7292 20.4409 8.87487 32.7962966028
14.8199 27.7059 13.9347 30.7197320291
17.196 28.4426 12.5141 30.9841706899
16.7064 27.2566 10.0683 33.8706299871
17.7031 29.411 8.31949 29.8785817839
13.1963 26.6686 6.52614 30.4642510565
11.9516 21.7203 12.5587 29.835781656
16.9566 17.2772 10.7661 31.1081186999
24.504 22.2066 11.526 35.0011464061
22.5272 16.5422 9.49471 26.3965344477
24.2444 17.5 11.7192 34.8809457173
15.5161 30.5379 9.72985 28.1221146184
18.5919 27.1791 4.35166 29.4314854318
21.4037 19.3796 9.81476 35.5392508246
20.9999 18.5749 12.5749 30.6274026291
17.0683 29.7267 5.70044 28.2570757434
14.7529 31.5294 5.68946 27.6110099628
18.8893 23.0866 12.9698 37.0365228948
19.8895 27.7423 13.0853 34.7965862987
13.3802 22.4856 5.96536 29.3328903691
16.4456 21.493 3.76766 30.0955346301
23.7558 30.665 4.09682 31.2435176533
14.2132 19.8769 12.8651 32.7437253757
13.0076 25.3802 3.92993 26.100498383
12.7364 22.5612 9.93999 31.8269900853
22.8437 16.6357 14.2545 31.3408291752
23.5699 31.8466 20.3044 30.2712158
17.7825 19.0072 14.1263 38.7008117452
14.9028 31.6437 15.5673 33.1520362956
17.1692 20.9051 20.1792 31.5864753563
20.8988 30.3999 23.933 51.1946793049
23.7625 19.6437 15.0283 33.1190097842
14.0214 30.3234 17.851 28.7967651111
19.5134 19.512 18.9616 28.5409128891
19.9104 18.965 24.1554 64.090125167
22.5079 20.6883 19.0286 28.34783457
18.5986 28.6305 24.2021 59.4824665412
15.2971 26.8266 18.7482 30.0494765862
13.9483 16.7513 21.9094 28.3425609777
18.8694 23.4515 18.1997 32.6952971726
21.667 23.006 18.0429 29.5187062504
17.9569 25.7856 16.75 31.0402685785
23.8245 26.9217 18.1614 35.0101645706
22.0002 23.1506 15.2996 36.1701785367
16.2081 30.2887 19.2824 27.0034997815
17.6304 28.4756 17.3165 31.1483229426
19.5636 29.0385 19.35 29.5310349656
22.5952 18.9625 24.2666 69.2417253694
18.6799 16.8356 18.6891 30.7531540387
20.9742 29.5421 14.9394 32.5220812557
13.1689 20.2214 16.3063 30.2854964494
20.7965 19.5842 21.5307 29.8820656475
21.2139 19.2549 16.159 28.2452598011
21.4744 22.3377 24.2458 59.8417438875
15.0821 20.5789 24.2264 71.130891966
23.6445 26.36 24.6843 112.6201520579
18.2921 22.8163 21.6601 26.3171510331
24.0481 20.9894 21.77 27.2395925592
18.7176 30.7591 22.0786 26.5148801637
13.8403 26.623 21.6681 28.1401326135
12.6796 19.1609 24.5733 86.9072392384
21.2402 22.9295 21.5035 27.1895514708
20.8947 25.5972 21.7264 28.6501301177
17.4128 25.3946 19.8179 28.8628255813
12.44 23.3813 19.3255 31.443917853
21.8445 29.8067 21.0984 28.2878973828
15.9672 28.5899 22.0961 26.4096147775
13.3891 30.675 24.2531 64.6588071276
21.7776 28.7334 17.4827 33.6014450982
20.9558 25.2225 24.584 81.0768862984
18.4659 20.9789 16.8061 32.9948799987
22.9457 31.2024 17.6397 28.7084169194
20.0978 25.2 14.5954 41.3716126981
17.4881 17.0018 23.3848 40.6664179292
16.083 19.1329 22.3098 30.9250205234
17.4175 30.149 14.8649 30.4276010079
18.2983 25.6133 24.4171 67.1512597366
12.8854 22.8409 24.1946 66.4374550125
23.4435 29.1314 24.1651 78.2733823424
13.7647 19.3038 18.7663 31.5149953558
16.1425 29.7499 24.7572 104.6457473437
24.3953 17.1934 18.7824 30.4417144352
15.9034 23.8962 21.7058 28.2007465909
13.3742 25.2634 17.2295 31.9914253539
14.2337 21.5355 20.3102 31.2682301151
24.1261 21.7466 24.2916 72.160984664
18.5289 21.4928 24.2904 77.5444567468
13.9998 30.5283 21.4292 27.6354073927
23.2418 17.884 21.4714 25.8342424828
23.2401 27.4731 21.655 30.9422482582
11.9938 24.3201 21.8976 27.1107941369
15.3516 26.4393 24.478 68.725489994
18.6893 27.2789 21.5686 26.657630326
15.8752 23.5697 24.3094 62.187561
19.8275 32.1749 19.7482 27.554864619
22.8258 24.891 19.5061 29.2524351666
15.7474 20.8736 14.9447 31.5560297802
15.9956 17.1058 18.3321 34.4441788128
16.8377 32.4035 23.5501 30.4151239686
12.7571 22.8885 15.0661 29.1993140037
15.5935 25.269 15.5298 29.5045471755
20.2924 16.6556 15.8475 29.3062587691
24.3768 22.3414 14.4343 34.9945447094
12.3471 27.8295 17.6086 28.6756578375
12.5534 26.1509 24.4666 80.2867524697
12.3622 19.5094 21.6766 28.1657334392
23.6507 29.7861 13.9495 34.6620780022
19.2306 31.9499 14.0586 30.6524532944
20.2316 21.0536 14.2244 29.2765583954
12.5693 17.8954 14.2456 34.1929991286
20.5886 31.1391 45.0174 33.7275692869
16.7655 22.2193 35.5834 97.1890432339
22.9773 17.2197 35.9909 60.9400459003
17.3459 16.4441 35.7983 64.3661705075
16.5954 19.3152 35.6151 98.8671372036
20.6653 20.8143 38.7351 27.8593867195
18.0336 19.9023 38.7795 26.7404615075
23.9724 19.7493 36.2559 54.406334061
15.392 26.4717 36.2502 64.6018880552
22.5331 21.7736 43.7314 26.8936247757
13.4527 16.4017 37.2676 29.7567362067
15.9149 25.0137 44.246 29.63072741
18.4891 26.6641 38.8208 25.5864032628
15.27 31.6246 40.0038 28.9489808979
12.4727 20.8039 45.1389 30.0137608429
19.1251 27.1537 44.0231 31.5564153275
13.3089 28.2337 36.1416 58.3971908057
15.3705 26.5459 39.2707 30.3797697243
14.5214 23.8313 36.4467 44.2078590901
21.7202 18.9808 40.4964 26.2655637635
18.7285 29.9039 36.7032 35.9870362609
22.5901 27.9656 35.5632 89.7338722539
21.1811 25.9896 39.472 26.1778528663
16.5442 31.8404 35.7427 92.3111184341
19.6499 32.0877 39.659 31.02166076
21.1735 21.4316 36.0267 70.9347626547
19.2976 23.5501 35.8362 67.3292472253
18.1706 27.0747 35.977 85.5606922037
22.4883 29.321 43.6378 34.6212501261
13.684 23.8702 45.5645 27.7719246944
14.0214 30.9396 35.8113 80.559185698
23.0807 23.3979 36.3397 47.7400777057
14.933 18.9585 37.9072 29.2762213887
18.7786 23.8414 38.678 29.1256402649
19.9546 18.0179 44.9354 28.5245121124
23.3672 24.4422 38.8861 29.4633201099
21.1846 30.3224 35.6345 96.5481984436
22.0034 19.075 43.2646 30.2905340302
14.6707 23.9089 40.5523 29.7138884245
16.5029 22.1547 38.4422 29.67752737
17.9779 19.0315 42.1616 28.0750890681
19.5084 17.2652 40.161 26.5637853175
13.5332 16.6641 45.5257 27.6634962178
22.2013 25.0768 42.4889 30.5651584712
22.8531 22.3918 40.8782 27.6456974163
19.4214 29.1821 39.6018 26.7519797085
17.3188 26.5652 41.7905 32.633000898
16.9139 16.9868 38.5622 28.5064860174
23.9397 30.5051 39.4927 33.3740411181
16.6682 30.2588 42.9502 33.1395285454
20.3316 16.2103 35.4005 102.8909942631
16.5719 29.2464 40.4568 29.9370654472
13.4328 26.8707 45.8829 27.4673566948
20.6615 24.5899 44.9549 31.326541144
14.6942 16.4294 43.0463 27.8524023122
14.0777 31.4079 43.4938 27.6110725907
15.1841 18.5334 41.106 34.7637321749
13.0223 21.9432 39.613 31.1841589381
12.7575 28.2729 39.2944 35.8006744315
18.2116 21.6799 42.4115 30.3610722029
23.4613 32.3235 41.7643 32.1608250763
13.1651 20.7029 42.176 29.3578557655
21.2097 25.6689 35.8469 67.5020947003
24.0799 23.3793 45.3472 30.3930871032
15.4688 20.3374 44.8858 29.9273975181
15.6401 22.5653 42.8447 28.0283441922
17.041 17.9055 44.5686 27.5986439624
20.785 27.8913 41.8953 32.0839965915
24.3291 20.1818 45.6924 28.4570313166
19.4092 19.1387 36.1984 46.9872619235
14.5644 27.73 43.4739 28.672662266
20.0523 22.9755 40.9021 29.5636504847
19.8946 21.7929 44.7496 30.7323786752
21.9639 28.3361 38.3022 28.4356107778
18.5055 29.4125 45.0746 28.5826207564
24.1549 19.7529 39.0991 30.2172508112
21.9806 32.521 38.5809 28.7984826836
13.1187 26.1934 41.6777 29.6517526335
17.2506 32.4515 38.3501 27.9469387651
13.3302 32.3294 38.1083 28.5980375544
23.53 27.9321 45.8047 31.1501598026
12.9612 28.5556 51.5626 28.3954601029
16.5475 22.0265 47.374 30.2599596281
23.7438 29.9267 47.7751 33.0842653536
24.5694 21.3803 54.8395 29.4546032639
20.206 30.896 53.8332 27.9180455458
13.3704 20.4602 54.0197 33.9895835345
20.082 16.7667 53.791 28.8549138416
13.9845 22.7911 55.7121 34.1244982532
18.6301 24.8675 48.9924 36.4112366368
17.6407 32.4421 49.9331 30.4154241969
14.8498 30.7791 52.2811 29.7937742344
15.6301 29.3492 46.259 29.7058079635
17.0937 29.2514 49.0923 29.0122756592
19.4815 28.8777 47.8694 30.5067222864
24.3135 29.53 50.9276 34.5778197898
14.4581 30.7996 49.1206 29.092164658
22.3094 31.4421 51.9007 33.0933595832
21.4418 26.877 51.5158 29.0543995806
12.4052 27.9495 55.5325 30.8472621008
13.4399 27.6903 48.6625 27.4718570237
21.5655 31.2559 47.5043 28.9540032624
19.549 28.9235 51.9159 29.9918877632
13.6079 26.3253 53.542 27.6461986481
19.0898 26.2057 54.7235 29.2736259826
13.1256 32.0138 54.5312 27.4950512635
16.1144 19.6693 53.7182 28.9974154469
19.5519 17.7642 49.6874 29.2947164031
16.8989 19.0583 51.0087 30.4781798204
17.0533 19.0575 48.0003 27.7933595584
14.2581 19.1925 47.4251 31.8029877216
13.534 22.5208 52.0269 29.6818998694
16.2004 26.5576 47.9755 28.8374870338
16.0366 21.752 50.2009 26.3000119259
23.4132 20.6084 50.0678 32.0396101038
20.9743 26.6788 48.7333 32.9027281752
20.493 20.2729 50.9025 31.7768256392
24.43 25.06 49.2804 35.1334665893
15.7435 24.5978 51.5201 30.1425741717
20.7846 24.1679 52.3203 28.2894793977
15.6446 27.4973 51.4126 27.0713263312
18.0977 23.6565 53.224 29.8198496478
14.7503 17.1556 50.5667 30.562490295
12.2981 16.4036 55.8981 30.5258959931
19.997 30.8819 49.9317 27.1196185425
22.5108 19.4978 47.6897 32.9167792448
22.8579 25.5376 46.9096 31.6657779543
16.7054 30.235 55.0151 27.8450357023
15.9079 17.6259 55.4753 29.6289028708
23.026 17.2026 54.6859 30.9624233932
18.122 24.3495 46.2122 30.6861933441
20.0846 19.5425 53.4211 31.4068207391
22.1506 19.8363 55.6425 34.0933302277
22.0756 16.8501 47.8985 28.0995700306
18.112 21.1865 54.6035 26.9425040262
18.7929 22.4804 50.7109 30.4494975383
14.6826 24.306 48.4525 29.9141425914
23.1978 23.2738 51.2993 31.0668596158
21.4868 22.9058 54.9014 30.226963274
21.5419 27.0826 54.7507 28.097434728
14.9109 31.902 46.1649 29.5275411918
17.2311 28.1681 53.2532 28.8857357911
15.9027 25.4929 55.2365 29.4752444439
13.2818 20.5137 49.9233 29.2450231978
19.5577 20.0473 46.9307 32.9425524563
21.646 29.3851 55.771 33.1812398932
12.4415 18.2773 51.3332 30.1254553594
24.2659 26.6879 51.5655 27.9456560091
14.309 30.1888 56.4064 26.6752099636
14.3645 43.0701 4.678 26.0937816521
21.8311 36.4102 8.62022 27.8318115651
18.9848 33.9561 3.72038 29.8119519442
19.3633 36.8779 3.9603 28.4270398584
18.7738 40.8603 13.9791 35.5008203666
12.6356 33.6565 4.22014 28.1498167418
14.3639 41.5562 7.62876 31.3637520021
15.489 35.9701 6.97876 28.9582044653
24.0674 39.4304 6.70986 33.9214395711
18.11 37.4394 7.59179 27.9339478461
20.7313 44.8228 5.94559 30.3896228425
19.282 35.1381 8.64453 30.0867365529
24.134 48.824 10.871 30.2007046863
22.0602 39.0134 8.32043 29.5274430437
16.4602 41.018 9.86319 29.9432725632
21.5371 36.3417 5.83151 29.1352122254
18.1307 41.7662 8.02703 30.0981602137
19.8814 43.8869 8.62274 32.8649971022
19.7917 39.6245 6.93897 28.7236914785
15.6072 33.1805 8.42028 28.2752991548
17.8651 44.8269 5.48752 27.1841835105
16.4071 46.3445 3.59919 29.2817501191
19.6146 46.5704 9.69021 30.5817448467
24.3349 34.9123 8.08114 33.3684013375
23.7284 44.98 6.95901 29.9944102617
21.2469 47.138 4.42609 32.2366426045
13.6859 47.6983 10.2879 31.5614335386
21.8186 44.9177 12.9939 33.2213283032
22.0671 47.8859 8.73551 30.5575645186
14.2259 35.9042 9.99776 30.5060297777
18.0435 38.3768 9.96935 31.5914694802
14.7928 38.8497 10.9375 33.282121703
18.7419 34.8825 11.3043 27.5202789583
22.6643 38.3656 4.50078 29.7055016863
15.0793 38.9661 13.6328 28.9088669043
15.7079 43.3417 11.2918 33.6126934403
21.455 42.9783 10.7988 32.2020847616
23.7057 44.0561 9.51649 32.1252472666
17.4058 45.996 7.8014 35.1164232865
16.5216 47.7447 11.5892 31.9580754558
19.3364 46.0017 12.391 31.883911734
11.9738 35.6488 12.9874 31.0173255069
23.4023 46.0752 11.3164 28.8989989173
13.8068 33.5892 13.4194 32.7048662388
16.614 33.9125 5.30706 27.9133671874
15.9142 34.5338 11.5409 34.1810233981
14.5413 39.1386 5.91103 32.5071943542
20.7143 32.9466 11.7602 32.105731808
20.1567 37.087 12.0192 28.4722183229
18.4391 32.8252 7.52098 26.6312395683
12.5064 41.0091 4.62378 25.7450402916
15.0829 45.2932 9.4339 30.710639228
22.7145 36.5487 11.4015 31.3218094967
16.8275 44.9815 13.4639 29.3618673108
13.3933 42.9027 12.7962 26.9330347216
12.7308 34.4386 7.82479 27.7384160572
20.7215 40.4392 4.52823 29.268651656
22.6879 40.6169 10.6225 30.5439490947
19.8093 40.055 11.4813 33.1851028733
22.2764 33.7689 4.92923 31.0240931674
16.9398 42.4346 5.6662 27.3780800447
18.1279 40.5221 3.95647 28.8942795367
14.266 47.1701 6.00503 31.3505332282
23.6182 33.9264 12.246 29.7900244484
17.0539 38.081 4.77039 26.5361298878
12.4762 39.7429 9.33187 33.8059611625
23.3351 47.8997 6.31548 29.6935983382
13.9003 44.4287 6.93083 28.9430807371
12.8454 37.0332 6.29085 30.0392795063
23.9754 38.8016 12.4939 34.5869901449
22.2529 43.1275 4.28974 37.9115319605
12.8402 38.0992 14.5278 29.9968726016
12.8079 33.9613 16.5416 30.9645672029
24.1645 37.3797 24.3207 93.5862059269
14.842 34.1923 24.744 116.8404043163
16.0507 34.1243 17.0101 33.0406408583
13.5527 38.5017 21.2643 29.451987572
19.7945 39.2674 23.9602 60.4741830261
21.7352 36.9672 15.6568 32.3837066888
24.367 42.2453 15.5052 34.5318501692
15.3912 36.5457 18.1566 31.8920331371
13.0261 36.891 16.8469 30.4273888466
17.0327 38.6865 17.4689 31.4277140876
22.853 42.6236 24.3731 82.1685544274
20.6863 40.7598 16.0536 33.6352077302
23.8752 34.7405 24.0659 56.4017348921
15.7379 41.1466 18.0916 29.5835305755
13.1455 41.3837 16.8027 27.8992664407
17.6735 42.8393 18.1765 29.8057979641
20.6185 43.4219 16.787 28.3135525604
23.0529 39.6135 15.0914 31.2289753987
22.7589 44.4958 15.6222 29.2572436359
20.0827 48.4361 16.4731 30.5696010737
15.041 46.9545 14.6933 30.9633590646
16.9498 47.0834 16.7786 30.5210179024
22.6019 37.6105 18.4298 34.2749898269
23.8871 47.0291 16.8393 32.8208945854
17.0802 42.8177 15.3015 31.0751348333
20.8398 46.4325 20.3579 31.0823382253
17.3043 38.5071 14.7975 30.5125555938
22.342 39.7715 24.421 89.3282457728
20.5426 33.1209 17.1438 34.8550911752
20.3616 34.2785 21.4902 30.9509799343
24.5038 34.5822 18.4231 29.2597408529
19.8002 38.5766 17.5732 31.0798140226
21.9918 39.4636 21.3416 32.3314875952
22.3704 48.2889 21.6931 28.8849554981
14.7324 41.3893 14.2731 26.7320171834
21.6565 44.094 19.187 33.4448265152
17.0426 45.5018 19.0902 32.2589393124
22.2758 42.1166 21.4334 31.2322356802
14.5421 45.5705 23.7863 43.6771281879
19.2065 45.7552 15.6749 31.9409100467
14.2021 45.6191 19.42 34.2273270891
13.6515 43.6595 21.6281 31.3620688221
17.9862 41.3335 23.5798 45.1164448822
18.9454 33.9422 24.1633 66.6298688274
13.2613 44.6909 15.1933 32.0169070284
15.1334 33.5917 21.4909 28.0090254529
13.5291 48.1343 19.6284 32.6000722516
18.8221 36.311 21.4514 35.2049986773
22.8546 34.4614 16.1839 31.0607518255
18.012 46.5306 21.2507 31.4751903736
22.6364 46.5245 24.3317 84.3135238407
17.1535 45.851 23.9675 67.0345016382
15.3054 40.957 23.557 39.6090784722
21.0637 44.5961 22.8899 32.5042355359
15.9938 36.5134 24.1982 60.0235599265
15.7364 36.4371 20.8945 33.3158485299
18.5725 36.6891 24.32 89.667236499
19.3935 38.8296 20.2452 31.9397260732
18.5879 34.2808 15.8159 34.2085802361
21.6534 32.9791 24.3494 95.1260076807
23.0837 34.7538 21.2985 33.2768608226
18.7853 43.7812 24.4476 113.594117768
24.1862 37.5142 21.0582 31.3962488506
12.4434 43.9681 17.5182 29.1503279998
18.3707 41.6164 20.7536 36.694716879
15.2071 41.4038 20.8371 32.6654093092
22.0338 48.5817 18.3311 28.3451811045
14.1839 38.559 23.8974 61.9238001611
24.8531 39.2554 17.3687 31.9935659189
18.5573 48.7418 23.9152 60.0334039181
13.7102 42.806 24.5797 108.2158338827
19.1011 36.5406 14.4859 30.0177782736
12.1812 33.4071 23.7892 40.8326050733
12.5189 47.333 24.6477 101.1795947128
16.9891 32.7929 19.4615 32.0813870525
20.6644 48.0169 36.0118 52.2197681394
16.3646 34.6259 35.8631 67.3205190187
12.454 35.1589 42.0896 29.8295885975
13.7183 43.2598 38.2744 31.2657025084
24.2333 34.5389 40.351 29.4437742447
14.5038 34.9771 38.2631 29.6619007427
22.2475 35.66 35.8815 72.1793295843
24.327 38.5332 41.9557 31.2233126009
22.3749 35.6259 38.7253 26.9194834321
16.8205 37.4509 39.2121 30.3539746872
14.9655 41.3107 40.027 25.8818892373
23.3037 38.2382 39.2582 28.9979897186
16.5505 41.0722 35.7508 76.6368983493
18.5074 38.8544 35.8596 80.2101896764
19.1501 33.9126 41.8078 30.8825644336
21.2276 40.0279 38.676 33.0978912298
13.8023 46.8937 35.1612 103.4015849512
14.6807 44.3103 35.5015 81.3445944876
17.5898 43.7823 36.434 36.3248053553
22.2117 46.7025 45.4937 31.0147948876
18.3949 46.5632 35.9693 67.2210347799
23.5327 44.5998 43.913 30.6620416889
14.3339 38.3286 37.9236 27.8605861012
13.2088 46.1953 42.6083 28.1053600283
16.4038 47.3482 38.292 26.8689387721
16.9667 34.4304 43.2937 31.5353372611
22.7927 46.5682 35.9657 69.5933715145
13.6085 40.1042 35.7018 88.8569160484
12.1402 41.7685 41.437 33.7089359883
18.7936 47.2737 40.4079 29.1716151916
22.1274 42.7896 39.0182 33.722333103
15.9809 36.6894 41.9388 29.2812325228
20.2683 35.9546 40.3868 32.9148243721
23.3597 41.9485 43.8023 33.057522576
18.2136 35.2655 38.3491 28.9845120625
17.5169 47.6369 42.8183 32.8122495833
16.2375 43.8565 40.6504 28.5428497963
12.3332 44.4579 44.6482 31.0226762856
16.6676 40.3181 38.3778 27.9347958903
19.6856 38.2469 42.2303 34.5757761908
17.3601 38.2248 43.8671 29.686747009
23.0606 45.4783 41.4035 28.0916733257
21.9706 39.0866 43.8287 33.1813075749
13.8305 42.0392 43.8826 28.6941760832
23.5856 47.4962 38.5781 30.8666933847
18.1522 44.9635 39.0632 29.5665528679
18.7833 42.4589 41.651 34.9040872171
18.9237 40.0981 40.3015 30.8283440152
14.6565 33.5043 42.0614 29.3504852785
14.0127 45.7297 39.7142 30.5331550874
15.6556 45.4826 42.8185 29.4053811636
21.7771 47.9613 41.1225 33.0429142694
16.1146 48.2513 35.6936 67.889417473
20.6786 41.12 45.208 31.4430610629
14.2516 36.503 35.7357 87.6346266694
19.2994 35.8186 35.86 85.3789436856
17.09 36.5524 46.1171 29.947741101
22.562 35.2198 45.2203 33.6651829228
20.741 40.3427 36.0303 38.4541705083
13.6155 37.7503 42.4125 27.8256323424
21.2488 33.4873 43.4173 35.3557460538
22.6599 43.8827 36.3556 37.1344789625
20.2755 42.8114 35.3579 122.3629935774
22.3108 32.7891 35.9634 60.3015407284
22.8047 38.8055 35.6413 92.2564773987
15.4953 40.0645 42.6344 32.5212360662
15.9872 43.6757 44.8463 31.2450367294
18.7584 42.979 44.6169 31.2772553887
20.6201 44.467 40.6121 33.8175872991
18.905 47.658 45.2802 30.6299213867
19.8139 45.1544 45.6636 33.8434814174
19.0586 38.0745 47.7962 25.2842313416
18.2385 34.8269 48.5368 29.1078238735
12.4087 46.829 46.0658 29.4561592443
12.8104 43.4026 53.0636 27.992578737
13.4785 41.0446 50.5674 29.9553449274
21.2479 47.22 54.5336 28.8258180095
14.2175 39.6115 48.1032 32.7753515578
17.5229 42.0053 54.4912 27.3812728497
22.6616 43.3775 51.0444 28.688321538
13.7943 45.2395 55.777 29.111098919
22.8109 36.973 51.6732 31.5696849799
13.9939 46.9363 50.6302 30.7007813
17.9285 32.5456 54.213 27.440349652
16.6518 43.717 48.4096 31.7089598868
20.7312 40.5352 48.0338 29.7714607369
20.5735 42.6226 49.4754 34.318891834
18.5914 41.0465 52.0018 36.3867282721
20.2387 37.9488 50.5996 31.8464976437
23.3815 34.0731 55.1268 30.6962591336
19.2783 44.8158 48.4973 34.4178998029
12.899 45.4365 48.7105 30.1969447016
20.7451 44.7053 53.4231 31.9935319657
20.1132 47.1437 50.006 34.0541733874
22.7349 36.6732 54.3442 27.4286394174
23.1288 34.0391 51.2432 27.7645663153
19.1244 36.2626 52.6277 28.9549487781
14.7504 38.1845 51.7725 27.460717234
22.6998 33.8365 47.6308 30.2725944813
22.8911 47.1836 49.8854 28.1449779425
20.9644 35.7491 48.8792 27.956712525
16.7078 48.0696 46.7351 35.3514611555
14.584 39.015 54.3443 30.7988143123
20.345 37.8868 54.8094 29.9925055011
15.6464 42.2539 52.0535 27.8564397006
14.7762 41.75 54.8656 29.1069271849
13.9389 34.4193 50.3965 26.454004653
22.3449 42.5295 53.6442 30.258335856
12.3941 36.4671 51.459 28.1472600423
14.4957 36.9835 47.0927 30.697052107
15.8144 44.7179 51.2123 33.8084358627
24.0866 45.961 51.8165 29.2253326905
17.1139 46.0631 53.4446 31.627879163
19.1624 47.8668 52.6467 34.2225887517
15.9791 36.2888 49.4452 28.6678092546
16.4627 35.948 53.234 32.5631748414
15.2079 33.7385 55.866 28.7337696579
13.3089 33.3723 47.8099 28.6544720495
15.0225 45.3877 47.0114 30.8225649947
24.6064 38.5184 50.3823 31.6081917022
20.5765 34.1265 53.8297 27.130399094
16.1597 33.3609 51.8908 26.6920238747
15.4268 36.7126 55.8282 28.9863261597
17.2533 38.9694 50.2999 29.1398180723
16.4904 41.0498 48.3783 29.5745140744
24.3348 43.7221 48.4869 31.3400623586
20.1982 33.908 51.0576 26.345339768
20.3586 40.8494 54.2925 32.2070118024
12.3221 33.0867 52.1893 29.1068443889
14.3962 46.9244 53.7528 27.7302212343
23.8623 46.3206 47.7153 30.890029165
23.9159 45.7812 54.5028 29.8874533072
18.627 44.4135 55.1264 31.2811608135
24.4416 41.6467 46.4814 32.5821266154
23.3244 39.2161 47.7932 31.0610611299
21.6031 37.5084 46.2238 31.1739918209
12.5007 36.5124 56.2798 27.8739791178
12.686 40.4365 45.8423 34.6440457626
17.1815 33.6126 46.0859 37.7056968991
17.7966 39.9953 46.2331 31.4375713297
35.7053 10.1918 3.72889 28.8205116827
33.9341 16.0846 8.50231 28.0880677687
32.4683 14.4706 12.2365 34.1336839417
29.5733 4.50176 6.9366 31.3736536794
34.7427 11.6048 11.2489 29.132516955
32.6843 1.71701 6.45487 31.8049422537
34.4482 14.1056 6.34878 27.7426927679
29.0616 13.9376 9.39982 27.4528495309
26.1912 3.74438 6.48726 28.3933158623
28.7196 5.92773 4.25207 28.571726326
34.3603 3.35387 13.8249 28.0460235326
34.9446 3.05547 8.89046 32.0393712474
36.4092 15.216 12.4573 29.6709211492
29.5084 8.29771 5.58598 29.3706928849
35.6121 7.81758 7.95706 29.5505652588
31.203 6.83669 12.2294 29.9634548333
33.0593 8.24302 5.67042 30.30433264
36.7103 9.82352 12.2545 29.9739855176
28.1286 3.0917 4.30616 28.2915752384
27.3478 12.5258 4.66859 28.5426876015
35.2816 12.5166 8.72349 32.171470732
26.7114 12.7474 11.989 30.6020117341
32.8106 15.3931 4.4465 27.5044914364
36.4183 0.631602 12.3688 26.6248068126
34.5261 0.772079 10.2327 28.8713196508
30.23 1.7094 7.58204 27.8707957049
26.6616 0.542792 10.1817 29.9638887781
32.7087 4.95726 7.40509 31.2336732083
31.6475 11.9093 4.39792 30.4376186667
26.7317 4.8455 8.99943 29.2517263884
28.8716 6.70717 9.16236 29.1251477469
33.9828 4.34779 11.2637 30.909615494
33.7126 7.15981 9.76328 27.8640183498
28.0444 11.9946 7.91531 28.9683684457
24.8315 5.82706 5.32523 29.2207222852
26.7427 9.75549 4.82547 27.569652151
29.3334 0.598195 13.4389 29.1978638404
31.2573 7.69596 7.67871 26.6219697924
35.0087 10.1771 6.63301 27.314053911
25.1722 13.311 6.50917 31.8001804777
35.0985 4.61714 5.22959 31.9216066215
34.853 13.2131 13.2253 26.6682473624
32.5258 11.8665 7.18173 31.2366049036
31.0859 14.628 7.54759 30.8853202569
30.0793 13.2359 11.7856 33.9617647171
26.5899 2.98514 10.9112 28.2593060453
33.216 9.52519 11.4477 29.0353041876
28.3535 3.29148 12.9036 32.0615679598
29.7175 13.8657 4.91058 31.9239104612
32.087 0.702407 11.488 29.0567043231
26.3758 15.418 11.3052 35.2807872604
26.9107 8.2398 10.7704 35.8565332648
33.0071 8.38311 13.8556 32.5166716505
31.2677 4.84505 9.95935 27.3704549351
30.0202 2.49176 10.352 29.6673598452
36.0593 6.68036 11.7041 30.4318379734
26.7958 8.55879 7.5366 30.7524446349
30.6658 10.613 10.9327 30.8970836233
30.1425 10.3658 8.28285 29.1537316236
28.5926 0.56779 5.74691 27.6864285524
29.2237 8.8371 12.3091 31.6053547889
26.3934 10.873 9.89108 29.444400068
24.6845 16.153 5.98857 27.6089186577
24.7994 14.795 8.99534 29.4029833908
24.4763 12.891 13.7448 31.6715964577
32.3926 1.07123 14.1691 26.4807586235
32.5232 1.39778 3.71443 29.0610396526
25.6623 1.71223 3.70467 31.3880830953
30.2339 6.7919 24.1934 67.8291329302
35.0916 14.5501 24.0106 77.4587178349
33.0014 2.02409 21.4041 26.7959193082
29.2596 14.3964 21.7878 34.7176253525
27.513 2.75547 22.0847 28.1805163103
35.6771 12.6779 19.315 31.6012524537
32.0305 10.166 15.6085 31.5782609224
32.3608 8.41 24.2651 75.2158015379
32.6285 0.856679 24.4935 89.9154138049
31.9312 3.79562 15.3347 29.8694680325
35.6267 9.72197 24.3177 90.9165121266
34.7113 5.22633 15.9603 29.0928775497
24.7918 8.15966 15.5062 42.3722222834
26.7705 7.78585 17.9305 30.1295422697
34.0037 14.859 19.1046 29.7658069689
29.3654 9.77258 14.8246 34.5925630089
29.2685 0.878177 17.8996 28.7595772682
32.6389 9.37385 18.0571 31.4435574978
27.9722 12.6018 17.6166 34.1600863453
24.5559 4.82182 23.856 44.9825970103
29.3339 14.9968 18.3496 31.0012748895
31.6703 13.3398 18.1317 32.1375669901
33.9112 11.7957 23.8574 54.7739205253
33.0423 12.7182 15.5261 28.7983318866
33.7695 4.05947 23.5396 39.8363582823
28.0374 3.47757 18.3798 30.4071791894
34.7425 10.9505 21.1609 29.8598948676
31.1593 3.00571 17.537 26.7792318361
29.9111 5.14795 14.2056 31.8344961779
36.0595 1.28542 18.4575 28.9892960805
32.3518 5.13657 18.9776 28.9312523222
27.2952 4.74157 16.1655 31.2610531086
27.7525 5.34375 20.6183 29.9985909013
32.6801 8.43469 21.3949 28.8700826726
36.3697 4.02536 17.6299 30.0677049367
34.9666 4.19842 20.3284 25.8851534434
26.8956 10.238 18.8956 33.7437371549
29.1257 7.26898 16.2684 33.593225438
34.5777 7.37514 18.2189 30.4458251401
32.0341 11.2882 20.1663 31.0999695112
29.9801 11.5868 21.7392 30.7445059803
27.4596 7.6984 24.4245 88.504599749
29.9389 1.8712 24.4879 88.2740982774
34.8409 6.76355 21.0689 25.3023338637
26.3952 13.8288 21.6513 35.3725191728
35.7474 2.31547 24.5586 113.1026202884
35.2344 16.0305 21.3035 30.5565413989
27.9983 12.4372 14.6117 33.5684155762
31.2851 11.0578 24.2285 84.1199927176
35.5915 12.9977 16.5697 31.0674214693
25.2355 10.5125 22.6932 34.7486857455
25.2277 7.67615 23.0623 29.575339586
29.482 0.63004 21.7089 28.0198271325
30.7923 7.40389 18.7161 32.7252389116
28.379 15.2016 24.5565 99.8466525405
25.8447 1.24626 18.2959 33.2052547333
24.5967 5.05521 15.4945 40.4387126679
33.1166 1.09437 18.5322 32.7316716776
30.9337 4.20571 23.5253 35.1341814407
25.5325 6.97241 20.3413 28.2791802758
25.5873 13.6957 16.5556 33.8136752305
29.59 7.6033 21.5141 29.3262824276
31.8423 15.0209 15.0208 29.6366660157
34.7525 6.53665 23.709 43.9429979442
30.7923 3.59944 20.7647 28.33297355
27.8233 9.6481 21.6078 26.0569713399
35.6524 16.0333 16.9419 33.5965783141
26.559 12.5253 24.3614 75.1446431149
27.45 4.22258 24.4632 91.7625551199
28.4088 10.3193 24.383 73.9964603237
26.0887 2.34195 14.7732 30.3987924692
36.5601 0.448736 20.9582 29.1170994395
29.2609 14.8269 15.5377 30.6883756488
25.5433 1.57415 23.9685 49.9911213015
27.5308 0.25779 15.6925 30.9345654127
35.5534 7.34719 14.558 30.1176420182
31.056 8.32804 35.5189 89.906304204
29.0284 13.2869 45.7299 31.6862342196
30.9622 1.10246 38.5398 31.0169080725
26.5741 3.78574 41.7606 33.6190886337
32.2923 3.69229 35.7068 75.1948369945
24.7166 7.99915 37.5141 26.9313360328
34.9911 4.10777 36.1065 45.3571864725
36.3581 12.6759 39.1614 27.8233996646
28.1335 2.53453 36.096 58.2332398319
27.0821 6.45411 38.967 31.4826345726
30.7677 5.99333 38.1733 27.0672648726
34.7444 15.728 35.5854 99.0557671679
27.6641 5.40378 36.1677 44.3975135465
25.7012 1.17964 35.7739 75.8810934381
30.3792 5.71552 35.446 88.2033260996
27.5016 8.04857 45.673 29.7008527811
33.5129 15.0487 44.8642 27.7266870495
33.641 8.41083 36.0797 42.575717698
31.1028 12.5983 38.1735 25.2888809136
36.26 5.31777 43.324 29.431295138
33.1281 10.5007 38.5704 30.5541760076
33.2189 13.3956 35.721 62.3469332003
30.3967 1.68594 42.6217 31.6235039873
26.7938 14.651 44.3888 33.570059024
27.1922 13.1222 38.6224 24.1968411245
34.5404 2.00561 43.6533 30.2082013975
34.4158 9.6319 44.8501 30.6590258418
29.5359 10.3064 36.7271 30.5377497539
27.4953 12.7256 35.8427 70.006291088
26.6761 0.412717 44.8367 28.3363574143
36.0778 14.4447 43.5676 31.3914706806
28.4021 2.01168 38.9189 28.3296929795
36.738 2.05629 35.9116 71.2364974667
31.5742 3.95909 41.4342 28.6149325056
32.2052 3.57057 38.6916 27.5320936434
35.1666 3.05254 38.9968 31.6870085272
34.6665 11.0561 35.6198 102.1445235567
35.5147 5.87325 38.6684 30.2182572958
33.0069 7.456 38.8123 28.340695179
32.2974 8.39421 41.5879 32.5496214044
32.0436 2.18146 45.0513 27.3966758305
34.5623 -0.253986 39.2531 33.1293255095
25.595 12.2512 40.8781 30.2361303905
29.0633 8.26048 38.8741 28.1245039582
33.8408 14.1869 38.5037 27.4177427744
29.8614 10.0963 40.9565 32.2536323054
29.3785 12.7226 40.3366 28.1151669353
35.1261 9.31857 40.4199 28.1697010277
26.7883 10.2631 38.3742 26.4814317846
32.2062 14.5228 41.0953 27.0134259278
34.1057 11.9 41.4864 29.8411051271
24.7657 15.3528 35.9418 75.0291614634
27.2075 9.77118 41.489 38.0359979565
31.0516 13.6246 43.8679 29.1159165976
29.2968 14.978 42.3209 26.8791907147
36.287 11.3487 43.6833 29.2180214953
30.2573 13.2798 35.514 92.9512637094
29.7945 6.7638 45.5403 31.9754180592
29.6461 4.13492 45.7107 32.4723311462
26.1699 14.9067 41.6483 28.5870579327
34.3778 3.95964 41.7291 32.23273817
24.7295 14.5933 38.5173 27.5227063194
35.9257 6.62355 35.6214 111.1649771572
33.016 5.33954 45.7407 26.7461790789
34.372 16.2835 41.7594 31.685525876
28.8283 4.25189 40.1233 30.922833401
31.4639 6.14233 43.2814 36.9427499378
32.2373 10.6836 43.1003 33.8473131293
35.1067 7.08327 45.4484 26.7263092197
25.0995 5.26757 43.4343 30.6910650566
27.5018 8.3462 35.801 74.0017757585
25.4467 10.8844 35.7735 60.7427112649
28.0511 2.46324 44.0954 32.9203511419
26.3718 7.7198 43.3711 35.2399528479
30.1164 16.2214 35.8655 78.2334931356
30.934 1.2076 35.6923 80.5524866047
30.7059 15.539 38.4555 27.3686107209
25.5373 0.672022 38.3286 27.1840561061
24.474 5.58791 35.611 78.7122560471
27.966 15.922 39.3898 27.1612459219
25.7678 0.882948 49.1887 34.7933611301
32.9138 3.06842 47.8514 26.182140308
30.2213 9.85749 56.1359 30.7416396199
29.0594 14.1654 54.8578 28.756026806
26.6083 7.60644 48.1957 29.3802193474
26.1994 9.47436 54.9487 29.3781748869
34.029 12.4964 55.9552 28.8473165313
29.6351 3.93022 48.4814 30.3912256144
36.8358 7.32008 56.6866 25.1249423443
34.89 7.01522 48.4209 28.6493575612
35.7552 15.1903 56.1078 27.9731467513
35.3893 -0.113393 53.2558 33.1740600424
25.1431 13.2387 48.1943 29.9248106977
31.4665 7.61203 47.5581 30.6042407054
28.9664 1.69133 53.1657 33.5458076775
35.5992 10.3127 48.9645 31.9082764387
25.6109 5.24934 48.3428 32.1187880151
31.175 14.701 53.4161 29.3935613441
35.155 13.5051 51.7684 28.8320185805
33.3619 9.59915 47.6157 30.3009035792
30.4442 14.5817 47.8513 28.327575474
33.4532 14.4141 49.5275 28.3373618058
27.1868 3.25429 49.6751 34.4136661935
35.2162 0.340904 55.9085 30.3263142261
29.8434 5.74222 50.772 31.2063452163
35.1662 2.71527 49.9736 28.7157614932
25.056 10.4957 50.3662 30.0796875837
32.362 5.54114 49.0945 26.6536631375
29.1346 8.28862 49.3787 31.2568591184
33.4998 6.01998 51.748 39.44093962
36.1497 5.24643 50.4937 29.652315711
30.1095 2.47307 55.4151 31.5950075549
24.9257 16.21 47.7264 31.4618990203
29.0381 11.189 48.7858 29.5513098664
28.8063 8.66834 52.092 31.8220163359
33.65 11.204 53.3207 31.234965634
35.8521 10.3731 51.8293 36.1611824464
27.2311 13.0464 50.1931 28.755218305
28.5646 15.4855 49.6841 33.6093249337
35.3327 16.2385 47.2851 30.1754644665
31.9802 12.5394 51.6712 31.6119111816
24.7005 1.28348 46.5808 34.6339666012
31.6918 12.0838 48.5254 29.00662512
26.4345 6.7525 55.9987 33.103827827
28.4332 11.3577 54.6928 29.3117188509
27.8989 4.18696 52.2573 35.1073248241
25.2484 11.1237 46.4539 31.4128868711
28.1697 10.7872 46.029 37.6246636484
33.6321 1.91849 52.1643 34.060485347
35.3548 3.5232 45.9884 27.0663618716
25.5298 14.1099 52.7059 32.2022790632
34.2058 14.9851 53.6991 26.4649024742
25.5815 5.10389 53.5164 31.9096769337
30.7439 5.5009 55.3614 35.0380830989
31.0052 7.10298 53.2243 32.0477743379
34.4909 4.03665 53.4097 28.5506240287
33.4271 3.90266 55.7932 28.2995771212
30.9524 1.21796 48.5823 31.5332704289
26.0957 8.16581 52.4165 33.397544579
32.4665 9.05563 54.7302 33.3610812444
29.196 11.6244 51.8306 32.4406022193
30.9086 0.971802 51.4002 32.5898579773
35.4443 12.9854 47.6934 28.1028532492
26.0565 14.0412 55.283 26.1531739391
35.9583 1.24653 47.7159 27.5575620678
36.569 3.28678 56.2146 29.2456081199
33.0833 12.3789 46.1513 29.1917122046
33.9484 7.04617 56.5159 30.2355327791
36.5339 31.6738 9.83271 30.9833129104
25.2172 24.1435 3.97178 28.0774545442
31.2536 29.3119 4.04457 28.0001033306
29.2885 19.0266 5.66764 27.9092400021
25.2259 19.4887 7.64365 33.222596988
25.9943 31.6419 10.4759 34.0653312303
33.8082 18.4907 6.85987 28.5006261411
26.2044 21.3017 4.11022 29.7435076193
28.7749 22.5312 4.15227 26.9072396669
30.3168 24.9165 3.81454 29.0796046697
33.241 20.9279 4.80819 29.6761665064
28.6023 31.7568 11.6476 38.4146136624
35.1913 23.5291 6.87041 27.5584709574
28.6686 27.417 6.01702 28.5663301801
27.9327 20.765 12.0529 31.402344928
35.8223 16.6696 10.1313 29.0613396705
31.0881 27.4538 7.82073 27.5274006932
34.8894 26.1264 5.05482 26.0293451659
25.9156 28.2518 13.8527 34.6135505608
26.369 30.8634 7.68898 29.9178847193
29.056 31.9951 7.2092 31.0537888917
32.7229 27.9222 5.74167 27.4538636101
29.3606 31.2762 4.62516 29.0905221497
36.7427 27.6903 6.39979 29.337544875
33.0752 32.3569 7.93175 30.5471329496
35.2149 26.6175 13.5391 31.2898173701
36.3989 19.6402 13.2339 30.5802099904
32.8653 19.5611 10.1156 25.749997081
27.0236 17.543 7.09586 33.5307835148
25.9789 24.5094 10.6556 28.6327743011
36.7412 18.496 5.58323 31.9165960745
33.3796 23.7263 4.73482 27.2134144994
29.1771 22.808 6.54117 28.0280706615
32.7148 20.9567 7.89104 29.4385594309
26.8152 27.5266 11.2069 31.981665256
26.8793 23.6029 7.77719 29.3313921683
35.5734 19.3647 10.4884 32.5145768948
26.6235 25.6275 5.95372 28.7076783505
31.1564 24.9001 6.86582 26.9144521114
31.6966 27.3674 10.5061 29.7786304595
32.0345 23.1207 11.6102 28.2365224487
35.4112 28.8593 9.36428 33.7395320413
33.8239 25.7923 11.342 31.9020865031
37.0564 21.3856 6.73033 33.2371182065
32.8362 32.1817 10.5703 33.4181651068
29.6193 29.8844 9.35171 34.5266196021
34.2292 29.8451 6.96966 31.5368082312
35.7483 17.2684 14.2101 31.6625408655
32.8597 20.6867 12.6132 29.8345862466
29.8897 18.2542 10.3531 29.3249318422
27.3092 29.2241 4.39491 27.503614149
31.3369 17.2431 6.17687 29.6259674096
28.1277 30.0749 13.8648 31.4134608865
29.3393 18.4782 13.2466 37.3097623679
29.5933 22.5418 10.4296 31.3654312242
29.7881 20.3791 8.28367 31.1654806852
29.1841 25.2001 9.23487 28.910921697
29.5897 26.4469 12.1607 27.7735229593
34.5039 29.4576 13.7 32.0091095971
27.6023 28.1971 8.6612 29.083975237
27.0 25.032 13.2686 32.3185108843
33.6141 29.6661 11.0806 30.7309275284
33.1643 23.7618 8.70513 31.7219980655
25.0662 21.9422 6.57836 30.0052935061
28.2052 22.5628 14.1972 27.1397637556
35.5811 25.894 9.03725 33.6419364344
30.6368 24.2373 13.5934 26.4700423571
28.1589 16.4563 9.35008 29.7978197195
24.973 29.2481 6.07996 28.7234464736
25.8331 19.9489 10.5357 35.1334014109
32.2791 16.8973 10.4631 31.9654181895
34.5457 17.7799 3.87581 27.4529961826
26.2109 26.5278 16.2799 34.7690831996
28.354 19.4499 17.5342 29.9111381088
24.7192 19.6798 17.7465 30.2692144729
31.0127 18.7737 16.9648 29.0110396998
35.1289 31.8371 17.5776 29.2932739584
25.0124 31.4304 15.9364 30.4018063144
33.553 24.3765 24.1367 61.5870890621
36.6361 19.1274 20.89 32.3389967074
26.7659 19.7534 21.3171 30.0809759397
36.7874 32.2222 19.8757 30.1008525117
34.3584 20.1331 16.7084 30.8824113002
30.7494 22.8091 16.4838 27.6551184108
30.0513 25.5258 24.2802 78.2642285455
28.061 17.5523 15.5101 31.8221522716
34.6298 21.5236 14.457 30.4615851934
26.5934 21.4648 16.3136 32.4365820395
25.0796 23.8398 20.7008 32.3122918596
33.5728 24.2134 14.3292 32.1551667743
26.183 31.1414 20.353 30.2470667229
30.3993 16.8733 21.6122 32.7102053832
36.2103 30.9585 14.7493 31.4159713962
30.9878 22.7589 24.3605 76.2711775185
32.6144 31.3437 18.9894 27.5865631208
25.6804 16.6474 21.5055 27.362797737
27.9423 17.5533 19.4819 30.2998130289
29.4472 20.3956 23.9801 48.1574047266
32.1986 17.2587 19.3794 33.4486641859
29.8986 19.8566 21.2352 30.5227834157
25.0454 24.4142 23.6788 33.7767606874
30.9601 20.6912 14.5918 28.7634974628
27.7725 23.9285 17.2722 32.9027423189
35.8793 23.2295 21.8836 24.7119722784
33.2422 17.4596 15.3288 32.5442626833
31.4216 21.2977 18.7403 28.435724685
34.0877 22.186 18.7233 28.3774917909
30.0658 17.5136 24.4398 93.0845031796
33.4545 30.7514 23.1999 31.3069067587
29.2504 26.1253 15.6974 27.0026105275
30.1095 26.662 20.1129 28.3994952986
31.4345 26.6214 17.6973 30.7624509555
32.9252 24.6059 17.2403 27.7168627211
34.9343 25.0868 20.0744 29.8752625143
27.8801 28.0259 17.7641 30.7630244167
29.4317 29.1074 21.418 30.2306813283
32.2865 29.5728 21.1193 28.0830638761
31.1426 30.0834 24.6371 114.6539374586
33.3277 28.8015 17.5475 29.1607915876
35.1379 26.3993 16.6026 28.7035212481
35.7412 32.3115 23.7811 56.652665186
26.6114 20.0602 24.2969 80.327816174
27.5532 22.6134 21.5121 27.371144408
36.5261 28.7123 17.9384 31.2774742525
26.4652 17.0924 24.2033 59.5805052534
33.9581 18.5924 21.3895 28.6342211745
27.0774 25.9242 20.8591 27.7078435531
26.0024 30.5796 23.4408 44.0468165026
29.2869 23.7154 19.6567 29.056531414
32.8565 18.6385 24.1623 57.0247605606
30.0983 32.0811 17.8639 28.5343854893
33.6225 21.558 21.4831 25.363602418
32.3507 29.876 15.4038 31.0656915307
27.2881 26.3906 23.4289 38.0812852958
27.7398 23.4775 23.9219 60.5123921947
31.3468 22.8651 21.6899 25.9647213416
28.1034 30.5542 16.4696 31.2036326011
36.6125 25.216 24.0096 60.7214896963
34.6081 27.9761 21.3234 29.3128278484
32.3874 25.6002 21.6646 28.1061747087
35.1914 27.5215 24.0295 61.8109464928
33.9902 21.3812 24.3451 75.1383459958
25.8788 28.1082 19.6944 30.5731682298
28.8697 31.7049 20.5226 32.1191687802
36.9456 21.7815 24.2565 77.9393399698
28.5764 28.9057 24.0421 74.919842959
32.2408 27.3785 24.2809 65.4437095432
25.6442 16.5059 16.1994 33.8493500533
30.2027 28.4591 14.2801 34.0612186931
34.9963 17.2625 24.4748 102.5423074487
30.5625 27.3935 45.4952 29.4184833986
35.6289 22.0082 44.1262 33.5902200987
26.1235 27.8878 44.4832 36.1500858623
30.8124 19.7892 38.4131 26.2168641022
37.0716 20.1274 36.1591 64.9678847892
34.1476 19.1238 35.8255 74.1985586408
26.2124 24.8189 38.8328 28.6467315929
27.0911 16.6114 36.6329 38.6536916716
31.3144 18.8598 35.8386 71.2535757429
26.5855 30.9825 38.6703 26.4070949831
30.6015 24.7617 38.868 32.6655284748
29.5908 24.1721 36.2838 41.7294378824
33.0106 19.7515 41.508 35.0252308595
32.059 22.1399 38.933 28.2272463792
35.0448 23.9294 35.4877 93.2529118798
31.7578 29.3669 35.8811 56.3006068417
25.0776 27.6598 38.7923 36.241731847
35.5479 28.612 35.5482 80.6854329764
35.5547 22.7 38.0997 24.84237074
34.1641 17.0774 37.9435 25.1064827695
25.3791 30.7519 43.2716 32.5707681866
28.3919 28.8983 38.4715 27.6987225712
25.4857 22.5583 36.0144 82.7966630164
32.7381 26.1984 38.6805 29.5239472805
31.6068 24.9506 44.2267 29.9687706283
26.7627 17.3107 45.7379 29.4616208645
36.4059 26.9752 37.8188 28.5372256367
35.0295 24.7781 39.6341 27.6161864292
33.1332 21.8575 36.0997 48.6022282377
29.5398 17.8544 45.0241 29.931445195
33.7096 26.3799 36.0533 41.3388090569
33.7919 30.8272 35.9857 49.2352473876
25.6118 18.0882 40.8946 29.8662896146
31.0133 22.0588 45.1936 30.0914804234
28.3384 18.959 40.2315 29.4185719786
28.6321 20.5057 45.1621 28.1037271665
34.4968 20.2342 38.7297 26.9128966016
32.8641 28.3585 40.6399 26.8689650854
26.0295 22.5642 41.723 30.7345239926
27.2323 24.8288 42.3637 31.6309758155
26.0339 21.933 38.8665 26.0303987679
30.4346 27.3432 42.0933 33.0256677273
31.4774 22.3073 42.1786 31.0735089861
34.1259 23.5545 42.1312 32.4856217637
27.5993 30.5036 41.6875 35.4621981569
31.0503 26.522 35.7137 79.1707216299
30.8356 30.0895 38.6527 29.9015534935
32.3503 30.6895 42.1532 30.8962491478
32.2653 17.5921 39.8814 24.510150563
35.6755 28.9799 39.7506 31.7672321994
30.2687 17.4871 42.4143 29.4514256485
36.2435 17.1525 39.5978 29.9627874451
35.7867 27.4447 43.9908 28.183415742
34.208 31.1831 38.6013 28.890213997
36.5515 30.6463 44.8197 36.4074826883
26.4928 30.5021 35.85 68.0891795188
26.88 24.9453 36.2531 53.961680863
29.1513 21.6903 40.9091 32.4999809454
29.8999 29.7209 43.6334 29.3098341479
28.4088 24.2688 44.8948 29.5509635489
32.7475 17.6048 43.8579 26.9376616461
28.3332 27.7048 35.6443 81.3625456234
28.2954 20.9359 37.6928 26.2849090356
34.6659 19.3287 45.1402 32.4763480591
27.0389 20.0597 43.0429 30.2266452076
33.6714 31.4222 44.4813 35.3200990444
28.4588 26.682 40.212 31.9842793602
24.7288 18.2943 43.9599 30.5199885939
33.6971 26.4586 42.6759 31.8166411692
25.4983 27.7089 36.047 54.171692171
24.7278 25.5879 43.5509 32.3926874107
26.7439 32.3859 45.0366 32.3378585137
29.293 30.7839 35.5968 86.0746601304
29.276 32.1872 44.7968 27.8056289637
36.8638 33.0578 42.8171 32.4460345286
26.7957 19.2273 36.1203 80.8845064263
30.085 21.6962 35.6669 101.4970888736
32.7599 29.7792 46.3331 28.8286829747
26.5949 17.776 49.2031 31.9704659633
35.4202 18.5925 49.1551 29.7865042957
30.6155 16.2201 51.0692 27.7671966236
30.7747 25.9268 48.5998 28.5179800461
31.4198 16.8301 46.5037 28.3732713723
32.8705 26.7031 53.9244 29.5322178311
31.4492 22.477 49.6989 27.4062587768
30.6117 20.4009 56.595 31.8144123569
31.946 18.7851 48.3415 28.163992971
28.7615 28.4953 48.7997 29.7187528364
36.7147 23.3818 50.2347 31.9659675331
27.6131 31.149 52.423 27.7909563003
34.6601 27.5798 46.6154 29.4888539118
35.1026 28.4033 49.4775 30.7032946335
29.8412 23.587 47.8073 28.4014426498
35.3235 23.7936 55.3466 30.3681744543
26.5312 22.6868 46.2289 27.2079481548
30.1486 30.5439 47.3271 30.3532553012
27.2216 24.5707 48.39 30.3963952674
33.0967 17.054 50.2997 27.4083916511
25.9484 31.4382 47.6487 31.0967282405
27.8977 26.8063 46.345 32.2297726519
36.3572 22.0343 52.9769 30.5661528709
35.0369 17.2697 52.3758 27.1861687554
32.0088 31.177 53.0235 26.6072064025
27.0108 18.4927 56.2367 31.0586934434
29.4913 18.7726 51.9177 28.1450043283
27.0574 19.9318 47.4939 26.4166235644
30.0086 17.0662 56.1961 29.1317178948
29.8325 20.1912 49.2478 31.7443919224
28.0253 23.757 52.4308 31.2177885224
34.0366 22.9101 48.2352 26.7608735336
28.3724 26.5615 51.1718 30.5627039737
32.8393 20.8479 46.6694 29.0279270167
26.5774 27.9937 52.5805 29.2659838087
30.7007 27.7692 52.1579 28.9140520868
30.7126 22.7963 52.5602 30.2026621553
32.8835 25.5135 46.9914 29.5969374812
33.0241 30.8858 55.5458 30.2112963725
32.0911 25.4222 51.0278 29.3029477333
34.4765 25.5794 49.79 27.1525571777
31.1608 30.3282 50.3187 30.4257309879
34.5734 29.7741 52.0375 33.1474376552
36.4993 23.039 46.6513 30.984199512
26.2886 19.6677 53.5308 28.0213091411
24.8728 18.6614 51.5313 30.7022594733
35.4831 32.287 50.1798 33.2177527009
32.397 17.5366 54.6542 29.4550482008
31.2319 20.2766 53.5114 31.7915563524
27.6571 21.0399 51.7628 28.2577027336
26.0571 21.7192 49.4809 30.9597952706
29.5765 30.2143 53.8281 28.3505322732
34.256 20.9521 50.4539 33.5719004961
24.8722 23.5508 53.1876 27.488617549
34.197 19.937 53.2848 30.1695904114
24.4118 25.9697 54.4619 30.2316025098
27.6287 24.3765 55.0888 28.9700516763
32.0602 24.1982 54.6549 32.6275409896
34.3885 28.2415 55.7677 32.0646929511
27.0589 27.1946 55.238 29.825480294
30.0774 27.5014 55.1579 28.3825071575
35.5941 25.2465 52.4237 32.4317067907
33.4258 30.7061 48.6953 31.7871952251
35.3184 20.6696 55.8606 29.0065760936
28.148 17.2147 53.8495 32.5134686058
26.158 31.2196 55.3271 33.3237693636
26.7376 30.1029 49.7366 28.1334754829
25.2884 16.2742 56.3153 29.7479685876
36.2568 34.2748 4.76899 30.1071225864
28.5594 42.9529 13.26 28.2969345469
26.2244 34.0984 3.40032 27.3990393636
33.7005 37.904 5.92176 30.6185076956
30.4117 37.5926 6.74165 27.4728521944
31.4415 40.2428 12.6411 27.2022327832
25.9888 37.259 7.11992 35.7188403493
35.0709 35.587 8.90071 31.609012115
32.2613 40.0738 4.65211 32.4995045541
27.5255 34.4296 7.42823 31.9220571371
35.9741 38.825 7.29599 28.7693631046
35.2906 42.9788 5.11566 32.9515302684
31.6404 46.6886 11.4292 27.8325658789
30.4959 40.8426 6.95099 30.8514898374
33.1832 42.2475 6.81959 30.247048148
34.9184 47.6241 4.91753 29.0101831681
31.1314 33.5092 3.50998 29.7516516205
25.2154 41.9656 11.0018 31.096416467
33.5986 41.3859 9.25594 30.8545933958
35.2584 33.9592 11.0719 35.68776467
36.2224 46.7599 11.5049 27.2748821627
35.5644 33.2268 7.26832 29.1559777065
29.3522 35.5558 5.43052 27.285297709
30.8528 36.0821 10.1167 35.1600544961
31.3007 33.8634 6.58593 30.0239669306
27.7672 45.6664 4.40436 28.9354868249
32.5105 36.0637 7.66485 28.7846184769
34.0584 46.4345 13.0418 29.7479490546
36.1433 36.9852 4.69901 29.2850216328
36.0645 35.7046 13.2869 29.472497828
28.7057 37.4812 8.90515 29.3372920546
28.7665 40.0636 9.64747 30.8370356245
35.2806 39.3747 9.92964 32.5285714839
25.8079 46.0662 12.5875 31.7110826968
27.8066 44.7463 8.33694 30.7530218626
26.9911 42.3654 8.87625 30.933578752
29.4837 44.1896 6.19812 33.3719821569
32.1765 44.9069 6.46854 32.5058466255
34.375 37.8138 12.641 30.1564718184
28.3679 45.6113 11.062 29.9375749977
32.5934 46.7853 8.57449 31.2181031539
35.6391 46.0301 9.02045 31.4476436155
28.4875 41.5626 5.09273 27.9765318595
30.6635 43.8035 11.6324 33.5965757726
25.8974 43.4363 13.4302 31.3349939634
35.8274 43.8324 12.673 32.0404181483
26.4139 49.0554 7.40795 28.2804967472
29.0015 48.2181 11.0251 25.0351311942
30.8371 33.8863 11.8891 37.1489983863
36.2596 39.9334 12.9713 29.8931445587
25.4487 43.6603 5.23893 28.119235481
26.8727 39.2536 11.7677 32.825551097
29.0261 38.9102 4.28232 29.3414280029
26.9603 36.5915 11.725 36.7276664816
31.2498 41.395 10.2848 30.2656467489
35.4993 43.3562 10.0176 35.3563082771
31.7523 37.7471 12.3048 32.0609180782
29.9574 47.8756 8.32334 34.1539465571
26.5855 37.1023 4.31155 30.0585733341
26.3026 46.4729 6.65065 30.1152170426
26.0378 41.3245 6.37334 33.522126998
32.853 45.6664 4.07974 31.8803470378
25.6033 34.4165 10.24 29.5552336513
34.173 48.8311 7.48305 27.2849571171
28.9335 40.3816 13.3668 29.427668743
24.9995 33.0183 5.98189 31.1094039154
36.7273 45.4367 4.91461 29.8060557201
29.2395 47.9341 3.80394 30.4846464379
26.1798 33.2414 24.2402 94.1842738312
35.2693 41.9247 14.8115 28.8503961271
34.6966 34.454 20.0537 30.5961958851
