27.573 16.579 4.47849 29.5024140688
26.98 13.249 6.91109 26.8896086031
32.3493 12.7151 7.02992 28.1988138678
27.8653 24.4564 13.0058 29.6550026114
24.7913 17.3677 16.6428 30.3196271542
35.1842 12.888 6.32307 28.9134603708
26.3029 12.9441 12.1349 30.5609123984
29.8384 16.7204 15.3353 29.7028966894
29.9625 23.534 5.11261 28.1564966825
33.2027 19.2595 15.5957 31.0574301167
28.3044 17.7854 7.58654 32.9715614564
29.0816 20.6573 7.22555 31.2311741508
35.0008 16.9735 12.1305 29.147892426
35.1656 17.5386 5.95927 30.2486292175
25.5439 18.8228 4.2893 32.3061923408
26.4932 24.3372 9.53633 29.6466055469
33.8345 14.0914 9.22391 27.5021274916
30.8276 14.8003 5.20104 32.7815595446
31.8457 23.9798 7.53828 34.6411169177
33.6791 21.0754 13.3346 32.4850398566
36.7033 19.6642 4.52662 27.6161404082
25.8002 17.7376 7.21268 31.1784603839
32.0207 15.3793 13.1469 28.9562854888
28.639 22.0817 11.5106 30.1260118678
30.622 13.1459 9.50118 28.9932041488
29.1444 14.7638 7.68605 30.9379388663
37.1045 22.2756 15.8305 26.767706482
30.9704 18.9228 13.9739 28.5680364503
34.6123 21.558 4.89563 32.7573583053
24.7831 20.2291 8.52769 27.8900401422
36.4997 14.1276 9.07097 24.2110541975
33.4668 16.6864 9.88756 33.182132981
30.7593 19.2353 4.6882 32.8448863063
27.0549 19.0234 12.513 31.8895576292
27.8735 15.0078 10.2648 30.5713260221
31.3734 21.2273 11.2607 31.5732084847
28.3405 17.8864 10.5796 33.9343013414
31.7872 21.2115 8.54532 33.236667801
31.1812 17.5415 11.5295 33.296684436
33.4658 18.6161 7.82818 37.3919352387
37.0972 15.6504 6.74423 32.4663136923
24.8505 13.8708 9.72572 32.3341459737
27.3861 22.4445 5.91579 27.8342130105
27.3217 21.6577 9.29447 30.3594566331
34.0971 16.6023 14.997 33.2085326155
27.8462 15.1948 14.2518 26.5917919932
34.1595 23.3393 9.57402 29.339882631
35.0026 23.3101 14.1193 29.4923435441
32.5594 24.0269 11.7981 27.7544655755
28.8653 20.8251 13.9128 31.8561290946
26.8906 21.3192 15.998 28.7047374372
29.3773 14.3032 12.2811 25.1631870889
33.452 12.9823 11.9365 31.9833477393
25.8445 16.9888 13.9892 32.1757347077
35.2652 20.6591 9.42327 32.9167463506
36.2189 23.7043 11.6238 26.2024337979
35.699 19.6807 12.0649 31.6932059831
36.8071 16.082 15.3034 29.4322430674
24.6637 15.2849 7.11991 29.8679606634
35.0443 13.5744 3.69356 29.4958547986
32.957 13.9772 16.3367 31.887717019
24.5308 22.1347 6.76381 28.0294849405
33.2437 15.5495 4.62101 30.7161731249
27.2867 13.3596 16.0466 30.8290786426
27.7907 18.1579 16.8195 29.040477243
31.9263 21.7275 3.76268 30.5440586519
33.4226 18.7531 3.86818 28.5656559749
35.696 20.197 17.4594 37.5631236352
31.0046 15.3636 17.626 32.8258193756
29.765 13.2386 18.9985 29.992502431
29.981 22.8342 17.4095 35.3211904426
25.0621 22.6648 21.8139 28.4655726056
35.0822 13.2402 17.9249 33.322972627
30.8943 24.3979 19.6492 30.81311113
34.2571 23.0663 24.6167 98.8761833103
31.7482 17.57 19.1103 30.829348749
29.8255 17.9372 21.0294 28.8220472849
35.6986 15.347 20.0747 33.5903161256
27.1674 23.4872 18.0616 30.5502874557
35.2939 19.6708 21.5538 31.6250461141
29.1617 20.1838 18.2723 25.9985065568
29.1374 20.7 21.1361 29.0797718372
31.8621 19.8749 17.9069 29.3422673322
33.895 21.2238 19.484 31.5594395661
26.1689 18.4285 24.1073 68.3296371714
27.4895 17.3499 19.5625 27.6837158298
27.0829 15.1497 23.5024 32.4886805864
27.2231 14.5078 19.9668 26.2232735356
31.3514 14.9496 23.8265 94.2238641117
35.5608 13.0428 22.1648 32.5045131376
27.6615 24.1251 24.3954 70.138267056
25.9187 21.5468 24.3675 80.5750369247
25.8936 18.5971 21.3213 28.1756560472
29.6072 15.3794 21.7873 30.7194586781
28.7167 17.5124 24.2233 93.0711440262
35.6789 20.4558 24.4227 63.5392941674
33.922 17.377 20.8617 31.7812320542
33.4279 16.4988 23.288 33.9572271676
25.255 14.7305 17.7103 29.871978674
30.379 23.8357 24.7068 97.2185155506
28.8967 20.4704 24.0262 62.0172489094
33.2288 19.0577 24.1945 91.7854019632
31.6778 22.2939 21.1394 31.7994246054
31.6575 21.5568 23.7315 35.632441994
36.1691 16.2924 23.96 54.0899330839
34.8903 23.7563 18.2323 31.3683065117
27.4147 12.5629 24.3595 100.1755400733
26.6191 21.3924 19.9845 26.3906892499
32.9111 12.7198 22.8544 36.3346090375
25.4804 19.9411 18.0239 25.316064285
25.0977 15.965 21.8096 29.177769472
24.6032 12.6331 24.2924 68.0683978765
26.9013 14.2606 38.3193 32.033543043
25.7556 18.6767 35.4819 108.0001866131
29.7647 14.733 38.0705 28.7536334473
28.2709 17.8101 36.0108 53.8851651685
30.8103 24.4367 41.8317 31.9290032366
26.1431 21.1541 38.8296 25.6658645802
29.7593 18.1235 39.8095 27.7537434012
32.5436 16.6283 36.1233 45.8117686008
35.1235 16.2127 35.7542 70.3051998143
31.2313 24.4671 35.5266 76.5092478346
33.2252 14.0057 41.0894 29.0554743115
29.7533 20.4391 36.0446 52.6292288348
35.1143 12.7694 39.005 29.695368057
32.4124 19.8345 35.801 79.5917749509
35.1571 18.9946 35.844 72.0430512593
35.9789 18.1291 42.3106 29.0068126284
28.8341 23.0336 35.5509 78.7933149781
32.3025 22.9763 38.5313 28.2666102684
33.1547 22.6511 36.1394 52.7115676335
36.5203 20.0654 38.0072 30.8704214114
25.5661 20.3307 41.4888 30.7103473146
34.6923 24.4289 38.9954 29.1142804889
30.6124 17.5986 42.4028 29.1019232322
30.1657 15.6401 35.5403 104.3401228312
31.9077 12.7802 38.2932 33.1839814013
27.1429 23.5834 39.7331 24.241350022
26.3178 21.7749 35.8932 59.0969288183
29.6097 23.7688 38.2996 26.0584233685
27.0914 17.3149 38.6083 27.1047240288
29.778 21.8376 41.1614 29.4108737348
30.7281 14.9826 41.1793 30.3800014116
35.9535 15.7406 38.4481 29.8226946352
32.0071 17.0171 38.8416 27.8073782629
34.7652 20.1479 40.7742 29.3875480029
35.3965 13.1421 35.9668 61.1614328968
29.1882 20.5322 38.6894 26.4997533208
26.0667 17.6795 41.0713 30.0265503168
32.5985 20.1044 39.1431 28.9122883421
29.6224 12.7162 42.6051 31.7666182115
28.3458 13.0653 35.6552 81.9792713984
34.1814 16.5177 40.4691 29.775270225
25.4337 13.4657 35.8055 69.7694338787
26.1262 23.71 42.1911 27.6266091456
35.9237 22.8431 40.9444 30.8691400858
32.1024 20.2931 42.0833 30.1976309997
33.1985 16.3643 46.8571 24.6759808858
36.0154 16.1649 47.298 26.681759413
28.5059 15.3114 45.446 28.598994463
30.2149 12.6565 48.0375 27.3430285531
34.911 12.7976 52.2741 29.258433008
32.9729 15.6187 49.6898 29.7049213396
30.301 22.347 52.5331 30.5191133625
35.9733 17.9508 54.9065 29.774948131
26.1733 23.4986 53.0184 26.9478843644
29.458 18.8781 46.0097 28.6130431294
32.8429 21.5848 46.7893 25.3164993327
31.5469 14.6951 44.8107 28.8616185337
25.3308 19.4271 46.7893 32.7649507185
25.3744 13.3363 53.0785 32.3241980364
36.2044 13.6931 45.747 28.5198940928
25.2551 12.9625 48.052 32.4952065768
36.9177 18.6027 48.6376 26.9309793851
34.8869 23.1344 55.1712 26.1084085749
29.1613 22.6063 45.5382 31.8993844522
33.2281 21.9056 44.1038 27.4997554707
34.861 24.1283 52.5928 28.9910477948
26.7042 16.7448 50.2408 30.0048229217
27.2916 17.445 52.942 30.3101594074
32.1635 18.5409 44.989 28.645702443
25.472 14.5818 46.0239 30.6573871448
31.8007 18.3286 49.317 28.3974440862
30.4243 14.6268 50.6209 30.4124046934
34.1673 12.8603 43.5904 27.868073907
33.7452 19.3306 47.6913 26.3113730574
25.244 16.9416 55.039 30.1888687373
34.1123 15.7659 44.0787 28.244134921
26.9827 17.044 47.2458 28.3602349364
26.8079 19.3504 44.607 32.5277478231
30.4037 15.5216 47.4209 27.6332406044
32.7571 21.4453 53.633 31.3733427865
33.5739 19.6416 51.3103 28.8940806267
29.137 18.438 49.0316 29.7370523879
34.2851 15.2826 52.3091 28.8230888639
25.4393 21.459 54.6805 25.6385931475
27.0985 23.2972 48.922 30.4317949379
28.842 14.1669 55.6623 27.5463807735
29.4353 21.8951 49.2318 29.9074519989
29.3017 19.8774 51.6153 28.5016026829
30.3517 20.9707 47.1248 23.3071229004
34.6583 22.2043 50.1534 31.943513289
33.3442 23.9388 48.037 30.3003437672
28.3084 23.3464 55.4336 27.4870588994
26.6687 20.136 52.7307 29.9867403715
27.6975 12.6504 44.3262 31.5092738776
25.9748 14.3711 55.827 28.5079536518
36.1503 18.4608 51.2368 28.61735134
37.1471 20.1093 53.182 28.4036240574
24.9192 21.4932 48.6654 31.5411549157
29.9547 15.5043 53.375 27.22163484
33.5256 18.1321 53.6264 25.5273351256
29.1445 18.2978 55.7254 27.6222664471
32.6613 14.9767 54.5292 31.2433136705
30.8021 18.1451 53.449 29.6796998976
31.0232 24.3717 44.2906 28.3114089307
34.5679 13.2109 48.5098 29.54377083
27.7037 14.1039 51.1413 28.6011820341
35.2322 19.377 44.7605 26.8443778019
27.6575 21.6105 43.2954 32.1545557795
35.089 23.5401 43.4964 32.4805269844
36.4913 21.394 47.9902 27.9834119621
36.4024 22.0035 45.2597 27.8363607179
31.3191 24.0112 50.1756 29.6923574671
27.7308 20.5632 56.2956 28.5661703306
27.9703 17.2547 43.0904 34.7389481109
29.1679 26.2782 4.64053 25.9829177249
35.621 29.2454 15.2481 27.7118788772
29.527 34.3198 14.9713 29.6110939056
28.734 33.856 12.3008 30.2315696307
30.3551 28.1128 6.67543 28.2228364378
33.482 26.5545 6.9032 26.4802868413
32.1866 27.3527 4.21985 28.3403736527
27.2731 25.7236 7.14356 29.7489712939
27.7194 28.6787 6.76461 25.9926046866
32.0267 30.3401 6.26018 29.0372675968
32.9289 31.9205 8.56351 32.831992687
34.6441 29.3083 5.77532 26.1499188542
27.3423 32.6512 8.59396 29.5467659331
27.0524 28.0169 9.49615 30.866912368
27.8169 31.5759 6.07553 32.3081841962
34.8404 34.711 9.15036 29.236316625
27.6488 35.3501 7.13617 30.643569596
27.0293 28.1196 14.9425 31.6346887225
35.8129 25.47 5.82969 26.9808777373
34.0151 33.2214 13.3751 29.2831353641
25.6988 26.004 13.4783 32.2796420842
33.7061 26.8375 11.2663 28.5881843898
35.6185 27.3508 8.81325 26.4772221985
33.7248 33.9479 6.22666 29.6539191705
26.6896 35.4678 12.0513 32.204133391
28.5708 26.2169 11.1286 27.4355552345
25.9573 35.8378 14.6247 29.8271710143
31.9123 27.7124 8.95094 28.3738530097
35.4338 30.3265 8.63159 28.5452311758
36.1931 29.8216 11.1061 29.0363501647
31.2331 30.28 10.5341 32.432608127
30.8554 25.3747 9.93242 31.2639653069
34.3364 25.4377 16.0379 29.6792606043
29.9122 33.1197 9.569 30.682483928
28.9157 30.7649 11.8165 27.192915722
36.4864 31.533 5.82623 26.7350877148
35.1592 33.4687 3.74279 30.7657213491
32.1057 31.1273 13.0806 29.6009287508
28.7544 28.299 12.9796 27.0204643542
36.6672 26.6626 14.7991 26.7735209779
32.8365 36.4273 5.46727 29.0655729281
27.1595 33.319 3.68698 27.5439625628
31.1194 28.2577 13.9096 27.3451196452
25.7771 30.5633 15.3144 31.9635802645
34.3525 35.4974 11.6074 26.5715542889
31.3606 35.3047 11.6786 29.8388164756
24.7201 31.2776 12.9645 28.6937301243
28.17 26.4372 16.8397 29.6593286737
26.6721 30.8064 10.7893 27.5554371338
34.0914 29.2365 12.9101 27.6806493904
34.667 31.9148 15.8554 29.4260480481
30.4857 35.0916 7.30427 28.345658159
33.7105 35.6848 15.194 31.6951082998
26.0961 24.75 4.16729 29.2704945335
30.3464 32.6446 5.73809 30.227204489
32.3951 25.6905 14.0417 30.5171718627
25.0958 33.6869 11.0052 26.8851687973
26.6125 27.8258 4.34144 28.8288742434
30.1059 31.3642 15.5838 31.3109733
36.5614 26.3816 12.2266 28.340959507
27.7045 36.1268 4.37359 30.9333936954
36.9252 24.5945 8.6629 28.9316011579
36.5725 32.0782 12.9002 27.6462555799
24.871 34.2955 7.82201 31.3758391021
30.9218 36.8247 9.46117 29.8717067103
29.6788 24.7455 15.1519 34.5689271515
25.0142 24.5914 15.7998 34.0690614373
27.3601 34.5153 16.7083 30.0830481607
34.0332 28.0229 17.1001 31.6308750009
31.3781 28.8102 16.5091 28.7658381141
26.9601 25.861 19.7333 30.3502431157
34.0716 30.0455 24.3489 69.0982074509
32.4435 31.4495 17.4528 30.3451128361
35.1144 35.1617 17.5925 27.8148150312
25.7382 35.51 21.6962 27.5315793903
33.8768 25.4095 20.3257 32.6154713345
32.2737 34.1896 21.9273 25.4846937388
26.0779 31.7266 21.5616 29.1413805622
30.6495 27.1505 18.5716 31.6632071942
29.9456 29.1173 20.5934 31.0729854325
33.8434 28.0627 19.6941 32.7059487972
35.3908 34.611 20.348 26.7710815621
35.5653 32.6528 24.5731 87.9241559697
31.2606 35.8173 16.7956 29.9398901156
32.417 33.9498 18.8658 32.248152948
36.9198 33.161 17.1318 27.4926650241
27.6298 30.5879 19.5174 33.4088109849
29.7394 35.4173 20.1214 30.4266424806
30.4546 31.7825 21.8622 29.4197157372
35.5175 35.495 24.3635 68.4706955177
28.7338 25.1512 21.7078 31.2025151225
27.8113 31.7203 16.9747 32.3265083707
26.1243 28.4463 18.7049 36.1574347369
31.509 26.1487 24.1176 62.1238215825
35.5304 28.3342 21.8433 29.5505106058
35.4881 27.4754 24.3784 95.6484115681
28.1438 33.923 21.845 28.6307110153
27.7018 28.2925 24.5201 92.4013089668
25.9035 26.4179 24.2019 70.9444666695
29.6984 27.5058 22.7574 28.1194628207
32.5623 30.7982 20.1256 31.4776957945
34.0445 25.3129 23.2426 30.4196646442
34.5398 32.4205 21.971 27.5292568311
31.474 29.7573 24.2877 64.1973441561
28.479 34.7863 24.3352 76.8488681764
25.0241 25.3575 21.5474 31.4497623879
29.9012 31.8962 24.6673 80.9986620884
27.1689 30.7671 24.2533 57.1406130203
31.5905 34.328 24.6073 87.2555345579
25.2162 35.8252 24.399 72.4424146661
27.4654 36.5736 19.1019 33.1309168115
34.161 36.5949 22.0986 27.4156021572
26.2146 28.2359 41.5881 30.1229208049
35.0308 24.9203 36.0213 60.8098685961
29.5024 32.3559 38.9119 29.8180903285
28.768 28.694 35.6834 70.4198448123
32.489 32.3367 35.5652 112.2536124055
31.4287 27.3023 35.4446 85.212524314
24.9867 33.9786 41.1562 26.4983956704
35.3399 32.5187 39.5703 27.6897579998
30.0407 35.2196 38.4844 27.8716695
29.0817 35.6868 41.3031 31.5852628522
25.8711 29.3091 36.1456 45.9446306224
27.0068 34.7228 36.429 41.2805642491
30.2014 31.0708 36.5176 36.8314400723
33.2749 35.1836 35.9133 65.4261914615
27.3357 26.0651 35.8322 67.9075501827
34.9292 31.3417 36.7925 33.0571187907
26.8774 32.0593 35.3685 107.1730897192
29.6748 35.8835 35.6896 90.8192277257
31.7456 27.9121 42.1566 30.6699789965
30.9442 26.4791 38.321 27.2116508435
27.8052 33.3059 42.2132 31.2411155856
28.7122 26.189 40.9819 27.9170229166
34.1925 28.922 37.9223 24.046287309
35.4993 36.3638 36.3404 33.9240397643
33.3822 32.1401 41.9683 29.1271697727
36.7142 29.6011 35.3579 89.4651003646
26.4478 26.0392 38.6741 26.4245395267
35.8073 36.1381 38.9365 25.853943936
33.2966 26.5773 39.78 32.5159293564
31.3068 30.6726 41.2049 29.1636641651
31.7372 29.3702 38.5628 29.5135733753
34.2967 27.5532 35.5852 74.8952166823
32.7756 34.1773 38.7216 30.7239825135
28.5968 30.6875 41.2609 28.6799784245
34.0332 34.9421 41.0583 26.9184890547
35.096 29.5096 40.9179 30.5611855993
26.2513 29.8264 38.9074 25.7819939762
26.6722 32.7254 38.8455 30.4193712117
28.3644 28.0332 38.3331 26.2909596738
32.9348 36.4908 43.1605 27.9886170114
32.2176 25.6265 52.4166 29.9777920808
29.7099 27.3154 44.2215 26.3272264559
32.4567 30.2289 54.6933 27.8130613656
33.9272 30.8091 51.468 29.6390382773
26.2765 32.8359 44.7877 29.230410626
26.7617 29.951 45.0245 27.3193960235
25.489 31.2946 55.9448 28.9144238127
24.5664 32.677 48.6512 29.0412496184
30.667 34.7002 53.079 27.3927979207
36.2868 35.2148 48.7231 30.3873818805
29.2113 32.0279 47.4554 29.2755398632
24.8553 35.2423 43.633 30.273034529
31.5003 30.9856 45.1543 30.2012357455
36.8055 31.3974 55.086 28.685606473
31.7478 24.8347 55.3993 29.5142287364
32.6025 25.8041 46.0809 26.4123595386
34.4892 31.1315 44.4692 29.7207861453
24.9436 29.3015 53.1829 27.0141090377
28.0051 34.2487 46.2597 28.50281687
32.4109 34.8514 50.8729 29.153242637
33.1482 34.1215 46.9793 30.3528808851
29.4713 25.9843 49.6166 29.6347137739
36.3471 25.2076 47.935 31.4355289242
33.975 31.4921 48.5588 27.9022166833
27.0609 25.4482 50.9514 30.011163074
27.6143 29.4592 47.6214 28.2838694525
30.4545 27.306 46.8324 27.848786008
33.7479 28.2784 51.0516 29.4800341975
30.5897 35.1333 47.6938 31.5889702837
35.0486 29.2951 55.717 31.1524551293
33.6703 27.8623 48.2686 31.9829119727
31.9218 29.995 47.622 26.207912196
35.8701 29.3293 46.7996 29.8762870438
31.3007 32.8255 49.4814 27.2385389803
26.8524 26.8733 46.0053 28.2165056964
28.3011 30.1248 51.6703 27.9007609467
31.1373 31.2943 52.0257 28.4271757122
29.743 33.0248 55.4309 31.0398295945
28.2603 24.8406 46.9572 30.2329667071
34.1735 33.6363 52.6534 27.3808786373
36.2051 32.6323 49.7628 29.6387890071
27.2382 32.272 49.8983 31.4040766544
26.3458 36.4007 49.742 29.9425037834
27.5721 32.4634 53.2956 25.8829849136
31.1668 28.2501 52.549 27.1289387571
29.5099 27.401 54.7086 29.5894836072
25.2 36.2164 52.5489 28.929772982
29.5623 35.1433 44.3396 29.5545802911
35.6864 26.7805 52.0955 33.5679639862
27.4028 29.371 54.8649 29.1732920535
35.3895 34.9134 44.3133 31.8239741057
25.9991 28.1668 50.8932 32.235667226
30.0596 28.8304 49.9176 28.5028008959
31.9862 33.9117 44.5773 29.2329412053
32.9301 32.8065 54.9306 31.0001574405
25.0731 31.9071 53.068 27.7665041404
28.0718 34.56 51.6714 30.2595777976
30.3234 30.0375 56.3912 29.1844210501
25.1536 35.2022 55.3554 31.2299409301
36.3083 26.9741 54.7458 30.86912047
34.8844 26.1251 44.9112 29.7856084004
25.2194 29.7081 48.5467 28.0419423986
36.6329 32.3845 52.5972 34.0363731438
29.0587 24.7075 53.2039 27.6471317094
29.0968 29.9479 43.919 27.7541633631
34.5384 25.5993 56.3167 27.407883485
27.0415 25.9946 43.2825 29.5788880382
34.4116 36.5334 53.5194 32.7914698358
34.9088 36.5793 56.2292 30.0795372249
34.1571 28.3482 43.5833 33.1200109518
24.9931 39.6881 5.98042 30.6614605594
36.0108 47.5862 13.0636 27.3245617396
34.4509 38.5455 12.2323 29.8105968487
29.5383 39.1468 6.56061 35.4521478772
28.7564 44.0217 14.5168 34.1056171006
27.9635 39.9871 16.0171 30.2103046436
33.2983 37.3939 8.25142 31.5347049456
26.3461 45.534 9.63889 29.4097871201
28.5634 42.4538 5.11462 30.041744238
30.1261 48.74 9.9574 29.8022448303
24.8923 37.7961 11.3058 29.2905181508
30.6066 44.9907 6.9979 26.7024000041
36.4037 39.1379 4.5185 27.8819653799
33.7201 44.8971 7.20455 31.0010844773
33.6042 40.2659 10.1463 29.0338340676
30.9244 42.2008 6.91377 30.9497047458
27.626 45.4068 7.28387 31.9399369962
30.3235 45.8486 10.1119 29.2544746025
26.5681 47.6199 5.92918 31.5111000052
36.3024 44.191 8.50992 30.6001154451
31.2569 47.7697 7.2785 32.634923623
34.841 46.8215 5.35645 31.1744014104
35.0347 42.9667 11.0017 29.1818244227
29.8937 41.7687 15.7697 31.0989044821
32.0819 47.6189 13.8995 34.3180699304
26.5154 39.9797 10.1526 34.1779048685
26.8664 38.127 7.5142 30.2204254733
25.0105 47.2653 12.9408 28.3711835428
29.4903 38.981 9.62543 29.0839443048
29.4216 48.1463 5.19205 32.3610213084
31.0632 41.162 9.51073 32.1827716181
34.1475 42.4791 13.7876 28.7303326359
37.016 39.829 16.6585 28.3772008843
36.0963 42.2291 4.39793 32.3462994932
25.9838 42.9877 11.0619 30.8814452283
28.916 43.8332 11.4964 34.5435834624
31.8797 42.8429 11.9151 29.5680555587
36.2037 40.1265 13.5716 27.7031617951
26.4264 48.0914 15.6065 27.5903919331
32.8054 45.1607 10.3024 27.9014597044
25.345 43.8042 6.52304 32.5203511336
33.99 46.0563 12.8217 31.0385947011
25.1596 38.5028 14.6495 28.6506013723
26.6906 40.3622 13.3999 30.3926983302
34.1586 47.8693 9.41519 29.4001565848
30.4741 36.8152 13.5815 28.9825654687
30.258 37.3741 4.12382 31.0470512119
29.9006 45.0824 4.23124 29.6469414778
33.9281 41.3855 16.4784 28.546308993
33.5726 39.1115 4.70301 27.9228741302
31.1822 40.6539 13.6431 28.5669376428
29.2755 39.0607 12.6951 32.0441166692
35.3132 44.3604 15.6657 27.6163241255
33.3226 42.4661 5.31126 26.4916924711
26.2364 43.5418 15.4873 28.0633766198
29.1257 46.9084 14.6888 29.8368474437
32.8034 38.4846 14.4866 27.9363271207
27.6886 46.897 11.713 28.1403673288
34.0022 40.2024 7.54501 28.8942151687
36.736 47.1144 8.5015 27.3241084711
25.9217 41.9238 4.85362 27.6279238353
36.685 40.0864 7.80906 32.3906955722
33.8025 48.6329 16.4745 28.7809480553
25.2838 45.5253 16.9395 27.8215424183
26.2808 38.3306 21.1984 30.8379315698
28.5265 39.9334 21.1255 33.1301074348
33.8713 38.3177 24.5454 101.2297447205
33.3045 40.911 21.4607 29.7344139261
35.1778 38.9811 20.6126 30.0748002548
31.4245 48.8087 18.1583 34.4911124216
30.8349 37.1244 24.1302 58.9946026755
25.6972 41.4339 17.3362 36.9573155974
31.1793 41.571 19.7651 28.0598123962
27.346 45.6204 18.5204 33.1516727764
36.7761 41.8087 23.986 62.8779426925
26.3726 43.7504 21.4061 29.8594353545
35.8675 45.6191 19.6621 26.227940472
34.5263 43.4107 21.3216 27.7360749306
33.1827 48.5716 24.1474 83.5002558566
31.6813 45.0771 18.0204 30.7817797602
35.9702 42.8665 18.4101 28.4732816489
29.5873 46.5583 17.4293 27.7704341312
29.417 42.3442 24.051 64.2488356492
29.0061 39.5278 23.9776 58.9267619295
32.1937 40.475 23.9316 49.8009766156
27.6899 46.951 21.0467 27.9679214641
36.6605 38.7725 23.6229 39.541203298
30.5695 47.0645 24.4157 89.8738369337
28.9012 42.7885 21.1715 32.2486242527
34.5959 45.7842 24.0815 58.1072960003
31.4629 44.704 20.897 28.175721863
33.7695 42.8416 24.3016 82.4362066821
33.8349 46.792 21.4382 28.2156194254
35.5784 37.9958 18.1192 28.3225538298
31.7578 42.535 17.5056 27.8123934547
30.4347 38.8701 19.1053 28.3715406211
27.8415 47.2968 23.9745 44.2832963556
27.4604 44.5941 24.4747 95.1250960669
34.1944 46.0434 17.3489 29.884205614
31.4093 44.386 24.0163 53.7033616026
30.6299 47.187 21.5505 27.8196153961
26.4415 38.6172 24.2449 81.0953069881
31.1538 37.3264 21.4982 30.5809382661
24.6645 46.2294 21.3908 27.5183103478
25.3333 42.6394 24.3696 87.8530443842
32.865 38.8066 17.3281 31.6381632713
28.8546 37.6631 17.1507 29.8364311763
25.571 38.8887 35.6382 118.9370185567
25.4477 44.4935 38.9587 29.611103094
29.806 40.6608 38.9501 27.8212036152
33.1317 40.658 36.4888 31.7394086166
32.8184 41.1163 39.1659 29.710867279
30.2446 40.4975 35.922 88.3264222569
32.1142 37.8286 35.8509 64.9534800313
34.1047 43.194 35.5326 119.313007591
27.0108 37.7879 41.1068 27.5288858577
36.7942 44.2709 41.0779 26.1167171084
26.0919 43.5172 35.825 105.5942863783
28.8807 43.3163 36.3301 64.0239884964
34.5588 43.5707 38.7924 30.9771091511
30.5835 45.446 36.7767 38.1369156608
33.2146 45.6669 36.326 49.3667904561
31.0727 46.6212 39.6891 26.4137416218
26.8273 48.3558 36.0881 80.4834576221
28.3981 38.2478 36.0021 55.6034845992
35.2774 39.1418 35.5339 94.9377333009
29.6705 47.8605 35.7215 118.515741949
35.4666 47.9624 35.7995 105.0434713862
29.2701 48.2555 38.5528 26.9560958191
32.4369 43.2192 41.5149 30.8212425495
29.0495 38.1066 38.7703 29.1232868612
33.5924 46.388 38.9105 26.8504992876
34.7023 39.1329 39.5721 28.2483008275
29.9211 39.9887 42.0112 28.1591198901
34.2633 45.009 42.6328 34.74320738
27.4827 46.2999 40.1076 30.5109560171
31.3278 48.5197 41.5551 40.5836781971
34.4942 39.3314 42.44 27.6318626569
24.5447 40.8664 39.2942 29.3223386042
26.8783 40.6553 40.8246 27.735840576
27.9066 42.7891 38.8783 28.2942114948
25.0538 36.6188 37.0979 31.9678623103
36.4373 46.4678 39.6695 28.2074996199
29.9089 44.0681 40.3567 29.190236772
32.062 40.9649 43.2762 26.4783446318
36.6727 41.1759 42.6276 36.4156583973
32.3372 37.4704 38.6768 27.6166344406
25.8951 48.0757 38.9351 28.0370517013
26.1133 48.0649 42.3107 30.1095480153
31.2677 37.7836 41.3441 27.3916304753
24.7181 36.798 40.022 28.788015375
25.1468 46.0603 36.2854 49.5021976347
36.7587 43.6397 36.1579 51.2168848696
26.3731 45.3437 43.2875 31.0038356614
26.8878 42.4214 42.8748 29.5886043734
29.2559 44.4967 43.0976 27.8594569109
32.029 42.7581 47.0313 29.5838524327
30.5406 39.6092 45.9189 31.6745401048
35.3111 39.3922 48.4801 27.753148613
33.2951 38.4948 45.4895 31.7045743848
35.9467 46.0238 54.4662 29.7107924116
33.4162 46.3327 55.5939 28.6737275848
24.9413 45.9461 52.7895 32.4987815687
29.7143 43.744 48.862 32.2286538083
33.3284 48.9701 51.6449 29.4323218052
33.0269 45.225 47.592 29.4787811807
30.9657 46.6315 48.5959 31.073384114
34.1617 41.0617 46.5199 29.2073746332
24.6137 42.471 55.3843 29.9346528005
25.78 43.5469 49.151 37.7974298723
27.3888 39.3253 54.4794 28.5660849777
26.9977 45.5422 46.0746 29.528621383
28.1718 37.2869 52.5659 31.6315491919
35.4095 47.8834 45.322 36.0922537435
28.9182 47.6089 46.0334 31.3406492119
30.7363 37.0536 54.0479 32.3186676658
27.6745 46.465 53.5722 31.5162629692
33.1905 46.2911 44.9252 34.9570775431
24.5026 48.6116 52.0629 30.5407986179
29.7236 38.1718 48.3964 32.0053035368
28.8861 38.1667 44.0991 27.4727125675
25.0698 46.6503 47.8172 32.1540856042
30.6829 41.6631 50.527 32.7682832804
29.7535 48.5981 53.1396 30.9621998449
36.5126 38.4366 52.7911 32.5128777727
35.156 40.3985 54.5707 28.0617834253
27.4758 42.5351 51.1827 29.7038759825
28.4684 39.8159 50.6601 34.5340108897
27.6537 43.4063 47.1203 29.517106542
35.4896 41.5263 50.3256 31.7789592521
31.5208 42.4474 53.3171 30.922395303
32.7747 45.0056 52.945 31.1107301866
30.3839 46.71 44.0932 35.3780577114
35.2776 44.4936 51.9021 32.9975422012
35.4456 43.6415 48.3843 28.7335076439
29.4113 44.5105 52.0399 31.6537478094
25.8617 39.4734 46.4501 31.1150753335
34.3901 47.845 48.421 32.2128283627
31.4614 46.9476 51.4597 28.7151729546
36.4087 46.0044 49.3476 32.5129161039
32.0819 37.4275 49.7789 31.6865434973
36.681 42.2898 53.2966 29.5874981501
32.2808 40.6908 55.566 26.126052857
32.8806 38.8465 53.3735 27.9228087911
34.1291 37.0184 47.8664 29.4493061165
27.6158 41.1922 45.437 31.0068930263
27.5749 44.7691 55.6146 30.2346596919
25.7899 41.0752 53.3788 27.840192127
33.0099 39.9578 50.866 31.6432513611
25.4548 39.1947 49.3241 31.2099493167
26.2205 37.8802 43.8619 28.0742631095
28.6113 42.5872 54.195 28.9611165198
32.2978 43.9294 56.1844 29.9290198885
35.6545 47.4223 52.1017 29.7351077254
25.9376 48.6065 49.5663 36.0425502064
29.4687 40.4461 56.2079 29.0795633134
27.5606 37.0415 47.0466 29.7501486806
31.6086 48.4386 55.7296 32.2849132119
30.541 42.7485 44.9622 29.8126257656
36.8292 43.7427 46.1131 28.3474580374
34.9769 42.682 44.2976 29.3782593613
26.0461 38.2676 56.4513 30.182060112
36.363 37.5749 43.3694 29.3434773666
40.8382 4.57388 8.04508 29.6969183412
43.5506 10.5418 13.5002 31.9264882822
42.5653 10.9562 15.7962 33.087716548
37.3536 4.02667 4.6678 30.8429047444
42.9203 3.22138 6.81928 30.7018157988
46.4125 11.4315 9.35979 30.301471829
48.7575 9.8847 9.33691 28.7253005034
43.3795 3.62767 16.0798 33.2900912429
37.1347 3.08946 7.8993 29.5417415589
37.0093 5.87664 7.57835 27.8563098501
40.2803 11.8229 10.5223 28.6613707264
39.4754 7.02639 7.97835 28.8418090153
48.953 1.99679 17.0263 34.0549694836
41.5367 6.09312 4.4283 34.0450837735
44.9278 4.21954 8.81889 30.4031884141
47.8327 7.85204 11.0967 30.8495401017
40.9443 8.19786 6.05837 33.3921659999
42.6907 6.39636 15.8174 29.9125019682
47.3704 10.3889 6.83785 27.2286303611
40.071 7.32071 15.9457 29.5714990037
44.326 1.26502 10.9483 32.3765439028
46.3619 11.261 12.5028 32.1510516366
39.3134 2.50587 9.90068 28.7484018864
46.2612 2.94407 16.1436 31.2035580315
46.2686 6.31377 7.11518 33.5022399864
42.5314 5.36903 10.3951 29.7707698858
47.2912 0.278546 12.1573 33.3310184683
40.8143 0.867248 7.7163 30.1199273818
39.6545 10.5927 6.03984 31.7380018333
44.501 5.17334 5.03229 31.4618492679
41.9876 2.75261 10.8712 28.9146156645
46.8669 2.69873 10.0823 30.3350676105
45.6148 7.09428 9.83425 29.7288515531
48.0618 11.2203 15.0721 34.5598169636
48.7716 1.59584 8.45136 30.0837804536
42.1401 9.86041 11.1318 32.1085182542
39.8329 4.56236 13.7533 33.8043831367
38.1416 10.0755 8.78564 28.8363853068
37.6115 0.16684 10.6824 31.2825677156
44.5238 5.83171 12.3699 34.2733771983
48.4216 3.33299 12.4334 27.116539173
45.5788 8.97131 5.74015 25.3407943471
40.4722 7.39243 10.7259 32.3079783224
46.8037 8.60009 13.6447 30.1520968311
47.9801 1.14258 5.96734 32.6410721278
39.8015 0.730146 5.36562 29.6636038411
39.5123 0.11866 13.4021 30.8492751678
45.8657 2.72745 4.38559 35.4757440015
44.0944 7.94471 14.0898 31.4478727865
40.0133 3.51823 4.84935 29.3782476816
48.2917 6.38569 15.0354 28.5052703163
38.8743 10.7157 12.7126 30.1292411929
40.035 10.0253 15.5375 30.6494433033
38.0416 8.43393 11.7789 28.515799083
41.3912 2.09609 13.5986 31.2997084293
38.5232 5.04349 11.256 30.668873849
46.6253 4.43994 14.008 30.8846025385
37.7188 7.6184 14.7061 26.8597496714
44.1741 0.777881 8.2315 35.0273590408
44.3295 9.63753 9.51353 31.9726799296
48.6746 6.98626 6.04841 30.7864421819
44.9333 0.415472 16.2327 29.2326290197
43.3375 9.58953 6.9185 32.5636624563
38.2435 3.45451 15.6126 30.315790412
37.1016 0.722841 14.9271 28.5859529739
43.7833 12.0891 5.64566 27.1361762287
42.3365 2.59838 20.52 31.3147408418
41.7047 2.45493 17.8255 32.0343811598
44.9037 2.33672 21.3454 35.1039363742
37.5612 1.32808 19.098 28.5189510901
37.9348 3.17657 21.5126 26.4287852941
47.0893 11.0408 17.7524 37.1056584201
49.233 0.177622 21.1938 35.5184815754
40.3333 4.46152 20.9177 28.7127304703
43.7239 7.24838 18.1324 30.0353427743
41.5114 7.30714 19.869 31.3881117759
45.8661 5.44789 17.7135 32.0119368892
45.7593 5.29295 20.6086 33.4741510773
38.0127 9.56553 19.073 31.7011422231
39.1552 11.6209 17.563 33.3481433857
39.9487 9.12174 21.2245 34.3499349261
37.6206 2.04174 24.0656 62.3867537372
44.4045 9.89503 17.8136 35.369090287
48.4805 8.81795 18.9294 30.2261254281
41.4584 11.2976 21.3774 31.0444942006
43.8924 11.4969 20.2268 35.0725084686
45.1228 11.1753 24.1276 71.3847863504
42.0399 11.1416 24.1636 60.8556694383
42.7352 2.92946 24.3954 95.0246357284
46.5027 0.134162 23.9924 55.419468687
45.3613 2.87161 23.9181 57.2464615736
48.3168 6.1091 21.3905 30.7870263059
38.3931 4.62244 24.508 96.6610248388
40.851 4.7723 23.5763 30.9727216945
43.9388 6.99382 21.6306 28.7162223663
42.4492 6.49111 23.9665 49.4512995006
45.6574 7.46315 24.5783 102.5398493355
47.1234 5.06666 23.9487 58.9628076607
47.6747 8.90028 21.5215 26.925321485
38.1924 8.99713 24.1051 52.0589151561
41.0018 8.81076 24.6563 106.2123481024
39.4192 6.37398 18.4146 27.9947584335
45.0779 9.33578 21.7753 29.2639988448
47.8354 9.2468 24.4393 64.7690340558
48.4104 6.28575 17.8313 28.5954954785
39.0372 3.53331 18.2284 28.342893325
38.6689 0.0329297 21.5591 29.5875150043
42.0903 0.260229 24.1678 57.059215148
41.1065 3.69419 36.2129 36.8324898409
39.4668 1.31382 35.4416 100.9272789488
38.2947 11.9691 38.5628 27.1004185945
38.9282 11.3795 42.2816 26.5938666373
43.9282 3.05592 39.2566 28.9973250492
41.3405 12.0559 41.4791 29.9475478138
39.2787 9.52574 40.0691 29.750039536
39.5686 1.49394 39.7061 30.5749244014
46.1175 10.6383 39.1585 27.5500049482
42.2988 7.07591 35.4429 90.9900084697
41.4902 6.77887 38.0684 29.3398175405
39.6549 5.99651 35.3606 115.6046413946
43.233 2.12206 35.7706 67.6381115675
45.5283 3.51623 35.5421 85.9852822492
45.7769 6.88168 39.9697 26.2937260881
44.2985 3.14047 41.9506 25.9370939249
48.2135 2.36274 35.4546 94.0057658756
46.6551 4.83926 42.0263 28.308482562
41.9638 9.84353 36.0232 54.096826261
38.7044 7.47366 42.5545 30.3896715817
47.7799 7.1925 35.7388 69.8681054663
45.0234 6.52607 36.0744 46.9754001941
44.6323 8.7614 37.969 25.3690058223
48.2712 0.179437 38.4763 28.416044296
48.7859 10.4564 38.2227 29.0418680887
48.1614 7.22794 38.4547 29.4479539315
46.3705 0.160937 40.5179 29.3597102051
47.0924 8.92421 41.995 35.355700947
48.8112 11.7361 42.1359 29.8551961678
43.1139 7.23341 40.6035 30.5783526513
47.7597 10.2425 35.4747 88.6877413849
37.3083 10.9692 35.8986 79.4410150941
41.3394 3.65561 38.8086 29.3730013938
46.0228 4.3392 38.4895 28.1050447128
40.3393 3.8338 41.7081 29.0612855397
45.5651 11.3451 41.8793 26.0335957615
42.9411 9.85854 41.9324 30.7266404963
42.0949 9.83095 38.8276 25.0611945197
38.1183 5.41992 41.0402 31.8816249848
48.5023 3.15461 38.4618 27.1333425825
38.6225 6.89234 38.7504 32.613007509
44.634 10.8353 35.7285 75.9479614919
48.1229 2.55497 41.57 30.4783512934
38.9623 0.25604 42.274 30.2334321545
40.2343 12.0639 35.9512 58.9168583877
36.8742 1.95053 38.734 31.1784371189
49.2744 6.48934 42.7232 29.7807958761
36.8514 6.00288 36.5163 36.3356003255
43.7744 0.0430282 38.7323 30.8468932781
42.4884 5.3911 42.5018 27.2732381361
39.8963 1.65493 47.0748 28.3436690319
41.3565 2.22151 55.2349 32.1959017078
44.4789 1.93646 45.5534 25.152868586
44.8441 9.27977 56.1135 32.3697502519
39.9909 2.86962 50.2995 29.3499476624
40.1766 2.09539 43.7963 30.3030574909
46.4533 4.8797 44.7774 27.2630092052
39.1803 7.72883 48.1224 34.5275685479
45.5545 10.172 51.6591 30.436137152
38.1396 11.4908 45.4289 28.8346162509
47.5023 5.50245 54.6203 31.0134829176
38.7797 10.747 55.9937 34.3635703229
47.7198 10.5906 52.9938 29.1295740755
41.5585 12.4018 47.899 31.4082764129
41.913 3.35635 47.5281 29.6443260268
43.8224 8.78605 46.2376 34.0750820667
37.3568 2.03039 45.341 29.7806061222
40.7524 6.62329 44.3654 30.5732294479
43.8929 4.76764 44.7378 28.7395224176
40.6489 6.7531 54.5914 33.4010185057
48.2214 2.56175 45.5399 27.0140007491
47.7671 10.2545 55.607 29.092986114
46.3561 9.66796 46.2103 28.5556717342
42.9431 11.4458 55.7099 32.6335661242
40.8631 11.5918 45.2492 31.3321123192
41.8196 4.89621 50.0573 30.8772732754
41.7106 8.09837 49.7941 33.6373157584
44.4702 2.07615 48.4735 28.866360215
48.2431 3.02383 55.7927 31.0086666504
47.2959 3.37788 48.179 30.2036412461
44.5267 4.36716 50.1411 26.5910251113
39.1689 5.60682 46.289 33.5415633406
41.8252 9.19026 44.2943 31.3491522249
37.9323 4.65498 51.0931 32.4436076972
43.8352 5.98011 47.4326 30.4589927507
43.9993 7.14066 51.3799 30.4696155548
43.3632 10.2119 48.4385 29.8345454075
47.9812 7.33138 45.3547 29.9408120181
46.5303 6.18879 47.7808 27.7437342369
37.502 9.97092 47.8321 31.4563452994
41.5281 0.550874 51.2855 34.1418098194
41.4686 9.93102 52.1322 31.2532863629
37.6498 3.0287 54.7128 28.4368031589
46.5904 11.7958 44.5945 30.5921947539
46.7359 7.71141 50.4121 32.074526952
45.5216 11.144 48.7199 28.8413211499
39.5799 0.860703 53.3554 26.7039202032
42.8472 3.33003 52.9129 33.9335647389
44.5143 1.06505 51.6997 29.9020830553
48.3356 0.602852 54.0744 27.7465187655
47.1069 2.69117 50.9057 32.2175295098
43.951 1.16631 55.7865 34.4971814599
45.2245 6.60966 55.6056 29.3957779492
46.3064 1.36738 43.7429 23.9590336312
40.6411 9.3401 54.6759 32.495594221
48.6976 7.448 56.0834 31.0363483813
43.3242 5.93962 53.7433 31.9234031663
38.2152 5.77366 53.9416 33.932734842
38.8849 10.8581 51.488 30.0419713785
47.5823 5.38869 51.9793 31.8476856162
37.5543 0.301086 51.778 30.1191329472
43.5613 11.8254 52.5485 31.1947644427
48.6084 10.986 47.9091 30.8534243719
36.9099 8.59598 51.2429 34.4473056979
38.9556 12.0366 48.8988 27.1009171042
37.2004 6.51314 49.1704 31.6509213549
38.7824 0.33659 49.3002 26.702361362
42.8189 1.19547 43.2881 28.3569379339
41.5913 21.6826 5.81617 28.1978164318
39.3372 17.5174 10.3632 34.6475512807
48.9369 23.8797 7.28271 27.4139626292
42.8511 23.0849 12.0035 32.9793165871
37.1246 20.9188 7.52909 28.6268853755
44.5393 14.5311 6.64626 29.1634088017
46.7378 15.1331 4.91104 28.0968018364
48.7107 14.1487 8.07423 33.9906125396
39.9034 20.3404 4.09055 28.4049122494
37.0541 12.8558 16.0765 29.1056880827
40.8685 14.6548 5.01743 28.6425302887
40.5792 23.2363 15.666 28.8885621158
47.9054 19.0849 5.08555 33.2318894346
48.6303 12.4858 5.85558 28.8671820721
44.9531 20.0153 14.4836 28.5628554034
38.6348 16.1657 4.08763 30.4122259518
42.865 20.4954 8.0592 31.9593683192
38.6654 17.9465 14.5548 30.1147057811
45.4908 23.6571 8.53434 30.654236221
43.316 15.5938 9.58736 34.6858392461
44.8468 17.5236 10.5402 31.7127094628
49.3959 20.7464 6.98661 28.2116268476
47.0456 16.0185 10.994 32.4539754056
39.1382 21.9574 9.36574 29.0824675179
46.1725 14.2335 8.91677 29.8878271122
38.6127 22.6 11.8992 29.1818266812
48.1739 23.6791 3.98941 34.879704018
39.4943 16.3281 7.77384 26.3162910349
42.135 13.7193 11.5424 38.9170010216
47.1198 21.1284 11.6516 31.4326951858
42.2133 16.464 6.71406 29.981741036
40.7774 17.4169 12.8664 28.4379291326
45.7376 17.8411 5.91924 29.8519036318
45.3808 22.2434 13.1808 29.5930347859
47.1549 21.5241 8.83278 30.8860303671
45.3477 19.1881 8.37282 34.9801651397
42.7435 23.0192 9.23856 31.0237625172
39.2734 19.2479 6.86317 31.5545358987
41.3169 20.646 12.6749 32.5034327722
37.8679 14.2566 13.4575 29.9532389379
40.8009 19.7112 9.58886 29.9813944113
42.1695 20.6064 15.5174 31.6416030206
46.3286 14.0932 12.8599 31.9690368038
42.2873 13.99 15.8924 36.3679113099
40.6513 14.836 13.8392 32.3675474405
44.5732 15.3573 14.5362 32.9747653948
39.3374 13.7641 9.00876 30.6710063301
48.3906 15.4812 16.0662 31.5478047956
48.9957 19.6051 13.0622 29.336776847
40.2055 24.0402 5.7164 31.2442313936
48.7446 13.6084 14.0463 30.2979125781
43.7119 22.448 4.33825 34.0367752845
46.147 16.6459 16.1155 31.4703556371
47.1848 18.8987 15.0245 26.9320026835
43.6626 17.652 13.0849 32.9780922556
45.6384 23.9216 5.69531 34.042343351
37.8431 20.5469 13.5368 30.6961835286
43.2725 18.0213 4.48728 32.1176334054
48.7181 23.3552 11.8029 27.4388499894
46.3522 24.1023 14.8514 29.8383173864
37.1559 23.134 5.77064 28.3784345086
49.2348 16.409 6.08137 33.0520161323
41.2166 12.7296 6.78095 31.6915858209
37.1186 15.7035 11.1045 30.6501287515
40.7995 24.1399 13.2634 30.5952684936
40.5577 18.6548 16.4725 29.4637146394
46.3477 12.2973 4.15737 31.4239798137
40.3126 13.8603 21.3601 32.8762965082
47.6531 15.77 24.211 63.9548307023
40.1746 14.1842 18.411 34.0001995404
43.146 17.0943 19.9453 30.3596812773
47.9271 12.7829 19.9134 28.9715575231
45.6712 13.9153 20.6607 32.8594208574
45.4065 18.3134 21.743 29.3825122951
37.8711 20.6274 21.104 28.5384300879
37.8314 15.9934 17.9808 32.5554252818
38.3808 18.7984 18.417 30.1765946545
45.2807 18.186 18.3625 30.4452025919
45.8198 22.2471 21.6788 30.2919386628
47.3542 16.1983 21.2087 29.1985212322
38.7055 22.8013 19.7491 30.233730538
38.9296 21.3125 17.6131 28.9846177754
41.7765 16.4269 17.4071 34.4947258837
45.7064 23.183 24.1095 49.0622218419
44.2145 20.7548 17.9167 32.3609697604
43.047 21.7096 20.3741 32.7673436241
45.5662 18.1077 24.6151 91.3395328112
39.9622 13.259 24.395 78.9199989996
43.0023 15.0172 21.481 30.8051370439
45.7091 13.8112 23.4086 30.7488715758
44.1322 15.9581 24.3866 79.6307099677
37.0543 13.485 24.6269 98.402545159
46.1243 22.3657 17.2005 33.159779946
41.4197 15.6626 24.1804 55.7285465882
40.4863 18.3 24.5378 94.2715598661
39.1709 18.1562 21.4813 31.2199449842
41.8826 19.3739 21.3504 32.4116403686
42.8321 19.5536 23.915 36.6710041857
48.288 21.987 24.4935 95.656571549
47.8758 19.2839 23.9766 44.6330657438
37.7528 15.724 21.6877 29.9744474279
40.8759 23.6062 21.3134 31.170540872
38.7679 21.3558 23.6795 40.950831509
40.8679 23.4795 24.0545 71.0700260767
43.2113 22.0858 24.5636 102.4332069781
47.7447 20.2887 21.2186 29.0539960496
37.462 18.6119 24.5278 82.8716660472
48.1443 18.5395 19.1068 25.8106490842
46.1668 24.0585 19.5605 32.6263319133
48.0848 20.2719 17.1407 31.479882077
48.1304 12.1483 24.241 71.9252454578
49.117 24.2775 21.1353 31.4767482746
37.1139 23.4186 24.0836 67.8398802918
37.9392 15.306 35.5262 85.1332545086
48.5006 19.2261 41.2592 30.9440153099
39.5707 14.6296 38.1703 28.1336294899
44.3431 12.742 38.4635 27.4439722226
43.4929 13.4585 35.9191 61.7742141277
43.2791 23.0131 42.2267 32.4410331483
38.6955 15.8751 40.8175 29.0164299489
40.9367 20.8298 36.2367 43.8432213082
40.1892 17.3137 42.8898 27.4445468844
45.4081 21.5025 35.9967 49.2510271861
37.8884 17.9537 39.0053 27.9281229576
48.5528 17.1874 38.8375 29.3743892081
40.988 14.8186 35.3806 99.9676892274
43.66 19.1833 36.1537 53.1231525139
45.3766 13.8704 40.9041 26.8569057786
46.0375 14.6759 36.2884 38.7308000204
48.1551 20.3693 35.7609 77.8171790863
38.1072 21.1406 35.7232 94.3708213303
46.1332 17.5286 35.6014 103.5016759809
42.8146 16.5962 42.8376 30.460879335
37.4152 13.3574 41.3087 26.7359567953
43.7411 23.2204 39.3693 27.9335931483
45.3286 20.7229 38.6833 28.3724075738
38.3126 18.1928 36.179 45.2302544579
41.5386 12.5178 38.534 26.3092090865
47.9855 12.8384 35.4334 92.6370537041
41.2154 17.6989 36.109 56.9877463956
46.9287 14.9756 38.896 26.3131517635
41.604 21.0084 43.1628 29.7826137475
41.412 21.3534 38.958 32.5149406185
38.5446 22.4402 38.9166 28.9356631914
47.1905 15.1837 42.9187 28.2464613687
37.8119 23.8186 36.0359 57.4232880061
40.3325 19.3549 40.9543 30.2512021096
45.5328 21.0736 41.5686 32.2119465324
41.0347 17.2899 38.9135 29.493285191
45.3502 17.9211 38.5789 28.8814911086
46.4476 17.3967 41.4789 26.2796518287
42.9224 22.8135 35.3785 126.2394962166
43.3974 16.6231 40.0895 35.0203258237
47.066 23.4255 42.4735 28.042392188
48.5383 21.0253 38.8466 31.3034656219
38.644 22.6256 41.7804 30.2119497958
47.8673 23.5186 39.7715 28.8518351695
49.0443 17.9396 36.1676 38.8323659152
42.9807 13.7658 43.0928 31.4828193734
49.3065 24.3016 35.7603 95.8812641147
46.5541 24.0554 36.0391 59.2686958949
45.3247 13.8716 51.9917 32.8189137665
45.6797 13.6739 47.6599 28.4430688433
37.2916 15.059 43.3876 26.707082918
43.4395 19.1877 48.7346 28.9619828329
45.1362 14.2372 45.0633 27.7525553721
42.2951 14.2957 55.6719 31.0698277823
38.7847 14.8016 47.8491 28.0914493152
43.1277 21.0532 46.7932 30.8128415273
40.1697 23.394 53.1429 25.2153104405
41.0043 13.3091 51.2596 30.0960049051
44.9978 17.8567 43.9665 31.5813247495
46.1683 20.65 51.5335 29.0874324493
37.1285 17.5119 45.3587 25.454420296
46.0593 22.1065 49.1482 29.7549475936
39.8878 18.002 45.6929 27.632464684
40.7542 20.6272 45.7791 28.476593445
47.879 21.3317 47.1505 31.4327116775
39.5367 19.3379 52.3854 27.3619716055
44.2613 20.4691 44.2679 28.292421891
39.6258 14.7652 45.235 28.5867634485
38.9994 16.6511 50.1312 26.9341029378
41.6921 17.2211 47.9311 28.370735329
41.9407 15.7377 50.2716 26.3886932728
42.3057 14.7971 46.1908 31.1701123072
48.6138 13.7459 48.2278 33.0810975595
38.9109 24.3028 47.5743 28.6528683922
48.5855 17.9626 44.1361 28.5781851102
45.8231 17.4915 48.7326 32.204978328
42.9227 17.6174 51.9837 30.1540440993
41.8616 20.4914 50.6588 28.0739234747
37.3445 22.12 55.4429 27.8035679181
47.3734 18.2302 50.8459 33.7827957533
41.8099 23.5685 50.4404 28.8215177957
38.696 22.0309 49.4447 30.6581882725
46.2459 22.2434 45.079 29.8349346891
41.0635 20.9886 54.1067 29.1779661584
43.6591 23.3625 48.2438 29.347575014
37.6721 16.1339 52.4689 25.2754155235
40.1855 14.0496 53.8506 30.1844986909
48.9334 21.789 55.2998 26.4866532454
48.4498 15.0123 54.7089 29.9148089879
40.4121 16.9742 53.5903 27.3751963985
44.6607 15.3024 49.6085 29.9669207278
47.894 13.1129 52.7288 28.3468007189
44.6086 20.1648 55.5668 34.3858254178
39.0941 23.042 45.0759 28.889615218
37.4883 22.7698 52.0287 31.0693188148
39.771 19.3777 48.7108 27.2832476316
37.2389 13.8496 50.6835 30.5003122333
48.1551 22.1026 52.69 32.2293584692
43.3289 23.4162 52.8827 31.9855768483
42.422 24.2273 55.3087 30.9773679735
47.5075 19.4605 55.3288 27.9900919974
43.8643 20.3992 52.8998 27.1202874296
44.2733 15.895 53.8685 34.8806302575
46.736 16.7494 46.1054 30.3033320065
37.71 12.2953 53.8143 31.4839356667
39.3625 24.4412 55.6497 28.9843462166
46.3046 16.9252 55.4124 29.565688823
37.0447 15.0727 55.0234 27.8604682907
40.6961 17.9831 56.1193 28.224004492
38.3672 20.1267 43.4217 29.2453395944
37.278 34.2794 14.6102 27.7806841969
46.3158 35.9942 8.29406 32.6922529911
37.2413 27.8014 6.10082 27.47353943
43.3039 31.1499 12.3325 28.9961862751
46.662 30.7551 16.1724 28.3200624957
44.7389 26.4577 5.57143 33.6485670908
37.9163 31.9928 8.67294 30.5799066111
41.3168 36.4121 6.32667 31.1339671506
38.8271 29.9915 4.98962 24.5581529057
39.9947 27.0788 4.70606 28.96760958
40.3429 29.2937 7.35528 29.0152112672
47.9778 32.9434 14.1446 31.346972738
42.8223 27.7691 7.46608 32.5409188241
42.1328 26.3171 9.85481 29.8112059909
43.3264 36.3926 13.8212 34.7419276163
44.8859 29.3686 9.26277 27.7427329355
47.1576 29.382 8.06787 32.0285444652
44.1966 35.7696 6.27662 31.0918583958
36.9134 34.3028 6.64166 27.9366631693
43.7485 31.9381 8.89173 29.3173717999
43.5326 32.7862 6.39617 33.8103957537
40.1667 34.5188 10.8659 33.7725701863
47.64 32.0247 7.79098 32.3491189162
39.5686 32.8224 4.4921 28.5116642381
45.7452 33.6084 16.1298 27.8641923797
37.0649 33.7189 10.6686 28.6675630448
38.5449 28.0782 11.4922 28.4795353181
45.069 29.9039 4.36315 29.6878171779
44.8513 26.7186 10.2556 29.6133392886
37.7807 36.5606 4.3524 32.1490834972
41.3894 26.8901 12.4679 30.4159655444
47.6875 28.0045 13.7233 29.0033048845
42.2484 29.3834 4.69361 29.3758020595
44.2224 29.8551 14.7711 27.8275281108
40.6671 30.0685 11.4956 32.3918649973
40.0774 34.1301 13.6437 27.564306253
45.8713 29.6071 11.8412 28.5608795756
47.6568 25.2116 9.32219 28.9438902312
41.0048 31.4587 9.08282 29.9219764259
49.3571 27.6167 9.32621 34.8559086041
41.3329 29.6514 16.2513 29.2552817542
43.1597 33.8955 11.5582 33.4519723226
45.8423 36.214 12.3233 30.7802441054
45.7952 33.9491 10.1465 31.4679372361
47.4085 31.9599 11.5646 34.1506812031
47.5363 35.6819 14.1855 28.5145386421
39.7903 34.1302 6.90954 32.1367638727
46.9346 28.3498 5.35448 34.0323808551
44.7673 26.0283 15.7363 29.1581858637
46.3406 32.2694 5.33027 34.0751659744
38.7077 27.1969 8.56416 28.9696165703
44.1275 27.4274 13.319 28.8019607742
46.5857 25.756 12.4069 27.583103483
43.4813 33.2001 14.7375 30.885345959
40.1022 31.2744 14.0727 28.5057535328
39.1486 27.9076 14.5184 28.4063958019
38.3697 24.8932 16.2611 27.7258613876
36.8941 36.6888 11.7053 28.292873015
37.9249 30.7211 15.5357 30.9144966976
42.3046 25.1696 16.8051 33.7527478639
46.6583 27.8556 16.5583 25.1141925406
40.1451 24.5781 8.39515 29.5103764725
40.3741 36.5992 14.6775 29.1286857618
49.1445 26.388 16.767 34.3162107403
41.377 33.7041 16.9092 29.414363561
41.4883 36.0024 3.4597 27.5734187428
40.3426 27.0241 16.969 29.3922075373
41.7841 26.3465 20.971 28.7751721381
38.0091 25.9885 23.7555 49.2445487432
46.6959 26.5575 21.6781 29.9053674812
37.9132 36.2374 24.0077 56.5950458856
46.8788 34.0629 21.2259 25.5699233471
36.8308 30.8088 21.8157 30.5089814545
41.6931 31.1886 20.1641 31.7946655633
41.3624 35.908 19.6146 26.1214905119
40.492 33.9086 21.2362 28.1681049053
43.7988 29.768 17.8536 31.6365073688
41.1639 36.6629 24.2098 68.9384101908
39.8497 29.633 21.4037 32.637101533
44.5755 36.1758 21.6251 26.8190534518
48.1088 27.5667 24.3028 73.5436658322
45.3634 30.8276 21.8473 30.270554494
43.9307 33.3885 21.4251 24.5126935615
45.4937 31.8582 19.003 27.1833274144
43.803 34.3696 18.3478 27.793810994
39.7561 27.3486 19.5909 34.7069894698
47.3908 34.7969 18.5649 27.2980479855
44.2999 28.0623 21.4189 30.2126851769
40.0874 29.3792 24.311 77.7416920577
40.7672 26.4174 23.7063 45.0203686949
43.4254 27.7565 24.3731 81.6575449974
45.7174 26.0964 24.4269 84.2533029659
37.8738 32.5508 19.8706 32.3998114285
37.5717 26.2539 21.1116 31.5582708578
48.3808 36.3928 21.4169 28.8153733941
38.2419 31.6153 24.1611 63.6444215277
42.5149 30.4571 24.6104 86.9468364653
45.1248 27.4036 18.8541 29.6121610015
37.8801 35.2915 21.0652 28.9720536013
43.4322 24.8532 19.4176 30.0452353058
42.8874 33.2817 23.8937 44.1050144672
40.004 33.8164 24.0116 60.7339926454
46.1251 34.2545 24.0984 48.8976303724
45.6685 31.6558 24.6202 98.2677129853
37.2413 24.7429 18.8039 29.1914859874
48.6623 30.5238 24.3064 74.0425565162
44.1625 36.3334 24.4136 96.9115546237
48.3144 31.181 21.419 27.6656328996
48.4977 31.9049 18.4114 27.8327565906
40.1333 31.5154 18.0046 29.2657596624
49.0901 28.3578 21.2709 28.9887013659
45.3205 36.7563 18.2868 27.9648086629
49.0484 24.7631 23.8331 44.7727671186
48.8307 35.241 24.1913 89.2908815148
39.19 35.5505 17.0153 28.7937216117
48.8786 29.1966 18.6921 29.8825470527
38.5904 26.8963 35.5747 88.6508164138
38.0337 32.3399 35.5265 77.2847875259
45.8041 27.2399 40.0856 30.4864423842
42.1067 28.7965 43.0735 30.7817603795
42.11 27.6133 36.2402 52.2524827125
46.5833 27.1668 35.9321 85.3922656995
47.9564 28.9916 39.0266 30.4773999613
36.9899 34.9063 41.5847 28.5830235574
40.2953 29.2794 35.8034 61.6988263047
44.8525 29.9542 38.8983 29.5728150122
41.2945 32.2976 35.5189 90.3345605482
39.8184 29.6772 38.5596 28.0215180394
44.4994 32.2027 35.8487 79.3899194407
44.2452 29.2817 36.0632 65.1472102701
43.0574 26.8767 38.7819 29.3891303371
40.9259 24.9756 36.0941 51.5154546005
41.6456 35.3663 35.8932 74.2929750933
45.1007 34.151 38.0369 28.5788204724
40.9813 35.8675 38.938 25.3778304106
46.8738 35.6388 36.0324 78.1803909242
48.1177 32.7206 35.7212 82.2303601466
42.3059 33.5599 38.1853 29.6739444131
45.8701 25.9424 42.468 33.4405734467
46.2574 34.8462 40.8546 32.1176502563
37.4852 25.2043 38.558 27.8950573346
42.6972 35.928 42.7277 31.0614063387
39.5066 25.64 40.4563 28.2780320885
37.3469 32.0174 41.6211 28.7152123546
49.0688 32.6586 39.8127 30.5320196457
49.0855 34.9049 41.294 28.3381422973
41.182 27.9787 40.2866 27.7185976246
47.8232 29.8092 35.9734 71.3092401272
41.2935 31.6122 39.96 28.2800218198
37.648 28.1007 40.6673 32.0894142768
38.2094 32.1087 38.4246 28.4250390794
46.8464 31.9195 38.0817 25.8161670585
40.2563 35.56 41.5165 29.2640605009
38.2222 34.8215 38.4647 26.5634592336
43.5755 30.4353 41.2656 30.6867889912
40.1318 32.8756 41.7952 28.1768296561
37.8861 35.1675 35.6042 92.5744862194
