20.9861 47.539 20.3031 29.6005889937
24.3754 34.4179 15.3345 25.7214922207
29.0753 39.0047 12.9118 26.9347274675
28.6739 33.2967 14.7541 31.8141531363
22.0297 40.3068 16.6899 28.277548336
23.3678 38.1523 14.7065 26.8856044575
26.1472 36.537 15.0782 26.128340737
25.3911 40.2282 14.7866 29.4663701841
27.7249 42.8531 13.8755 33.1260339667
25.4891 36.5893 18.3118 28.6283609154
29.2058 48.7552 12.5071 26.6642822557
26.3443 32.807 16.3954 30.3143972694
21.4752 46.3037 14.6339 32.6137567882
23.0704 42.184 15.0957 30.8355512875
26.1435 45.8326 13.6271 28.0033140452
27.2937 48.3275 16.7489 26.3420844158
21.7983 42.6286 18.5561 33.4515171035
21.3392 38.2091 20.1972 30.8624324487
22.3048 35.9339 15.7468 30.3034213385
27.2203 34.0824 18.7088 28.1360056641
24.0471 47.4017 14.8502 29.6334543677
24.8649 47.6902 17.679 30.8952111708
20.7016 44.1906 16.0506 30.3346698879
25.12 45.7086 19.7106 28.5228506332
19.6682 35.3291 14.3957 28.2277257863
28.287 47.1621 14.4779 29.0041061753
22.8664 35.7724 18.3658 28.1342327003
26.5807 39.1957 17.1389 30.7945219245
23.4471 39.0095 18.4547 25.9656965362
28.8832 46.2528 18.0919 29.3133858723
29.2219 39.0974 16.1551 33.1947924752
21.3364 38.2297 12.7058 29.6705687274
29.1131 47.0079 20.8234 26.4491196392
25.4676 43.9352 15.7215 36.3863967839
24.483 41.2322 19.74 28.894319738
22.7439 33.2567 18.7442 29.2694231552
27.3486 41.6943 19.0058 30.0713765294
26.8447 44.3589 18.1549 29.7857461384
27.0839 37.1639 12.6182 28.4010428638
28.7093 36.353 15.6887 24.9641885856
22.4552 44.946 20.0355 30.4897312443
26.7452 40.5157 12.6105 26.7986453801
20.2497 42.691 21.03 27.4593096566
26.7881 36.1511 21.026 26.9604810956
28.9581 44.0577 21.2456 27.0930060928
24.0027 34.213 12.5907 31.3025937025
28.8763 37.6046 23.7839 42.0817929925
21.8289 36.6377 24.1482 69.9396309983
20.1658 38.9096 24.4149 101.2576602524
23.4904 41.5131 22.2657 25.7443525094
26.8313 36.0717 24.2013 74.2990453268
20.9607 48.6322 24.1423 52.9211222266
24.5061 37.8917 23.8967 52.5733879787
25.0896 40.7205 24.4422 103.2494519763
27.8769 33.4392 23.9159 39.7116367804
23.6898 49.0248 24.5648 90.3366673176
28.1864 40.3412 24.2725 77.55077349
26.4325 47.212 21.7875 27.4917460344
21.1673 40.3634 22.1914 28.4473732537
25.2067 38.4541 21.2984 28.2116968097
26.393 43.5666 24.3984 76.5270717642
24.5883 34.7027 22.1417 28.6420320863
22.9043 44.2809 22.772 34.6963506032
24.4754 33.3903 24.7196 136.7238179187
29.1746 33.092 21.5216 25.3529872237
19.8634 34.2577 24.0454 79.7609053847
28.0123 46.853 24.2188 72.9798875796
25.0206 46.2121 24.3661 83.0641678608
29.1076 44.1575 24.0572 55.6205030855
26.0037 43.4575 21.7164 26.5037624319
22.0009 35.691 21.3498 28.3332393942
27.0479 40.4157 21.7541 25.2874128779
29.2486 38.8874 21.1488 27.0897304713
20.3708 43.108 23.9921 79.7691783361
28.0799 43.862 35.4126 97.6955429253
25.5471 41.6122 38.7944 27.6671453336
27.2851 33.1651 35.7429 77.7329298126
27.4268 39.3024 35.511 91.4328039646
27.0942 35.8913 36.0746 47.7965676548
24.4186 47.8054 35.7595 74.2207597304
21.4972 40.9601 37.3143 31.9147274728
28.2918 36.7263 38.5491 28.4054788955
23.6281 35.9343 35.5726 84.5528040378
24.9808 38.3809 35.8201 68.2640297014
20.7818 43.3962 38.369 29.9268680342
27.9942 41.1743 37.3704 27.3855058739
21.0496 45.0439 36.2068 44.7674562141
23.3163 43.7501 35.4165 118.7565659043
24.0349 41.1855 36.5981 38.1086765684
21.8597 47.5757 36.738 32.1628838012
20.9443 35.1532 35.7964 87.2538590281
25.6065 45.2232 35.6105 65.6208862326
28.6337 48.8614 36.2882 54.0757992343
25.8613 47.2332 38.1157 30.5950387932
23.5979 35.8196 38.5414 31.8282432716
25.0119 38.4965 38.6264 27.0144721314
24.9558 32.9977 38.6245 28.1663614434
24.3486 33.4473 35.8469 67.2209451337
25.0169 44.5049 38.7132 31.7741572989
25.9552 37.3015 47.1564 28.9961066636
27.0384 34.1929 40.3649 28.7245660581
26.1837 36.733 40.8181 28.0593704242
24.7134 33.6997 46.9015 32.3218979705
22.274 35.3929 40.9542 28.9206621853
20.9338 38.3061 44.9116 32.3934994174
25.6548 32.8602 42.5714 28.6371722671
25.6883 42.0303 46.5965 30.1018804093
24.205 36.2223 42.6588 30.1350516298
19.9906 45.8222 43.0938 30.2883268557
23.0146 41.5284 46.883 33.8936850002
24.5144 45.7412 46.1743 31.6593751207
22.1282 45.06 39.9577 31.0744261108
22.9185 43.3416 42.1518 31.7645949226
26.0927 41.5113 41.6916 29.5820678883
26.4916 47.5859 42.8214 32.8483039726
25.6279 44.4235 42.5557 32.8149269136
29.0245 48.6463 45.9944 31.7894918123
28.9297 39.4269 39.2591 28.7682625737
28.9735 42.1976 41.7726 32.0480700363
28.5794 34.9431 45.311 30.7587079706
23.3369 40.4318 41.4997 32.8356071348
23.1555 32.6441 41.5142 25.4067334359
22.0956 34.4456 45.9909 36.7505315562
20.5653 47.2236 40.6786 29.3429045156
26.5476 44.2645 45.2453 36.3516803526
22.5618 39.2152 38.9671 29.3312584907
28.9859 42.5578 44.6846 31.4407122204
25.8979 34.8302 44.516 30.8550659283
23.6401 38.5555 44.0054 32.7555298117
20.1881 41.0286 42.4013 33.9865687888
28.9799 40.1468 44.2882 26.1325526122
26.1223 39.5245 45.4158 32.7636745652
25.9818 48.1509 45.5283 31.4197657287
23.4283 38.6308 47.4425 28.897356849
22.1475 44.0652 44.7001 35.3277733309
21.155 46.9358 45.4582 30.7014931886
20.5785 37.5675 40.2221 34.3811452112
23.3367 48.2663 39.0251 26.2140540752
29.452 34.2408 42.7013 30.1545435774
27.5991 38.984 41.7604 34.3462136039
27.3909 44.2602 40.3538 27.3106836126
20.7254 41.3729 45.1607 29.6081042715
28.9173 46.774 40.6563 33.2494014771
19.8846 33.7438 41.3615 27.5031828973
28.3947 48.9163 39.131 29.0212769102
28.2248 35.8185 56.3539 28.8042805903
21.2743 36.1806 55.2539 30.3443870141
26.1233 47.1623 50.3887 29.1835433022
27.3186 41.9492 55.4122 26.8495099204
26.6812 42.8236 52.721 27.296343089
27.5456 38.5269 48.9081 28.672384586
21.4036 36.5562 51.0159 29.4310455693
23.6783 38.424 50.2666 28.4019516496
28.0992 38.7833 55.4168 27.8857207311
26.1507 37.5866 51.3318 27.6373962833
27.4635 35.2507 52.1731 29.185703728
25.6993 35.3704 49.0136 28.3938016353
23.9706 43.8321 53.0901 29.0518282701
20.7612 42.7643 50.5384 28.836568949
21.6317 47.0522 48.1328 31.3042119699
29.4523 43.6953 55.986 29.6500350759
26.0149 47.5373 53.3835 31.741438021
24.8868 42.7567 50.3572 28.0226833173
22.7571 41.237 49.8733 30.7365436729
21.4175 36.6259 48.2102 28.1609275661
23.0918 46.5618 52.4829 29.2860134429
25.3238 44.2814 55.9914 30.4926206337
22.2089 45.315 50.1087 31.5223250114
24.7457 45.289 48.9503 32.3132140934
27.5472 46.1037 55.6568 28.91326588
20.8893 33.4731 55.7871 26.6297849966
23.6199 34.8594 51.2459 32.4603161177
27.0004 41.5764 49.0593 31.1395062594
23.7347 36.179 53.8885 28.5977833898
26.0579 34.8073 54.4429 28.500477513
28.3454 45.5398 52.5403 29.5547728342
28.9642 46.8203 50.1203 31.7731497392
20.897 45.0678 54.1374 30.0731663443
24.2624 39.2712 53.5131 29.331215497
27.7263 33.7013 49.8111 30.2139963713
27.2856 39.898 52.8955 29.7723538042
20.7941 48.2353 52.5409 31.457731253
21.3579 38.984 52.5627 28.7877044884
20.3363 42.4388 53.2813 27.9009867155
22.8142 41.6925 54.4642 29.8567028944
25.4917 48.9468 48.591 29.3147001373
25.5337 38.3742 55.8787 27.9110029497
28.9565 42.6599 50.9009 28.0853520602
35.1327 13.3696 11.172 35.5204615123
31.576 4.1023 5.71231 32.6703821036
32.0574 6.50108 6.81643 28.8363928622
32.8086 8.7081 10.9929 30.374661926
37.0176 4.79937 6.9144 26.8927435236
37.6709 5.51238 10.8658 29.1837480477
35.4442 6.34197 9.60361 26.5148455166
36.8141 2.54477 4.27119 34.2525155197
38.1108 12.4299 5.17981 28.4774759655
34.6887 0.712853 5.45676 28.658382309
32.5496 2.10653 11.4665 30.212969434
33.9601 7.51412 5.13951 29.0506513628
37.7869 14.5707 7.63931 33.0397384509
38.4951 0.551426 8.46081 36.3011408837
32.5289 10.1843 5.01716 27.9221521939
35.0445 14.4187 6.20538 33.7751898331
34.3411 12.9801 8.26288 27.5019540873
34.8841 11.9051 4.97927 29.7751153256
38.9578 2.58702 6.38968 30.0966853874
32.2539 11.4127 7.56967 31.3201039676
38.5147 7.78597 6.4037 28.4299577004
32.9864 2.32476 7.19081 30.8490455681
31.1884 3.93431 9.82341 27.3467655827
30.5205 12.7854 5.75995 29.3554245242
30.4856 15.2546 7.15253 28.6810907934
30.6931 10.1605 9.81211 31.2859276255
32.6079 6.20137 9.4345 27.2811113141
38.883 6.68805 4.07813 28.1178825302
36.8605 2.06122 10.1516 31.8022518458
38.418 3.15673 12.09 29.4368313311
35.1246 3.81299 8.55306 30.8088138379
31.3981 5.28721 12.5587 28.8585140836
35.9983 8.09443 7.21812 30.9526466357
36.4466 5.64604 4.47524 31.0199805
35.2014 9.54765 9.98302 33.6464601661
39.1726 6.12488 8.46366 29.319321499
37.2397 11.1737 11.2211 32.3918375859
31.9727 14.3028 9.48723 32.8661133687
36.5715 11.1141 7.58134 30.1679658219
34.6052 0.684798 10.7202 28.5969150852
30.139 8.38342 5.81621 28.111596152
30.1481 12.471 11.0555 28.5044923523
34.7557 16.0 11.9571 31.7731959966
38.573 14.9534 3.84026 32.2963817632
29.4769 9.61208 19.5126 30.9824707185
31.6749 0.340413 13.6903 29.123050132
35.7116 6.37367 15.6054 30.1285550633
33.3841 0.254298 16.7894 29.058005845
36.4615 2.84788 14.206 31.0246346964
38.4248 13.1702 18.5281 32.6291372549
33.412 12.6553 13.1668 31.0765338664
30.54 7.55426 17.4655 30.8875510861
35.8978 8.44242 17.701 29.1078972745
32.2182 8.33862 13.7001 29.9591690661
34.1169 10.3943 14.5474 33.9145200806
30.1676 9.51474 15.4434 28.8221463574
31.0823 4.41884 18.7453 29.1066293704
35.9728 5.06282 20.2304 32.0883525316
32.5129 3.67718 15.3578 30.6643831797
30.5693 13.5452 13.5318 30.154353713
37.866 9.24599 15.5332 30.210679137
34.3091 7.01287 19.3518 28.5989769203
33.6722 14.4838 15.2037 27.9828070549
38.3142 7.95293 19.0269 29.7307095364
34.1343 3.85571 13.0545 29.2154002741
36.7582 13.6606 15.9257 32.6532153481
36.8918 11.451 14.2761 27.9372709986
34.7316 12.8254 19.6193 29.1576391932
31.8182 16.0754 19.066 25.2265828635
39.231 2.24548 18.6371 30.0012580059
34.9188 11.3192 17.2228 34.5998095542
34.3664 9.1743 21.112 28.8536431983
31.4736 16.1507 14.1023 31.3696246384
34.3603 15.6437 19.5651 29.4920111567
38.5725 5.93045 21.0491 30.8847344236
35.9821 2.93561 18.5496 30.812541369
29.8377 3.78694 14.5175 26.5351888704
33.0229 6.1288 16.9673 30.6135377271
33.2764 1.49588 20.771 29.1848984039
33.1839 2.54332 18.3427 27.8832373718
37.5832 4.23252 16.429 30.9354389816
32.2917 13.2651 17.4376 32.5378430698
36.9385 0.178713 18.9439 29.0207003033
37.5441 7.37344 12.8834 28.0088827011
34.7232 6.79159 13.0646 28.8583732741
35.5535 0.324336 14.9975 31.8900869577
29.9069 11.6783 17.5347 31.0626029673
39.212 15.8712 19.0293 28.3737370791
31.5134 6.21211 20.917 30.3410127241
37.9338 6.29964 23.7621 50.5034138155
37.0877 15.3944 21.3456 28.0651383639
38.8215 3.65602 23.7351 53.2880891836
31.1851 5.85425 23.8454 58.1818527494
38.7327 0.399855 23.9734 48.4861843208
34.5327 3.58413 22.3378 34.5855400057
36.1445 2.32726 24.3614 105.7266062301
31.4651 8.90402 21.4533 29.0298349681
31.6029 14.495 23.8911 45.9585682191
36.8805 15.0745 23.9615 46.9685512099
32.515 10.0911 24.4444 88.9933491898
33.8083 5.26407 24.2866 104.7185468567
34.5454 8.14008 23.9837 54.3970778358
30.0202 8.70444 24.2166 74.3776795039
29.8774 3.14699 23.6875 59.8737733911
37.1785 9.2252 24.219 73.5223430629
34.0225 12.615 24.3069 81.3931074202
30.516 1.26678 21.3985 30.8340199907
36.816 12.1873 24.0995 55.1797414985
36.9635 9.57832 21.5073 30.402168771
33.0932 11.8562 21.4996 31.0382817064
31.0084 13.9471 21.368 27.1935432051
37.2488 12.4761 21.4519 26.0184372842
33.3647 0.821635 35.6795 63.9545005049
38.433 4.70305 38.5167 28.1333619598
36.366 16.2591 35.851 51.6470035363
34.2991 13.8247 35.5711 82.9391058664
34.7464 2.99536 35.6337 82.9150054473
33.0685 5.72806 38.8292 32.1477029365
33.8905 7.35443 35.5337 110.2066891161
32.6713 4.75951 36.0648 53.3766408219
35.916 2.31677 38.4592 28.21817762
30.1834 12.1346 35.864 69.1703672235
37.7215 2.42448 35.8938 68.2079085023
38.0845 5.55233 35.9919 78.1122996034
37.2989 10.108 36.0044 62.2688966634
31.7447 8.68283 36.4981 32.0931464738
32.9598 11.0607 35.5486 90.6533950962
36.3115 7.76478 36.8703 31.9718341197
30.5803 1.82201 38.7418 33.7843471059
37.2826 13.2845 35.9157 66.0342760052
31.551 14.7857 35.9587 68.5021486499
33.2787 1.08003 38.5733 28.9575214342
36.0721 13.1416 38.4972 26.670121844
34.59 10.7131 37.7456 26.7256997634
30.8357 1.70312 35.9306 76.6856925044
39.4162 15.6977 38.5482 28.2035514828
32.4135 14.7933 38.7523 31.4246496625
30.6267 12.0975 38.5451 29.0344217692
29.4967 7.27202 35.8323 94.9200697201
37.6304 10.6074 38.7717 27.1678355029
36.4205 16.2431 38.5859 30.7299860663
38.025 14.0964 42.2458 28.9731598391
30.95 1.35207 44.9378 29.1819082256
35.8485 1.98715 44.0084 32.6081041538
33.7585 2.38732 41.9459 32.4207116707
36.8307 5.53396 40.8465 28.9537119447
38.8207 13.0289 39.6301 28.1106895371
39.2035 1.99073 44.8668 27.8008072261
34.2016 8.54772 41.8965 38.626379192
30.2306 10.5262 42.6902 34.4234820934
35.6532 7.28801 44.0345 30.95176951
36.7115 12.4442 44.1869 30.6067326235
32.2073 11.6583 44.4737 29.2567155953
35.6694 8.84938 46.2708 29.4050377337
34.5511 14.183 45.0937 26.3771469742
33.0984 11.8188 39.8778 29.2816522223
34.4214 11.5955 42.5307 33.4846107398
31.0615 7.52082 45.5238 34.3002659435
36.1689 7.82512 39.8322 27.6846820887
32.3328 13.013 47.2885 27.0245453255
38.374 7.91097 43.2122 30.5644336805
35.4755 11.5897 46.9839 29.1820150262
33.0082 14.4031 42.4554 31.9412073218
34.7939 4.01602 39.9616 29.3780626829
31.1239 3.31067 47.1138 29.3779996247
32.8087 9.66516 45.9922 29.12133162
35.6642 15.0094 40.9737 30.1216081482
31.0702 3.22979 43.0127 33.6845125878
31.2971 14.5962 45.0344 28.2154468833
30.6541 9.47389 40.045 30.810172686
37.7673 4.27414 43.5163 28.4986690069
32.3939 4.98189 45.0613 36.6112736813
38.3913 9.85893 45.3885 30.8594592273
39.0166 0.79913 41.5514 29.9412642708
35.3212 4.87722 45.2746 32.377490914
37.5094 13.7678 47.0542 28.6083002143
30.3679 4.64359 38.9788 31.9664089976
33.4637 0.191289 44.4974 29.2661050376
33.0386 8.43636 39.3076 25.9127596501
38.9301 8.79933 40.5538 30.5956976674
37.572 0.14478 38.9509 26.9168567815
38.9236 5.81741 48.2471 32.1914224614
34.3154 2.63963 50.1817 30.5916038591
29.7995 0.503534 50.598 28.7301888768
32.576 3.9791 51.8642 27.3331584236
35.7718 0.271937 50.6679 30.1041928834
32.8925 7.84007 49.8124 31.1420682811
35.0878 14.3393 53.8326 29.5244395932
33.3313 13.4333 55.9763 29.4841720567
31.428 13.6683 51.4198 28.7380540894
31.7275 1.29351 49.1905 30.3503547392
37.4211 3.95974 49.3873 29.784175694
34.7837 4.83112 47.9815 32.5956826705
36.8425 16.3152 54.74 31.2037432481
35.5267 7.38945 48.5374 29.7459014861
39.2585 5.58996 52.733 32.2756989612
37.6309 13.1174 49.8839 24.9829270373
38.7763 1.95929 47.787 33.5413842576
36.8431 8.28808 50.6544 31.1371322722
34.7462 2.59525 55.2406 32.4333808962
30.5522 12.2597 55.4258 30.0894311294
36.7189 10.9997 51.1639 28.7027523742
34.406 11.4936 49.7349 27.2265941365
31.6431 10.3031 48.4144 30.2820594731
37.9979 14.2374 52.4979 29.2855042222
38.185 16.0617 49.0282 29.3344938757
32.6716 15.6477 53.0812 30.1908176883
30.7794 3.62208 53.7396 28.5918259371
31.9507 5.22047 49.4555 28.7628255701
37.1296 2.22932 52.1741 31.3567587272
34.502 14.1487 50.6602 32.1452045594
32.291 6.7714 52.3987 28.5727529135
33.9858 9.85039 55.1917 28.3277094775
36.6902 6.64038 52.9945 33.0084085089
35.0985 4.33432 52.9026 31.0965507081
30.3524 14.1602 48.9138 29.6294969799
32.7547 7.13038 55.2088 28.4377726468
33.1248 10.0903 51.9626 31.8234544995
35.6588 11.2548 53.7582 29.008492403
30.7926 11.4571 52.6721 31.4888083658
36.2896 8.17338 55.3081 31.6020727051
37.955 11.0642 55.6168 30.292364462
34.4819 14.9 48.0631 27.4366112161
32.217 15.8316 56.0426 27.5893975333
31.4793 1.34343 55.1243 29.1584539691
32.8025 4.51641 55.9201 30.6016790693
29.9213 7.784 55.0153 31.8229565565
35.7934 31.1427 4.58648 31.6520657671
37.5196 29.915 8.31776 33.6578319891
31.2546 17.8167 6.31592 29.5805315471
32.052 23.6158 3.85434 27.9109858461
38.4933 29.4047 10.7093 33.2945684703
35.8666 19.0586 6.51263 36.0857968957
36.6826 27.6708 12.1204 31.8513620719
32.6178 21.3915 8.0625 32.2361155105
29.7595 17.0315 3.66622 28.3182738511
30.9583 23.3338 8.95837 37.0484772604
32.001 20.9364 5.34298 29.3494270522
35.7968 21.4547 8.19051 32.0801089697
36.3479 24.4748 7.51749 35.5117617142
34.7465 30.6382 8.74789 28.9685724306
35.9416 28.2197 4.64307 33.8290149954
31.5007 27.849 3.67495 30.1709299187
31.3625 24.8845 6.46654 35.2795449591
33.9402 31.5236 6.36319 30.1880197108
34.6078 24.8457 5.40986 29.4236579847
33.2509 28.5599 8.44386 33.4333848008
29.5933 32.2229 7.64314 31.5539169376
38.7262 25.3423 7.09452 32.4807714073
35.2121 20.3534 10.5874 32.4635303076
33.6046 31.7072 10.9722 28.1694606789
38.324 27.9812 5.95768 35.1693772083
36.5343 17.9048 10.8581 34.2301678693
38.4318 17.2253 8.86677 31.403763167
33.4261 27.3556 5.75191 31.5948311647
38.4743 19.1529 5.32794 36.2239621827
33.9333 17.0756 5.68026 33.5493915937
35.9849 22.7833 11.9692 34.871732456
30.7555 19.5225 8.56913 28.3270309356
34.1532 26.98 10.6944 36.8394785107
32.2719 16.6906 11.0972 31.7615158814
29.977 27.8283 11.9016 30.4183230658
32.581 19.4501 10.9251 31.6208885673
39.2477 25.3158 11.6239 26.3205001433
38.5693 21.4004 9.11272 33.628112742
36.5352 25.0589 10.4067 33.419415253
30.6685 29.0269 9.52073 32.4153023459
31.1034 31.6133 5.328 29.7055356841
34.2819 20.3684 4.24928 29.6280614663
30.9533 32.0631 10.0967 29.836117424
31.3115 23.6152 11.912 33.1880646182
38.9899 24.1923 4.62141 33.044322446
39.4551 19.6411 11.0206 29.8235809019
37.8395 32.6561 7.13841 27.1537722421
38.9077 22.568 12.1713 31.006562938
35.4384 16.444 14.6366 28.2094091819
38.7835 20.663 14.3577 29.0510405857
35.4209 17.3731 17.8623 30.0095596298
32.326 20.9474 18.982 30.4144174852
35.2306 22.8774 14.6272 31.7410867487
35.51 32.0485 13.0975 28.4588315321
36.2251 25.3148 17.702 28.9228770519
36.9644 21.5146 16.1218 32.6391034273
35.1175 25.8316 15.399 27.0687135049
33.4503 29.0871 17.7667 31.140665698
36.5358 30.6613 16.0441 30.3059765673
31.7307 18.4909 17.7086 26.6717019621
36.582 27.2832 19.7387 28.9624838715
38.5265 28.8382 16.04 31.7812424279
33.5649 18.5633 15.7777 33.0178552182
31.2803 32.1856 15.0083 28.8659335042
31.7155 26.9381 19.4214 31.4315518949
31.035 30.7352 17.2207 28.132462044
30.8385 27.5502 16.4054 28.0616236555
33.0122 32.4195 20.3207 27.2970558028
31.241 21.0329 12.5796 32.1962663656
37.6021 18.067 13.5898 31.752671927
29.7642 16.54 16.2755 32.2440646258
34.5921 28.5707 15.4611 27.086627371
33.0444 21.2426 14.8865 32.6560275835
35.1426 20.2694 18.2847 30.4546281914
31.5496 23.1702 16.1428 30.7078368208
32.352 25.8812 15.1839 29.8994787666
36.4266 20.2402 20.5869 30.1137927429
38.5416 23.9165 17.5835 33.707361476
34.7667 23.8954 19.4919 30.9887185758
31.966 26.1636 12.3204 30.2364648953
32.1404 23.751 18.6811 30.8324402433
34.0574 26.3223 21.0585 30.1083283986
31.2854 29.4995 13.9488 28.7924670096
34.9365 29.488 20.0322 28.4517793029
36.9068 31.1802 18.9125 30.8871672593
37.4002 26.6846 14.4703 28.543739737
38.0368 17.3469 16.8452 33.5065006214
39.2633 19.7097 20.8466 29.0052823521
30.706 30.8896 20.9651 30.9222947489
33.8228 29.3737 13.0333 29.1792104545
39.0401 28.0922 18.6164 27.4533457875
39.1331 24.2208 14.8784 31.3726598555
32.777 18.0108 21.3019 30.0329517087
33.2854 31.2023 23.7509 54.8999134036
32.6133 17.13 23.8489 38.3250497209
35.2712 17.1142 24.7063 116.9206768449
36.6285 22.8565 21.371 29.9391628941
31.6903 19.7143 24.1732 73.2709535379
32.6632 22.5608 24.0889 92.8746234168
31.0308 20.6999 21.5566 28.7772666938
30.9097 27.7887 21.9435 28.800825557
35.3599 22.3189 23.867 68.2707699648
36.325 19.6146 23.9807 54.7881047677
35.6112 17.969 21.8166 27.5128711316
31.5167 25.9779 23.7349 65.9018996594
34.2586 26.9729 23.8693 80.2577461205
36.5524 25.4188 24.1902 84.1874839391
35.0727 29.5041 22.9799 31.3760387834
30.0848 30.1926 23.6636 50.892767921
37.3221 30.3865 24.1929 77.8287140015
38.68 27.8537 24.3827 79.3429960628
38.2515 26.1381 22.0278 27.1694662477
31.3322 23.6943 21.8603 30.3786541948
39.5367 17.1542 21.6706 23.4466130108
39.2527 19.4199 24.3222 86.1498089146
39.1669 23.6215 21.475 31.1394859714
39.2134 30.4974 21.9795 26.9491739252
29.8136 17.3595 24.082 63.6739840082
29.5261 16.5602 21.3076 27.7220867009
30.7325 17.6777 36.0459 61.6219475749
33.1936 28.2583 38.6491 30.4450445168
37.9585 18.412 35.3247 104.2256251837
32.6838 21.9477 37.84 27.9098713674
30.7548 29.2517 36.6799 42.4075203134
34.8512 27.7562 36.025 65.4164370299
35.911 22.8239 36.8719 28.6852150933
34.8187 19.8664 35.9086 67.1833979233
33.3443 24.4834 38.5257 25.5009583852
31.567 20.4138 35.4799 122.0366838195
34.5564 25.1105 35.7019 92.1491778962
37.8858 24.6621 35.6754 71.180434817
33.6336 17.243 35.9449 56.9764470282
31.3511 25.0751 35.8782 87.1292553641
29.8599 22.6419 36.1516 48.4005522822
38.1435 21.3261 35.6311 79.5387985392
32.0798 31.4844 35.799 93.7476197714
37.6186 27.3407 35.6302 69.5546189061
38.0635 28.9777 38.3573 25.4026891286
35.635 30.4441 36.1793 51.1266519657
38.4715 30.3641 35.6551 88.7173301732
34.8168 20.325 38.7907 27.9072678335
39.262 25.0957 38.2203 29.1035440396
30.6674 17.7816 38.8633 27.3915082452
33.7918 17.6797 38.9093 30.7087942657
36.2134 26.3469 38.5898 29.5719797221
33.0675 31.24 38.5957 28.8737404662
30.8916 26.2356 38.1603 25.9884662628
30.9676 30.6314 46.0111 31.8177603424
31.6049 17.2331 45.7182 30.4858398794
33.4132 20.3986 41.6586 27.5995115818
32.6768 31.0202 43.5954 27.7457093759
34.6467 24.9598 40.9733 27.3119999664
35.9084 22.0128 43.8631 27.5741807952
29.9657 22.4282 45.1655 31.8197901463
34.3227 18.4153 44.3363 28.1689129686
31.1112 20.2671 39.8939 28.9455584049
39.0332 31.4484 42.759 31.2237133491
38.3485 17.2754 46.4299 28.4910643854
37.0372 17.0532 42.7593 31.4175964291
33.3141 22.9151 42.4312 31.2795476817
33.6341 27.2536 42.5931 28.7383235323
37.4218 28.9164 42.8408 30.012232665
29.5196 20.025 43.6089 29.7787681099
33.0549 29.5707 41.4466 28.4546892289
37.2023 23.0232 39.3897 28.913539844
30.0819 29.0532 41.6154 32.1561194852
35.1978 30.5838 44.7698 29.2128948568
31.1634 16.291 41.0882 29.986221004
37.4939 26.4381 44.1774 29.1710419396
33.2295 31.9792 47.0828 29.1762438063
29.4948 31.4626 43.3087 30.6602170919
37.4714 20.2184 40.0558 30.3757877349
39.0775 20.6452 42.9456 28.6964131697
29.5772 18.5133 47.0673 28.5035786736
31.9756 24.1077 44.7707 32.8814609139
37.3 19.7522 46.7905 26.5944534831
31.2281 24.3486 40.5534 30.6825949761
36.2878 19.8139 42.4722 25.5055488875
34.7967 20.3104 46.0805 31.2293541126
31.0013 26.8508 43.78 31.3831796583
37.0789 23.3242 46.1556 27.8454005966
35.8749 28.805 40.4885 30.6203131339
36.0271 31.4984 47.3091 31.1501438406
31.842 18.4397 42.6214 28.485769085
37.0608 24.4973 42.4155 31.7645233395
34.1343 24.0815 46.5519 31.2507429557
34.8576 27.7383 44.8394 32.4757103193
30.8013 20.9384 47.4119 31.2502169454
38.9924 25.4367 46.0838 30.0698465545
33.8246 26.7689 47.5393 30.7933699771
36.8913 32.5528 43.7213 31.9998605813
35.9208 16.5813 45.4389 27.8447338681
35.8085 31.6962 38.7615 32.8250475044
30.3423 32.6323 38.9027 34.471852421
34.0995 19.0689 49.842 28.9470455466
37.4783 25.3765 51.7955 32.3275536306
32.2867 19.7292 54.5177 33.6149182378
31.622 28.228 50.773 29.470945628
36.7823 18.3398 50.1442 33.6281550613
37.9941 18.0447 53.0021 34.7493534302
34.1006 23.8514 49.7727 27.4929626085
29.9229 21.6446 49.9613 31.091181317
30.3375 29.2936 48.5998 28.815403771
32.7216 18.3504 52.0592 32.8104743648
35.4323 29.4648 53.1508 29.2162775276
37.7829 24.2936 54.5078 27.48691516
37.751 22.4505 51.7841 35.4483187224
30.0966 16.747 49.4149 29.439842893
33.5709 29.5667 48.7163 29.4815488188
33.15 21.6133 48.2703 28.6557527728
33.9385 27.1333 52.2928 30.9330849205
38.7136 27.7396 47.6043 32.4474307807
30.2339 19.0506 50.9343 30.8035904008
35.5508 26.5599 49.9565 30.2154236725
30.4034 29.7363 52.9515 31.6674508606
37.4484 27.7077 53.9798 34.8788941146
34.7799 31.2178 51.1104 29.8593193983
37.6408 31.6409 52.807 29.5937565311
35.3995 22.72 56.4276 28.5976054273
35.7224 25.6932 55.589 28.3892541183
37.986 20.5355 49.3024 27.4235849488
36.7207 23.127 48.9388 31.8377352756
34.4724 17.5374 55.7477 33.8279897107
36.6968 29.1538 48.8521 28.5584870938
38.5715 30.2575 50.5758 29.5361138578
34.7326 21.682 51.4795 35.2464943916
33.5983 22.196 54.0742 31.5959601848
31.9497 24.0281 53.0994 30.2209743714
30.9443 26.5477 48.1705 31.2431494148
32.9174 17.1451 48.2073 31.2795220982
34.1546 31.1309 55.0245 31.0025521761
31.0955 24.2662 50.4928 29.5003902182
33.1161 26.2647 54.6494 30.6293494084
31.5711 30.5161 55.5053 28.7036287118
39.2028 19.856 54.558 29.2036693603
29.909 23.8515 54.9187 27.5203404471
38.1274 21.7037 56.1394 32.3654365353
32.522 35.5928 3.9675 29.6292629271
32.376 47.2654 5.18729 32.2917451206
30.4862 35.1743 7.63152 31.1699324361
35.0896 39.0036 7.05134 29.651120828
33.8225 37.996 4.6577 29.7873439385
36.0043 41.6825 7.67973 33.6942304616
34.1762 47.7029 8.72819 31.7101520839
30.3817 40.2413 5.12174 31.1103315119
36.0419 36.3951 5.297 25.8624415301
35.4923 34.3352 7.04893 28.6445369722
33.5243 44.7397 4.75181 32.0148907744
30.1942 38.1982 8.38431 32.9744865608
32.6273 34.3843 6.41134 30.9360911901
35.6216 44.0208 11.0676 30.418309953
37.5838 46.9181 5.06358 32.6161714855
30.9538 45.365 10.4336 31.915121324
32.1931 39.3749 6.96787 29.0265220609
31.8692 48.7505 7.82581 31.0269785581
39.1381 44.1063 9.45731 30.1774174825
36.9762 32.9712 10.9575 30.5097779739
33.5703 45.1365 9.45165 32.0337308149
36.2251 48.3196 6.9558 33.7887597295
39.1587 36.5995 6.28108 34.6324157156
37.6648 35.8123 10.1839 28.5117451032
31.216 35.0183 10.5075 30.8161229787
39.0261 34.8062 8.41774 25.8189750921
37.5138 38.8851 5.57868 31.6908743643
30.8593 42.9579 5.45128 29.3623921204
34.0594 34.4499 10.7489 28.2218937912
33.8891 38.6549 10.0411 33.0484188043
35.2267 36.3019 9.04713 29.3857902273
36.4385 38.833 11.5779 31.05668105
31.5356 37.8586 11.1902 26.5245790621
38.3337 32.8233 4.06324 27.7430641718
29.7461 40.412 10.3698 28.5706622116
31.7251 41.6571 8.3595 34.2179373986
37.3691 42.1654 10.1283 28.8920502526
38.0514 42.5345 5.96767 29.2490469334
33.7485 43.4109 7.35698 34.4058352953
38.8408 39.7887 10.0587 34.292860944
39.2262 44.948 6.72999 35.5039625612
36.8514 46.1896 12.1949 35.3279950743
36.08 44.608 3.74955 32.5987006956
37.7135 35.0003 16.0074 28.5981879716
33.3044 36.1841 17.5796 28.6900940682
33.5178 35.2237 13.4588 27.9038530744
36.5656 44.1603 14.2618 32.2162296392
38.7194 35.7349 12.9617 31.9849566651
38.8737 41.8142 15.7497 31.494123501
33.6258 37.6829 14.9974 31.2977072398
34.8103 47.9995 12.736 29.9419070486
29.5688 35.2895 18.0459 27.2304031184
36.1423 36.5193 13.3628 28.2672824765
37.5797 37.9566 15.5 30.6175846136
33.2191 42.9538 16.2917 31.0444596751
33.5916 43.812 13.6429 30.0896083353
38.3572 41.6623 19.651 32.5336246088
38.4559 43.6991 17.8144 31.6553741026
33.5021 47.5191 19.0577 32.171303519
36.7022 40.619 14.7477 27.371617654
36.5889 47.6277 16.9157 29.8166983279
30.743 49.0497 16.3364 31.3477058098
30.3278 43.4301 13.2595 30.271484841
32.5434 39.5666 13.3366 30.5836740755
29.8217 35.7089 21.3226 24.5330235331
35.3123 33.5355 19.9108 27.5512125736
37.7053 37.2326 19.7087 32.2850900881
32.4318 46.429 13.0886 31.2009424459
30.6837 36.2916 13.74 29.451457059
39.2085 47.7678 16.0194 29.6366845608
35.1499 34.268 17.1026 28.5053087024
33.8238 33.1201 15.11 27.817144639
35.9378 44.8153 16.9659 32.2734059605
34.0873 44.5346 19.3077 26.9911034381
38.035 32.8052 14.559 30.892957967
30.0341 42.2319 19.3514 32.9079566505
35.5814 37.9479 17.8773 32.7477321876
32.448 36.1511 20.2475 25.8103186167
34.9815 40.5195 16.5876 33.1580877697
30.2579 37.8142 18.6637 35.4544234975
31.1702 44.3015 17.7665 31.5623011393
30.7009 45.8725 15.2112 31.2862627351
35.6784 41.652 19.2157 31.8837273544
31.067 41.2935 14.8831 33.6642027368
31.9086 33.5333 18.032 29.1151590125
35.3513 48.145 21.1259 28.7367732092
35.031 41.3831 12.7251 31.4495347814
37.5244 33.1625 24.0343 42.458607777
30.8525 35.9503 24.0535 50.0707979769
32.0805 44.9604 23.9836 59.5344723816
35.7453 36.1199 24.1229 46.1300558301
34.9903 48.7682 23.8211 39.3146004897
33.1983 37.6548 24.4824 91.1463657899
33.3947 40.6025 24.2756 67.3945924587
38.165 46.1272 21.3576 27.7370563632
38.7271 46.424 24.0206 46.4295013843
38.8241 36.3814 24.2583 77.5714730068
36.6862 39.0901 24.2348 67.6695252758
34.7216 33.5435 24.7409 110.9393354399
38.8878 41.6525 24.3773 98.5922529325
35.7736 42.171 24.4547 78.8283807697
35.7238 44.7895 21.5424 27.9649342384
36.2265 46.6064 24.7971 115.4879922005
38.3512 42.9442 22.063 29.5076914116
34.7206 44.596 24.0419 40.5250434402
31.9054 44.1946 21.1267 28.0369780138
37.703 33.0216 21.3343 29.2005052694
32.186 47.72 24.3377 95.3148960053
32.6363 34.1038 22.7195 26.3212393867
30.6169 41.5985 24.0583 62.7740220896
34.1068 41.9094 21.5195 29.2753567849
35.243 35.8857 21.4702 27.5805410743
35.7766 38.8838 21.5324 30.7951041821
31.2452 40.7491 21.4752 28.3323872228
30.5523 32.9838 24.7683 123.6652966566
32.8814 38.3323 22.0149 28.3420569389
31.7463 47.7333 21.3996 28.4000905581
38.7226 48.8838 21.3398 29.1445501127
37.4231 41.3706 35.9088 53.0093846978
39.275 33.1935 36.152 49.7409833816
31.697 35.546 36.1656 60.1732238772
37.1047 37.4268 35.8236 58.4613453425
31.5915 39.3375 35.7611 63.7602905149
35.396 47.8958 35.3878 92.6338630476
34.5777 33.251 35.9786 62.2258909301
30.1331 33.3345 36.0661 52.4901896261
32.9006 43.4714 37.0031 30.0274740455
34.4808 38.8307 35.7744 73.2177729863
34.8032 38.9741 38.6706 28.5508424517
34.6687 41.6704 35.4727 94.1030431393
37.0657 34.754 35.4556 109.6145428339
32.4959 46.2166 35.8669 76.2136243703
35.5801 44.7937 35.8301 64.2258673754
30.701 42.0782 35.8192 71.3137364018
29.4861 43.8438 38.2677 30.0745722889
29.4531 46.1612 35.8965 71.3448262754
38.1852 44.1495 36.1968 47.3302011403
29.5952 37.4352 35.5498 83.5735913235
33.3714 47.0654 38.3446 28.895218905
37.3012 37.5692 38.7715 29.0249159582
36.0673 46.7906 38.1056 26.0883817871
38.896 33.0298 38.831 29.5437343177
37.8521 48.5921 36.0567 45.3692661717
31.5401 39.5155 38.5654 29.3478485658
39.1038 42.9615 38.6184 28.6279965763
33.9366 34.3048 38.3508 31.9769219946
36.3175 41.4774 38.7677 27.5647078866
31.4613 36.8489 42.523 32.4085952027
31.6444 46.6826 41.3026 33.8649314945
31.0546 42.299 39.8632 28.848667332
35.8502 46.1275 45.9105 31.0241428304
29.8616 39.291 47.2113 28.5055915281
32.9403 44.7199 39.6872 28.6321949391
32.1707 34.9951 46.0254 29.2922824323
30.9109 46.8571 46.7164 29.9835863052
38.9542 42.7785 44.1876 30.7399849881
38.7009 46.5868 45.2471 28.6819971024
33.8896 38.4034 41.4675 28.831564199
30.1185 35.233 39.9804 28.8943963433
32.4789 33.6701 43.3712 35.0863590398
37.967 40.2365 40.8288 30.2498219879
32.4092 46.6459 43.9593 31.9825707329
35.0451 45.6304 43.3293 29.6066881966
36.5224 38.2627 42.331 28.8299692433
38.723 45.0498 42.8299 30.9421492767
33.2584 40.9626 41.368 30.2804044402
35.4369 43.6252 39.9595 29.8843762877
38.043 45.3801 39.8397 25.8604478133
36.2797 47.4242 41.383 28.1711545475
36.4678 35.0612 42.2057 32.7904289377
34.8303 48.4755 47.0261 32.7811001332
36.4728 34.8742 39.3007 31.3424153446
37.4723 40.7517 47.3132 30.2529215361
35.0085 42.7217 42.8807 32.6248113354
36.6496 41.1208 44.6113 32.5330070204
37.9393 33.8344 45.7657 28.3382632329
39.3277 36.5034 42.6935 30.0787496511
33.515 37.7599 45.9967 28.5618000714
30.532 37.2536 45.2824 28.6883487549
31.6556 39.9217 43.4746 32.7881251079
33.4625 42.836 45.6562 30.78452385
36.2015 38.368 45.1852 28.9484927851
34.2946 35.6633 43.6199 31.1856271438
31.2954 44.1054 45.671 32.7059652462
38.5105 36.5593 45.2735 30.4380692861
32.5401 40.4899 46.6012 30.9381785477
32.4 36.6341 38.7566 30.1090122747
38.7787 45.0816 47.647 29.6322991789
37.5088 48.7549 43.8282 28.8314539232
33.8172 48.6239 41.4261 29.1567009
30.5718 46.0434 54.0242 29.9557023993
29.8775 34.5387 48.1087 27.4667353663
34.6946 36.2189 48.0642 30.8690584154
37.5423 38.8327 55.4877 30.5888494066
34.2297 34.1275 55.0704 31.8930851347
36.1423 38.7106 48.4369 31.1472002653
32.2392 38.0824 52.4569 27.9747818131
30.201 35.8233 52.5869 29.3213422101
31.331 39.751 55.2585 27.1886978569
37.5648 38.1611 50.7798 30.1805854352
32.7557 32.717 52.2175 30.396826502
39.2933 34.8342 48.863 28.1729775322
34.8128 39.8509 50.9903 30.6311180071
32.333 42.9552 51.5228 28.9241503707
33.0239 44.8528 53.3488 27.2977397931
37.9988 44.56 53.7484 32.5133484096
32.859 47.9275 48.5565 27.1274001272
36.9703 43.0497 48.7208 33.6041211237
38.2592 43.0219 51.3006 27.8993548277
35.3785 42.491 51.983 33.2276009004
32.7238 45.4302 49.8689 28.6629239882
34.7426 35.2159 52.5799 29.6019863361
37.2146 46.8349 52.4003 30.9821379578
33.9533 39.2652 55.1114 29.2123032342
33.1342 36.2379 50.3474 29.6590983631
32.2742 40.6406 49.7334 31.60559186
33.4689 47.5105 51.8806 31.3243955362
36.6392 33.6064 51.0736 28.3195922645
38.9004 35.6716 52.1964 28.6644348039
30.4904 33.3137 53.5518 27.6847584161
30.7357 36.7959 55.096 28.3420517952
35.1536 46.7293 54.3547 28.7890729822
35.4019 37.9454 53.081 29.5429265096
33.707 48.5496 55.9902 29.2678471942
35.4154 41.8828 54.9049 33.1601322711
36.7052 34.2089 48.4117 28.6603408165
31.1919 48.5448 52.9752 31.4085459614
38.8153 36.4532 54.9013 27.3957138606
32.6754 42.8118 55.3456 29.8238709276
38.8795 46.7783 49.7111 29.6747232027
30.3497 42.0821 53.6928 27.3143970643
36.7504 34.8775 56.1413 30.0917627623
34.4486 44.3434 48.0191 35.9105606808
30.2549 45.0016 48.6849 29.9057349319
37.2643 48.9366 55.5693 29.3478035223
38.0905 41.7876 56.229 29.6620729922
37.3092 48.578 48.5568 32.0047040328
32.0847 33.5732 49.2422 33.8472043432
38.5262 48.9076 53.3249 28.8460941148
30.2185 37.1768 49.6474 31.5272478038
29.7891 33.5677 56.1995 27.7334866454
29.9375 42.2081 47.9214 29.4991991338
30.1803 39.8473 51.3382 28.8557210487
38.8087 40.4689 51.879 32.1281667928
42.6615 0.634041 6.90241 30.4290997262
47.4317 8.72272 4.21637 32.0956068699
40.9698 7.57901 10.3481 33.4646099736
45.2134 3.85293 7.45101 28.5639440809
46.787 2.41988 3.77884 30.5338921598
41.5157 2.02406 4.63822 28.0899758008
47.3365 2.04765 8.50264 28.0145812682
48.8258 5.20504 5.50755 29.9345323304
44.2243 10.9881 8.12255 30.6667426226
42.7798 8.65122 8.0594 33.414246407
48.4445 4.65766 8.47143 27.0282284396
40.6029 12.4566 11.8943 35.9240796538
44.4142 4.79821 10.7264 30.9371597462
46.7316 9.5762 7.36725 34.4309846241
45.7145 6.28997 5.28166 28.4263021929
43.0225 12.7775 6.60708 28.9135165561
41.7577 14.4078 8.44517 29.9754138633
42.0144 9.73936 3.92583 28.0699979021
40.8296 4.26336 7.20106 30.4711281703
45.1381 14.5306 5.59823 28.2255267593
45.9337 1.12608 11.6027 32.0685710627
42.8719 3.09058 8.52164 31.0929098105
48.5784 13.1928 8.48638 27.5633587691
48.2525 11.8543 6.00211 29.8347278255
48.8734 2.15194 5.98899 29.1637788892
47.0232 13.0863 3.78399 29.9323641365
43.0113 6.70873 11.8829 30.7646647821
42.9521 7.58137 5.50163 32.4516096191
43.2638 13.4468 11.77 29.5107964488
44.0748 3.33555 4.77119 28.9827332881
47.0889 6.16542 10.4316 26.9307634671
40.9637 2.17995 11.005 36.266068363
44.9526 0.0829851 5.63658 32.9350113376
44.7962 11.4068 10.8183 30.6928798221
47.3671 12.5921 11.028 33.0913569129
45.7242 6.65907 7.98997 30.5727425544
41.1847 5.32522 4.41835 27.7048337454
47.5697 3.66665 11.7786 32.9329832
39.977 9.85281 7.75754 31.0289982555
45.5649 13.978 8.49072 29.1304438832
40.743 11.2708 5.61848 29.4960867017
43.7481 15.4408 10.1419 28.7206310483
49.0399 9.74009 8.91414 32.8327073392
48.5473 10.1971 11.7214 33.0218587466
48.112 15.436 6.73857 26.8209820072
39.3176 16.129 6.01272 29.7940363451
39.5244 12.4874 8.99771 33.0605834881
39.4411 9.15242 11.9917 31.2389966723
44.5222 9.12334 12.2209 34.0635594716
42.9589 3.00283 16.8624 31.6927959816
40.3784 10.6726 17.4583 25.5589735408
40.6723 0.149647 17.6519 27.2979270737
46.3249 5.66061 15.4277 30.7048290914
42.1121 16.1482 15.0523 26.9775975835
41.9556 10.1562 21.1418 29.7278855308
42.0086 6.76399 14.5101 29.777185751
46.0345 0.713538 17.3452 33.2436633757
44.3169 14.5498 19.1623 30.0543649724
43.3175 11.6108 17.7792 26.9108232595
43.8506 4.65168 14.8738 33.1044762099
42.2258 0.0697293 13.2917 30.7132101567
41.2708 5.25183 20.1573 32.2105877259
48.2255 3.88872 14.5948 34.124958981
39.4668 13.6283 14.258 31.8503615021
42.6682 9.2113 15.555 30.1046800022
45.2821 10.0441 15.1018 33.65114087
45.7979 9.12272 17.6708 28.8399658274
45.1658 6.44519 19.0476 31.3961411614
40.0611 10.536 14.278 28.5462266269
47.7849 1.28908 15.2899 31.0643151458
45.311 10.9389 19.8569 26.2876207579
44.8902 12.812 15.8888 34.2041039493
43.9735 14.6303 13.9064 28.2850082602
39.5501 10.5945 19.9209 27.3415046051
40.5472 4.55502 17.2848 30.6814196224
39.4123 5.60319 14.3937 35.5770550005
40.6914 7.71978 17.5371 28.5999879808
48.8907 14.5297 12.5994 34.5889151881
48.6229 9.68854 18.797 28.6292198865
41.1012 13.2871 16.4377 29.0610562058
46.6393 14.3358 17.4134 34.3912462267
45.1449 3.08269 18.7539 29.0373925542
48.041 8.14549 15.4051 30.267126931
47.0699 4.60319 17.7957 29.570077589
47.5031 15.5393 21.1104 33.9841062566
43.358 0.427185 16.2846 31.3915536201
42.9807 8.61641 18.9733 27.4170988183
46.8893 7.99252 12.6338 31.030931845
46.4972 15.9362 13.7543 32.1203505925
39.9298 0.828437 14.2158 39.77727897
41.8264 15.6191 17.8155 29.7343350199
48.946 12.3316 18.1995 34.7982444754
43.639 2.61926 12.5839 33.6393474827
40.1302 3.01199 21.2846 30.1602140137
47.4299 12.6134 20.9143 29.8017855173
40.3159 12.7829 21.9787 29.7718277656
45.6648 1.65697 24.5833 102.9852383154
42.6736 5.64179 23.9657 40.1824578575
40.4652 7.22004 24.5996 110.619408492
39.7949 11.3961 24.5571 95.805180832
43.0205 3.04736 24.2304 59.6948052655
44.4191 9.40286 24.5258 92.4499548493
41.7308 9.5705 23.9977 37.7738887767
46.4138 2.38578 21.3558 28.6640617921
45.2557 6.57066 24.5075 84.2579253338
41.4389 1.08767 24.4415 80.429242116
48.4365 6.72038 24.252 70.6899832513
47.5896 15.6524 24.0125 62.2475365073
42.3313 13.3389 24.3077 76.2734707073
42.3267 16.0295 24.1491 65.9600666161
46.9301 4.14866 23.9001 37.6503895682
44.8422 12.0758 24.0729 62.9883334717
47.8422 12.681 24.0078 75.8949148617
47.6113 8.1363 21.6709 30.223423092
44.8778 8.53232 21.7163 27.2936220813
41.6226 15.287 21.3978 27.4421142136
43.311 2.67896 21.5429 31.8016353419
43.7764 12.6337 21.2735 28.6976292582
48.916 9.71814 23.8088 51.0352986055
49.4126 3.03178 21.5093 26.7949520854
47.2232 5.34178 21.2613 26.3814260916
43.7954 5.74797 21.6011 26.7140357363
42.2716 12.61 38.7688 26.4820857664
49.2103 12.4206 36.3995 41.4014211119
44.8382 1.31658 38.3366 29.7644465348
41.9803 13.5122 36.0341 56.7385724674
45.0435 7.07414 38.1914 31.4438572347
44.959 5.27101 35.5568 105.7273014903
40.7473 6.4588 36.0042 67.4298271355
47.1342 16.1721 35.9168 66.0026267966
46.6949 13.2596 35.8099 80.8216302996
47.0939 3.32504 36.0869 55.6017979289
46.3084 7.71537 35.7717 69.0663604109
42.1741 4.07771 36.1123 62.4641937772
43.996 15.7846 35.9968 57.1816187629
39.9749 9.46296 35.4173 103.5187482391
42.4762 10.8988 35.5214 85.3586858423
40.5797 1.88211 36.121 68.1622579592
49.0701 9.79602 37.9373 32.3608345227
39.6049 14.6594 36.0367 63.1472907988
39.8538 2.17103 38.6709 24.461779832
45.1956 10.5061 35.6378 84.5011230797
46.8735 0.493739 35.8612 86.7625262461
46.363 13.8866 38.4302 29.468968343
44.4968 11.0849 38.4819 29.534645672
40.4639 10.298 38.1563 27.8090199765
44.999 4.16383 38.3261 24.2405629635
43.3472 15.2207 38.6545 27.4726495364
42.1926 3.97496 38.9956 25.8971741884
47.2377 12.9676 41.953 29.8618368009
47.5781 12.7731 46.4038 29.3346051179
42.5285 2.70905 42.6935 26.8033326263
49.0216 1.954 42.1468 32.2036114555
46.2486 15.7239 42.3236 30.3801470396
43.9478 1.31281 47.0056 29.5393456525
39.7042 4.8611 45.8411 28.2965497535
47.14 8.19964 39.8238 33.0911305559
43.1595 15.7697 45.5335 28.7867868007
48.5123 9.45121 42.4548 29.7117330009
42.7208 9.83513 41.5883 31.4340749646
40.7267 11.7867 41.7084 28.8794385551
48.8261 12.6901 39.6462 26.4682374503
44.4327 11.62 47.0647 27.1152087669
47.3835 3.20185 45.538 28.299632765
44.1509 14.4631 43.5713 28.2572298127
42.3462 14.2319 41.6419 29.4537191673
42.4011 0.923466 39.6997 26.228951908
44.0941 6.14907 45.0454 32.0706129229
45.505 10.6698 41.2974 30.0807129488
42.2722 4.01715 45.6001 28.2535008262
43.8249 4.77285 41.4442 32.1126275426
41.6533 12.1328 47.1898 28.8593024419
46.759 5.28987 40.7897 30.434411702
45.6472 1.03877 44.8094 33.5817433584
48.2228 4.60304 43.3946 29.024478127
48.1564 15.4363 45.7613 31.1225519013
44.6696 0.580804 42.1367 29.818069127
40.0935 3.36649 41.6489 26.3117221422
47.892 7.51851 44.4548 27.9228109713
42.8453 7.13751 42.6198 27.2931101843
40.4506 9.4098 47.3595 30.1986215769
40.526 6.20922 41.8417 26.358896761
46.5501 5.71751 46.4464 27.6371986291
40.3984 14.9393 43.4376 28.2854263292
40.1447 11.92 44.4374 33.0673098766
45.2962 12.0281 44.4572 31.2234039408
45.1509 9.01191 43.7652 30.5278121382
40.7506 7.40808 45.0295 31.1940378235
43.2922 8.92232 46.6306 32.3927269803
47.0056 1.04959 40.6132 28.131145656
47.1786 9.38705 46.5741 29.9097839944
41.8262 0.863427 44.8573 30.597669061
40.325 14.4811 46.3951 25.7345668591
42.7801 8.85252 38.9314 29.3392855987
47.6277 3.37612 39.1525 25.9281061372
40.5919 6.57067 39.1074 28.1885109677
45.4865 3.40452 48.1877 32.7437418339
39.9425 11.7781 49.6156 27.9126823278
48.6886 4.6605 50.6443 33.1939311484
44.0443 14.2279 48.3243 30.5388624616
47.3098 7.32221 48.2358 27.269837897
47.7191 15.4983 53.2197 34.9857005352
41.7677 13.8392 50.4524 28.3285403393
40.6822 15.1721 54.7412 29.1306548972
39.8146 16.2328 51.9865 28.559692017
46.187 5.38571 52.253 29.343033857
48.3447 0.0204774 48.5178 31.3402882188
47.4198 10.8722 52.7051 29.511295778
44.4386 7.9642 49.172 32.5172566497
44.0097 6.85865 55.3704 29.3228058197
41.0637 4.34938 54.7859 32.1036068433
46.2924 14.5341 50.8249 28.6288211145
42.6437 4.10437 48.299 30.9922695847
40.8079 1.53478 54.6986 31.3959291569
48.1758 2.02998 52.0667 29.0830603336
41.2701 1.8072 49.0064 29.0484660811
46.4984 12.1291 49.1171 26.9545102421
40.8765 11.1044 52.1433 26.9073617463
46.591 1.50579 54.1822 28.1141442664
39.7957 8.98624 55.4105 29.7688015704
41.184 15.6293 48.6748 25.0903211648
39.5699 8.77384 50.0089 31.0148698661
43.7637 8.48329 53.233 28.6934895614
48.4022 8.69142 54.0111 26.9296070515
44.8313 2.71838 52.4198 29.9345965852
44.0368 14.0152 52.5048 29.0544455903
40.8772 8.37966 52.879 30.5990286852
43.5522 11.3372 55.5186 29.1806990028
43.3578 11.5417 52.7495 25.3045410673
46.1191 1.32179 49.9707 29.5287706603
41.8842 1.52871 52.0615 29.1532506013
45.2144 10.3808 50.7964 30.2665672326
41.055 5.81285 50.1471 29.3695522933
46.9387 7.86535 51.1749 27.6598665623
43.5322 6.54621 51.0692 30.8534965686
43.8284 4.08034 54.6993 30.5183541893
46.6774 6.70818 54.7174 25.0026396939
45.1324 14.6971 55.0916 27.3356568438
46.3689 10.8577 55.2925 30.379812019
48.1788 4.6684 55.6861 27.8436763101
39.8035 12.5127 54.0278 29.6955408868
49.2109 12.3824 49.9058 31.488140911
39.5584 3.2161 51.1686 27.1857143532
42.7832 13.969 56.2415 28.409696344
44.8056 20.5714 5.14456 30.9739458202
41.6092 17.2293 7.22425 28.4056209353
45.9419 17.2222 8.1944 30.3682177807
45.8823 17.8354 5.51286 28.1350099842
48.3852 17.9311 4.44677 30.3160984333
41.0571 30.2743 9.84345 32.7388879955
49.0918 31.0865 7.76942 29.0727578463
42.4646 22.7496 8.51063 31.2304538593
42.2239 21.1159 6.38696 29.5175241989
46.2446 21.6087 7.81527 29.7159453081
48.7075 22.2119 5.96175 33.067205516
46.9686 29.1609 8.00521 31.8578220241
43.1088 27.2588 6.02071 37.9493398648
41.3619 22.7052 4.16835 31.9087941305
45.1899 23.482 4.86235 27.9449403364
42.7142 26.0547 8.46061 30.9413068258
40.8804 27.7257 4.03009 31.3707998367
45.6018 28.6105 5.6189 34.1491522714
46.7157 25.9492 5.0347 27.8607285534
46.4389 24.8127 10.1527 27.3940881987
48.1085 26.7606 8.9008 31.3463141343
42.3767 19.3567 10.6338 28.3981812945
45.4282 30.1719 10.1546 30.4884997231
40.3475 31.5185 7.15008 32.2693566898
43.4109 32.2163 9.89299 31.7589250224
45.0834 26.6222 11.7826 27.1269858511
40.8879 27.5792 11.9727 30.2600180609
46.63 18.3346 12.6089 31.3703265746
49.2353 24.0766 10.9018 27.6063436308
45.5832 30.7866 3.82984 31.0103181582
43.1628 25.0289 3.97959 30.4334234711
43.8966 19.2895 8.08363 28.6884480714
46.7801 32.6854 8.99817 31.9021334944
39.7323 32.1819 11.6454 30.3954056497
46.1902 22.1884 10.861 26.9563251257
43.4382 21.9102 11.4052 31.2142480526
44.85 24.0188 7.8056 29.4168897572
47.1427 19.558 9.62594 28.3791503254
42.7111 25.0388 11.8308 31.4741403584
43.2086 28.1598 10.2109 31.6715227692
40.8696 16.8005 10.5345 29.9100065971
40.3956 24.8058 9.23234 29.8716503092
39.9697 19.629 7.41302 27.4594661213
43.0618 16.6503 4.68515 30.3578464036
49.0997 26.2359 6.1991 31.1016789051
40.1167 30.3956 4.72033 34.7019673357
49.3164 21.0214 10.3675 28.1446495609
39.7382 30.5534 19.2415 29.0329368014
46.1946 29.7376 12.9541 31.4981320165
46.7602 22.4691 13.6816 29.0146077014
49.0751 25.501 17.7582 31.7942363695
41.9834 21.769 18.3522 30.7610478763
43.066 23.535 15.9471 28.0383382182
45.8414 22.1494 17.5276 30.1684704868
39.8996 19.3643 17.8693 32.5034053629
47.676 18.9721 16.9886 30.5700603561
44.1215 22.6243 20.2627 29.8949994095
41.0715 29.0111 14.6882 34.8737097268
47.3052 28.2184 15.5345 26.8077475957
46.3181 19.9073 14.9156 26.6241867663
48.149 23.0618 19.1647 28.818822175
43.0056 27.6432 16.3041 31.2201137301
42.6847 31.0111 19.5065 32.6965786858
41.6045 25.6473 14.552 29.3373213699
40.0832 25.7704 19.0473 29.4032118828
41.4201 20.2503 15.2232 32.7537511444
41.0658 31.7832 14.4421 31.9477122264
46.1211 32.3387 13.8404 29.8822926288
42.2516 18.3782 19.3344 28.2705599046
47.975 16.3909 16.1352 33.6023601349
45.0571 26.7915 14.361 27.9547249062
41.3817 21.6134 21.2785 27.3937029359
46.5406 20.6759 20.4442 26.5414158106
43.5657 18.4413 15.267 29.4904820268
46.3729 28.8433 19.854 28.2121969814
43.6403 32.3528 12.8927 35.0058189628
44.7521 25.5075 20.1139 30.1024848504
44.0707 19.6528 17.8493 26.3729380118
46.3753 26.4597 17.783 28.6931963668
46.1197 18.4035 19.2642 30.5152453416
48.6931 30.5155 20.444 29.552668236
41.1485 32.5157 17.1108 31.3982478938
45.778 24.3435 15.5798 28.977551982
42.6181 25.5435 18.1985 31.1248265
44.5839 29.6099 17.8727 33.596125437
47.0259 31.0012 16.5927 29.7718906428
43.6905 21.6201 14.1414 28.9849762315
48.1869 26.4662 12.4909 27.3883256546
49.0892 29.2917 12.8854 28.7502629914
39.9498 16.4619 13.406 34.6561598808
43.5276 17.6979 12.273 29.9276676939
39.5142 16.4888 24.304 79.7468237144
46.1614 23.4759 24.3264 90.8523820988
43.5786 27.7199 21.6968 27.9667110088
45.0365 16.85 24.0966 75.6317743803
48.4587 23.6666 21.6036 29.4879348851
41.9001 18.65 22.4465 28.0111053822
48.9303 19.7972 21.6868 31.2762159581
41.0965 21.6512 24.2313 85.1513456047
46.57 19.2383 24.1745 85.4273526709
48.2292 28.7633 24.4719 84.3353001445
43.5803 32.3605 24.1222 64.9168830357
42.7197 24.9291 24.2768 73.6330217977
43.7543 22.5767 23.4728 34.2961377713
44.6863 16.7708 21.1553 28.1190483212
40.9847 31.4509 23.4033 30.4700332555
44.8271 29.9297 21.8083 27.965060831
41.3511 28.8899 24.3988 88.5075019557
44.5179 19.9843 22.3702 28.8075969806
43.9945 27.3441 24.2369 51.7929838245
45.6149 30.0986 24.5963 89.4686898856
46.5333 26.4007 24.3595 73.1023975636
40.7436 27.7446 21.6158 31.4427973328
48.5204 21.585 24.0809 63.5171698465
47.1087 26.1565 21.6167 27.7678909997
40.083 24.1756 24.3464 86.0851579846
46.9806 32.5881 24.0035 60.3410340743
48.7854 26.9297 35.704 81.7513050119
43.3555 32.6997 35.7743 100.2807414749
40.6296 22.601 35.8168 67.1848299308
46.01 18.9304 35.905 58.8255520367
42.8361 20.7446 36.0924 44.1472332737
39.8799 19.117 38.8159 30.6147753377
44.9381 27.8018 36.0522 50.7831096986
42.7851 29.9369 36.1595 59.0966722564
41.6838 25.2016 35.76 71.0097584688
44.8893 24.9287 35.4159 99.7208707127
43.2031 26.5746 37.8161 27.6922881157
47.7056 24.5207 36.3499 31.5860849639
45.3958 21.9609 35.6626 77.2837539352
45.5916 22.8419 38.2171 24.4569804942
46.1421 31.8271 36.3151 40.5706965615
40.3373 28.1253 35.8142 66.2661085008
44.4601 18.3975 38.0943 25.5505976753
42.7706 18.112 35.4883 103.6744296102
40.2602 17.6684 36.4691 30.7048179418
46.178 29.0172 38.7136 28.8988093286
