26.0781 34.2103 37.9388 25.9827626876
24.5548 41.4411 38.7257 26.5850726395
25.5442 48.6017 38.0851 30.8775468357
21.7991 43.1063 38.6824 30.3427257722
28.9991 38.1511 36.1224 81.6335095518
21.4045 36.0726 38.7445 24.5715390671
27.8101 46.7767 38.8783 27.3422832888
27.6923 44.7856 45.0984 32.876739129
24.3177 40.2182 47.7095 28.7278902395
26.6324 47.9752 42.6816 35.8013971735
24.7735 36.9671 39.0897 26.5119183025
22.2905 37.743 41.9615 28.3498757398
26.9943 35.9203 42.4508 28.0475824573
23.9772 44.7027 41.653 30.2377393828
24.6973 42.7669 46.8577 29.4667796196
25.3624 46.5745 44.9389 34.7923794256
20.8659 35.2969 41.4329 26.3490149758
23.4568 48.5382 39.7644 29.0383333036
25.7407 39.2908 39.8151 28.1733681745
24.9648 37.4339 43.0006 26.5039080437
22.1448 40.8073 40.3722 25.0727915975
23.5861 44.258 44.8347 29.0528321241
19.9813 46.5416 42.4218 31.4101090222
26.1473 40.034 42.7402 29.9855213027
20.8397 38.5989 44.0839 27.8545819327
23.1739 47.9626 45.8303 35.3977003646
24.0708 35.0105 41.4439 26.2075195672
22.5106 47.0272 42.851 31.4164632791
28.3431 44.0236 42.3684 30.7901414108
27.708 40.0808 45.2768 32.8662268965
20.7249 41.7694 46.7782 27.8439331789
26.5463 45.5089 41.1093 26.395045851
22.3404 34.2944 43.7791 30.3832779411
19.6446 34.3625 45.2818 29.8601343752
27.6324 36.2034 39.7096 26.956651538
20.2288 35.9454 47.5231 27.4652393264
23.9454 41.7775 42.2601 31.4622524432
23.3205 35.253 46.3341 30.8277460278
27.4703 42.5786 46.6518 29.1546198142
26.6384 33.8965 44.261 27.9173149964
28.3756 41.5135 41.7509 28.6336189257
21.2455 44.4604 46.0971 28.6211050228
26.2149 35.6196 46.6725 27.6860036758
22.421 37.8532 46.2103 28.3800084267
25.3801 38.2121 45.585 29.2405365362
21.7259 41.5483 43.87 30.111151131
28.3237 41.94 39.0382 27.9030191675
29.3596 37.0048 43.3489 31.0136529732
25.9569 32.88 47.5702 27.9546221076
28.4851 38.5672 38.9266 29.4690038477
20.8961 46.9715 39.3134 29.7150815847
23.2648 36.1926 54.4505 36.6309294868
21.7285 36.8281 50.5161 30.1047277327
19.7131 48.0608 52.251 28.0145146187
21.9515 44.3795 55.0047 32.2674758034
29.1877 47.349 52.6777 29.5620828007
27.393 36.5514 51.7898 27.7341335907
22.01 42.1929 49.378 26.3919099041
26.4761 46.3458 54.5148 31.2724260514
26.7151 37.6936 49.0121 29.8965236175
28.8648 47.6593 48.2335 33.1713800418
24.1749 36.6722 51.3457 28.7423540744
27.2322 42.6378 49.3891 28.1365039458
25.7477 40.1468 50.0245 25.3773663009
24.4363 42.875 51.5881 29.7866343612
22.2172 33.4905 54.5894 34.5299889624
26.5669 46.2236 49.4277 33.2527542857
26.6671 43.4725 53.2654 31.9444445012
28.1445 44.4823 51.1819 28.6720884104
24.3031 47.4465 52.9059 30.5899841324
27.7167 33.9094 51.0679 30.2854070141
23.37 39.6525 51.5346 31.4560835105
25.3192 48.6088 50.124 31.3621097637
25.7002 42.5771 56.2377 29.0346518338
23.1921 47.4383 48.6934 29.7240978461
21.66 45.1446 48.8445 27.0765849235
27.0857 34.0688 55.3455 31.5438402447
26.0157 36.2415 54.173 29.0179226837
22.2435 39.5744 54.1838 32.1253503371
27.0599 40.6847 54.3415 29.3082017416
20.6307 37.5507 55.0327 33.0950696125
19.9181 42.2409 50.9478 31.8305368875
27.826 39.7439 51.6589 30.0530116156
28.8804 47.937 55.8581 28.3821830988
22.9016 45.0125 52.4592 30.5862859619
26.4881 38.3721 55.6464 30.0938044614
22.429 34.243 48.9333 28.3094338701
24.6455 44.1545 49.3095 26.1701301307
22.843 41.7744 55.8349 33.9475348104
20.1933 45.129 51.6185 31.9629700916
24.8581 34.2763 50.2059 28.0429418906
28.5916 35.365 48.2364 30.3306495185
23.2793 48.5261 55.5783 29.1670070593
21.8422 39.0154 48.6715 32.6926668107
19.9639 40.2019 52.842 29.0418004454
29.5728 38.1406 48.5124 30.4472021305
34.4674 2.3154 5.54141 31.4178952456
31.9394 15.4928 5.97479 31.2197671398
35.9025 3.6852 7.36522 32.07518667
38.2483 1.17683 4.63755 31.4291978839
30.1916 0.530977 8.56244 28.4166804642
30.148 4.45186 5.44536 26.8989108786
32.9258 4.2969 4.5427 31.7208374728
33.094 6.6697 5.92311 29.1586929279
37.7951 11.2893 11.8939 30.0547959831
34.2858 16.3979 5.49856 28.8602094785
29.7147 12.1253 3.46961 32.335422428
33.3444 10.3883 7.8787 27.0713987294
37.3981 11.0523 6.77227 29.3947650061
37.8361 1.22595 10.831 31.2116283415
37.5034 8.61338 5.30412 31.6450587988
36.0522 14.1931 5.25671 27.6665361144
31.6546 2.59126 10.3499 31.2595927442
30.6473 13.4708 7.57307 37.2329000672
35.2974 12.488 7.46352 29.6649627186
30.0654 2.32489 3.71444 30.3378974076
30.1556 6.47558 9.1044 30.8679623015
38.5552 15.1881 4.94502 27.706057621
31.141 8.38441 4.95293 28.9277917068
29.8966 3.68647 8.20492 28.5556486534
37.9318 6.26067 10.6407 30.5182365511
33.8801 15.2483 10.9001 30.6446130674
35.4317 1.11856 9.24242 30.7470323507
34.2089 4.09681 9.4743 32.3520990025
37.2224 13.9756 11.6 28.027469803
32.8254 6.6104 8.78155 27.86503532
37.1649 6.56126 7.66773 30.0222122254
33.7565 0.301891 11.6766 29.7424550984
30.595 10.0222 7.36273 30.7869785549
36.0937 14.5236 9.0787 28.3840249783
34.9666 8.24412 8.47709 28.0757968972
38.5771 9.76941 9.04854 30.3014185442
36.5028 8.542 10.7481 27.2806609838
32.6392 12.1604 5.5234 29.9017162463
31.649 14.137 10.2304 32.1301358091
32.875 11.6508 10.1677 28.6650644057
32.6156 8.06386 11.4601 32.815970192
34.9356 8.12856 4.33857 30.2856122037
39.4879 12.4758 5.55969 25.1988209727
36.0321 4.55568 11.7688 31.1564360603
38.6875 14.6037 7.92981 28.3307307184
38.6047 2.86463 6.68976 31.4848406777
30.6852 0.3971 5.90182 29.730339886
29.5961 14.3625 12.1738 34.386076889
31.1567 10.397 12.0055 33.0724418153
34.7902 11.2628 12.2255 30.4551979957
34.135 10.5497 3.74094 30.2211478748
29.8656 1.72358 15.596 30.7399726213
34.2526 3.99263 19.1059 33.7605482519
36.8791 16.1132 13.3665 31.2809650065
30.9616 0.374106 17.7748 27.3802518792
38.209 14.0776 17.0123 30.8110083423
37.9942 1.8046 18.0213 31.652595155
30.7051 6.52575 15.4421 32.8164163765
31.6516 5.52619 13.1886 30.3672774556
34.583 5.4477 13.7665 30.7764357767
35.6405 5.03937 16.484 39.2968344823
32.0192 11.9979 18.7083 31.9116625521
29.826 2.48678 12.697 28.5104420139
31.3631 10.6991 14.9404 33.11143586
34.2418 9.55317 15.2122 30.4502958695
31.5934 2.43722 19.6089 27.5103880525
33.8188 12.6956 14.5124 28.704913522
32.1401 5.87878 19.1673 30.3271640405
37.454 0.998419 20.8067 26.5292909036
29.9424 0.483377 21.0262 34.1504297992
29.6626 4.41391 17.1234 32.5493037525
31.8831 13.4715 16.4951 29.4726300685
30.5889 9.38894 18.2624 29.9222777145
30.1251 12.8196 20.7349 31.8887322165
37.8275 9.21798 17.7736 33.8989377841
39.0655 6.35215 18.9024 29.0108125413
36.6275 12.0018 18.5485 33.3490877366
34.2226 13.4295 19.9589 29.4491668848
32.4986 8.01843 17.0759 27.9969006898
33.4571 15.3191 17.9295 32.4879865257
39.3658 2.6063 13.7589 29.073743223
38.3611 4.44807 16.8732 31.5939715844
38.4677 9.32871 20.387 28.1842012397
35.2283 7.67018 17.7992 31.5936019321
34.6567 7.62728 20.4796 30.809127198
36.1945 11.4756 15.8252 30.1379826136
34.9726 8.16497 12.8967 31.255319948
34.0979 15.1365 13.545 28.556318493
32.8055 2.7697 13.3351 33.7855888243
38.6054 11.287 14.4339 29.0022407444
39.0222 14.8507 14.566 29.066094536
36.5785 2.5211 13.5646 32.0931229312
35.9956 4.12376 21.0786 28.204745889
35.9155 15.7099 16.3458 30.7227272933
34.9361 0.00287359 20.2946 32.2136508463
30.1147 16.5336 14.4596 29.4814158403
32.6018 5.67868 22.0313 29.2914178629
32.3851 1.46291 24.2864 72.1257819386
36.6964 10.9752 21.8503 27.6948247738
36.9184 1.88625 23.5544 31.8947474026
33.2748 2.03797 21.6761 29.3158382688
34.2577 7.38171 23.8647 73.6427978557
39.0172 3.57141 21.274 28.767454933
37.2737 7.31998 23.8998 67.6630631555
34.7263 4.10632 23.8851 65.6372144965
37.779 10.0325 24.311 87.3650869334
33.607 10.249 24.0864 60.1993303515
30.898 11.3362 24.5309 110.1243002339
35.191 12.343 24.5485 90.4239362344
30.6783 14.1109 24.0117 44.2314624942
29.8927 6.06406 21.6516 31.5353243807
31.4425 4.26523 24.5363 105.8101448518
38.5713 13.1069 24.1102 58.7765966821
36.9113 15.3036 24.0344 59.7635540084
38.4658 4.64028 23.9069 63.0010697685
33.2802 14.6017 24.2159 60.2579280492
30.3306 15.6592 21.6282 29.4248777793
33.2041 15.6882 21.5011 26.9185710033
34.939 0.0874095 24.5777 97.360955792
33.8414 10.554 21.2584 36.6903699346
37.3959 6.71408 21.1937 27.7657230995
38.3488 13.2394 21.2295 28.3826944871
36.5654 15.2526 21.2931 30.0007695893
31.9678 1.53924 36.0535 61.9065629359
36.6023 13.9423 38.1602 26.8515624704
38.0659 10.4795 35.4397 114.6117101334
37.485 1.33511 36.4569 34.5872386178
38.5209 16.0137 36.1076 50.4346157902
32.8201 15.3791 35.6761 88.4792241292
30.3195 13.7308 36.2258 59.0009178641
35.8584 3.61695 35.9336 78.4133075932
32.4283 8.66629 35.5518 81.7827054475
36.8359 8.30188 38.5594 30.2743481834
37.9204 5.5747 36.4058 54.4282763218
37.4169 13.4995 35.4029 91.528332375
33.0137 3.85797 35.4837 94.8943226394
33.0181 11.4921 38.083 28.4746349308
36.45 8.12657 35.7485 88.7162048153
31.6226 6.15189 35.5759 71.9827637764
30.4649 10.7224 35.9651 58.9224079252
34.6053 13.1083 35.6327 75.301087974
34.4781 10.2501 35.9226 48.3579408149
34.2048 4.07648 38.3396 30.9488302994
29.7192 4.8478 37.5701 28.5561093164
32.244 8.45594 38.6254 29.8929789986
33.8845 14.8739 38.7566 27.3203380885
31.4929 3.29496 38.6451 33.1890046079
38.0082 11.398 38.1736 26.8470890087
30.4754 10.7909 46.5554 30.4517258269
32.3969 4.04426 46.1595 28.1579630353
39.3997 15.7758 42.457 32.3562615242
37.0158 3.51131 43.7539 34.8895140524
37.605 5.70759 41.6476 30.8219922025
29.6403 10.7461 42.0012 29.511193599
38.9627 1.08589 43.3994 28.1537117416
34.0442 0.325568 44.3383 31.0744052403
34.5894 2.3961 42.6867 29.8337152063
39.1863 12.4939 41.645 33.0542330556
32.098 1.16389 46.0169 29.2719747756
37.4995 7.36083 45.1493 30.974472409
33.962 11.6458 43.3172 31.2172640016
30.685 0.554783 40.3947 33.6923702015
30.4284 13.3895 41.967 28.8712121324
37.4425 8.2709 42.4945 31.127522402
37.0603 12.6608 46.2 38.5444520508
32.516 14.2918 43.4336 34.1419779281
32.5792 4.23175 43.2796 30.5694612846
30.5745 6.10997 45.2854 30.0339210708
35.5391 11.108 39.3774 27.3437589527
36.336 12.5376 41.5547 33.4642236497
32.1651 8.50684 45.9524 32.4814033799
31.4949 14.7103 46.2565 31.8030889932
32.0054 9.72413 43.1601 31.7347088608
35.3863 2.07569 40.0043 32.1319290393
32.1411 7.4666 41.4525 32.0544607416
37.9678 1.05139 39.1594 32.7780900634
37.271 4.94291 46.1321 34.557511633
35.7304 15.1692 47.2575 30.3716082946
35.4938 8.49551 46.6699 35.103083372
34.6022 4.80364 47.4965 37.7849054514
35.0672 15.1598 41.1202 31.1396401175
34.2859 6.77207 39.0903 31.3154637796
32.6041 12.3063 47.4831 32.2182204913
34.6877 11.056 45.7485 31.2777609984
34.4212 6.02721 42.0519 34.1302523678
35.0614 9.2186 41.6755 30.8848650206
33.6119 0.0471685 39.4241 30.9243030977
38.786 6.34448 39.0804 30.8749930268
30.0528 2.64839 42.6009 30.2782803401
31.397 13.6033 39.3365 30.0370692975
38.5233 15.6936 39.0472 26.3707845223
29.7181 5.55426 42.3599 32.7116292391
29.9766 10.4928 39.0402 28.0395388172
39.1128 0.384795 53.4521 33.6604658315
30.7051 14.6482 56.3319 33.9468067042
31.3207 11.2475 53.2147 28.49513975
37.561 1.57309 51.1612 36.0869519219
37.9787 15.487 50.6231 28.4696001922
39.0939 5.78754 49.6695 34.4814541242
33.3101 7.15874 52.9586 27.3513336736
38.6216 11.5339 56.048 32.2460401546
32.116 1.53903 49.0322 29.1139335071
36.0294 3.85351 51.9047 30.144627784
36.71 6.62511 51.2504 34.6374461605
35.3532 15.1806 49.7746 30.021541617
32.3483 5.71624 55.5342 30.1839606895
32.2122 5.12246 51.2063 28.222318595
33.6115 12.631 52.8179 28.3145381167
34.1998 12.6481 49.8118 32.2265671017
34.4939 8.28075 50.765 30.7406940466
36.7658 12.8433 54.3615 24.4686890901
35.4579 6.7661 55.2249 32.0300845598
35.9648 10.6026 50.6032 30.343424133
30.6189 4.13633 53.4408 29.6197844958
31.2755 15.3759 52.5728 28.3133244086
37.6283 10.6612 48.0547 33.0266239004
38.7849 8.75902 55.7655 29.8354055618
36.8312 4.20649 54.8135 34.4582382439
38.6209 16.1659 55.2645 31.0994628495
29.9226 1.26877 54.2156 30.7219844577
32.7197 0.610406 53.7406 31.3683466238
30.908 6.40155 48.6278 25.5419366418
29.6919 7.84587 54.725 29.1485497415
31.0254 8.3698 52.4566 30.084603793
37.0265 15.2957 53.316 26.9355272471
36.0611 2.09801 56.5475 32.0342042177
36.9472 8.62155 53.53 27.6517130025
33.6211 3.17236 53.528 32.8088448361
34.796 10.5111 53.955 29.3527710432
32.9522 14.6772 54.6356 27.1453200359
37.9207 11.5525 52.4062 27.2842561753
30.9505 12.5382 50.4879 34.0305773272
33.997 3.40499 49.9168 31.9174914471
33.4177 7.41092 48.3113 28.8574944366
31.2262 10.032 55.9025 28.8154706503
30.2271 3.44911 48.1812 27.6949099062
29.8839 8.34926 50.0055 34.7588013103
35.0136 13.3869 56.3176 28.7777821926
38.8773 18.0316 4.95247 31.8199677007
30.9968 21.2728 4.16613 28.4474794814
36.2855 19.1019 5.68505 29.0147014161
31.85 29.8277 11.2116 30.3516329411
36.6524 30.7569 10.496 29.5469780703
37.4001 21.3565 7.9715 30.0075920229
35.4535 17.1697 8.08307 27.3851713465
33.2434 30.6474 8.8313 33.9650596383
30.4976 17.6087 5.29398 29.4293026156
36.6247 24.2474 10.4197 31.2958534603
31.0016 23.7382 6.74511 29.8902702133
35.1313 21.7226 5.43371 27.4148159812
38.7375 25.9234 7.62659 34.354200147
31.5053 18.81 7.43808 32.8536098057
38.4794 21.2525 5.0497 32.3529926607
32.9994 25.9511 5.56463 27.1874641846
30.9219 31.4756 6.83672 33.0774917756
35.4456 21.7497 9.82348 32.0978331151
38.9759 32.1739 12.0146 28.0806123605
35.0886 24.2765 4.93367 31.2098729289
38.2766 27.8333 4.15213 26.7994179392
33.9555 28.6555 5.76135 31.231550819
32.7304 30.737 4.58744 32.4940163883
31.5056 27.1931 9.04867 31.9946030826
33.6307 25.267 8.17169 32.4076730751
36.268 26.3354 8.59589 29.0903996485
37.4624 31.4814 7.24488 31.836576849
30.2361 20.3027 12.0583 31.66500744
34.5926 19.495 11.2932 29.314868856
30.0916 26.8251 6.43359 30.182775808
37.1022 18.5328 11.7608 33.3402261315
37.536 25.3836 5.10888 32.0211396801
35.6618 29.2333 7.89584 31.6014598246
33.4749 18.044 9.56509 34.3568731159
31.1007 22.4938 10.8659 32.0787795978
36.2176 28.0812 11.0336 32.1324382377
39.1846 30.1135 5.54804 30.0102388405
33.1311 22.4036 8.86522 29.8736300255
32.5592 21.1951 6.39839 28.0665460709
37.3034 18.693 8.81678 27.3290154256
30.8214 25.5572 3.51078 29.1581516792
29.5599 29.3259 9.34537 26.3355548505
39.2522 23.3262 9.70731 30.0874333337
31.3252 27.0538 12.155 26.6215277874
30.5851 32.5002 9.9361 30.3436954288
35.8108 29.007 3.60559 30.903742304
33.4869 28.3073 19.8188 32.4958258325
32.6615 17.4035 14.5087 31.3096888988
37.9781 20.1704 13.9634 33.0636431703
32.7353 19.6548 13.1965 28.8590760495
32.194 20.9277 17.3994 26.5501340799
32.3208 17.6841 19.3123 29.3104309953
34.6608 25.2355 16.639 30.2224688943
30.7455 23.153 15.7603 27.5651467843
33.4905 21.7421 14.6946 31.4958087293
37.6775 32.5373 16.0544 30.6805739723
31.4295 24.2188 13.1836 31.5651989941
34.1094 27.0519 12.7687 31.0068283335
32.6219 28.1952 17.129 27.7856375492
38.1242 22.9393 14.5304 29.9247662638
36.9538 28.4196 15.984 29.5841834928
30.1408 28.426 14.2586 31.9313535631
38.9691 30.5167 20.4828 27.7178708512
38.911 24.3592 16.7343 31.3815617634
33.8341 31.4812 16.6104 31.2288069258
34.2384 31.0582 13.6982 31.8302579754
29.7532 19.8794 18.0103 28.0542972414
37.3514 30.5878 18.1376 28.7651389766
33.8441 18.7765 16.762 30.5292574158
33.9828 24.5564 14.0598 29.1514497578
30.8574 30.3626 16.4405 31.0012376481
36.8863 18.1484 17.1343 30.9551535621
30.1259 32.0051 14.3907 32.1043997103
30.9628 23.9346 20.0815 31.2294284884
32.0036 24.9725 17.6906 28.6282734744
35.4576 22.954 18.2292 32.6194686587
34.3476 28.5826 15.0964 27.4710882827
35.9427 20.9223 16.2381 33.0721574627
37.8638 27.402 13.3247 30.206095951
39.3318 18.8092 16.0565 32.802625014
34.9542 32.4238 21.1527 28.5316716802
37.1263 26.4137 17.4282 28.1586038339
38.4715 27.4402 19.726 30.1598237029
33.1065 22.2155 19.4369 28.8868149531
34.8866 30.5234 18.9455 27.815817914
36.7325 24.6869 12.993 29.8300628223
36.801 18.0192 20.0309 32.4040183034
36.6431 22.3482 20.9621 32.2743161764
30.0176 26.5407 16.9243 31.0956323761
38.4775 24.4984 20.7334 29.290009244
35.8805 27.3393 21.0989 29.0124824804
29.6497 31.6348 21.1111 30.7597583195
32.0641 20.1261 24.0123 52.6101982967
31.8095 17.1851 24.3043 71.2555036748
29.7983 20.943 21.7282 24.8210139454
38.3319 19.6374 24.4712 101.465310555
36.8553 30.1803 21.8971 27.8660619851
32.1089 25.2529 22.1651 27.9621492448
30.7942 26.4868 24.5365 93.0084686095
35.2016 20.4231 24.3385 78.64346567
34.8018 17.3285 24.1676 63.3002031235
38.5744 27.2359 24.4819 94.9710078561
37.8463 30.138 24.5675 88.1217426349
36.4903 23.0885 24.2301 68.724239813
34.5104 25.0209 24.505 85.5533188383
38.7755 24.383 23.4562 31.2278602972
31.7904 29.0698 24.0489 52.1507126852
34.9281 24.8112 21.7446 30.9829606575
34.318 29.8466 24.4813 94.0072574041
35.6026 27.5174 23.952 39.4863748387
34.6706 18.4382 21.6969 28.4143041861
38.9082 17.0411 23.5402 35.8081288548
32.0044 23.2457 24.3636 81.5027703708
35.1433 32.4081 23.8781 43.0895354135
31.3175 28.0376 21.2972 31.8993378454
38.0392 20.2239 21.6823 29.3519475425
32.3344 20.0056 21.113 29.3059842136
31.538 21.1496 35.709 84.4948145614
31.4316 18.3334 36.1127 53.5499129063
31.2492 29.8496 36.0673 64.6233321435
36.3112 24.0868 38.7032 27.9647463051
34.7712 18.1981 35.627 94.3485885375
37.6936 32.438 35.4681 95.896535273
34.1571 22.0254 38.4816 28.387192101
38.2494 27.704 38.9216 28.1930938775
31.6234 25.1333 38.2852 25.2510195923
34.5587 21.0033 35.8186 65.0908610149
31.4867 30.619 38.7517 27.0234335303
37.3528 18.5773 36.3436 44.5011009231
36.7082 25.0622 35.7384 71.4515698896
31.1451 26.0099 35.8232 65.859460328
34.2293 25.8029 35.7151 78.011503573
31.2156 22.4191 38.3425 28.2660066583
37.7785 27.7311 36.0562 57.2337758195
33.6752 28.757 38.7479 27.7835892368
33.743 28.5123 35.8142 75.1672649297
35.8652 30.296 36.2213 43.7913076054
36.9734 22.269 35.7114 78.5781802465
34.0719 26.0275 38.489 27.0916061914
33.5059 17.4955 38.239 34.3589990897
33.7643 17.0246 42.9363 32.4458213582
31.2028 21.9311 41.3536 30.2438660616
34.1114 19.7017 40.063 31.6902701782
36.0537 18.9183 43.3594 29.9683890686
33.8816 16.6422 45.867 30.5116931211
36.7311 31.5849 45.6258 31.0948531778
34.8651 30.5081 41.5014 34.0411783601
31.6787 24.2781 42.6012 30.4774156325
36.5688 21.648 42.208 32.1431593171
34.0778 23.4824 40.9157 28.6084762024
30.4661 27.356 45.9572 31.3710090499
32.8353 27.7073 41.44 28.3333147117
30.7256 26.1414 40.5541 28.2015624721
33.2972 22.8274 45.934 30.1289550839
37.2989 17.1782 47.1911 24.7863831412
34.9389 26.093 42.22 27.9887849925
35.7423 27.1433 44.7561 31.936511352
38.4247 27.406 45.4092 33.42686664
37.3421 26.1977 40.9125 32.2846155959
39.173 26.227 43.0053 31.9540656828
31.594 29.7155 42.9466 26.8126442174
34.9397 29.8402 44.0944 34.7075643491
36.9645 19.4468 39.4222 29.9572581609
37.0353 17.1297 41.1234 29.7568175599
32.2911 19.9892 45.1822 33.7156342315
38.2035 17.5183 44.5269 33.3882823039
34.8306 19.271 46.1513 25.9259818651
38.429 21.8061 40.0072 27.8024331348
37.0501 32.5149 40.0459 30.7777028204
31.9768 19.4913 42.336 29.0847667524
38.5559 21.8528 44.5743 33.587574614
36.4486 21.6697 46.5878 29.7616419915
29.9693 17.8188 41.2959 34.3781867481
33.1646 32.1415 47.3059 32.1386358862
32.2843 29.7335 45.755 29.0453986573
34.4219 26.5659 47.1704 30.7393463631
35.4874 23.6995 44.0191 35.4838835587
29.8845 29.3333 40.2653 26.8554727341
31.0186 24.6307 45.1111 29.9462636455
31.0325 32.305 42.1508 32.6331015693
38.9704 30.0811 45.444 29.626006087
39.36 25.4189 47.3604 34.5858220314
36.3424 29.8471 39.0427 28.9420278638
31.6532 18.7592 56.3686 27.7114734558
32.1202 24.9495 47.8227 23.7324731206
32.8622 20.1057 53.9226 28.4160361775
34.7441 23.4113 48.2582 25.4592867212
37.1399 18.7879 49.0183 25.2640159914
38.4516 20.9761 48.3807 28.8164380268
38.5499 31.9413 56.5407 27.1961042596
31.1958 30.4688 48.8721 27.8928212212
34.8494 30.6686 52.3688 26.7496095032
37.9202 26.8249 54.6303 32.8375432861
35.7566 21.6335 50.719 27.0549467125
33.5376 17.2467 49.8673 27.8261079943
38.1427 30.4243 49.8903 31.5139897333
31.9845 22.1646 52.3284 31.0915476233
32.7975 32.3723 52.9992 34.040434605
29.8826 18.2294 50.9434 32.6440246375
34.8803 21.0701 55.8898 29.1180937422
34.3287 23.427 52.5248 30.5840460212
30.6511 25.0593 51.0233 28.2560837787
32.1481 27.456 55.0594 31.259113894
30.9676 27.1438 49.1391 25.7620444198
34.6658 27.9396 51.9868 26.8404643132
37.8666 31.4662 52.4803 30.8787266998
37.1348 27.9055 50.6273 32.1980370846
38.3672 18.0605 51.6147 31.4190451129
34.3929 19.4136 48.9849 25.4199487162
35.6273 19.563 52.3214 28.2080632524
37.0038 20.3502 54.3926 35.019598422
39.318 22.1785 55.497 30.4678145732
31.7489 23.1872 55.6111 27.445108209
30.4019 27.0494 53.098 28.8685545054
31.9878 28.7634 51.3488 29.8183178057
33.9211 25.475 50.6272 29.9537468321
34.7878 27.1498 54.7262 30.3082075968
38.4176 24.5386 53.2821 32.9315380208
34.1657 24.13 55.1627 31.1919897126
38.1369 23.2918 50.6125 30.2125260466
36.7953 25.4599 48.9829 30.7825407329
35.0215 32.5258 50.0761 27.1076631281
39.3972 26.5253 51.5843 26.5354840081
32.7269 17.6279 52.4189 25.9319974289
30.0912 22.9549 48.465 29.7527744604
35.8581 30.7643 48.1581 28.1163386979
35.7689 31.0634 54.8806 27.7634370296
32.4924 21.7692 49.5537 28.275956852
29.8901 17.9865 54.2106 29.5096588925
32.3247 30.4505 55.1369 30.5543536058
29.6806 23.9544 53.8624 28.4731492257
34.8085 16.6273 54.1792 29.4384825458
33.8194 28.7876 48.5331 28.5215095363
31.3619 17.1618 48.1718 32.0556352879
34.4989 18.1259 56.5856 30.295512061
31.1662 19.8739 47.8262 28.6777750796
30.1811 42.0987 3.96428 30.4323112397
33.1474 44.6936 5.63861 31.6776355397
32.3983 34.9355 4.39955 33.6945628302
38.9767 34.4853 4.69143 29.3543910057
35.9699 35.5519 7.32441 32.7158585922
32.4694 39.7338 5.16302 30.92993243
30.6202 45.6806 8.70126 31.1213870426
30.4188 46.6714 6.0957 26.5786133117
35.9681 37.411 5.23661 29.8916556994
35.236 35.4547 10.096 31.1582156509
34.5032 41.1514 6.53275 28.0103106633
34.4069 45.6733 8.02343 29.37919669
37.0546 40.0004 6.31193 31.7356783787
37.9971 43.4513 7.79141 27.2416900907
32.951 42.1622 4.00524 30.4342300578
34.2985 32.5936 10.6599 32.3052676561
31.3362 47.5153 12.277 31.6707417248
36.272 45.6971 3.81205 29.7684434441
37.7496 47.6337 5.35308 28.1340235212
33.601 37.2703 4.07047 27.8032502434
33.2853 37.6114 7.39904 33.8013729445
38.5408 45.5713 9.59514 31.3150343931
33.4935 37.5647 10.1514 31.2157011661
37.5268 47.5041 11.7087 30.9742973703
35.7876 43.5257 5.90761 26.333377203
33.8203 46.7521 3.68737 31.9832152719
38.4515 36.0857 8.77387 33.8575127587
30.9672 35.8105 6.95781 31.8002144306
36.2307 47.8329 7.53508 30.708428574
33.2075 41.4738 9.01198 32.3979495911
34.4091 40.3034 10.9591 28.2672637738
38.8343 40.6262 8.7164 33.7458633824
37.0559 39.6595 10.957 33.8033332542
35.6921 42.97 9.38178 29.4430564368
32.74 48.171 8.87529 28.8563878194
37.8277 37.0221 11.4568 29.3487577573
38.302 41.6552 4.60215 30.9926490927
33.303 45.1107 10.6539 31.2365049186
31.3989 43.1837 10.0217 28.7783482885
31.2992 36.2814 11.0982 31.5156793389
33.5583 48.7082 5.98765 30.4474058165
39.3906 47.6503 8.0867 32.2514816357
29.4446 38.0133 6.11013 27.8148833079
34.4885 32.7688 3.8846 29.8242933587
36.564 33.592 5.62396 29.7263297109
38.625 33.2471 9.35334 30.7417269234
29.8269 38.589 11.6459 33.3437897443
29.7905 34.903 9.32424 31.1808697582
29.6345 34.5862 3.43262 36.662701936
33.3226 38.3424 14.2771 31.7406875395
30.0792 42.7313 12.8971 31.39878756
35.5519 35.5155 13.0595 31.3833685584
37.3657 35.918 16.7385 27.249223682
37.699 46.6602 17.972 29.6580364286
33.8409 41.5873 13.32 29.0237985855
30.5079 46.9681 15.711 31.4890713077
35.7258 39.7403 14.7214 27.2388729618
36.1805 41.0467 17.2886 29.8926612932
37.2128 37.2962 14.474 30.1399262744
32.8086 41.762 20.9449 28.0076555072
34.4009 44.2267 14.5767 30.355653527
36.3267 44.6249 16.9047 27.5130133912
32.4063 43.8162 17.1985 27.3701212866
31.106 40.3848 13.9584 30.3847138168
38.7329 42.7965 15.977 30.5873912688
31.9262 44.9363 13.1624 28.9102234716
31.4283 35.0509 19.6147 32.9234062244
36.5797 48.8776 16.7298 32.0769970029
35.4397 48.9273 13.9295 27.476615067
32.6964 34.6349 17.287 31.3379934159
29.7761 47.2393 18.8503 33.2892866656
30.0718 39.6631 16.1723 29.1323781779
33.469 37.2657 17.0611 30.0127272451
34.0021 45.697 18.2604 31.3493599104
37.6577 41.1389 13.4919 32.1124887476
36.7211 34.2013 20.1448 29.8063980216
30.8488 44.6264 19.1989 29.2794839641
30.8372 34.6852 15.1397 33.5340639196
35.5735 33.9631 17.4728 29.933587584
31.8849 38.9163 18.1161 30.6088664883
33.5539 41.3721 18.1816 30.7120412951
35.9135 38.2203 18.2141 28.660925455
36.0148 43.2043 12.3443 32.7097540157
36.2968 46.3409 13.6831 30.8556408942
35.635 43.4504 19.5065 28.2933655364
37.3658 45.8336 20.7907 27.0238662077
39.0926 41.4614 18.5952 29.9176398636
30.6979 39.751 20.905 28.2866732064
34.9675 38.0412 20.8473 30.5112955612
32.6507 48.9961 14.6639 30.8361272052
32.6871 35.6914 13.2592 27.9718122746
36.6671 32.7469 13.3876 32.2880106498
38.7672 38.6036 18.9514 29.838606732
37.8806 42.35 20.9332 28.0597969825
39.0886 45.3431 14.6944 32.1819641921
30.1578 43.9884 15.5431 32.9396270963
33.9084 48.829 17.6453 33.9239910806
32.0693 32.6777 21.0939 33.7574606858
39.0603 33.1962 20.9536 31.3344657306
32.2119 32.7077 12.5331 27.416217776
33.3552 36.7783 23.8735 46.3848729096
32.8408 34.0189 23.5454 40.6461265403
36.1636 37.2954 24.4225 82.6641652982
31.3089 40.5391 23.8985 38.3621342929
35.4653 40.7352 21.7163 31.3152756589
39.0262 47.9646 21.492 26.6874568194
38.4573 47.5184 23.9126 42.8600275803
38.2191 39.0628 24.3161 59.0843373659
38.7295 41.9583 23.7466 35.991695822
33.3153 42.4472 24.4829 91.6831859129
32.8088 45.2594 24.3434 69.0436745296
36.8909 36.2834 21.6932 27.4988903664
30.9751 37.955 24.8405 134.9973774751
35.7551 41.4037 24.192 68.3213193641
37.6141 44.4094 24.5052 95.9881759201
30.4061 33.1243 24.5415 116.6848540221
35.4032 46.5324 24.4443 67.2000195051
39.033 37.6655 21.5567 31.0440499688
30.184 48.778 23.767 45.0463585795
30.1636 46.1107 24.2672 82.7702989545
32.4917 44.5133 21.7404 30.5197372153
37.0617 34.379 24.5262 99.3150304554
32.2472 37.3154 21.2923 31.1797169301
34.7465 46.3582 21.485 32.5059161224
33.0024 39.722 38.518 29.6427044061
35.6244 38.932 38.1222 31.2470237108
36.3194 34.7965 35.64 73.3288927739
39.3141 41.901 35.3766 132.283402036
35.9635 46.9325 38.6013 30.052235428
32.063 41.8062 36.5713 44.1987242781
31.8233 38.9058 35.7337 97.8379836693
37.9476 45.5651 35.745 71.9571397911
32.2168 34.8249 35.6184 97.7007694748
36.6951 37.7899 35.7822 85.7619628349
32.2735 33.2189 38.3565 29.8844846263
34.1097 32.7621 35.9803 61.7968852342
39.199 35.7362 37.9782 29.8965335702
36.3479 47.9147 35.6522 102.764265844
32.467 45.852 35.9471 75.6505471763
33.603 48.3884 36.5625 38.3073477631
37.1097 43.2041 36.8971 32.1000348413
33.8214 37.1826 35.7977 65.6235403123
34.456 43.6473 36.3523 76.4022419388
29.6275 35.3499 36.3401 41.4353766644
32.1442 44.9692 38.5722 27.9014578018
39.3698 37.4453 35.9344 79.7926630821
39.3749 44.6369 38.4386 30.3260987315
30.0654 46.9992 35.582 112.6351263831
35.376 34.0505 38.4299 30.6688410895
37.8069 40.163 39.2642 27.1472017754
33.7663 39.6798 47.0377 27.8318329153
34.3264 41.3344 40.3708 29.4591460978
32.3459 46.5577 46.967 29.253761094
31.1265 36.2585 41.3971 31.3197328641
32.9512 34.9154 46.3374 31.9824882636
33.6654 35.3832 41.9582 33.8196255741
32.8807 46.6472 43.8309 28.8137894849
30.8427 40.406 42.4877 32.104009747
38.4507 33.3827 44.2041 29.5699738575
34.8507 44.6938 44.6703 32.1578662431
34.5354 39.1969 44.5595 38.8135745724
38.5763 36.2023 40.4564 29.8571273544
37.3825 43.9722 45.3372 29.4319128703
34.8266 44.3052 41.6831 28.0539469325
29.6418 46.865 45.6038 31.3311004687
32.093 42.8075 41.6841 32.0892391716
30.7536 45.4413 42.4024 32.091649304
36.6708 35.46 45.4665 30.7024135159
39.188 33.4029 41.7204 27.9284871744
35.6126 36.5644 40.1065 34.6764840953
33.2652 43.7111 46.9512 33.3807790526
34.2249 47.033 41.5221 27.6329167846
30.3122 46.701 39.977 31.5618963591
36.936 33.796 47.8387 29.6147626181
33.454 32.982 40.8819 29.1605186776
39.0036 36.8503 43.8158 31.4384131496
39.2836 47.7919 45.0784 28.7924546372
38.6778 41.4589 44.5267 30.3719226775
35.5942 39.2653 41.6521 33.1203857398
37.1272 42.6466 39.6383 26.2700049261
34.1501 36.3558 44.4077 31.9036413303
38.9197 46.6135 42.6156 26.3348741329
29.8896 34.6733 39.3891 29.6213787013
30.0706 35.0195 45.5416 35.342387935
30.1312 39.1137 44.7333 29.6026709253
37.4555 39.0304 45.4807 28.5085903421
31.039 38.7713 40.3819 31.8941273639
31.2164 40.2684 46.9914 28.8517694328
38.2962 39.4108 42.3577 26.6716570453
36.4153 48.4042 42.4186 29.0706383084
36.2862 47.4156 45.2558 31.8252531834
30.656 42.902 47.012 35.0281330636
38.5304 47.1165 39.7674 28.3197815954
37.7427 44.1134 42.4969 30.858669639
34.172 48.501 47.5429 35.2294762596
30.981 42.5043 39.3152 27.7659210549
34.5684 44.5248 38.9465 23.8226851512
32.3936 36.7304 50.8346 27.7959121127
39.0458 42.5657 50.5427 33.2372294327
30.34 40.0021 50.3796 28.6380682087
32.8537 34.04 49.5948 28.0619388386
33.5758 48.6872 51.5174 29.1973380219
33.249 41.9703 52.7219 27.861829392
33.169 39.6237 51.3375 28.6122201718
35.9813 48.5561 49.8166 32.899488009
38.8689 45.2471 54.7933 29.4710526776
36.3906 38.6439 51.3618 30.2632469447
37.9309 47.4372 47.9414 31.961783194
34.7842 41.0093 49.3819 28.1029471387
30.7666 43.132 52.903 31.0141371196
32.523 37.2034 47.9585 28.3119996995
31.3519 45.8925 49.5996 29.9068759573
30.5004 42.9306 49.772 27.4809039977
37.9745 34.351 52.3458 30.4872212058
33.6146 43.5781 50.1588 28.8465904414
30.6696 48.5575 50.6294 31.5616701583
30.1727 37.3596 52.1273 33.4872750871
36.1579 45.9692 51.6373 31.0216202066
29.6187 41.2646 54.7097 30.7958481346
38.7498 41.9258 48.0528 25.7196163527
34.2065 34.4142 54.7516 34.9464340914
30.8617 46.0696 56.3265 30.8329544018
37.201 34.1087 54.9181 28.5618174569
34.4295 36.7457 52.6828 29.7853843489
31.3067 45.7993 53.7798 31.1553263381
33.6263 38.276 54.699 30.295285795
30.7422 38.4952 54.5645 34.0507119814
34.3503 41.0912 55.2468 34.082108941
37.1885 47.5572 53.8027 33.2933667824
35.9635 35.2078 50.1796 26.5563138153
37.5945 41.4482 52.5665 30.971914351
35.6959 43.2412 53.0258 32.0032390509
38.1131 38.4734 53.9529 32.8450113716
37.0748 39.392 48.2656 27.8880793744
37.6647 45.0923 49.3852 30.7146714229
33.2807 45.9809 51.9613 28.9278183237
36.6841 42.9055 55.9725 29.9703435976
34.9803 48.8075 55.2666 33.586982834
38.2615 37.1438 49.8141 28.1049848995
37.4327 36.7831 56.1516 32.1111570628
36.161 43.1697 48.0671 29.9682282615
30.7935 33.1274 51.0835 33.8308786417
35.3726 36.9502 47.8629 28.0550463271
47.4627 11.2644 7.02332 27.6906203255
43.5991 1.78419 5.98501 32.0338969803
43.0543 10.6541 11.1534 31.039658535
41.8062 14.7742 4.13776 28.1555427503
46.825 1.64703 5.44698 35.43941496
48.9619 3.55712 7.26518 26.6744361174
45.4031 9.73331 4.03208 29.0063744403
44.106 9.4698 6.97592 28.7495863727
44.6925 6.37036 6.28984 29.2667576679
42.9391 2.63775 11.8515 31.408648492
46.9276 4.01963 4.14251 27.93782954
41.0326 12.2175 7.83969 25.4579815161
46.5821 9.96024 9.38399 32.0335692261
39.8089 4.99985 5.58262 28.6555834945
43.8212 12.4433 8.53353 27.1899800824
48.1271 9.79191 4.80594 27.9365104113
49.2163 13.2054 10.8343 28.1961413617
45.5877 14.345 3.96978 30.386068925
44.6887 12.4195 5.8951 27.8461413863
42.0087 12.0215 4.68726 29.8071789789
43.7689 15.398 8.85032 30.5463535739
44.2017 5.07404 11.4884 30.390365288
45.9959 2.47927 7.85214 26.8257239846
47.598 14.1719 6.47646 26.1477018199
39.7419 1.46896 8.69378 28.7664017683
43.4092 4.32693 8.28551 28.1024355761
47.2688 5.58748 6.1509 27.9642530363
46.7014 4.70534 9.33002 27.1732788965
39.7611 14.4434 10.74 34.6727847086
41.3398 5.79801 9.79809 27.8213258451
39.7949 6.84645 7.67228 27.2765802155
42.0991 16.342 10.9795 31.282503336
42.6385 8.35258 9.80067 26.6104922885
42.4957 4.24 5.18372 29.1714235983
42.3576 1.65961 8.4819 28.3433899071
41.4564 9.41981 7.34184 27.3152575017
40.3086 3.25178 11.1132 31.124673243
45.1894 7.13596 9.02185 30.1516063802
45.9708 12.5178 10.2869 26.927243163
40.7082 7.85308 4.64919 33.4302307758
40.4045 11.5075 10.1316 29.1404353021
48.9715 9.09872 10.3618 27.9189698609
46.8526 14.8817 9.01919 25.7541911124
46.0241 0.037043 9.54448 32.3342414925
48.9835 6.49451 9.09079 26.8018514022
43.6821 7.47292 3.71121 29.3351454137
49.0586 0.839111 8.6172 30.6873460139
42.1164 15.9606 6.64386 31.5206526595
49.088 14.0002 3.77959 28.5106720703
46.2803 4.95959 20.088 29.5251646367
42.046 2.51279 15.8524 29.4510519413
40.2024 5.08625 14.8716 32.2879947592
46.8255 4.2072 12.6036 29.5251904554
44.1716 1.31608 13.8863 30.5650127598
46.4786 4.58985 17.2185 30.0652417409
41.0509 9.68407 20.7887 27.1403320178
40.1867 14.5588 18.8755 27.1664114381
43.1021 14.3446 13.4771 33.2014915851
44.4567 6.43543 16.6797 29.2294051749
46.8442 0.407235 20.4341 30.9471384115
41.5005 4.67288 19.7354 28.7499366946
41.0233 12.6889 14.7034 28.4863165219
46.2521 12.4886 20.4486 28.2937077888
42.4368 10.4003 13.8349 30.3706425999
45.3791 10.7996 14.4423 28.6720776301
47.1318 5.74446 14.6096 25.6687462239
46.5773 1.25324 12.2652 30.1918879014
45.5032 12.7739 12.933 28.3772811785
47.3595 14.9727 18.9809 30.4792375807
47.6299 8.96595 20.6283 29.0328394819
48.0676 9.95894 14.472 30.7872646082
46.9965 14.6812 14.4641 28.578426674
49.3075 2.47631 13.9877 30.4582319231
42.0016 16.0918 17.7219 28.3349491426
44.6948 2.44074 17.0484 32.2158809914
43.2929 2.78745 19.3482 27.6567213183
42.0963 5.32777 17.0524 27.5875030023
48.6941 14.1057 16.4349 29.4406868157
40.5172 0.237061 14.7177 32.2476827821
40.7851 8.09443 17.0318 29.4217353157
48.653 7.48285 13.0253 29.9813929439
42.1174 12.5254 17.4048 29.711196689
39.9987 8.94484 14.5275 32.7033995301
45.0261 7.49063 14.2922 34.0959042722
49.1035 11.4336 16.7734 32.7849690266
44.9857 12.2512 16.7027 29.2534268327
44.6664 8.6903 18.2546 30.1119418195
42.1639 9.95396 18.186 29.139852798
46.7189 10.5417 18.4374 29.1421397562
40.7203 1.17603 18.0814 32.343193237
44.1825 13.8755 19.4114 27.5406518129
44.2523 15.1523 16.2368 27.515486933
49.0851 7.36854 16.3059 31.1684381212
42.8125 7.35131 12.461 29.5586536753
40.001 6.96368 12.6506 33.1472733315
41.8039 0.976515 20.9462 27.292628944
45.054 7.13707 20.4479 26.6104473002
48.6118 0.102427 18.0617 28.0569132462
48.637 15.53 12.4537 28.3321453454
41.0943 4.87662 24.0006 87.3869161893
43.9002 1.50185 23.7902 50.8288324839
46.2649 2.88901 24.4772 89.6550440566
48.8867 1.56048 24.0338 59.0569229349
40.6844 9.97671 23.7269 50.2910626566
42.2388 7.79376 23.9797 86.5831265826
44.9966 7.80905 23.2259 29.0572387249
46.0905 5.7545 24.4925 101.3477399556
42.2932 7.0803 21.0008 32.512209303
43.5219 11.7084 24.125 63.3928135885
45.8592 10.1387 24.0387 74.0599449284
41.7609 15.7555 21.6552 26.0291611374
48.3452 10.3216 22.9175 28.835299558
48.9476 12.946 21.5086 28.431270553
45.3792 13.548 24.3144 74.7261354443
41.2324 13.4525 24.2034 70.6177967318
45.3822 2.58387 21.3429 32.5088822057
47.9625 13.0094 24.3458 76.2347039992
43.7889 11.173 21.4556 30.5228169629
39.4293 1.14699 24.6968 129.7670547452
41.1604 2.20491 23.2761 27.8615084455
41.4536 13.0153 21.3487 27.4667379067
48.3501 5.85452 21.535 29.7027229307
48.7456 6.5913 24.2165 59.2380784022
41.5305 16.1481 24.1766 74.2065965207
49.1236 15.7957 21.334 29.5408897439
48.8618 5.92345 35.6537 90.6684447396
47.2514 7.42358 38.0407 27.9246301076
48.2522 12.6764 38.812 31.3226264223
40.8508 4.37741 35.9299 89.4564989906
45.2669 2.55653 35.8523 70.0168514719
48.2993 2.7644 35.6559 90.0259692979
40.1705 12.9008 36.109 52.3683015048
46.6201 3.02942 38.3861 27.9412579562
39.9647 1.8482 35.3762 114.1812576313
43.6194 4.6243 36.1292 52.109854672
45.571 6.42071 35.5595 100.9702104979
48.1411 15.2284 35.8213 71.3390515802
42.6407 14.3586 35.9584 60.2366886639
40.7256 9.94201 37.1979 47.5581888851
44.2788 12.2223 35.6572 104.2929942923
43.13 10.8038 37.9501 28.0234503846
44.9338 9.18467 35.9428 78.0914888241
46.922 12.4951 36.2811 48.1596548388
47.7749 9.92113 35.91 88.2470951216
47.5287 0.297919 38.7455 29.6211931421
48.7909 15.4599 38.5955 28.6607418394
43.9917 0.165296 35.9036 56.839393232
41.1697 4.44863 38.7117 33.8200285236
41.8087 1.09566 40.4505 28.6017286874
46.4128 14.6682 46.2901 29.4750814036
48.714 10.5805 45.2575 31.2961042067
39.9484 9.406 42.0299 36.3653548224
47.442 5.45297 40.0403 30.6867859072
42.718 13.4313 39.028 31.5628853146
39.8265 2.76041 40.9735 29.8927314849
43.7157 7.38862 40.2051 30.0211940241
46.3855 2.31027 42.6798 27.0222158328
47.1558 3.09168 45.4904 30.3920186396
39.5434 3.78113 47.5524 34.1093140206
41.0675 8.04828 39.5196 35.0491989988
47.1726 7.07385 46.3468 27.7139615488
44.5547 7.30883 42.5959 25.4177526381
46.2792 10.9948 41.2572 33.0940440886
43.6285 11.5724 41.6005 36.2894581968
43.5051 15.8042 39.735 28.4832422533
40.1876 4.78537 43.0413 34.98750642
46.7592 9.05597 43.3839 28.8440999301
42.5558 9.57009 43.2368 29.1454321141
42.2185 12.295 47.676 30.3196696279
47.1789 13.7858 41.4846 29.2255549259
44.4263 0.607336 43.443 30.2644195294
48.4639 6.38113 43.9618 26.4173963822
39.5656 8.85864 46.2753 30.8039352021
48.5481 0.925875 41.2991 26.1972083796
41.1873 11.0734 45.3125 33.9043800325
42.4791 0.279513 47.0083 29.7573400012
45.2303 1.14104 46.0764 25.8852415121
45.21 13.4464 43.6199 33.5833437665
42.7803 5.73962 43.8292 31.6034936723
44.2335 2.35374 40.4327 31.1764122172
46.4868 5.24625 42.6742 29.2645546879
43.4634 3.67516 45.3802 30.6784007116
45.84 4.83671 47.4148 33.7303777234
48.3669 0.256142 44.8409 30.9541292249
42.0699 7.64672 45.7444 30.0407996881
43.1745 15.5118 44.0818 33.4783011218
45.051 8.84222 45.7433 29.6254110284
41.3768 14.6732 46.1211 32.8018509358
46.065 11.6321 45.983 30.38979382
40.4659 2.70272 44.9663 31.1036589422
49.1628 13.7949 45.3588 29.8116190762
46.2563 16.084 40.4778 29.7976001743
39.9559 13.3209 39.1059 27.3354289015
39.372 13.3905 44.4196 33.9356429985
42.3306 4.86985 47.7253 29.4208860809
45.1699 9.32747 39.0094 29.032571857
43.8284 4.69055 39.0289 30.0723813251
43.5737 2.46473 53.7252 30.052854903
42.8468 2.49467 49.5352 28.5790039577
44.9181 0.813572 48.984 28.1290753002
43.6968 14.1941 48.9587 28.5835698186
44.5026 10.0047 48.6559 28.0776111757
48.2169 4.51946 49.2439 34.9890093278
46.5441 2.81794 54.3492 29.3417898299
43.2758 7.54517 53.956 29.7543728445
39.4985 15.759 48.2174 33.6419550579
46.5621 7.88442 49.2193 27.9341561084
40.4557 6.95085 53.7883 30.6083072727
40.2408 11.4579 49.6842 31.2876011145
44.2201 6.55312 50.9819 33.9848374236
42.677 7.48751 48.6067 29.7281327766
46.439 7.7281 55.2034 28.2435325613
46.761 10.1356 51.0358 30.6512358241
46.3473 13.6347 49.1753 28.8107112851
39.732 13.5552 51.9225 29.5671207357
47.2132 15.393 51.0179 28.8717081866
42.6873 13.7529 51.4626 30.8208762444
44.5082 4.83031 55.8839 29.1638948911
45.8567 10.0036 53.6788 27.1075955446
43.1594 11.0775 50.6799 28.8446679542
41.6379 3.55529 55.7418 28.5467808398
48.2835 3.41254 52.1061 30.9406927303
41.4861 11.8158 55.1056 31.2409783383
48.0889 0.432041 54.5592 28.2391200665
42.8129 4.30823 51.7133 31.075511328
39.9721 8.38392 49.0431 30.0678613183
43.1826 10.2134 53.2874 28.2515672911
39.9787 9.31181 52.0572 33.5787924665
46.2855 5.78902 53.1398 31.5759334949
48.4744 6.78495 51.2563 29.1992497482
47.2071 0.884112 50.7678 33.4831998323
44.3481 13.3252 54.2135 30.9964841268
47.9387 15.3233 54.9773 27.6373892491
47.1201 13.7448 53.2079 29.1241115135
41.0401 14.3673 54.5609 26.4659401025
40.1283 4.69713 52.2251 34.8184304028
40.051 1.89134 49.5199 30.4072466452
49.0411 8.5377 55.2949 30.7911794402
46.663 11.7912 55.7764 27.0334897114
40.5363 1.11343 55.9072 33.7261325958
39.3893 5.01875 56.0113 32.1277440872
43.197 16.0946 53.2305 30.7798824598
43.7138 0.488101 51.78 30.814558207
47.8394 11.4 48.459 27.8335684875
44.8928 20.0883 4.09492 30.4065039378
40.3692 21.9262 7.1611 30.165080527
40.7267 18.6885 10.0551 30.255706435
48.7911 18.662 11.1461 29.5105946761
47.8208 30.6258 4.25879 31.1528101538
47.3814 16.9848 5.95046 30.7561578963
47.5493 22.0544 9.32368 30.0810054457
47.7431 20.005 4.76128 27.7848721746
42.1442 23.255 5.34894 29.4287717433
41.0536 32.3802 8.82223 26.9395124733
44.8586 22.1054 5.78654 29.3229221359
47.7948 21.9713 6.31655 27.7190979771
39.6363 17.2421 7.84614 28.2857847639
43.2205 25.6001 6.19913 30.8645609832
39.9933 24.5106 3.84767 30.2380613437
42.8228 27.785 12.2942 29.3330339592
42.0411 26.2075 9.48131 30.2881533348
44.6475 27.2933 8.12601 27.346958569
48.2893 26.8642 5.70807 31.0780840771
39.5659 29.3063 11.7974 31.675671769
39.845 20.9002 11.6378 31.9379209354
40.9305 27.3203 7.27938 29.7153496281
46.1208 28.0877 4.43875 29.8594193909
43.762 29.216 9.97398 34.117182389
47.0509 20.7419 11.7577 30.427032845
42.1253 30.5176 5.37586 32.636818196
45.4778 17.7738 7.98667 33.0034155492
48.5723 24.0364 4.76831 31.3531539469
44.4543 21.6528 8.555 28.7099925206
46.2347 16.8524 11.1513 29.4868364573
44.4774 19.5246 10.7967 32.1256060916
48.2777 32.2641 8.31018 31.0430102653
43.9381 26.5566 3.73306 33.1566299668
49.136 29.9665 7.08355 33.7140050323
42.3939 23.451 9.77448 28.794136733
44.8573 31.7971 10.2502 30.5529996949
45.381 24.4518 9.31249 30.1822373419
47.4732 26.4674 8.27015 36.6516087602
43.5526 18.4051 6.13741 31.4681738516
44.4808 29.5368 6.55386 32.6921267382
41.9896 19.9599 7.98128 30.0010600367
40.7298 29.7184 9.07144 33.3744779221
45.5064 32.1571 7.7768 29.8101845124
47.5146 31.8282 11.0767 35.4566713842
44.5732 25.5191 11.6703 29.7037275884
48.9046 24.4578 10.1361 28.1949913861
48.6002 27.2439 11.844 32.1274090036
42.5445 20.4599 12.9578 29.6034685463
48.8444 20.8352 18.0992 29.1955200827
40.9942 20.6981 17.5439 36.4437379294
41.4976 18.7154 19.4085 29.901864362
49.1079 26.647 17.3192 31.4552476391
40.3606 23.426 18.9436 29.8366687329
46.8027 19.6945 14.6399 27.9996430727
43.437 24.0338 15.618 33.579422899
46.891 22.9302 13.9389 28.8801446898
45.355 20.7073 20.2267 29.8401859956
46.7598 25.5842 13.2172 28.7717125075
40.1722 23.7353 12.9283 29.6155999804
41.3212 30.7191 13.8977 32.074561408
42.4611 29.6583 17.9032 31.4867660498
45.4764 17.1868 13.915 30.3458700122
46.7062 26.3373 15.9443 32.1262621711
46.1087 26.7548 20.4993 29.6986499397
41.051 16.6969 15.34 28.9148614921
42.6015 32.1708 17.0063 28.4212606318
43.7367 30.9736 20.5619 32.0657384321
48.2212 29.6499 13.1234 38.248805017
42.4403 25.0939 19.4276 31.0319542086
48.693 27.1966 19.972 28.0209045611
48.7835 21.9438 15.7743 24.2494788436
42.6339 17.7496 13.508 30.1354222998
42.9829 21.2154 15.6005 35.0756801403
44.2379 32.4334 15.0492 30.9961330503
47.429 18.1783 17.3761 29.3365772892
47.9495 30.0784 19.0784 32.1919987548
40.2515 26.7466 16.1651 29.1297640701
45.976 23.692 16.6046 26.3574741431
42.8462 23.3272 12.5335 29.1225172301
45.6905 20.8868 17.075 31.3249342408
45.4364 29.0003 19.4483 32.4588601971
42.7974 26.3411 16.9902 28.52133756
45.3515 24.1525 19.2899 30.0025866879
44.6518 28.2667 16.4559 32.873670283
44.2185 29.6576 14.0032 36.5030964735
39.5113 16.9659 20.4738 28.5574259826
40.2261 29.73 16.1473 32.1339801965
45.4499 16.8284 18.3746 29.482976415
40.5535 26.5695 13.2196 30.5472976856
40.936 27.0403 21.0506 32.6236133248
47.8172 20.7528 21.0338 24.3596038716
40.5984 21.1224 21.1069 28.9527727659
47.1083 17.6965 20.8176 26.9796731071
40.5809 20.8676 23.9915 45.8378798268
47.461 17.5463 23.6777 42.8714391603
42.8607 18.9848 23.9947 49.5099389801
45.0104 20.4646 24.6343 121.118769135
47.6107 20.2668 23.7542 44.5124974927
40.5243 31.0724 24.1106 65.4037676513
48.5675 30.7515 21.8068 29.8671169873
43.8895 23.0067 23.6921 46.1852293191
48.6928 22.7354 24.2475 93.5123190478
41.2782 26.7732 23.8432 49.3162972027
43.3301 28.438 24.1554 85.9625683498
46.4468 24.5337 23.8522 77.3902414475
45.6674 27.1731 23.2099 38.7376692161
41.0607 23.418 24.4132 105.7163098664
43.566 30.9596 24.3034 89.1954284574
47.1383 23.4685 21.134 28.1154556296
43.1647 22.583 21.1498 31.2582797963
46.8001 31.4729 24.4646 95.2725526624
47.7827 29.0655 24.0593 74.2623745388
44.8358 16.5589 24.2628 77.3299171473
41.2706 29.716 21.7333 28.9900407169
44.6153 16.3886 21.4957 27.9382359406
43.4416 18.9318 21.2356 27.2501022331
45.3095 28.8129 35.8199 56.3534844694
48.5284 26.302 38.1925 26.6190916524
42.388 29.6547 35.6231 72.7047465516
48.2625 26.2103 35.3938 93.4635197714
41.9133 19.5197 35.7182 84.7573713262
48.069 19.0483 36.7415 33.8767698827
48.2895 29.2381 35.3203 99.2918873378
45.3534 31.8464 36.0481 50.6793785085
40.3731 27.6297 35.5308 96.2383399579
42.8196 22.3122 35.8208 83.4787185463
40.4258 23.5353 35.884 70.3329651095
41.3476 16.7491 35.6446 90.6420376049
45.3117 25.9183 35.6696 81.458565025
42.3854 21.0592 38.5865 28.0688102546
48.1328 21.8669 35.8516 106.3874893784
41.9109 29.1954 38.2322 31.6718057395
43.9345 17.3508 37.3677 31.5845664996
45.7694 23.4546 36.3424 40.6307568896
42.3277 25.7554 36.2841 39.9411616963
41.0321 26.6005 38.6898 24.8590666069
46.3769 17.0737 35.808 109.0256009573
40.6621 31.9777 35.5803 85.2747290936
39.7443 19.7099 38.5261 26.0804248519
43.2658 23.8208 38.6907 29.1473679253
40.8107 17.2574 38.7199 29.358371019
46.5353 21.2868 38.5667 30.2093296141
48.916 30.8298 37.6598 29.7115360167
39.4593 20.6732 36.0213 54.7569554469
39.3997 24.2699 38.8651 31.8170157097
39.4892 32.5104 38.1607 27.9053983297
44.5805 32.1854 38.8403 30.7012705087
46.0025 25.3299 38.6246 26.5213633005
44.8004 29.2664 38.7083 30.7655927861
45.2087 20.083 41.9873 30.0591449677
39.5342 30.2771 39.9756 33.4470502852
45.2163 22.3412 43.5005 30.0121101213
43.248 23.9311 41.6344 30.942278742
44.6765 19.514 39.3419 28.6455227199
42.3756 26.5048 40.935 27.3610218393
40.7007 23.8466 43.2279 29.7188084643
42.8771 21.7782 44.7536 34.7057173616
46.4336 24.6211 42.9905 28.9549709263
42.7475 27.0443 45.1997 32.4586610424
41.3234 27.8815 42.9141 30.9014019721
47.8563 18.2113 39.425 27.5939856927
45.5105 26.7629 44.2586 31.7634122059
44.7546 30.875 46.0263 31.1591944875
40.3944 30.4257 42.9492 33.2376107443
42.7995 28.8975 47.101 29.178623329
45.1175 30.9598 43.3512 32.693134961
49.1427 31.3329 46.3649 31.775507482
48.2283 32.339 41.3119 31.8542938715
47.7677 28.8355 39.2199 30.1705729415
42.3374 19.6416 42.1446 31.4831312704
47.5251 23.3989 40.4222 29.9123243493
40.064 19.5505 44.0844 33.3710032545
46.3771 17.7517 42.7533 34.5456831147
43.0109 20.7126 47.5312 32.8220938775
40.9167 21.8141 41.099 27.4801608503
49.2255 26.8356 44.2015 30.5844954213
47.0628 26.9107 46.5844 28.4150181667
44.8686 16.844 45.2187 36.0061545771
40.347 19.7588 46.8979 29.812488958
48.6248 30.8358 43.6459 29.8168898228
41.6875 24.5504 45.9986 34.6362823014
48.6745 19.4178 42.4539 31.4150967563
44.991 27.0523 40.4434 27.5118810301
40.8618 30.8089 47.207 29.1658431609
48.3281 17.0305 47.4584 31.6659727544
42.4843 32.3207 43.4151 33.1316699817
46.2836 28.5379 42.2929 29.4587350903
41.9359 16.7339 41.6864 30.6721090906
47.7016 22.1065 45.1866 33.1960261562
48.314 24.2531 47.0536 29.9901934053
46.7143 29.6658 47.595 30.007156392
45.0816 24.0586 56.3728 30.4801904393
44.2455 30.6285 54.4154 31.2294626278
46.033 20.4412 48.1243 36.7630159923
44.5582 27.9062 49.0202 28.3124023551
41.2549 19.3406 50.861 31.8646124473
40.7277 17.5962 53.3372 29.9421390704
42.2266 23.0021 48.7341 30.1561387929
40.5619 22.0368 50.7386 29.9458483246
46.0405 27.0595 52.6865 31.9521651173
43.8978 16.8068 48.0168 31.1506189714
45.1354 22.8547 49.4244 31.6731329651
41.9276 31.1886 55.7654 28.290894522
46.1603 25.5917 49.0615 29.3707686474
43.014 25.5303 50.1811 29.7855353183
42.4647 25.2523 52.8835 30.1852355801
42.5182 22.6894 55.5983 28.9847573381
44.9129 24.5998 53.5383 28.5666350479
47.6861 23.4812 55.4593 31.606560225
42.4992 30.228 52.216 28.0972156256
40.8091 29.736 49.7149 30.4583652972
44.9735 29.3 51.2947 29.1283739484
39.6611 18.8749 55.6945 29.8158241222
43.4113 16.9163 56.2202 30.617109809
48.9581 30.0989 54.872 28.13722326
46.9824 30.8645 50.3525 29.4059088114
45.2402 18.0269 52.2036 31.8333811758
41.2309 17.8403 48.5553 30.4086197581
39.604 30.3502 54.5265 30.0160792004
46.3569 28.6881 55.0033 32.833288025
47.0408 18.5936 53.9792 29.8712041839
47.8155 26.1228 51.0002 30.3970589773
