10.6373 38.2808 7.99589 30.8284339437
1.46094 40.8109 14.7419 31.1106049907
8.95889 39.9182 16.7213 29.9702974674
10.9926 48.3619 13.2755 26.6580492437
11.6532 38.7071 4.37985 27.5024494875
2.62655 40.9763 22.8283 35.6405081128
1.57904 43.244 17.725 27.5665609176
1.24968 39.3426 17.382 30.4460313681
10.8213 48.4525 24.5663 83.3512602629
3.97864 41.7146 20.4727 27.8850553879
8.67024 38.4098 19.6284 28.2493672016
9.57311 42.6219 21.221 25.8541913968
1.22059 47.227 19.7489 30.8236224686
7.95226 45.9904 19.8495 30.6884381645
5.63237 43.9226 22.2368 30.3709810935
3.39039 46.4813 21.9987 27.7436645262
3.11866 44.2026 20.1995 27.9639703175
7.22608 43.4831 19.1578 29.2298205321
6.8984 41.5947 21.4699 26.1015260247
6.94508 48.9676 18.6375 32.2204106648
1.70765 37.4585 19.5256 30.6666722173
7.85045 46.713 17.1969 29.7791129535
10.471 40.0224 20.809 29.0389672409
5.59972 47.9793 21.0787 29.133741823
3.27475 41.0948 17.7056 28.8029488714
4.02316 46.9679 18.5427 29.8864772118
0.497506 44.8015 24.3133 80.563351399
11.3686 47.95 20.032 32.3850342259
2.33297 38.6265 24.3318 78.0531525713
4.20991 37.6452 21.0243 30.1218556696
4.90242 38.4962 24.4611 100.3855539804
7.08254 40.5787 24.0495 83.6744582748
5.8681 39.2866 19.9163 28.3224106662
9.63551 39.4794 23.9792 66.4248397754
3.19211 43.9315 23.6512 73.8951383434
7.41363 45.5146 24.1741 104.1550932537
9.81732 42.4817 24.0408 62.3241889691
10.2783 45.6894 21.1565 30.3796896949
10.3957 45.6096 24.3162 68.9819070077
2.20843 47.5399 24.2259 73.1200399471
9.62732 42.452 18.0427 30.6785242807
6.54797 48.1847 23.7469 42.7803225864
0.17928 41.7816 21.9728 27.9323077834
6.42124 39.0856 17.2243 28.363813539
11.1865 38.4845 16.9492 32.7442209288
2.84313 38.3513 41.2764 29.8681319623
10.8809 42.1521 39.4675 33.4868605216
4.75239 41.62 37.7536 29.9351340064
10.479 42.8899 36.5781 40.9946203333
7.0582 46.3573 42.0114 29.0153829031
6.88048 37.2729 39.8456 29.1605933414
7.90385 48.9022 42.5981 27.9913344081
7.97088 46.6996 39.1126 28.7334711317
6.18837 40.111 35.8548 88.35194342
7.999 39.6807 38.8122 31.9631226393
2.08701 42.541 36.4861 39.2828961021
5.1563 40.0034 40.1627 26.1658265857
10.163 48.9438 35.7418 80.3706986581
6.131 44.5543 35.9942 50.8547371254
1.27868 39.9145 36.5526 43.7559359397
7.89892 42.3764 40.9161 30.0193030265
7.65281 42.412 35.6991 103.9435566783
1.97394 46.7749 38.1212 31.5019273926
10.9257 45.7976 35.9354 71.9326174056
3.58736 45.1569 35.383 107.0688172263
10.2424 48.0937 39.6564 29.5285108553
7.87288 37.8498 36.66 55.1580617204
4.40445 45.0495 40.4609 27.4801431573
6.25963 48.8972 38.6435 30.6046283547
8.06248 46.6556 36.2004 47.802639568
3.74504 38.7662 35.9325 77.194681803
10.9643 47.0655 42.4346 27.5945338051
12.2618 46.8516 38.2127 29.205731004
4.03249 48.1056 39.8664 28.0962434391
4.94177 42.3077 41.8648 31.2804969089
11.0758 39.234 39.5417 29.8758227623
6.38345 48.7193 35.8292 74.2198296708
2.27648 41.5787 40.6522 27.6769823552
2.09808 43.9531 39.2247 29.5795624862
3.47015 48.2238 35.8366 67.8937045189
0.180639 37.8262 40.7812 29.1665555373
9.47791 44.7825 41.4947 31.9838499662
4.12651 37.7317 38.2701 27.7228876774
9.70814 37.1489 41.8533 28.7179083678
6.29165 44.0018 39.0049 30.1278426321
0.305493 44.0778 35.2939 115.2106975048
7.1328 38.3342 42.4924 26.2432171244
0.285028 40.0549 39.2946 30.2074018325
10.3487 36.8197 37.1263 31.9491665126
0.419666 46.9508 35.5663 81.3924788211
0.962272 41.9813 43.1784 30.2516508877
0.351241 46.73 42.6575 31.0741273574
3.43093 46.1335 43.11 31.5658867567
5.85088 45.3217 51.3293 27.810750605
0.963624 46.988 54.9343 25.7652995294
2.48644 39.125 47.5675 30.9974901718
6.06978 40.4639 45.6867 31.0457429097
9.72472 46.3138 45.1114 27.3163383319
8.62958 45.2 54.0508 29.1598695144
4.47819 44.7306 45.6525 25.6815839914
3.08342 44.1802 55.3064 27.6798845673
3.00865 41.6446 48.7727 29.6354624955
2.53325 39.4404 44.9956 29.4347123201
0.922941 43.0586 48.3757 30.9746691196
10.893 36.8905 53.077 29.803131032
7.21267 45.0337 44.7229 30.1404718397
8.36251 46.5315 51.6207 30.5629821086
8.49032 42.4987 45.4731 28.6394148076
12.0991 41.6672 48.0822 26.9018711937
2.97323 48.5354 47.2884 28.7069047077
7.85731 38.9696 47.4462 29.9113786219
1.73512 45.2445 46.6971 27.1832132875
10.533 46.8611 49.5727 28.6263691366
0.426591 44.6011 44.288 27.2236769543
8.46747 46.3658 47.8024 27.4053590692
11.1847 40.9968 43.6114 26.8727950571
6.58514 48.7707 48.4619 28.2836842304
9.08474 37.0028 50.4722 29.3185917564
3.41133 41.6716 51.4791 28.2555538897
0.224901 38.0117 51.4499 29.1416236084
6.47273 38.4545 50.2604 31.4056146572
7.48962 41.2422 49.6396 26.9903092197
11.9275 48.6878 48.0796 27.9774785638
10.7108 38.5515 48.9305 27.2376302626
4.08932 48.431 49.7853 27.7217382189
5.65289 43.0464 55.3111 28.0046752281
5.26539 47.2787 46.1409 26.0720748846
4.02611 39.2059 52.4005 26.991816458
5.54086 42.5054 47.6913 27.3426618471
5.74781 44.9597 48.6151 26.6523159577
10.0756 47.3121 55.2576 31.3832408211
9.15931 43.4826 48.1924 31.4653205096
9.34497 38.3557 44.9541 27.5525257979
11.1865 43.073 54.1811 30.1771122078
0.112525 38.2656 48.6521 29.0994612085
1.01878 42.527 54.1035 30.036121466
3.10733 45.7175 49.4258 27.8299234913
1.75642 48.6163 44.3568 29.4953414622
2.57521 40.3089 54.6609 30.2270772018
3.68797 42.0287 44.4653 30.741750262
6.27443 38.4039 53.6999 32.4625329025
12.0709 39.8937 45.9749 27.4598466415
1.6041 44.1034 51.3642 27.07334844
6.74444 39.2373 56.3771 30.0616178244
4.06351 37.5467 48.9363 30.7950949369
3.14021 45.7294 53.0264 28.5751560263
6.24082 42.4356 51.6721 29.3481448007
5.94938 46.4335 54.5249 27.3321368712
8.88626 39.2821 52.4687 28.3311677047
7.85554 42.2619 53.6333 28.6060076055
11.4591 44.1715 50.0411 29.0615170566
5.29146 48.4443 52.5536 30.506868283
0.293539 40.7889 51.5966 28.77601497
10.6526 40.3693 54.5055 29.9895267119
10.2881 41.1871 50.4203 28.2230358052
10.6777 43.6515 44.0626 27.4147721324
2.92813 37.1042 51.5884 29.5449947717
4.44457 38.2706 43.6742 29.845450971
12.0926 37.0066 47.0219 26.635427209
8.42942 40.7886 43.3345 27.0696545154
0.179787 38.5187 43.6912 29.4958394388
0.249226 47.7167 47.3348 28.9513329306
7.54698 48.9541 55.1126 27.988256849
11.8961 37.1817 43.9926 26.3980388001
1.02818 38.665 56.3671 31.6688074534
15.8702 10.5106 10.1337 29.3083274281
22.2423 4.59377 5.01933 31.0632578167
15.5942 2.87874 8.05929 28.7919602453
20.2262 2.51624 8.72812 30.6756837179
20.6277 9.51496 12.4756 32.5496150329
14.4429 11.9047 14.6815 37.4580483674
19.1888 8.43872 16.0874 25.5914091631
14.2869 6.98575 7.04526 32.795905636
12.7507 -0.140837 10.8329 27.9160883762
14.6566 2.26621 4.24857 33.8757119754
17.5493 4.49496 6.22 34.7866129869
20.4337 4.62455 7.03917 30.800543505
16.7153 7.43256 5.58339 29.1384124631
14.1193 0.544575 13.1565 28.2203375808
22.1326 10.0711 8.70448 31.6294234
16.0096 10.2161 5.57699 29.5888561838
19.9665 0.702391 6.57084 31.3203336268
22.5937 7.65571 4.43228 30.0106449526
12.7735 0.325468 5.83392 33.6683498147
22.8315 2.62005 9.90125 31.6921960571
14.5108 9.18463 14.0577 30.0727427172
14.3644 0.292789 8.33207 31.0892085795
19.3641 8.13319 4.5765 31.4309451313
22.5429 4.50614 15.9393 29.3875360136
17.6067 2.04291 9.64638 30.8302700231
20.8697 4.81817 11.4996 31.2291504335
15.287 3.24153 12.9608 29.739504151
14.4062 4.19602 10.3791 31.1552112658
20.3475 11.323 10.3345 30.7476722103
18.2913 3.33893 12.1328 33.9049687826
18.2487 9.77531 8.98688 28.4826479488
18.5321 7.2142 9.27868 32.0811932098
18.1328 0.825784 13.9108 34.0933330859
17.0517 9.90985 12.6562 31.7975420704
15.5128 6.70834 9.78479 31.7963896152
14.8672 6.43708 12.6622 27.9183957998
18.5634 10.9067 6.51665 27.713724794
12.8093 8.80249 5.19218 30.1530016982
13.1192 4.12804 14.6299 30.5538370654
21.5046 9.95297 5.96754 28.7485211839
13.6326 4.3179 6.25738 32.7776752202
22.87 7.56768 8.45798 30.5596756384
16.2542 1.44774 15.6627 30.7770272725
22.9139 8.54948 14.0518 34.20269791
20.6941 6.65262 14.5671 26.665226836
17.1463 7.04294 14.1137 28.9375415707
14.6456 7.90249 16.5298 31.4370445906
23.3179 1.50775 12.59 36.4799515913
24.4077 6.80701 6.30753 31.7083624959
13.752 11.7892 3.87526 27.2252173539
19.0419 10.77 14.4036 32.4768472807
12.4575 8.55724 12.0677 33.8603602316
19.2273 7.26418 12.2398 26.7229891534
22.4772 1.27821 4.7253 29.0203346024
23.4685 4.34043 13.2993 31.3794239571
18.8301 4.36514 15.0087 30.6959387954
13.7112 9.00518 9.50144 32.32805786
17.3386 0.236048 5.22116 29.3885269104
20.7268 6.04229 9.18158 26.6438750977
24.2915 11.5842 4.92895 32.5548268466
24.3008 0.517104 8.79397 28.4567722367
23.9444 11.9305 9.65114 34.8661488275
20.2429 11.5152 16.9716 27.6286383357
23.4754 0.245324 20.7126 26.8113843145
19.4887 10.9683 24.6356 102.4885454932
12.6746 9.9678 21.8722 26.7966342682
13.1762 5.30087 17.1935 28.8075437782
21.1042 1.26784 23.8722 52.3388130529
16.963 8.2325 18.0158 28.2729207194
14.0278 5.48481 20.7598 29.6481623095
18.6102 6.2568 21.5022 27.236621571
23.5462 0.515499 17.7482 30.8525432489
18.3917 0.233797 21.6263 27.3253763303
13.3716 2.92175 21.6407 29.2484889017
13.9854 10.7749 17.883 32.664482792
17.6732 5.3089 17.3566 29.8720115961
22.6861 8.08965 21.6748 26.9871305562
23.6585 9.8257 17.8692 28.41425039
24.4516 9.80948 20.7041 29.267181427
23.1036 6.54158 17.845 28.7203781838
15.9708 2.79466 20.0639 31.5626835347
18.7083 3.83171 19.8934 31.7017780945
15.7267 3.53656 17.5931 32.1162560275
14.4409 2.84263 24.2708 73.4277067597
19.3276 3.83934 24.4731 105.179261877
21.0314 1.66585 21.1434 29.2437749784
15.8075 7.88752 24.3433 87.6227820522
14.1608 5.91445 23.8578 48.7139657428
18.3826 6.33001 24.136 63.6401526731
20.2433 8.22164 20.425 28.1096317188
21.0671 8.55452 17.855 27.5562349886
18.8306 10.5278 21.5748 25.8805626391
21.3969 4.544 21.396 28.1315340631
22.0969 4.89553 23.9086 48.9274569217
22.7793 7.62601 24.3387 92.8625430207
16.3373 7.08905 20.4473 29.8350418939
14.1192 10.33 24.253 70.7883280756
24.194 2.9444 24.0904 70.9811083529
20.1087 8.52126 23.9398 42.0058848217
16.4319 9.43482 21.944 26.1164131862
23.3589 5.72109 20.2311 28.0227126688
18.2055 10.7 18.7839 30.9947407657
17.1797 1.75455 23.8654 52.0630411954
21.0629 0.856349 17.0074 29.9317839867
14.7119 11.2216 20.6003 28.4946290089
16.6792 11.7518 24.3237 64.8060472621
20.3569 3.3955 17.2996 33.0212290866
22.0531 11.7786 21.2679 32.1171473198
22.2268 12.0095 24.2698 66.8706747701
17.0272 8.9854 41.646 32.7046188444
17.2689 3.49996 40.9627 29.9663928925
15.7155 9.22128 35.7888 79.4042341355
22.1218 7.34715 36.6289 34.7313794936
15.4905 4.46458 36.9757 31.4902087887
17.0962 12.0373 38.5141 32.0865875847
16.7571 0.714759 38.2182 31.6881217414
22.1078 6.93311 39.5744 27.8668202814
22.2085 9.72642 39.1562 30.6492523348
17.6163 2.92414 36.0089 79.1098449728
23.5666 -0.0434186 39.0797 26.1897680097
12.8971 5.3456 35.8684 91.5112513965
14.1853 1.65446 37.1695 37.6468785761
16.9343 6.88272 36.6039 41.8580265215
20.2044 4.22035 35.764 80.9375171257
19.3577 5.70123 39.946 33.1232584066
14.0997 1.80458 41.4771 34.5911600313
15.4194 11.1376 41.5104 30.1840599833
14.1019 7.7666 38.5763 25.9444230276
19.5787 7.07403 35.8004 99.5572093529
24.3463 9.03166 42.484 36.5967205069
14.7981 10.5049 37.8621 28.2090283307
22.6472 10.2358 36.0153 78.3216317867
24.0249 5.50887 35.7854 88.5191480548
24.2043 5.46019 38.6189 27.8472721009
19.1949 4.29556 42.6971 29.0611777704
22.8293 2.85236 35.8667 72.8355131976
17.3454 11.3307 35.427 98.1438990631
16.6378 7.29498 39.4959 31.9854440529
20.5927 3.5967 38.3557 28.4302906285
22.9914 7.00112 42.1099 30.25989062
23.4031 11.5703 41.7855 28.0440255172
19.1687 1.59799 39.3722 28.7797216027
20.2038 11.3639 38.9877 34.0675545894
12.8281 4.37559 41.8943 27.0286291333
15.0216 4.66865 39.6709 28.0467211586
23.1844 2.93203 39.2611 28.374139802
20.111 11.4613 35.7963 70.5255727908
12.8712 10.4476 41.5271 27.7323930157
12.821 8.22926 36.0233 57.9938409199
23.4827 2.0981 41.9596 29.7047302783
19.7569 9.79121 41.6532 36.0511660149
20.9851 11.8604 43.2772 30.6540029226
20.1786 7.08701 42.7754 29.6570159695
17.8437 0.492425 49.0976 28.2235035468
15.768 6.69429 55.5088 29.0031853947
12.4831 2.5356 53.2788 34.4259924904
19.8724 2.74402 48.8223 29.499270821
21.8647 11.2786 56.0629 27.6310102088
21.6199 2.66018 46.5958 30.0443160278
16.2897 8.84073 51.649 28.8480871838
22.9945 7.62428 52.1502 29.878719461
12.9258 3.18699 50.4733 29.9453721744
18.8072 9.19335 53.118 29.8623503841
18.3782 5.18371 47.2542 28.3417539334
17.3496 4.57928 44.6037 28.2287871599
18.0372 11.9257 50.3324 29.6062043644
20.1973 7.16446 45.7181 33.2822874023
23.7491 1.19992 47.0889 33.1403280226
13.5501 7.88538 47.2871 29.648261761
14.0892 10.5463 46.1672 30.0079313704
16.4538 8.05841 46.3198 31.4152492126
17.8664 1.76036 46.5824 26.0749273282
16.6064 7.06927 43.7175 30.6920374122
14.06 10.4475 50.5686 28.9937147319
20.8453 9.90628 51.517 30.7776627008
19.8779 0.591939 45.2606 26.481698348
16.3757 1.57829 51.5441 25.776265091
13.9551 12.093 48.321 28.3434222449
18.7932 10.6039 56.1685 31.6183496989
23.7737 6.41292 47.8111 34.7759971488
23.3389 0.856961 50.0232 29.2156262105
14.8754 5.25179 50.4573 30.36302175
15.1561 2.7735 47.0362 30.0526639759
15.671 5.62741 47.9022 25.56476274
14.3884 1.40752 49.3396 27.5191226738
21.8297 6.8604 49.7332 30.9539818431
19.1649 5.65648 50.0611 32.1896469169
19.8728 1.94453 56.4498 27.8391194045
22.2891 5.19234 45.433 33.6417714625
16.3377 9.29701 55.4864 25.6759960396
21.952 9.61302 48.9502 31.9249203196
24.2827 3.22731 51.3867 29.7683285934
17.4741 7.7131 49.2151 30.294367276
18.0133 10.2567 47.8409 30.5037301488
15.7838 11.2378 53.3141 27.5373327897
19.6512 6.91854 54.7052 31.7980991578
13.3749 9.81267 54.5411 27.2314570487
16.9143 4.16428 51.7 29.6997058992
20.4464 9.61519 46.762 32.917917073
21.1094 2.28457 43.5175 29.4898407515
12.9858 2.24829 44.5178 31.199394946
23.0918 0.753185 54.4539 29.7670712712
13.3062 4.95539 45.7991 28.303567853
17.5312 5.14856 54.1252 29.2479614395
21.4218 3.26756 51.0756 32.1196845184
23.3227 9.15837 54.8601 32.1057442772
23.4953 5.30967 53.5441 31.1435307493
21.237 4.7142 54.9006 31.136994297
14.2218 7.20092 52.7748 31.3366864274
15.0848 2.57566 53.9394 31.7035471098
20.6532 1.96681 53.3823 30.679242009
18.5383 -0.0104997 52.4282 30.2038204272
21.8109 11.9045 45.9356 34.1809368824
16.1967 2.12032 43.2929 30.0130014798
13.8873 6.48708 43.2723 29.7329180338
12.8802 6.13553 56.2845 36.432393294
17.4176 3.48942 56.3346 30.6837382601
24.3349 20.8202 3.82017 28.4350853408
21.3218 23.1823 14.0126 29.2930236016
22.6478 14.337 10.7585 28.2811163229
22.3969 13.9079 13.552 32.1217093707
22.8495 12.3738 16.8135 29.5672470612
12.4211 18.7834 6.43707 28.088794974
16.0178 23.0779 6.73205 27.857718588
13.3601 23.5409 5.7443 27.3852948308
12.4101 21.5758 4.28184 31.6351600062
20.959 21.5553 4.03455 30.509952206
15.8604 16.4338 6.20969 31.1763520049
18.7623 18.1545 6.19228 29.6742722323
15.5929 22.7449 9.55073 26.8801331107
18.4419 21.3599 11.4268 27.4889585641
20.6191 23.0968 11.248 30.8886763515
12.8207 22.4878 8.44829 29.3710617449
18.4003 15.9143 15.9549 31.2676158774
14.5997 12.8327 11.9812 31.0521726419
15.6282 15.2605 12.3949 31.7786376179
16.8885 23.1825 13.0216 30.735830337
17.0805 18.4129 8.19539 29.6883691616
12.9489 17.0565 11.5807 29.6575626791
18.7443 20.7825 5.69341 28.4535140441
23.7255 18.3905 6.31517 34.1573597734
17.3151 14.5724 4.98033 28.5298758139
16.7409 21.9796 4.21043 31.725237488
21.5296 14.9921 8.20808 28.7299382578
18.8208 13.6478 9.85602 30.5853219018
14.2377 17.9534 4.63597 33.017879088
21.5574 13.419 5.38994 29.3862598552
23.4899 17.1552 3.8503 30.0449704531
23.2347 23.844 16.0975 30.9470452609
15.024 15.5925 9.1455 28.9577377511
14.4132 19.1971 10.8717 31.522157264
18.5555 15.5543 11.8961 29.4800039636
21.1306 17.6408 7.57599 32.9996593309
16.9722 17.8808 11.027 30.867614858
22.0095 18.223 13.4157 30.7373989024
20.8233 19.6568 9.70122 30.403186083
14.423 19.9508 8.07635 32.1596273768
23.3221 20.9518 13.5805 30.8530215189
18.1068 21.1903 8.72144 28.3175856012
19.3306 19.0871 12.7423 28.133476595
22.8493 21.1375 10.7977 29.646620077
20.6914 22.1629 7.35708 33.0167798968
24.0854 13.6319 7.30226 26.9488601996
15.2501 13.0226 6.50657 29.9085772885
13.9556 17.9549 14.1258 27.803724021
18.8528 22.2794 15.1344 30.9069255141
19.6062 13.8044 14.2252 36.4555425046
22.657 23.4697 5.50433 27.3830427627
15.1541 20.4886 14.9235 30.9665544074
18.062 19.6728 15.1005 28.210007541
20.3556 18.049 15.9408 32.0444778092
20.8541 16.8915 11.0453 29.480187458
23.153 16.0762 15.0715 30.4478668706
14.5244 21.7525 12.2316 30.6602499981
15.6285 16.2217 15.5779 29.9532811
16.0558 22.6898 16.2479 31.8261207708
12.543 14.8914 8.69586 31.806842012
24.5411 16.4643 10.5067 29.922196686
16.35 13.2948 9.33 27.6462860305
19.3163 13.6912 6.826 29.7034524996
12.5029 19.356 16.4162 31.5151625679
12.4936 12.879 6.51765 30.2608205997
22.4018 22.5735 24.087 47.9802219397
23.5452 15.1628 18.354 29.6800053971
19.5492 22.6559 21.8344 26.7705914904
21.5296 13.8736 19.3198 28.9169675242
24.352 15.8199 24.0481 59.083829689
16.014 17.7242 17.7779 31.125924047
17.6077 22.8203 24.3057 74.8338758211
15.7054 16.1448 20.3493 28.1099536937
21.1513 21.6925 19.0588 31.9588220313
21.1014 17.6487 21.9188 32.83551755
13.1441 21.081 23.8816 54.5991260188
22.9125 17.8464 17.7976 29.2079651623
16.4897 22.0172 19.0784 28.8301463301
23.8349 18.5433 23.5049 36.0269133235
21.9459 23.0965 21.4503 26.7127343427
18.1782 19.6193 18.1563 28.7806868705
20.8643 19.0694 18.8566 29.2845138448
19.2102 14.1128 17.8639 33.3112849305
14.1245 13.9883 21.5519 29.9681723913
13.523 17.6603 23.3736 35.2616470976
15.5433 14.1588 24.2489 72.8409420818
17.8034 13.3303 22.088 29.6011142163
14.4472 21.9499 21.7935 28.5502197498
20.4763 14.6556 21.9972 29.1993291484
14.1977 19.7246 18.9399 28.3068961073
12.4396 14.7186 23.7915 56.6277080691
13.3583 17.7553 20.7013 26.7444729425
12.8112 22.6888 19.7061 31.1072305265
17.8948 16.7267 21.8563 29.2629441917
16.8564 16.8558 24.5651 82.1684532781
15.7021 19.3333 24.3909 80.6220528118
21.6998 14.623 24.3878 76.3160525526
24.4018 18.5815 20.4391 28.6529709077
18.9627 23.1294 18.0032 26.5942895095
16.8931 13.5195 19.3558 26.7028580871
18.7377 19.528 21.1281 26.8333254624
18.6534 20.1302 24.1016 49.9871200512
16.0306 19.435 21.7006 26.5658798703
19.7392 16.9262 24.6033 91.7542235422
21.559 20.1532 24.4451 93.6993328025
16.4693 24.066 21.6346 27.6566481975
12.6195 14.7669 17.109 30.2803186536
20.1306 24.3826 24.4434 93.5077765948
24.1236 21.3568 20.3501 32.1742620083
24.6672 15.5321 21.1842 29.026681788
15.2527 13.4566 17.1126 32.8095683233
16.3038 13.7995 40.5514 29.7984977044
24.5495 14.1488 39.2097 26.9164683402
17.0611 20.1195 40.0531 29.2033518164
13.5546 18.3104 41.7333 28.6883011336
13.7952 20.9372 40.7337 28.6733000664
15.9682 13.6138 36.021 49.0699583293
21.3166 14.4301 41.7976 31.8777112007
16.3792 22.7596 40.8168 30.7727521513
16.0776 18.2835 35.9669 43.2613555861
16.1647 17.9232 38.6208 31.2317730637
13.4016 17.2381 35.3703 105.6714536962
17.5674 15.9153 35.4695 100.5067810757
20.1188 16.0593 38.9566 27.7369707591
20.2264 16.3846 36.1347 44.0880566205
21.1874 18.9242 35.7631 86.368458738
21.6974 18.5268 38.5992 28.4307162796
15.8235 23.2449 36.5758 30.9795863327
23.2986 23.6514 35.7834 56.0812189777
16.8189 20.9863 35.3774 112.0324443749
19.3526 21.1012 35.8757 47.8529893314
13.6401 21.0692 37.6544 31.5258043159
23.6092 19.7155 41.6095 26.9238295337
19.6724 20.3172 38.8551 29.5052978086
13.2024 14.5814 35.9341 58.3487484967
17.4156 15.4647 38.336 30.1716446679
21.0261 21.036 41.1403 29.0707763933
12.4209 13.4303 42.9617 26.1575850679
13.9138 15.3283 41.4552 27.8548218774
21.6748 14.0052 35.8249 86.7629347988
24.003 19.5355 35.9683 59.8273882644
21.5915 13.8628 39.2149 28.0873812943
12.4077 14.7456 39.0523 30.6449192437
13.2542 17.6274 38.9275 29.8905820626
19.1587 16.7359 41.7906 30.429917007
17.6056 14.5811 42.7088 27.019898124
12.7615 23.7756 38.9201 30.2003220358
23.6599 17.0357 40.298 30.5357013755
13.3715 23.7906 35.4961 105.4882392614
20.6934 23.518 35.4866 90.7030548878
17.5628 18.8662 42.3605 28.1157367956
24.3516 14.6503 36.3405 39.0777015039
20.5965 22.9783 38.446 28.2205074369
23.1436 22.9204 38.4461 29.1573228309
21.7206 23.9295 41.471 29.8659996785
12.8444 23.2398 43.0171 30.7537593474
24.1073 20.3566 39.1178 27.7216767236
13.6405 14.8247 54.3754 30.3453570109
15.0218 22.5616 44.3526 30.7484719707
19.1607 15.6759 45.9172 30.2918333645
13.3673 17.9045 51.0651 32.1948910065
19.3676 19.444 54.9314 33.7323437645
14.3942 16.0136 45.9161 28.1472200835
16.878 16.9487 47.2069 29.4482304993
18.2175 23.277 45.9065 29.0574016954
21.7683 19.8389 44.5586 31.1739202261
23.2307 15.8428 44.2218 33.0261085454
21.8145 12.6272 51.5749 32.6678802722
15.5244 13.2935 50.9268 25.8118259995
15.8283 13.659 55.6895 30.7356892402
22.9914 23.6291 45.8307 27.9803591185
16.8456 19.6328 46.9475 30.6144569072
15.6362 19.8563 44.546 28.5538896775
16.2531 23.0561 53.3148 32.6112342657
12.4494 16.2203 56.1047 30.6028329311
23.8151 21.2206 46.0037 28.6623170127
13.0571 15.09 51.4881 30.5947601978
13.2743 18.6696 45.0574 33.3354017513
20.4439 18.8118 48.2525 30.7218678418
21.0152 14.362 47.4998 36.772861097
14.4721 23.9858 47.0419 33.6181370176
20.65 17.206 44.2325 31.8927668189
19.3826 20.8462 43.2445 29.7722433302
18.3985 17.4155 49.6473 31.4769716581
17.1469 19.6597 50.5109 29.2324886447
19.6834 20.8049 46.6242 28.325520673
17.4007 23.0216 43.4144 27.1226385762
23.4671 15.5604 46.9452 31.8327410839
21.261 19.4537 50.7962 29.7650790433
23.3876 18.1807 47.9462 33.2557203999
14.9438 19.9131 48.8973 27.7372691011
21.2628 15.5539 56.1497 30.9500807754
22.2123 19.2868 55.0304 27.7044427657
20.8073 22.9857 48.0699 28.9421908975
14.2173 22.377 49.368 28.9721639214
22.9329 22.2964 50.0014 30.8961028141
16.314 14.0914 48.6112 28.4791916611
13.4908 15.2462 48.426 27.7089532536
20.3297 16.7905 51.9863 31.1792511683
20.502 23.3159 54.6426 30.167847841
18.7639 13.208 44.6337 31.0730893017
22.9841 20.7376 52.7585 27.1245488102
15.9127 24.1773 50.7757 31.4069532964
14.5324 20.3354 56.0655 31.6155429649
23.0002 23.5182 53.354 26.7611330932
17.8786 16.8127 53.5706 32.8088014115
15.6617 18.6512 52.6651 34.7996534926
22.4783 16.7999 53.3936 28.8976621493
16.8063 12.4157 46.571 29.3032403642
16.8865 14.2525 53.0512 28.6423002137
14.4388 20.8753 53.6032 30.8450229075
19.1815 21.5298 50.607 30.3904263625
18.6292 21.795 53.4243 30.0286145817
24.2991 23.7646 55.7942 30.090229196
19.8932 14.279 50.3985 32.4344061184
21.9366 13.4646 54.2151 29.5844489259
24.693 14.0159 54.7864 28.8565182862
15.3283 12.7062 43.9653 32.2160107907
23.702 23.7908 43.2284 32.4094015609
12.8004 18.5326 48.0449 27.3672458491
18.8945 12.3937 52.9335 29.5085343335
18.8097 16.7792 56.3961 31.7183731762
15.7339 16.616 43.3414 28.9523423503
12.821 35.3952 14.7903 30.1859256506
22.6836 27.8807 7.94476 30.5659936825
20.2092 34.8733 12.2878 30.5213312229
22.7633 33.1906 16.3144 31.1032043476
17.2258 25.4615 7.24631 31.713129226
24.374 34.8891 9.45617 31.9356807505
18.8583 31.7184 15.3148 30.9369597146
17.8639 35.0072 5.91877 28.7629352756
21.2126 28.6186 5.52661 31.7907514393
14.1417 28.9293 6.70582 32.1324560801
16.1843 27.1998 5.62698 28.4791017695
18.3809 29.5386 5.72653 31.2222816301
18.3681 30.9008 8.13616 30.6612069994
22.2681 32.9924 8.74617 27.2098976698
19.8683 32.7246 4.00982 26.6293164553
13.655 30.8873 9.08081 27.9814281555
20.2808 29.0021 14.8709 28.9534440808
15.719 32.4049 8.21179 30.1223045409
13.214 28.327 15.6462 28.6942056453
24.4112 33.6523 6.44094 25.9663213472
21.4302 29.2306 11.1448 31.4963641164
15.8615 26.8865 16.6466 33.0954706136
24.4033 35.8571 13.3093 32.7576589019
20.9756 31.6178 6.61692 27.4152002923
16.6183 26.1391 12.3782 31.6315232839
17.3535 28.9848 9.68408 29.5692436506
17.2647 32.1821 4.96672 29.4006007789
13.0418 34.6127 5.97268 28.9845159584
21.4113 25.6388 9.50089 28.5942976561
20.0185 34.5121 15.1374 31.5719698506
14.7703 28.3333 10.3199 28.1131599827
15.9814 25.4487 9.823 28.9341370972
13.415 29.183 12.9247 27.7973987558
12.8433 32.3252 16.5408 32.1778353124
17.3536 30.138 12.1562 25.833097136
22.7714 29.3838 13.5174 32.0430629413
14.5071 31.714 11.9153 26.9457301593
23.9075 27.1683 14.82 29.420553053
14.3265 35.9496 10.1608 29.2198736213
21.7432 35.0378 4.76726 28.3537865254
14.4233 25.8019 4.24998 28.5124621474
19.6699 33.2256 10.2655 29.0675896956
16.7568 33.1129 10.7358 28.2740171833
16.0874 31.8948 14.3727 28.5938654799
20.2591 34.9647 7.25833 27.605831706
19.7407 31.2134 12.3056 29.2643829036
17.6273 35.4687 15.9652 35.3801012116
15.3814 34.7771 14.1304 34.5025053161
13.2047 25.7312 9.22902 29.9724326731
23.5122 31.9483 13.9712 29.1532673476
21.0437 26.2571 15.0071 30.2128583785
23.6993 31.4022 5.31456 30.7774780685
20.1254 24.9143 7.30885 31.5840871799
19.5448 27.2107 10.5752 30.7535210182
19.3942 25.6394 12.8743 30.3035566943
16.3401 35.6229 11.6981 31.8878041033
15.2301 35.1279 7.6358 26.6286073705
17.2443 28.1417 14.2637 33.0462111015
13.2323 30.5855 4.70412 30.3622477485
22.9959 33.9788 11.9828 27.9287344724
15.0913 30.573 16.4332 29.7831820364
23.0862 30.2384 9.16373 28.6025222132
21.1258 25.9165 4.91576 36.2102431922
12.6377 25.4597 14.395 31.4407434202
23.9266 25.2069 11.1159 35.4501492793
24.1193 36.1098 16.4263 32.0963473446
12.616 33.9393 10.9669 30.580722217
12.4127 35.9355 21.8803 35.0488528975
13.2974 25.855 24.1885 57.8081148264
14.9619 28.5934 19.4608 30.6936821972
13.4777 31.2897 24.3918 83.3634888332
20.6667 28.3325 21.8306 26.3055012492
16.0388 25.4585 24.3805 87.6656616847
21.0908 25.3377 17.7735 29.9168316538
14.5757 28.8686 22.6119 28.2662423272
18.9941 28.6312 19.5217 31.8014697311
22.7096 25.8387 21.2845 30.670309316
20.5919 29.7173 17.5576 31.2986312764
23.3671 29.6677 21.2689 28.257425399
23.3316 29.4286 24.2115 76.6901712724
19.2056 25.4176 20.7787 28.4443286319
12.6957 26.2848 21.3411 27.7099519339
20.5518 33.019 18.2638 28.100838835
20.3868 32.9127 21.4406 28.1137914421
17.9341 33.5133 17.9748 30.6361146383
16.8077 30.8295 18.7133 30.5256453552
16.7126 35.3677 19.9682 31.4947392881
22.5093 26.5505 23.9073 57.7427924725
15.0668 25.554 19.9618 28.5400106759
23.106 32.5183 20.8897 29.8121327193
17.5341 30.8843 24.2446 78.4194738709
16.792 28.4244 24.1115 72.6067933252
18.1564 31.1458 21.3751 29.7292428487
14.1117 36.2211 19.1503 37.5747682264
18.0145 25.8065 18.2139 31.3441225789
20.3562 30.4903 23.9966 61.9362014677
15.9635 33.3239 23.9472 40.7147342357
15.9054 32.9821 21.1829 30.7383709742
19.4065 35.5759 21.7089 28.6304024754
21.3809 32.8977 24.2098 76.9886772844
24.0781 33.0012 23.8032 40.6626337299
23.2477 30.8927 18.2358 29.9883854507
13.7624 31.254 21.2376 32.0405873185
17.6496 35.2876 24.4617 95.2904792987
22.4972 27.6098 18.918 27.6855062603
19.1787 26.772 23.4637 37.4353104917
21.1492 36.0429 17.4736 31.6886618194
20.794 35.8037 24.3413 70.1112986766
13.7361 35.0971 24.3793 66.352698544
24.2312 35.7659 23.9812 64.686924076
12.3406 34.8338 17.3853 31.1259777693
22.3247 35.6297 20.2808 31.1573636231
24.3802 26.5458 17.3582 33.0291547713
14.0197 24.6055 17.381 31.9100996662
12.5025 27.0283 41.2706 27.2634056143
15.1803 27.8971 36.2244 48.3132165009
19.4705 25.9894 35.8613 59.1027180766
23.7539 35.8587 36.2368 44.7293362719
16.2886 31.2397 38.6365 29.7949192923
16.9036 25.7816 35.7696 84.3595972744
19.2035 25.513 38.7093 28.9081824196
20.8762 36.0074 35.803 104.9793855261
15.825 30.5898 35.9829 73.4510067127
17.3835 28.4088 40.3 28.034640915
18.2851 33.044 39.4074 28.1269098391
20.037 28.8184 35.8316 71.1345732309
22.0938 30.4329 39.7285 27.2998272017
23.0092 29.0786 35.6204 82.6087992635
22.6379 28.0512 41.8536 30.1547593101
21.9848 31.6779 37.043 34.410269809
18.9509 31.3664 35.7088 105.9436274268
21.9669 26.4088 39.9513 29.5120442043
21.7056 34.2198 42.4787 31.2202596346
15.0627 33.2116 41.5201 28.7690237623
20.2754 32.2173 40.9602 32.1965893757
14.773 33.3205 35.7636 87.4763456011
17.0625 35.0755 36.428 49.5489433065
19.7063 33.7767 37.0074 29.5717802692
14.1649 28.8131 42.0719 29.5323205036
16.6186 30.7844 41.3532 28.3059500378
24.3688 31.6494 40.724 32.608518471
15.3389 27.2442 39.0443 29.2050787929
16.6689 24.7425 38.8705 28.077662907
12.8199 35.8086 40.6289 29.9053364861
17.4339 34.6832 42.0257 30.6386951018
12.4462 28.1635 38.9582 30.5510365274
22.3667 36.3495 41.0692 30.8608185773
19.7724 28.3163 38.8792 33.7146921844
13.9502 32.7579 38.409 27.2639334261
17.9099 36.1503 39.2062 27.1124848894
24.1884 32.7776 35.9059 71.8604688181
24.1571 28.83 38.4371 29.7005616117
12.4093 27.8688 35.7796 97.653904678
18.0034 27.4514 42.972 31.7934583545
20.5356 36.5494 38.6667 32.4989916815
12.9112 31.3178 41.7829 32.2458685493
14.5239 35.5502 38.4493 31.594938358
24.7546 35.9147 39.1248 33.0045235479
24.3233 25.6852 38.3427 31.8446090446
19.4379 25.0344 43.1003 32.7562731044
24.2545 26.2316 35.6076 80.0930075843
14.1473 24.7501 41.2118 30.2775567523
18.8886 31.094 43.1559 29.0971295563
16.9165 34.6567 47.81 27.3948531737
12.939 33.7695 48.5106 27.3757105997
24.1835 28.9544 44.5869 34.3022360146
12.3831 29.7398 46.1382 32.6512611147
18.2668 32.8337 54.5705 28.5086506252
19.2646 25.8139 55.2546 33.1099640445
17.0584 27.4959 48.0363 28.764950764
13.9915 28.4756 55.0835 26.6408169478
20.3779 34.3154 44.9021 33.1152505941
13.075 30.8011 48.9364 29.0412008081
20.3144 28.7486 43.501 31.2646890133
15.537 33.6136 54.3204 26.2211716573
21.3867 33.8465 47.4087 32.5980132172
21.5525 29.4793 45.9588 30.9648421413
16.1998 31.9638 46.7004 34.1768577873
15.2877 30.8008 50.4566 28.2552085867
15.8074 36.0398 45.2689 28.7523891288
12.8024 25.5573 44.9626 29.0324495524
19.1121 24.4273 50.162 27.9677458374
23.9726 33.0463 55.4873 29.0735041288
22.9091 30.734 53.7411 27.7348774588
24.3538 26.1032 53.9361 31.9651620856
17.7122 33.4255 44.6647 29.367366273
22.4417 34.5819 51.8537 28.3038961142
23.8068 32.0579 46.6447 33.8972524284
18.4273 26.8459 52.4283 31.1581960213
21.6142 27.2193 47.405 28.389057977
24.1246 32.8494 43.4658 33.7826148897
19.6199 27.1656 49.2898 29.0898281697
23.9357 25.6818 47.264 30.3271317368
13.4322 32.5498 45.7603 32.0980142032
17.6909 29.3456 50.5891 29.9089039538
14.529 27.9329 49.1357 31.6219664764
18.3937 30.2321 45.9931 29.4756422864
22.899 27.9251 50.1183 29.4197204982
21.655 31.8792 51.5293 27.6299807101
22.0169 30.6509 48.8995 30.1216797819
15.4122 33.5525 50.0152 29.4089827671
14.3129 30.947 53.052 30.71289597
13.6322 34.5015 55.9302 29.291811577
19.2643 33.6436 49.4151 31.3771894489
19.1989 30.881 48.7768 29.0534431576
13.8484 26.4729 51.5139 32.1058278346
12.4184 28.5456 52.7779 29.0280094518
21.6423 25.1925 51.482 28.753257234
13.932 27.9833 44.5637 30.6113930798
21.8487 36.4416 47.7668 29.1748510922
19.6672 28.9751 54.0764 28.1793484059
22.2588 27.903 53.0203 31.3194073863
19.1651 35.5488 53.8079 27.0153569655
15.8065 26.4966 53.6571 30.9712543119
13.7595 34.7912 43.8095 30.3543830611
15.6777 31.1211 55.9074 26.0371651244
16.8672 24.823 47.9001 29.3132747203
19.17 31.2734 52.3729 32.5513873681
17.1064 28.725 55.7381 30.6605544091
21.71 34.9258 54.5816 26.9683393715
16.6482 27.9919 45.2031 34.9432965795
16.6079 24.5818 56.0172 29.8181964325
16.9263 35.7039 55.9133 31.3295205855
19.42 36.0235 51.2623 30.1362530736
24.0511 25.1336 49.9226 31.0602168482
20.376 25.045 45.7156 32.4483385271
14.9806 35.167 51.9379 31.4846962736
12.4972 26.3742 47.7797 32.1104612539
14.4799 36.4516 47.8233 26.8616809253
21.2349 30.3018 56.135 29.9198279845
21.4232 37.6625 11.6787 40.4485302869
14.9051 39.6983 5.16121 29.9475635274
18.487 41.2961 6.97491 29.7953160533
13.3792 43.4991 16.0269 27.7300138703
21.3826 38.9943 4.87262 28.8712184124
12.8556 38.148 9.66064 28.4930128994
18.5136 37.2897 11.0518 32.5248394286
12.7495 41.3916 5.71115 28.2904096484
16.9453 41.5198 4.50211 32.7754572643
13.4629 37.5477 6.63091 29.8238267126
20.6676 37.2828 8.67255 29.399877939
20.6925 42.685 5.81858 29.9165836206
15.7789 45.1577 15.9055 29.8959163527
15.4582 43.7636 5.01347 28.9851371991
24.1273 38.0228 4.7861 26.0940026643
19.8078 45.3886 5.44429 29.5338000493
23.2855 38.2733 14.0911 39.7379675329
22.5194 41.7332 11.1207 36.3039023058
21.6407 47.4591 5.90703 30.2772847273
13.5447 48.5024 15.9883 29.543378859
21.3816 46.2488 15.4688 38.001027105
12.8095 46.325 14.1206 28.4030522077
14.9266 39.8407 9.57401 29.6546382573
16.4597 39.2154 7.55792 31.2536451053
15.5827 40.9654 12.0776 33.5840772454
18.1871 40.0093 12.2639 35.49221291
20.9209 39.7838 7.64046 29.6947690626
16.1051 43.7205 11.1962 34.8193359834
15.2848 43.4813 7.73462 26.7290052575
14.0735 46.612 11.0334 26.4932516501
14.1688 45.9269 8.26566 29.5343906918
19.388 42.2395 10.8264 35.3718370657
24.0585 44.9946 9.00635 37.473135707
17.8198 43.3339 8.90536 27.0382614616
22.7751 41.2279 8.69325 28.0771531638
19.7449 37.1476 4.24782 31.6403602781
23.27 43.1124 6.76011 33.3933156625
17.4576 36.7696 8.15408 29.8820676334
16.5186 47.6174 7.45969 28.2986885451
18.7129 45.6212 7.96824 32.3608789922
20.9656 49.1915 14.2064 39.579193204
20.178 47.2199 9.96458 38.305116886
12.7249 46.6267 5.97448 29.840429642
22.6181 47.5747 8.28453 33.1660939502
23.5247 36.8264 7.61041 29.1394915973
12.5985 38.2967 14.3769 39.0033083148
13.8501 40.812 14.088 31.5972459653
17.9596 40.2965 14.916 35.2361444465
15.39 40.6907 16.25 31.0785773029
19.3467 42.3372 15.7255 30.5193214006
21.0114 45.661 12.5345 33.7620254394
23.3095 44.4155 11.9101 31.7559125064
16.3582 48.0014 12.3089 29.2465858928
17.1541 46.103 4.50489 30.4355481067
16.8306 45.4486 13.3249 34.6970084495
19.2932 43.8192 13.3755 32.6518973592
17.7891 48.3818 9.9747 29.8375488263
13.5884 41.7921 8.35686 27.7947941066
15.8764 38.8301 18.3593 31.6587562434
12.2552 42.4517 18.1889 28.9094504034
19.776 48.4148 19.0537 32.0717839654
23.2801 40.0045 18.9745 31.0528139982
17.0901 38.0735 23.7761 40.0270389118
23.2286 38.1377 21.3468 27.4217338916
17.4371 41.9735 19.8206 32.1282765168
13.5773 46.1357 22.0551 26.1479927389
12.728 39.8016 19.1377 29.6951105551
18.2456 44.2743 21.5215 27.1386835321
22.1409 43.5649 18.8353 30.2269873675
19.848 44.7349 17.4782 30.816049665
16.5275 46.5222 21.8988 25.1233518719
16.4414 48.0225 17.1895 32.1459553504
16.1195 48.8139 19.8409 27.423511075
17.2149 38.1286 21.0342 28.8495904503
20.4702 38.6078 24.5172 97.148148784
12.643 39.1735 22.9778 30.9571756817
21.9115 46.875 20.1809 28.3258230746
20.8116 45.5424 22.279 27.0918883933
14.8102 39.9919 21.1096 28.9955537054
16.8454 42.9797 17.0957 27.4811785309
15.7336 42.0937 24.198 55.211774903
13.9737 48.9804 24.3937 70.2514965498
23.7882 41.3113 21.4653 29.2852542921
23.1109 38.5117 24.0859 72.6283825086
20.0885 38.2658 21.1758 26.540499027
19.1169 43.6864 24.3803 99.1775986681
15.2872 42.5524 21.4521 25.7639228875
18.3021 41.0044 24.3277 71.2148489085
19.4568 41.1625 21.607 30.7486606294
13.5949 44.9558 24.4352 71.6387965431
16.3405 44.749 24.3932 62.7755130311
15.2446 44.8173 19.3974 26.7539023409
21.5865 42.9157 21.4561 32.9232562093
16.8477 47.7266 24.3575 80.358034557
17.768 45.9573 18.713 26.5170892061
23.1493 45.9317 17.8469 34.0823226404
20.5542 38.6732 18.4322 34.4054814223
22.9871 45.9255 24.3034 81.6269089721
19.7436 47.8873 23.8235 58.4490721747
14.2388 37.8632 24.651 113.1570378059
18.2775 38.0797 16.9085 35.17362403
12.827 42.1289 24.5468 92.310081722
13.4729 46.9154 18.6257 27.2212106138
21.9678 41.8231 16.8659 37.4298506603
12.591 43.5611 20.8082 29.6151064864
13.9069 48.916 21.391 29.1646286731
23.8948 49.0956 24.4329 96.2600739038
14.3142 45.6834 43.1237 32.7200721126
12.8206 41.0954 35.4412 113.1423334764
14.7227 41.34 38.8708 26.8177850199
20.4756 38.8909 42.0374 25.3614826874
15.4602 46.5445 35.9755 54.4810406125
16.5713 38.4395 38.1811 29.4401094027
20.8083 39.0558 35.9671 60.4159736427
23.9885 39.8509 39.3773 27.7869578299
24.6571 46.283 38.4732 30.581733786
17.3367 48.9846 35.5507 104.6468933853
19.1536 42.2892 36.01 41.1751165483
15.3676 41.4342 36.2588 33.1398705398
14.73 42.851 41.6397 29.7295141601
21.9865 41.9141 35.3412 107.5533429749
19.8743 42.1087 38.5851 31.5034924917
17.2489 42.1999 40.4512 29.3227000687
16.915 43.8725 35.7311 79.8388492588
13.4951 44.3392 35.843 65.6613293342
16.4218 46.8292 38.5597 32.8084362418
19.9503 45.4375 35.9321 64.3096430355
13.4994 38.7324 38.6211 26.5185124551
20.1823 46.0789 39.7979 28.8623020884
22.4097 44.4969 35.9609 51.5302726232
22.1583 44.1744 38.5785 28.0122930342
13.1972 48.0339 40.9419 35.0276148108
20.2264 49.265 41.8392 31.1505423599
20.9787 48.6496 38.5217 28.2710740101
21.0612 39.5532 38.9227 29.108097402
15.3821 37.4961 35.6507 91.6238648487
23.188 39.787 42.0857 28.006778445
24.4481 42.4986 38.6072 28.2981756771
13.1977 48.2758 35.9919 74.1529059433
23.9207 39.0898 36.5068 41.6381076491
12.6621 38.4816 35.8894 76.1684311623
12.7478 40.3904 41.6284 27.2507921939
22.7208 48.0146 41.5869 28.9608509126
14.3341 45.4103 39.9257 29.6242958908
19.8828 48.1353 35.8857 64.9632365715
13.7477 38.0041 42.076 26.270858375
23.4332 42.4949 43.1445 34.2304621705
22.4921 45.1603 41.693 36.3794820289
18.318 39.5124 40.5367 27.2346640085
16.4491 37.4426 41.7875 29.2517109136
18.2236 45.2207 41.6336 32.8043962855
17.5689 39.841 35.5613 95.3776653624
18.1711 44.6973 38.3579 26.7838952683
13.2251 43.3974 38.4212 25.9990782627
22.8067 48.9188 35.7553 79.665215974
17.2845 40.9575 43.1944 28.8056719673
20.289 44.0668 43.0256 31.6876372716
22.5895 48.0768 52.1349 31.3184906193
23.2248 38.084 45.8223 30.2505547309
18.3194 40.9678 46.0505 28.3973617127
14.8392 41.7972 52.1236 29.8810880552
18.8966 48.4984 55.2391 31.1702806057
17.6543 37.1616 48.9139 28.7282256974
15.1352 48.3154 53.0409 28.3028378346
19.7196 38.3494 47.1967 30.9994403937
14.7968 41.3656 49.0687 33.1185035941
13.5813 48.6461 45.8406 29.8000525287
17.0588 43.5032 46.1674 29.8752871077
21.515 40.1091 45.527 24.8190913007
20.4268 41.3189 43.3346 28.2205538128
12.6198 40.4262 52.1428 32.1069396994
16.2593 48.0902 46.2784 31.299712275
13.2992 45.2148 48.0084 28.8041250839
19.5351 44.9867 45.6084 32.7960185808
22.5965 41.3806 52.883 29.8132289283
12.605 43.3795 46.0154 26.6144988731
24.2259 37.5757 43.2015 30.0870586195
23.3889 42.7851 55.3349 32.2051781235
13.178 37.9485 50.4266 30.6354323794
23.572 47.4926 56.3292 33.9719619669
22.6958 36.809 50.256 26.1852798073
23.104 45.5446 54.3314 33.7447374115
21.0559 41.3014 56.2859 29.007388354
14.9378 39.6758 45.1014 29.6359900542
12.438 46.2723 45.1619 25.3058742955
22.3844 40.748 50.1803 30.1688719753
20.0113 37.1963 44.0747 30.5411903155
16.1681 39.3453 47.5926 30.4600330884
21.0649 38.5154 51.2202 30.4294164441
16.9362 43.6044 51.0369 30.2568017704
16.1548 37.6445 51.1063 33.3692346254
14.1996 47.5253 50.0289 28.474640981
23.4363 43.8931 48.3912 34.4752946028
20.7535 44.3249 48.3406 30.4303722275
23.6985 42.0312 46.3595 31.7220479499
18.4544 40.9896 55.0871 29.6597244191
16.4053 46.7811 48.8976 28.0808931746
20.721 41.5674 47.9761 28.2811710294
15.5361 38.3002 55.2618 35.6645075525
23.3741 37.3099 54.8574 28.4454145289
23.8309 47.5754 45.9714 36.9197723226
15.0741 42.67 44.4939 28.3776297935
15.3175 48.5702 56.0511 28.8440136058
16.5165 39.889 53.2403 32.0584835379
12.8353 44.0746 52.4019 27.6133960457
20.8127 45.9676 50.497 30.0423592839
17.7406 48.8203 43.43 34.0877697766
17.4519 38.0867 44.3803 25.7639268861
20.9823 47.2996 46.2424 32.3745343375
18.723 43.956 54.0111 31.8095794457
20.2382 45.7835 55.2639 32.3219731531
20.7385 43.6729 51.9827 30.5683046702
18.9737 42.0189 50.6682 37.9198837748
17.986 46.5874 51.256 28.046539353
21.5264 39.0203 53.7711 26.6731509007
17.0273 46.1785 44.1191 28.942548216
14.5852 44.5531 54.7783 31.811963027
15.8275 44.0924 48.5183 27.7289931768
12.9984 46.8304 55.8405 29.4384763405
16.9159 46.2372 53.9775 26.4103323995
12.7268 37.0455 55.4549 30.8092382575
12.7754 46.886 52.3934 28.9681303091
20.7129 48.2445 48.7581 32.8285424156
18.9511 38.2116 54.5118 27.0786683792
24.0925 39.7216 47.9533 28.1361795566
25.3874 0.0954341 12.1701 30.5196967993
24.8842 6.70655 10.3268 31.5021875956
30.1798 2.39322 7.02063 31.1239116438
29.2329 0.655178 4.89868 36.4668657683
36.9309 10.8071 10.8754 27.0103075607
36.9267 6.82814 4.38946 34.535618237
32.8201 5.57021 6.60865 30.6064007333
30.1097 7.50283 6.68233 32.5296995513
29.5861 4.81694 5.59429 28.1648124402
27.4143 8.47325 4.14447 28.7912775456
36.0637 7.52704 8.65006 26.7274303827
30.7366 9.95253 5.31361 31.0125516805
31.3817 12.1141 6.88912 32.901958609
28.9469 10.4366 12.4833 34.3255547731
34.1644 8.17721 6.8786 30.9046485667
27.0077 3.51096 15.5476 29.206101783
34.7701 8.74113 4.26347 30.1821946144
36.6909 9.94153 15.1317 29.4248150821
29.1548 0.98307 9.6431 28.7226744793
24.867 1.28202 6.26493 32.8282969077
29.8915 2.07837 12.0098 26.1212774918
32.7414 3.01667 11.0915 31.3345118901
28.1594 11.3369 4.96925 32.502351265
35.3868 11.3448 5.66316 30.8161277228
24.6119 6.80797 12.8695 32.6012662431
32.9162 9.92302 10.9066 34.1094163502
35.6994 12.0086 13.5777 29.4324018399
28.8804 7.49595 10.9435 31.069397076
29.6625 7.72579 15.3109 27.9576475587
34.6128 5.73983 10.1732 29.509626723
30.2363 6.10869 8.84097 30.3212911893
33.4736 10.857 7.92227 30.1994255176
31.9852 5.8463 10.9659 29.4413727696
27.088 7.45045 6.81367 27.4216063668
28.0084 3.70932 9.41962 29.5095897146
35.1415 0.500068 13.5847 33.7218943241
32.9656 1.38355 8.89014 28.8883969174
27.0552 4.73675 6.91534 30.1905697402
35.2602 8.82214 11.3505 27.5283409705
32.4103 9.53607 14.8665 29.7813930415
27.4992 1.52755 13.652 33.6039747447
25.199 3.86999 10.2501 33.8352512228
25.0667 3.76137 5.20706 30.9511892627
31.2961 2.08781 15.2484 28.6761779445
36.093 2.22276 5.71998 31.5674324165
27.6791 9.58703 14.9564 28.5225708611
33.4449 2.54624 13.7043 26.8166654086
27.1216 6.13963 14.5996 30.1473181611
31.0073 8.5714 12.445 27.3621853745
32.804 2.06701 5.89583 26.9118084385
33.0451 4.72879 3.72188 29.431974138
30.6977 4.68237 13.2 27.5661960308
28.222 4.9686 11.8321 28.5191337992
35.0129 5.12333 14.5448 31.6054634977
24.8515 10.1822 14.9915 31.4355106622
26.8155 8.35253 9.2182 34.1995597099
34.7221 8.10211 14.1666 31.6688909525
35.6292 4.49198 3.80709 31.0309666225
26.6248 11.344 9.80477 33.6897634197
28.0818 11.8855 16.5012 26.2433944768
34.6885 3.89651 7.91739 29.7841040886
30.881 5.05118 15.8324 29.1263019222
35.695 7.02703 17.088 32.8224121572
29.4148 4.78388 21.8228 30.8863511527
33.3507 1.99324 19.9889 30.5886748792
31.68 0.526351 17.9647 29.6243371796
36.7298 5.87652 19.6908 32.1838823826
25.2375 3.90822 19.6358 30.1533183053
26.892 9.66559 18.3239 26.7746121865
30.1777 8.10429 21.2665 30.1099495542
27.4625 5.69787 18.737 29.76825212
31.9501 9.39018 17.5831 31.112054509
32.2307 4.30295 21.558 33.31912896
27.0538 0.16591 21.2258 29.4467549552
29.9499 11.1435 20.481 27.9422840746
33.2973 8.65126 24.4598 81.3968939915
29.3865 8.05272 18.1821 31.4077575153
30.6194 11.5973 17.8201 26.7324352008
32.9792 8.62335 21.6028 32.1449593174
28.6754 0.791948 18.2922 31.1554731951
36.1598 10.1965 24.0073 73.5788958103
25.0337 2.24363 21.64 29.0293035298
29.4384 1.68974 21.0985 30.5606175064
26.9586 10.2381 23.9003 41.3516986782
29.2992 1.21453 23.8199 60.5663746083
35.4715 0.87897 21.6954 33.9828335713
34.6807 9.38034 18.4976 30.9658280392
35.8483 2.25087 24.3964 94.4683505403
26.9698 6.55877 21.4756 29.8435217484
26.2701 4.97825 24.0257 62.6853704813
28.7374 4.09757 24.1907 66.369586382
31.0302 5.54128 24.8215 111.3810568086
33.2878 3.89823 24.1363 59.1552044632
34.1727 6.02576 21.3571 34.6928561626
27.4652 9.29739 21.1973 26.1224479053
25.656 7.71115 24.1787 78.7141004642
29.4419 10.6977 24.8277 111.9207845394
32.1424 11.4574 22.1919 26.7868409639
30.1777 8.10724 24.2217 49.4811753676
34.8079 6.1942 24.2616 71.6817648935
28.9064 3.71397 17.2446 32.3295939264
34.2278 2.17806 17.017 31.0478881041
31.7375 -0.0736241 21.0824 31.8960600081
24.6931 2.93056 17.1443 32.9298443201
33.9488 12.0113 24.1137 53.6142482363
36.6885 10.2666 20.2556 32.5604686431
36.7318 2.88431 20.0723 32.3661296508
33.3851 4.91828 17.0946 38.6334465644
25.7485 7.46409 16.9275 29.3985939591
35.3732 11.6802 17.1314 27.7742207554
28.7622 1.74995 35.7339 79.5736040487
26.0475 3.18273 36.9108 31.2206047063
34.1593 0.871876 42.0662 33.289203992
29.9827 11.0455 35.6489 76.941526227
31.4392 5.68475 36.2313 41.5694746747
26.6466 6.1033 38.8979 29.2835420832
33.3572 3.90193 35.6718 84.5935351346
35.2719 6.46694 38.4214 28.6487820436
33.8028 1.88595 37.6348 28.9419504606
31.5837 5.06271 38.9922 27.8157759411
34.8065 8.97135 41.303 30.8897691398
24.774 11.4703 39.1605 31.3236795902
33.0293 12.0881 35.6718 63.1143174967
28.9156 4.5874 35.6462 86.9071605118
35.7192 11.8372 35.2701 92.1795658061
36.6423 0.835734 40.6794 29.5805265579
25.485 10.7059 36.1334 49.2863910956
31.5547 8.46603 36.0969 55.6784891373
26.2115 2.06933 39.7401 29.0745138438
36.3285 4.80302 41.9654 30.0715216779
27.3006 10.1956 39.7344 31.7268490944
26.192 0.456467 36.1728 57.3382223682
27.8687 9.0462 35.5517 89.3484840715
26.7169 6.38056 35.8312 63.8540567876
34.4555 8.96991 35.6483 67.7096466298
33.7906 8.74966 38.9134 26.4013988111
30.0241 8.65724 41.5353 30.4610338636
28.2102 2.02941 41.9573 28.7518846943
36.3303 2.864 38.7533 27.7702758183
32.6406 11.1092 41.628 34.4448086023
28.818 4.06873 38.6184 26.2381451098
34.2894 4.48644 40.0754 28.1957036031
29.4346 4.59151 41.4243 28.8158442953
36.8048 3.7064 35.6532 80.0282849368
28.3999 8.38101 38.1649 28.9280612481
26.9165 5.96116 41.8447 29.6101399322
30.9756 7.82909 39.1241 29.4481592229
29.572 11.3927 40.9057 29.5510230865
35.0005 6.09 35.7388 62.913764339
32.5166 3.22296 42.1747 30.9440577935
31.8215 2.06245 39.6175 27.3053074577
27.083 8.71594 41.8821 26.1042513667
36.2871 0.418553 36.0816 59.7535609527
31.5898 0.703554 35.7848 67.1130293347
33.7288 11.556 38.5539 27.8276324762
29.2834 1.25178 38.5109 26.7239710476
32.4741 7.47933 55.8035 28.0352349057
32.5128 7.78847 46.6243 28.0042116583
30.7133 7.1147 43.846 30.3196876671
29.6206 7.51646 55.3467 28.6907984996
35.29 1.51075 46.831 31.4245956302
31.6322 10.838 51.3593 27.5838079617
27.3174 4.21551 47.4586 34.2200422869
28.72 5.79506 44.7327 26.987039707
30.1413 3.00824 44.1529 30.1362089662
33.0977 5.43951 44.3274 30.0534236815
35.055 10.2227 48.6751 31.5763386478
34.739 8.1668 44.5704 35.5875052673
26.0024 2.27388 43.5443 30.5304873684
32.2098 10.357 55.4551 26.9672266429
35.5083 0.693603 49.3317 26.7197839081
26.8938 8.72953 44.7027 29.4468971905
35.8201 8.46394 50.6865 32.6437623082
32.4949 0.543398 55.0177 31.8658143174
29.519 9.06335 45.6155 29.0430192357
33.2567 6.45939 53.1264 29.8597351769
25.1613 7.58588 50.4235 28.883717937
34.581 1.28006 53.5567 31.4681479091
27.9813 4.5172 51.2877 29.6129359959
32.4661 1.93423 46.968 34.0085506056
24.6159 11.9528 51.4274 34.8693643428
25.7111 7.05689 55.0556 29.5380427006
30.3123 0.412218 45.2651 31.8970638721
29.5876 6.03188 47.7239 29.6354534383
25.8747 10.3377 55.6189 29.0669156755
32.9297 6.09523 48.8378 29.4910168627
31.7785 4.60747 46.3574 27.584867602
26.5897 1.78619 46.2742 34.0518551898
30.0986 10.6765 53.7649 32.1929909242
29.8174 8.7859 48.6525 28.5795338288
26.4267 12.1791 53.7637 31.3507562094
32.4349 8.04341 50.802 26.3188181828
25.5226 1.96731 53.9845 30.1779557297
30.7178 5.21126 53.0495 28.1229711408
35.4691 5.82089 49.8363 33.0983373564
29.3551 4.72113 55.5595 29.2520059561
31.2466 2.48542 56.414 27.3423931001
27.6677 1.8748 52.1597 31.8355817719
30.2531 2.18203 52.3681 31.7707870852
29.8626 8.04376 52.3082 28.3644725327
34.5877 9.38557 52.9576 31.7531205443
26.4508 4.1276 55.4759 33.612740813
27.9886 9.48018 50.3461 34.4595690785
34.0009 2.3821 50.731 32.1569624161
35.9636 4.91844 44.7281 35.4944229919
35.6593 11.4428 44.5069 31.075000875
26.9129 6.66902 52.6015 31.6275138981
32.3633 10.0917 47.7575 28.2475894233
29.3709 11.7901 45.2598 29.3784843761
30.6512 4.73269 50.1685 28.2280165635
31.5411 2.03928 49.6755 28.7944478506
25.5829 4.80897 49.5218 30.8422509964
25.9292 6.18517 45.669 32.1965386145
35.1124 4.56705 52.3439 37.6423489261
25.9825 10.6165 46.6709 34.0806659074
24.6559 5.08714 43.394 29.5937840693
