1.36553 41.9368 46.5127 29.8891547656
7.87337 38.3662 42.6113 27.5815423548
6.91205 38.5688 45.8502 33.1691258784
0.791843 34.1342 40.2068 26.8993330753
7.89427 38.3419 39.7795 27.4149187721
1.6742 42.8994 43.4082 29.6945248896
5.44677 40.6869 47.179 29.7992820381
5.87146 40.3162 43.3447 26.7652869194
9.38376 35.7757 46.7252 29.9448874166
9.46943 40.7988 46.2785 32.7581211101
0.461166 37.6439 41.4518 31.417926358
9.61066 36.2006 43.5458 29.7201048021
7.06845 32.8041 41.3543 25.9207569941
7.67275 42.554 47.3622 30.8259822676
6.31893 33.9914 47.4849 27.1350252019
2.04997 42.553 38.8169 29.8201598189
1.60958 39.1875 38.8688 26.8253011315
9.26629 46.653 47.4545 33.0711198482
7.34281 34.7301 38.8454 27.7670757509
4.03997 33.8302 54.491 28.4241283454
1.69967 34.0232 52.5209 30.300442752
4.07124 33.6573 49.6358 32.183566689
8.86761 32.89 53.2334 29.5901473064
3.19132 46.8348 54.3355 26.3409015535
8.38065 46.389 52.1164 28.3225770225
5.93675 36.3886 49.2446 31.7410001358
2.94763 42.8806 49.0404 35.1428624089
1.20862 48.755 54.1725 29.3398880371
3.53229 38.4571 48.8949 28.5569102363
1.6869 41.4577 53.9729 28.064992458
0.422706 37.6433 56.1132 29.0744460889
5.78702 38.5388 54.1333 35.5624701672
8.38354 39.2769 55.0343 29.9502651266
0.695616 46.5236 50.9321 28.5426774209
8.2595 37.8557 48.0619 29.7416404377
5.64855 35.445 56.3561 27.0671631824
6.63392 45.6207 48.7256 28.843680982
4.7531 41.0435 52.9505 36.2385465571
5.77332 48.1949 49.141 27.562006846
3.00142 47.5887 49.8932 28.8932362565
3.7341 45.4664 48.1301 31.7940980268
0.900866 41.9961 51.1007 30.5516963883
9.17392 33.2854 47.9348 30.5664951659
8.81172 41.9525 54.0106 31.5558270165
5.44258 35.9913 53.0738 30.3916483017
4.61581 46.6467 52.1037 27.7467313626
0.761477 35.1636 54.8408 30.0533305632
3.06454 36.2945 51.0083 33.8980520721
1.59169 44.6711 52.8831 30.9048986761
7.52946 35.9149 51.4431 30.5608640689
0.161654 39.0844 53.3923 34.9867803649
9.41111 38.1826 50.9805 27.5536308909
4.73803 40.8772 50.0995 31.7194609869
8.46226 48.4499 50.0952 33.1679429927
6.24911 43.086 54.3666 35.8289391674
7.07364 42.7498 50.1153 28.8435640303
8.72379 40.9535 51.4715 31.7180808748
1.35453 39.0892 50.4405 29.2159563758
6.32378 44.664 51.8133 28.7614455224
8.42054 47.3907 54.4874 31.5976895053
1.9651 33.3159 47.7938 32.8917928321
5.64534 47.6175 55.723 31.0408479668
8.27727 34.8164 55.0339 30.3421019039
9.62991 37.1824 53.8353 27.8679125679
6.10288 48.9858 52.3298 32.9891009271
2.37784 39.9818 56.2877 31.1935784447
10.2826 13.0111 3.78843 28.8349112458
18.1081 14.4115 9.98571 30.1893612586
17.7122 1.50179 3.85334 31.404555755
16.8815 8.11697 7.66316 30.1392984817
13.6781 1.33324 4.95343 28.8511325014
12.1707 11.2679 6.23367 26.0862027006
10.2109 13.5762 7.79191 27.1794177177
15.0421 9.56665 4.22637 27.8937007513
12.882 8.06179 7.89655 28.3497666494
12.5955 8.5858 5.2729 29.7744425114
13.0786 5.45646 5.15748 29.4337691999
18.1107 6.2968 9.30439 30.0663137158
19.5522 3.42754 9.9344 31.2260904721
14.9544 9.37889 9.22558 27.5143599182
13.6884 14.3963 7.70519 28.9557403966
18.4024 10.4557 6.94118 31.5278188519
16.5356 11.6756 5.40589 31.0751580253
19.3799 6.88995 11.6432 28.5570740061
19.368 5.67096 6.65946 30.4612266452
14.3107 11.8166 7.86093 31.0441709039
11.2822 15.5069 9.56919 26.7352151397
13.5333 14.3352 10.9214 28.7307220436
18.8201 11.7155 9.4368 31.7328277245
11.1578 0.954877 4.53079 30.9235246445
10.7943 9.07939 9.24298 25.9091734331
10.6193 3.6601 5.82183 32.1899602354
12.418 14.8502 5.14172 28.5073922401
12.4461 1.50277 9.6339 28.4114038429
16.3385 15.7274 8.27866 32.8503778118
16.8622 11.0917 11.3843 31.7177199549
14.0268 5.48685 7.88026 28.4108912308
12.1438 5.38552 10.1934 29.2242129785
18.413 2.99994 6.32397 32.0458465265
15.612 5.14797 10.1642 30.991875975
13.6678 2.85554 7.46098 27.647497413
16.3957 2.52502 8.22326 28.692313107
14.9771 7.36993 11.6101 26.6957912583
13.773 11.6361 11.2342 29.2479791037
16.7409 2.15744 11.1006 29.1299108459
12.0235 8.16656 11.6909 27.3433062808
10.9565 11.6382 9.91719 30.1852334309
16.7892 7.4375 4.86705 30.5414360303
12.6705 3.0312 12.0945 29.0405305718
16.3131 15.6459 12.2674 29.3922312239
19.4716 0.817098 8.82534 30.6272139777
13.6155 12.4644 3.83949 27.2031191884
10.2535 1.52847 7.93528 34.0111822163
19.4228 5.636 3.89693 29.4140497024
10.4785 9.94084 20.8151 26.8330799718
17.3027 8.57692 12.3309 30.2631032466
9.88179 12.0968 18.5494 29.9745220032
15.391 8.45336 16.2617 29.011793232
14.9871 1.93222 13.1775 33.987594975
12.2735 12.5288 17.0059 29.8647969307
14.8597 6.48193 14.0588 31.7684850243
17.8755 13.1895 13.0454 30.3527853322
10.4781 7.10051 21.0809 32.6483945225
12.1367 15.59 16.9202 31.5283489392
12.2043 5.67811 13.9317 29.0466239664
14.8994 0.961516 17.7545 32.1994910292
17.8227 12.7048 15.8829 32.4362356345
11.5873 8.71588 14.7617 30.4534735981
10.2991 1.10591 18.0041 32.3097368537
11.1209 12.936 14.3525 28.90084679
14.6406 6.52524 18.9089 31.8454134848
10.8555 1.58407 13.3745 33.763780863
15.5863 3.92818 15.3035 33.8688982865
15.4271 14.4019 14.7927 29.7797624992
15.5967 14.7668 19.2841 30.6158492667
12.9064 11.0164 13.8317 27.5758852729
14.9648 11.2025 15.5136 29.433513681
18.5538 3.74168 15.2316 29.8636292791
17.4833 11.1673 19.0228 27.8817475788
17.9969 8.86479 14.9201 35.7768210235
15.0641 12.0384 18.3039 25.5342623336
12.8967 14.8383 13.7131 27.319053519
18.4753 3.55273 18.4815 30.6427297926
16.7985 8.40034 18.6558 27.970023421
13.8842 4.23708 17.3926 34.0984570502
19.6868 10.5949 17.1773 33.0962643158
12.4489 10.0893 18.7971 29.5940648758
19.1765 6.46141 18.5836 29.0040400845
12.455 7.81203 17.2307 29.6829330441
12.8958 0.147626 19.6832 28.9026438014
16.0581 2.71042 19.6152 30.8201499037
11.3033 4.91189 16.3452 29.5206115972
11.7256 2.25039 21.1314 32.9954928013
19.4112 6.40142 15.5459 30.819543722
17.4062 0.22518 20.4051 27.1759446027
9.86909 5.84814 18.5414 30.8735251171
19.0486 2.15417 12.7316 28.287159248
18.3575 16.0771 19.2626 32.1780748476
14.0383 11.7012 20.7621 29.3850727483
19.5109 10.7617 21.0815 27.3556081918
13.9182 14.7737 23.835 49.5523888028
19.5946 5.93039 21.6988 28.8335065989
11.3428 2.67121 23.8188 52.7939106612
15.8453 2.13089 24.5075 103.0468787505
14.0544 3.95773 24.2812 68.2648293956
15.114 8.75762 21.3254 29.8877588904
14.3665 6.52287 24.3742 95.5977228883
13.9423 3.8004 21.5536 32.3108883578
15.8442 -0.0106779 22.7278 28.9119018737
17.0847 7.32334 24.3198 65.1999958138
11.65 10.3056 23.5049 42.0204866642
13.3084 6.4239 21.4228 31.5829296416
18.6743 5.34847 24.4935 83.7250260894
14.1923 9.46129 24.0352 64.6254286413
16.5157 10.8068 24.4755 92.7564370305
11.5529 13.0484 24.112 83.6365058265
18.5837 2.58914 23.9986 51.6028496099
19.4257 9.73701 23.6914 35.3133107062
16.2439 13.4424 24.1648 78.1260068292
18.9647 14.2792 23.8604 39.2211221504
17.9884 8.13814 21.8592 27.7001446648
11.6016 13.1672 21.35 31.9197890825
16.8145 13.1153 21.3172 30.0881929208
13.8247 15.7572 21.3159 29.0166041277
18.9896 3.12358 21.3409 29.0836056605
17.8573 9.62017 35.5061 111.2169436702
18.8744 12.2094 38.36 28.1687732557
13.5733 8.1378 36.0932 82.9593859012
18.722 1.86493 36.2692 43.9766407775
17.3564 15.078 38.5373 37.7525263156
12.1629 9.93761 38.1159 30.3124244754
13.9823 1.39066 36.2483 35.0806177099
10.7013 3.54735 35.9851 54.6343885999
16.399 8.19257 37.7199 29.8212808008
13.9477 4.02751 35.6062 87.1548066119
17.8684 6.71151 35.9836 56.3601950461
16.8944 4.08855 35.4149 102.3389934575
10.2264 14.2745 36.8618 32.3803280752
14.053 12.294 35.9135 84.8829984121
16.3832 0.342073 35.6688 85.9971372696
16.878 12.2779 35.8913 53.7837737452
18.7787 14.0245 35.6674 78.220843834
14.2558 14.8614 35.8579 62.2427209405
11.3956 16.3284 35.3875 115.2544815387
11.1385 6.33115 35.8968 72.1138543007
11.0002 11.6857 36.492 42.1073598647
13.8043 6.02071 37.7296 29.8487188409
16.3939 4.2806 38.3076 27.9238300534
17.0353 16.2052 35.6183 95.9642859556
10.3823 2.86966 38.6226 26.5372670478
14.462 15.071 38.6351 35.5371900263
19.5445 14.8775 44.7784 25.100762015
13.926 11.0704 39.9152 31.2315311638
11.0311 3.43108 43.6488 29.1264081316
16.6356 15.6378 44.2468 32.7594612176
17.8574 4.52262 43.8458 30.360525233
18.6306 9.70514 47.4085 35.8534313011
10.6764 13.6495 40.2962 29.001523832
13.9762 14.0709 43.5784 33.0166613472
10.7712 6.87793 43.5346 29.9161192816
17.7425 7.18669 47.1893 32.592938135
15.6625 16.1973 46.9941 28.5023419366
13.4962 4.76709 44.0474 28.4588006739
16.9828 7.14009 44.5147 28.6650671281
19.2251 7.99555 42.9986 30.3519894881
11.8302 9.11946 42.1598 30.8138084091
13.1177 12.1328 45.1924 30.194181764
12.8882 5.62872 41.2288 27.5643282586
14.6855 9.35772 42.2686 29.6957551451
15.3425 6.60322 42.0626 28.5844822546
10.7475 11.0189 44.0253 31.8989852286
13.3548 13.4587 40.7531 32.256330271
11.842 0.794494 44.3584 30.6027136498
16.8972 11.8691 46.0369 32.0491842959
17.5353 12.7645 43.1958 35.3825654504
17.4917 10.1605 41.9291 29.5243432227
12.8884 1.75047 38.8778 29.4619264417
10.937 3.9855 46.4881 29.4822713646
15.928 3.38125 42.4459 27.5803177464
15.0055 1.13545 44.1352 35.0283746297
17.5948 1.63656 38.845 31.0471613692
17.1162 0.900402 41.872 29.5990682955
14.3498 3.78266 40.0519 28.2509818344
14.6355 8.00679 46.5289 30.4302943722
12.2739 6.63496 45.9925 34.3460992255
12.4706 16.4121 43.1217 27.4162716356
14.0879 2.79035 46.1794 30.3878601174
17.4413 6.24801 39.8622 32.383610717
18.2265 4.27854 46.4542 31.0533886124
15.002 10.2103 44.964 29.3410455653
16.6684 10.4953 39.1123 30.9320619056
11.0793 11.5294 47.2695 30.770499882
10.344 9.28606 39.8764 29.8301845608
10.1188 13.8565 42.9908 27.5553482642
18.1865 14.6795 47.1191 29.7088559855
10.2959 14.3131 47.031 32.3711675175
10.8409 5.63921 39.1446 27.5096233009
13.8955 2.09803 52.6651 32.8352566481
13.4274 3.55698 50.3278 29.2108065676
17.6474 10.7251 54.6039 28.5141748662
10.0942 11.5399 54.3642 30.7218389127
18.9579 8.64645 55.8904 30.1718311204
15.7477 14.2613 55.9507 32.3153781818
18.9403 7.35058 52.0406 32.7994789754
14.9135 5.71932 49.6951 32.2613751468
14.1137 8.49135 49.0071 32.8328538547
18.6685 10.2015 51.7359 31.5891497834
10.8651 11.8973 51.5304 29.7583230038
11.8457 9.90512 49.6351 27.8661256671
12.3925 9.31133 52.5653 30.6637769032
19.5835 1.97433 47.7544 32.0963722808
16.2114 10.366 50.4272 32.8121995584
19.4668 15.0242 50.0982 31.4229898305
13.8312 3.18133 55.4644 33.1066763706
13.1672 13.3994 51.2825 28.0498301193
9.84504 1.79783 49.7236 31.6960505978
13.2198 13.1578 48.6601 27.5448018108
12.5435 15.9582 52.581 36.10876848
14.9597 9.47539 54.1741 29.6400051291
11.1692 5.17215 51.0905 30.7244575265
18.4643 15.9116 52.6913 29.1111791116
11.6744 6.33578 53.2683 29.1320535437
13.0042 12.0074 54.1379 29.3882413653
17.5057 4.04516 55.5346 31.4754904695
15.1448 5.76379 56.0711 29.2084258987
16.4435 5.85601 52.016 33.8400499543
17.83 3.50801 52.8265 31.1240570155
16.0919 14.859 53.1591 30.7291593871
10.347 7.56002 49.6249 30.0062204541
16.6796 15.1128 49.747 29.2712437902
14.4066 6.85627 53.6615 30.2147522637
16.4453 1.3577 52.1114 33.2225587532
17.1512 1.69373 49.3897 30.5985009833
12.5139 2.03389 48.2833 27.0020399335
15.5009 11.9713 52.3244 28.3967000619
10.6012 0.0378931 54.7829 30.3390817125
11.1296 4.5229 55.4526 29.1013362316
15.8191 12.5962 48.7703 30.6932033778
13.1062 15.7174 47.7211 28.2243799889
10.5765 7.24449 56.3742 31.6691063722
17.8641 12.8347 56.2414 26.5218014538
15.9652 3.65462 48.1282 30.4015176571
12.0169 32.5105 6.29444 31.2615485777
19.3168 28.2177 10.5528 31.6072198505
16.2013 30.86 5.39466 26.9224200965
14.6915 31.5966 10.2702 30.9023495215
16.5029 20.4636 7.19281 35.7110678031
14.8153 17.0066 10.0599 26.0082539006
11.5095 22.4405 3.8514 29.5599797622
13.9982 23.7862 4.10692 31.4770746216
14.8908 27.503 8.14388 32.2213354348
19.7366 17.2947 6.46063 27.8610889387
15.8286 23.3366 6.44672 32.2625376314
17.9906 25.7886 10.9483 28.2802232683
11.9757 28.1941 7.68015 33.1473598987
13.5202 30.1576 5.94494 32.9372799715
10.3732 25.5501 4.74054 27.3026194115
17.3757 27.7867 6.57135 31.2848452226
12.9173 26.5393 5.3346 33.1669469279
17.0521 17.7096 6.49465 30.5223687654
10.4663 25.355 7.45423 29.075341215
16.4533 31.6809 8.02297 29.6598438825
18.4488 20.8108 8.98092 29.2369392667
12.0528 22.2937 6.86223 30.1818057669
17.6598 18.8789 10.7264 35.0438570107
10.5995 18.0497 8.91437 24.3085837956
11.9315 22.1926 12.4146 28.5354050862
14.3093 22.5024 10.9582 32.2718198657
13.1322 18.7254 11.6539 29.2968929879
13.9134 20.926 8.43086 32.4602413785
11.1208 29.1548 11.2127 30.9292106167
13.4138 24.7354 7.43816 27.5992995288
13.0542 18.0916 8.05984 28.7442303362
13.4726 17.3343 5.11464 32.6467403353
15.9158 17.0611 4.11051 33.5215040977
17.5891 23.5591 8.95193 31.0200838486
15.0138 27.1986 12.0045 30.8779677799
15.114 25.0507 9.77262 30.4295190696
10.4506 20.2866 10.9535 29.8707679721
17.3368 29.012 3.85939 31.4325921333
19.0273 29.6494 7.88815 32.4432642639
13.6851 29.0137 10.4382 29.7650311989
18.1287 25.2531 6.22008 28.6199782394
10.0455 19.6036 6.62633 28.5295860646
11.0032 32.0582 3.90654 28.4228144922
15.61 19.7278 12.2845 26.7165097994
10.169 23.9649 12.0099 29.1663595567
15.6706 30.2425 17.9744 30.1780520172
13.9534 32.2172 16.6056 28.5860909742
16.8233 19.3052 17.1638 29.4094821194
16.5215 17.755 14.293 30.6058552355
9.86236 22.154 15.8474 30.4045147032
14.2604 19.2747 15.2763 27.7167153952
13.845 19.2497 18.3041 30.0794677757
11.329 32.5775 19.9549 29.4650634489
14.7898 23.1864 17.4516 27.8279142646
14.7269 23.5214 14.806 29.9018407235
16.5318 22.4165 13.0468 30.055299053
16.3813 26.7628 20.6608 28.4665218818
13.5075 28.0727 15.7417 29.1074691058
13.4299 25.771 13.9502 33.0640491982
17.0906 22.1207 20.622 30.6795982154
17.3838 18.6874 20.0274 30.3704216293
12.7495 21.7964 14.9884 31.0431838825
10.9847 31.5394 17.018 28.9864027552
17.9165 28.875 20.2191 28.9088663005
19.5255 25.8191 15.5161 31.0572986535
10.4677 27.7809 15.2836 31.9055246828
12.1768 17.1244 19.6079 28.8319533641
13.5033 30.3073 19.8079 25.8009004709
17.0538 27.1642 14.1088 30.2301910574
17.873 29.3852 12.6404 28.6035506308
12.4466 17.4368 14.165 28.840223664
15.4927 25.6097 18.2487 32.7953486082
10.2145 20.0435 18.6521 28.1650856576
12.9932 21.8773 19.1357 26.4909523036
13.8086 30.5921 14.3894 31.0712932686
16.3982 27.6711 16.5833 28.0808204711
17.4708 31.9172 18.9696 28.2239446943
17.388 22.0423 17.8295 33.1565979485
11.8212 28.803 18.0098 27.7569202164
18.1567 20.956 14.7709 31.4052840322
11.1986 23.867 18.1028 33.8952144411
18.9154 24.3882 13.091 29.886677517
12.7333 26.2827 19.0242 31.9717129062
18.9004 27.6239 17.7186 34.3737720682
11.4303 31.0939 13.3238 31.4664500955
19.5702 18.2521 15.4547 33.0925252383
14.8438 16.448 16.8323 29.7052771977
11.055 26.6355 12.6595 31.1975018951
15.9886 31.2935 12.5932 29.8608042304
9.94527 18.1347 12.8711 29.7327988493
19.0427 32.0567 16.5242 29.9123016197
11.5768 19.285 21.0947 29.1093115846
13.1378 17.2358 24.1927 93.0764976063
14.906 19.5751 24.0687 72.2958956437
19.5215 17.1862 24.3966 88.3499445292
17.6914 19.2265 23.9527 57.2610538864
14.0711 22.5765 24.3154 81.1092792397
18.5597 22.0039 24.3301 99.7057909966
18.1946 31.4773 23.8092 39.0954509641
14.1689 26.2084 24.1996 77.0384694863
11.2991 27.0807 24.4167 80.1598140813
16.4808 24.0586 24.3257 84.5588664622
18.0106 28.7342 23.2534 34.0511048027
12.5041 25.532 21.9148 28.8532890705
15.6515 32.6116 24.481 88.0817751014
13.0346 31.0359 24.1952 66.0393201027
15.4781 28.8353 23.776 61.8054368113
11.419 22.9258 21.294 26.1377664299
17.7261 24.5301 21.71 33.0970485028
11.1756 23.0884 24.1493 71.6404166183
11.5024 29.5638 22.5146 28.0236549937
10.5815 18.5984 23.8759 63.4829821423
19.0245 20.065 21.486 30.8022386665
19.096 32.2385 21.3789 28.7641655157
14.2178 28.0744 21.3902 25.9699786567
14.4933 21.5407 21.771 30.1072058005
14.2593 31.9966 21.7966 30.0547786886
14.8827 18.491 21.2483 29.5734561849
18.2604 18.3144 37.652 27.5274389199
11.9705 20.9848 35.7417 82.3215021922
18.2161 31.2954 38.3378 30.3317269707
12.9155 18.3909 36.2545 35.7183708688
11.2721 18.5423 38.4879 26.752459771
18.7956 27.7095 35.7458 67.6958898959
13.5765 23.4787 38.5242 28.7550135063
17.8453 21.5069 37.9602 28.3214103618
12.0237 21.1237 38.7211 30.1204063441
13.5666 31.8074 36.0742 55.8495634735
15.4784 19.0561 35.9979 65.3567173396
16.421 22.0725 35.4839 92.0781934307
13.9258 22.9748 35.75 67.3061153177
17.6883 24.7986 35.506 89.9282227679
12.9849 28.8457 38.6631 29.8291802471
18.4212 30.5835 35.7145 69.5147413578
12.3515 26.0733 35.8002 79.1218159302
12.4624 29.1732 35.9904 69.2379169056
19.0014 27.3922 38.7467 29.6606556419
15.0619 26.2598 36.1558 52.347921105
15.7784 28.948 36.3908 47.2081126255
16.3827 24.2568 38.2108 29.3840521804
15.2556 21.4426 39.7856 28.6079245735
17.0237 20.5336 45.2465 28.6934781727
15.8146 18.9127 39.0078 26.5559685617
16.2427 18.2059 43.6228 29.6466167123
17.5448 18.8099 41.3333 33.1959609181
19.5975 30.5909 47.3278 28.1771168235
13.7585 19.0436 42.4552 29.6614616932
15.4518 23.1834 45.0154 31.5731444465
11.0083 32.5795 42.5525 29.2938561946
16.2957 27.0536 42.7636 29.286347869
13.255 27.1433 45.9077 30.7188644485
17.7644 21.5021 42.2994 28.8923178603
10.8924 23.962 40.7944 26.7076979805
12.5534 24.0952 42.8458 29.5885028638
15.6188 28.9757 44.6848 29.2709069856
17.4825 25.9587 40.3073 31.9873373662
16.5155 29.8741 41.7764 32.830372359
13.4817 17.7242 40.0189 29.4043562574
13.6186 26.5364 41.9167 31.4106297559
14.3444 31.3279 43.7757 28.0494171748
11.7832 30.9984 45.2991 29.1918064006
11.5086 28.9269 47.207 30.8352657193
14.6094 19.0742 46.5381 29.9627385493
10.8047 16.4867 40.9997 28.3680861892
14.576 22.0448 42.4455 32.7445337773
10.6347 20.2222 42.8274 32.4848646764
12.0892 28.3374 43.2537 28.3691069913
12.6936 26.2008 39.3433 29.7699391596
11.8843 20.2054 45.5324 26.9228091154
10.9865 30.0938 41.4549 25.8113645691
18.6272 24.3984 42.4758 32.6807982292
16.8207 30.6703 46.8153 30.7116176619
11.7263 17.3487 45.5957 31.2965513031
17.4125 25.5599 45.0818 30.5813670071
11.5125 24.8443 45.454 27.2186367917
13.8531 30.7843 40.8494 28.8194097856
9.8603 21.6108 40.3301 27.6462609982
18.8171 28.6449 45.1014 29.4731231764
13.0083 22.7027 46.0697 27.27173672
16.6334 29.3417 39.0641 29.7598334443
19.1818 30.4367 43.0782 35.2362171787
19.4669 22.567 39.7909 27.8726809768
9.99463 29.484 38.9383 27.0457880125
17.7517 31.0403 50.3845 25.0340315836
18.6628 22.3766 52.1388 31.9025362436
18.1175 21.6551 54.777 29.8223014249
18.2628 24.4446 56.144 33.911396596
10.3536 30.4785 53.9074 29.794471012
16.8389 17.9057 50.7818 29.9916962567
16.9471 29.3134 54.0598 29.3531280287
12.3849 23.6745 52.0156 33.1067565706
11.7797 19.2821 56.3501 32.9305283328
16.4476 23.8113 50.9884 31.2645969978
11.0355 17.1413 54.6699 32.5589557726
11.2692 27.9413 51.3933 26.849872892
14.3167 27.1078 48.5081 31.0106881973
12.0109 32.1222 50.532 27.9603736058
11.0585 24.5002 54.4792 26.8822729909
17.5998 26.4263 50.7565 31.1250392829
12.6108 22.6641 48.8313 28.7397316829
12.718 29.4535 49.6528 26.3880728953
12.0482 20.778 52.1167 34.7935491559
12.3928 19.697 49.3512 27.729906952
11.9672 17.0264 49.8763 33.6307327311
18.0302 31.7005 53.198 26.0074689128
14.9734 24.1202 53.1761 30.5150502829
13.6376 19.9045 54.3188 30.0839685193
13.4597 26.2296 55.0141 34.79097883
14.8452 17.7456 52.9081 33.0122666078
12.1086 25.6871 49.9439 31.4081071299
18.882 20.1188 50.4991 29.9310606284
19.3416 18.1224 54.0639 29.3625308356
15.2762 21.9974 54.8683 33.0677900084
13.6612 30.7117 55.8401 31.1709721452
15.2191 31.8774 48.8125 28.3691499628
10.2597 24.5109 48.1201 28.7378064302
18.2248 21.3806 47.9487 29.9639932542
15.2942 19.8704 49.1844 32.8181584592
15.5739 22.902 48.4963 28.236560134
16.8577 19.0989 55.0886 34.7460538774
14.7692 29.8139 52.44 28.247140437
19.1377 24.7171 48.4695 31.9389962421
12.736 28.648 53.8219 30.2281731815
16.1235 28.9112 50.0974 30.3291116768
17.212 26.345 53.8062 36.5475434527
17.8034 18.3348 47.8351 28.3781052019
14.9702 32.7135 52.2113 27.9858633368
15.8323 32.4783 55.0672 27.4579504982
9.72934 27.0192 47.7242 26.6723429018
16.5063 25.4962 47.6404 29.968138794
12.4129 32.4348 47.6928 29.537721542
10.3073 20.5839 47.8518 31.1155931617
14.0216 34.747 5.70659 30.1742181279
17.1109 36.7097 5.58062 26.3621405236
19.0568 41.6048 11.3348 31.0880540671
12.559 33.1834 9.51389 31.221474234
14.7685 40.3185 11.62 32.9921042469
11.6678 37.546 11.1869 29.2951744594
11.2171 39.3101 3.988 26.3935862184
14.8002 45.5051 9.27684 30.4129310239
9.9334 37.0672 5.45118 27.8236054884
15.2488 37.7943 8.06194 29.4314842725
12.2925 40.1373 10.4962 32.376112743
19.5637 47.1705 6.68125 28.5576977323
18.8301 32.9613 9.36226 34.1761646691
17.542 48.3933 10.4869 30.7410794144
16.3158 43.261 7.77665 31.2254659644
10.0002 37.231 8.57743 29.9867071359
17.0646 40.3168 9.93762 30.0150414211
18.0736 46.2163 4.26891 26.2626492768
13.5643 44.1168 4.75253 32.3496478667
11.9568 46.4928 4.38544 31.9372683727
18.5293 34.2551 6.62069 28.0773113046
17.1265 46.6658 8.1731 27.9471498463
15.5895 48.9858 7.20096 30.5959675389
13.5472 35.9098 9.4718 27.7429834249
15.7251 35.481 11.6253 32.1997838782
11.6126 44.4795 10.1715 33.0188223854
13.2327 47.8693 8.76037 31.7036105354
15.5523 38.943 4.51971 28.1371312989
16.386 40.2763 7.01306 29.7235826672
13.1484 39.2786 6.11208 26.2272143212
11.081 47.9201 6.52074 31.3880725121
12.3903 36.9012 6.87317 27.8961001971
11.1361 42.0382 4.49786 30.9476809365
17.2065 37.4947 10.3754 28.7530574857
11.985 41.0894 7.86956 30.6677628126
16.2655 48.3868 4.49835 29.5379838653
11.8733 47.2364 11.1003 33.1204576655
18.2703 44.018 6.34426 28.2219603009
15.6973 34.3627 7.4836 29.0893333569
13.0242 43.5578 7.61553 35.2334421289
17.65 43.9349 10.3078 28.1826818663
15.6302 44.9359 12.285 34.6484823758
17.9051 32.7429 4.01049 27.8676735056
19.0777 39.9144 6.73361 34.2962228969
11.7653 34.0486 12.0366 32.0468145352
15.7014 35.2826 3.66504 28.7301515888
18.3761 48.75 16.1058 28.2952185767
12.9252 44.8845 13.1853 30.9563726518
16.6166 47.6801 18.0347 31.2249682654
16.8142 33.8542 16.1272 27.8280949872
18.2246 36.3848 16.2782 29.1124680737
19.3612 33.3552 13.3105 29.7479653078
10.6752 43.0501 14.2052 31.0102578724
11.3467 47.632 13.9689 32.3149440885
12.8697 34.6332 15.5944 28.79490747
13.5008 38.6683 18.6801 27.5979733526
16.765 38.9623 15.339 27.4529297788
15.4543 42.4553 13.2869 31.3065802627
17.0953 37.6992 20.9293 27.023848958
16.5748 33.6581 13.5332 29.5908198054
18.9222 44.9163 18.1319 32.5363394903
17.3339 41.5247 15.2484 34.0096007168
15.5571 49.0009 14.9247 30.4129458781
17.6083 47.3397 13.2514 32.1179453393
13.7285 47.0702 15.4559 35.7179718078
13.8066 46.1294 18.0298 28.6902691105
19.0922 46.5741 20.6939 28.4143816209
10.2457 37.0298 16.3877 28.1144319831
13.2801 36.3798 13.4229 27.6295940434
15.5306 33.7752 19.616 26.8056967254
17.1867 41.0947 19.5556 31.9590598205
11.6671 38.8082 14.422 30.8697815962
12.3675 36.2358 17.814 27.3619808051
15.2947 35.7536 17.7833 29.5523080867
10.9432 35.3848 20.1297 32.3094792325
19.2001 38.0024 18.4981 30.1569962839
15.1967 38.2017 13.4087 27.6502623024
16.2749 38.545 18.2005 25.5069589136
11.0715 47.0623 18.4874 32.6635295304
13.6771 39.643 15.9353 30.5405061394
13.2303 41.7539 19.882 31.1856137476
16.8069 43.2002 17.8485 32.5594068859
14.2743 43.4428 17.6432 33.161233729
10.1955 33.7029 15.021 27.7596756634
13.3344 42.2443 15.2176 31.8038101023
14.8747 45.8452 20.7585 29.8884593026
10.9155 39.9236 20.4337 27.7876461477
18.4892 37.625 13.1327 31.183419442
17.7745 34.9039 21.0017 29.4846853122
12.4583 35.619 24.1169 54.7325689954
19.4791 37.0925 24.1962 66.1523783925
19.4457 46.4664 23.8153 57.6045119678
15.0842 41.0987 21.5734 25.6239998669
11.2962 39.9399 23.902 53.699253319
11.4111 48.8728 23.7745 66.4140621758
14.8776 37.7558 24.4928 84.1135327364
16.4769 46.8216 24.3139 91.6708617684
13.5372 35.0691 21.3923 30.8834553969
15.8239 35.1823 24.5032 79.1063292486
17.2414 38.9384 23.6812 31.9309165986
13.9046 40.59 24.2306 69.5434867976
13.0525 43.6239 24.1618 64.3553455197
18.0752 41.4043 24.682 124.2920344265
18.5278 34.8427 23.6566 35.3155930006
13.6459 46.4217 24.5164 103.8500537616
16.1529 42.8585 23.5595 37.5412920356
13.6299 48.03 22.0715 26.6832248438
17.25 44.8573 21.8056 32.5476418189
11.3247 33.0616 24.3495 77.9548264486
10.1234 37.4284 24.4228 93.6180034413
9.99258 37.7083 21.5841 30.1700755008
12.9521 43.8286 21.4892 29.5787032095
14.4207 38.3108 21.4834 29.3221066888
19.4083 41.0516 21.7539 32.3430222845
10.1197 44.3776 24.3687 91.5089878703
10.1871 44.5027 21.7329 28.2850295373
14.0901 37.2849 35.8152 72.7479993413
11.2386 33.2557 36.0174 58.7239534794
17.2227 46.4286 35.6641 106.6384296185
16.2697 35.4048 36.1196 43.9947364851
13.4856 47.1788 37.5867 31.6190400667
9.83572 49.0383 38.3482 27.9390465793
18.7186 36.6961 35.4462 108.619914782
11.9512 35.7932 35.599 90.3073821161
14.8455 39.9349 36.2104 44.2382686335
12.4011 41.2944 35.4395 113.7177503074
11.2065 33.6518 38.7607 30.8052544523
16.9892 41.7925 35.8827 76.2370503549
13.0328 44.0655 36.0692 57.0455802651
11.9597 48.4086 35.5548 105.8511650322
16.1545 32.6899 35.5764 98.5412436019
18.6835 39.1787 36.2181 48.0513793671
10.7274 46.0654 38.2918 28.7875973358
15.7027 44.2217 36.3939 39.120560278
10.3242 44.8418 35.6792 82.999492073
10.1772 39.9381 36.3558 33.2032712149
16.5905 47.9733 38.3183 28.3427310925
17.5125 34.1127 38.4129 30.1888671914
19.6572 43.1776 35.7122 87.2293993186
17.9309 41.5923 38.776 26.9059657028
13.1034 40.9601 38.4817 28.6791714289
14.2897 36.9172 38.738 33.2856366381
12.4669 39.0539 42.5436 32.9606033786
16.887 34.9219 43.3479 34.4594887067
9.91677 42.5491 43.6914 32.5386360474
17.4688 37.7128 41.1601 28.9470039507
16.2025 35.2486 40.5119 31.290037675
10.1664 40.3319 42.3626 31.3182044439
14.5399 43.6327 40.847 27.5100182254
11.08 48.0327 42.0676 31.8664425317
13.7834 34.1085 41.987 33.500651832
15.8425 33.0733 45.3701 28.2227919795
17.277 47.2092 46.2043 31.3683298968
15.5316 47.4397 44.1048 29.0264220872
19.3799 33.299 46.6347 26.6000873469
17.4528 40.4873 47.4788 31.4611658643
12.0644 37.2706 47.0282 28.2198403395
11.6529 48.4723 46.8755 31.8935382
19.2492 40.9804 41.5785 27.9458886315
17.9381 44.5888 43.7569 28.1860600394
16.6745 43.8222 39.0388 30.0102366534
19.1615 33.0305 44.1144 31.1377510881
15.8746 47.5139 41.0388 27.2418218766
10.6332 45.0634 42.0708 36.258303664
18.3316 46.3278 41.932 26.8573218554
10.0422 42.9508 40.2214 28.5313712412
12.29 36.0154 43.7357 33.4718424665
15.8335 42.814 43.0315 29.1357100384
17.4287 37.0408 45.1617 34.7703830635
13.9793 33.0461 38.9626 33.2743518017
11.9844 38.2161 39.5542 32.9934622529
15.9018 39.5633 45.1974 32.1837423774
12.0906 41.7993 45.8399 30.2414448002
16.8941 40.002 42.7516 26.448330653
16.0742 39.4147 39.0583 28.4935209361
14.3933 40.6043 41.1324 30.0916347955
13.0271 48.518 40.0665 30.1913582942
13.1731 34.5746 46.1106 31.5177867633
14.0998 43.2192 44.988 32.1489935992
13.2958 39.0514 45.4562 32.6185818262
13.4867 45.8296 42.0952 28.6349289527
13.3071 45.9524 45.2003 34.8714034781
19.4637 38.1104 39.0234 29.773363733
17.6457 44.2667 46.771 34.0604862211
19.5427 48.6978 42.8899 31.8709560268
19.4426 38.6225 43.9872 27.4737999987
18.4262 45.9524 39.1415 28.8090927905
12.4995 43.6399 38.949 28.0252101255
14.6498 38.7376 50.9612 30.3046168408
17.9597 35.523 52.047 27.4168970474
12.7284 41.6026 53.644 29.4668757344
13.8195 48.2256 49.2006 33.3798527692
18.3392 48.6182 53.9118 30.4330463022
12.6029 38.5907 54.6452 29.8581475411
19.6354 37.5364 51.0977 30.9061154538
12.9036 41.5767 48.8112 30.0238323688
17.2945 41.5849 51.4035 26.8923119941
10.6463 44.5933 48.7638 31.8042861293
15.4048 42.7675 53.0887 28.9169247674
15.0643 43.6244 48.1841 27.7131743343
14.53 45.3527 53.7236 32.1668629205
15.5059 40.866 49.2943 28.5174730519
19.0248 43.7953 53.3618 28.9237262313
15.4141 35.4943 51.9727 29.093417506
19.0549 34.5619 54.4329 28.6031936808
18.7026 33.6565 50.0811 29.8764774013
12.9953 46.8385 51.4925 32.0602070195
17.4221 46.4906 50.6769 33.0904262054
9.93004 34.0992 50.8203 28.7713705122
13.9251 47.938 55.7253 32.1759049083
17.3691 45.988 53.4106 27.597744641
10.7683 43.7552 54.9784 34.1443632624
12.2608 35.5467 53.7233 26.9549214102
15.1328 36.8579 54.3013 27.126773104
15.5204 34.4962 47.9624 31.4786057435
17.2217 38.6706 54.7816 27.4917523906
12.4292 32.7996 53.7807 28.4778758291
12.2066 39.3396 51.8272 26.7462777996
10.8882 39.3189 48.5823 29.1615152805
11.637 36.1697 51.2928 26.7297648897
19.0936 38.5234 48.3754 32.0591214583
17.1753 38.9237 52.1024 28.2046585502
16.7515 41.4923 55.7613 30.0665516167
13.5084 36.5915 49.2896 33.8989673765
19.5789 42.0813 55.5947 30.0531072374
13.9319 41.4554 56.2594 27.7576208046
11.2253 42.3364 51.1446 30.3843976933
16.0267 44.2579 50.6511 30.8225844281
16.4911 48.2123 48.7253 31.7455565745
10.7729 45.2238 51.2768 31.4348598329
12.5569 48.8181 53.2211 31.992664363
18.9479 36.8682 55.8844 29.5373171003
13.0712 45.5353 48.0704 29.4822017534
10.806 34.8774 56.3563 31.2532836906
16.0306 44.3375 56.1452 29.8034087668
18.2577 35.7415 47.7409 32.9940610242
21.4837 10.8804 9.64206 33.1072081198
29.1077 2.18667 5.06422 34.153922982
28.5271 8.25026 11.6322 29.433533734
28.0961 15.2385 10.5909 29.1171193517
28.4992 3.97464 11.6554 35.6011505028
25.1816 3.03277 7.93338 32.0875640611
26.3058 1.75539 4.07497 32.4502760729
20.3166 0.739814 5.24275 28.4600105548
21.9499 6.67625 7.23713 30.4060672909
23.2507 4.60934 6.15832 33.7748668584
25.0952 7.7714 10.5071 30.2211061315
27.0532 6.80965 6.04549 29.4338265838
27.0445 4.9366 7.74532 30.6656613443
22.7465 8.71974 5.5731 33.8908645521
23.363 10.6901 7.66638 33.1866663819
25.8702 10.1325 9.23579 31.994102525
27.3253 9.2151 7.21303 31.9316997293
24.0201 12.9287 6.31859 30.222084579
27.2678 12.6328 9.40092 30.6173426436
26.4589 13.9535 6.87354 28.4716536156
27.5938 11.5368 5.52002 29.9978663091
24.5439 15.7542 8.33178 30.1509521681
21.2587 3.47783 4.39124 32.4590325104
22.5087 15.4919 6.40662 28.8137952249
19.8207 14.0931 4.62003 28.6470560527
19.9787 14.028 7.28726 36.8233650913
28.956 6.58871 4.0899 31.10229472
24.3131 1.81592 9.98647 30.5494716721
23.8817 15.1514 11.0588 35.3702122006
22.2759 4.00722 10.9374 32.4659920438
20.4336 10.1172 5.00477 30.5886944268
22.9708 6.29961 9.44547 30.9808794502
27.5564 6.18458 10.1851 32.8503889531
22.5295 12.6905 11.5631 34.2617249258
21.5447 8.33804 10.9644 33.3335583912
28.1705 12.2707 12.3522 30.5109013508
25.2952 0.799569 6.34779 28.7781686478
27.4745 16.1661 5.47482 28.835627223
24.9145 6.21906 4.66313 29.1837542078
21.5088 12.2353 3.60096 27.264000165
24.0801 15.8606 17.4267 31.9230482147
24.6666 1.55409 18.3035 27.228152843
28.8708 3.66596 16.8464 29.9194548208
20.6414 8.87812 19.3693 29.0058576393
23.3083 3.34552 16.8849 30.2469709287
22.6639 0.751033 14.259 27.7150663988
26.5179 5.71306 16.2842 35.6724066074
22.4904 13.2612 20.2247 32.2153893115
29.1223 13.0736 20.4285 29.8388754501
25.5024 7.32861 13.1382 31.4898953668
21.0051 2.13103 15.7476 27.617521398
27.6395 11.895 15.6686 27.7889550088
22.3996 6.57452 20.7987 28.8950344682
23.5805 14.1235 15.1176 31.549512643
23.883 10.9928 13.3272 35.8683351685
24.2862 11.3482 16.2031 29.2442474048
22.0555 12.3618 17.579 29.9596354814
26.1901 14.6235 13.1027 30.7720852416
28.8576 14.3156 14.9004 29.0939186412
24.1126 5.04466 14.6414 31.7145172131
26.6275 1.93501 12.5725 33.4483039077
20.5423 13.7419 13.1718 33.2682710294
26.9545 9.7593 13.4454 28.465912191
20.5381 13.7506 16.0219 28.3339971489
26.8418 3.10571 18.8065 35.426560624
24.2657 16.1959 20.9528 28.9885838946
27.2516 0.222715 14.4718 29.77989201
23.8493 2.78938 12.9628 30.3173110476
28.0058 7.88039 15.4744 28.5261462375
21.8059 2.82449 20.2578 28.4768937701
23.0582 8.81435 17.2908 33.0773908339
25.5941 7.96382 18.205 37.2348317605
20.0999 1.08236 18.0071 26.7214823598
22.0054 7.02797 15.5673 28.3202952816
26.218 12.3435 18.1272 32.2649384258
27.6792 9.69623 17.8252 27.6408582602
26.9549 14.7324 19.4564 28.7183980309
21.8455 5.0913 18.4199 30.1731683814
22.789 8.29532 13.4642 32.8517079869
20.1171 4.70743 12.6574 29.0500070807
29.6181 1.40558 15.5084 33.3928304071
20.0032 16.2648 17.0959 31.7530872539
20.0931 0.206806 21.0499 25.834616053
19.7276 14.1713 21.1477 31.004789662
24.9489 1.558 21.2372 28.2426008338
26.6985 4.79439 24.1278 66.0403928167
22.8004 0.230322 23.4128 32.437137897
27.2315 10.8031 24.4695 92.8624454272
22.0146 11.6901 22.4312 27.9159086431
24.865 2.01999 24.1374 63.0977665897
27.0568 7.94277 24.3512 79.7582898862
21.256 6.22802 24.337 61.1596061779
23.7141 4.80505 24.4585 99.4966374101
23.1215 9.05852 22.0519 35.8540718966
26.5503 4.67695 21.2495 29.6211856822
21.8463 8.69813 24.3985 96.4247098629
29.1024 7.27898 21.6835 31.4590480303
27.348 0.797552 24.4186 90.0834334504
23.0843 14.1333 24.5647 89.2689109826
20.675 12.6353 24.7449 107.6477152539
27.3954 15.3261 24.2817 67.0154823727
25.6863 13.1295 24.1477 55.5756168176
20.0976 0.336056 24.1039 86.7805504925
23.6911 4.24122 21.76 28.3268952042
25.0713 13.0726 21.4084 30.5859843549
27.1104 10.583 21.4602 32.7621434521
27.9873 1.62802 21.654 29.7957337077
26.0261 7.94336 21.4173 31.287561037
25.6477 15.786 35.9691 93.6163022412
22.9338 1.10147 35.3064 129.6472667644
20.9943 3.71915 36.1698 56.5612478069
27.5857 8.33763 36.6375 41.426754253
25.7986 1.31474 35.9243 52.9782585293
21.0201 8.39947 38.4528 25.6644339056
23.9649 3.75241 36.2536 45.6744120637
23.0126 7.7069 35.3618 130.966785039
28.5085 2.17223 35.5166 103.2000506181
23.9179 13.348 35.9765 72.6461005669
26.3667 14.9951 38.6188 26.2687068763
27.8081 4.78636 36.6524 34.8857072712
25.537 6.21261 36.0374 68.3562524563
21.4776 15.0464 35.8415 87.4558719525
27.4917 12.5372 38.3956 28.031685667
20.6767 6.53625 36.3275 40.3764371837
29.1572 11.4915 35.8649 88.2922417952
26.4089 11.1033 36.0728 74.316684326
20.2672 10.1781 36.5221 40.5283000196
23.1284 10.4085 36.1898 53.3673084911
24.3783 6.44454 38.6803 30.7501145131
20.8665 0.14693 36.7059 36.4011669916
23.1362 14.1254 38.7061 27.5935004484
24.5209 10.7344 38.5356 26.7967280506
20.3084 4.10909 42.4977 35.5508353755
23.4003 4.11765 43.579 31.5768982231
23.4486 1.43507 42.2149 31.1218041591
26.1652 1.38787 47.5077 28.8722030991
26.8538 7.38572 42.9553 33.9318428104
20.1591 6.15999 40.2403 28.4170926654
23.9001 8.61634 47.5049 30.00537356
24.2234 3.32652 39.1966 27.0289421937
25.5679 4.29302 41.7025 29.8504387304
26.191 1.15745 43.5462 28.772786858
21.4931 11.2745 42.0116 29.076557151
23.4078 8.68052 39.7832 26.2178529295
21.4605 13.0764 45.1846 32.7439781851
26.6672 11.6463 41.5222 28.1031140032
23.6876 12.3021 40.7965 28.9882158668
28.2352 0.282274 45.5793 28.1159046154
25.6718 14.3606 41.8634 30.5817040103
29.4158 12.4494 41.753 36.6425149236
20.5411 14.4574 39.2225 27.0496609412
20.0909 1.87995 40.5827 29.8188308612
27.8175 3.069 42.8074 26.1744265252
19.8562 -0.00121448 45.8835 34.3517634897
24.3984 2.40296 45.6368 26.3189704418
27.9189 16.0838 42.1031 29.9001032892
20.636 5.74019 47.1527 32.4676602575
21.9174 7.89633 45.48 31.9317020937
19.7948 14.1269 41.8001 33.1340071024
28.2319 8.39667 47.0493 29.4687925026
21.9568 6.95199 42.7019 30.1376584926
19.7901 10.1327 40.1729 28.688477581
25.5088 5.89282 45.0454 32.1874240358
20.6374 10.2286 44.8457 31.471488012
22.9083 0.0787174 45.5694 33.6685509278
27.5155 15.1995 47.0512 34.7307410694
23.5339 9.14358 42.433 29.7307138227
25.9883 10.2656 43.6454 36.4794249217
28.0438 10.9669 47.1561 35.3021007367
25.0983 10.919 46.3138 31.1576253954
26.7276 6.7591 40.2154 28.893373453
25.1274 13.6887 46.8442 31.5557696026
24.0746 14.0631 44.4394 34.8487873866
22.6191 0.665829 39.3329 27.6359425775
28.3991 2.31273 40.2017 30.5692723143
28.137 4.72137 45.0592 26.6038380559
27.2333 9.3861 39.4032 28.5411805604
28.9038 4.87811 39.1737 29.2698573812
29.1949 7.16954 44.7329 30.0460400896
22.4108 11.7174 47.5603 32.155026037
21.4166 3.88947 39.0815 30.3861169862
26.0643 1.29209 38.8331 28.065635861
20.5437 0.248522 52.1563 31.0847790333
20.5398 6.36619 49.8462 32.072769692
24.1683 13.0394 56.3153 26.380938488
20.0037 3.97445 51.1372 30.0143470338
28.287 8.83658 51.1793 28.700405677
24.0155 1.29719 49.4987 28.9667300128
24.2668 4.62977 51.8606 31.5648630573
24.4282 4.51295 48.9657 30.4839359849
22.5441 8.60632 49.6557 32.0399053591
23.8819 10.0095 51.7682 31.0207527188
27.7237 5.05777 54.7682 28.060488384
26.4053 6.23919 52.6467 29.8046690929
27.4903 6.38765 50.3804 29.5432167207
26.1835 9.10648 53.0011 29.9355539129
27.463 12.9168 52.031 27.0586885687
21.2163 13.227 51.2301 30.2192663406
28.894 14.9982 55.9557 27.1583006146
29.4697 0.699657 48.7159 32.7915649541
28.7432 11.3854 50.0912 29.6186861634
25.4062 4.24043 55.7783 28.7081251675
28.4099 15.4803 50.9615 29.5326188561
28.4694 3.32335 50.1867 29.2253347027
24.948 12.3183 50.931 32.7990378916
23.7836 13.0401 53.5861 28.0891087661
23.5647 13.9565 49.1971 35.0178376656
22.9757 3.14926 55.0523 31.1462231902
22.4445 0.31345 54.004 32.5158829008
24.6385 8.65434 55.8135 34.9899875387
28.4414 12.6614 54.4988 30.8404872553
20.7062 7.19016 54.1819 30.6012794485
22.3135 9.29789 54.0534 31.6709710833
26.2147 11.2357 55.9716 29.0540274303
27.677 2.56044 53.0839 29.2090079291
29.5122 0.549854 53.9935 25.300130287
20.7134 14.9083 54.1193 29.3400933717
24.8263 1.7912 52.5485 33.4054776541
20.8578 11.7152 53.7601 27.8698452066
20.5977 10.3636 49.6272 31.483955973
22.2256 16.2567 50.332 34.5091513974
21.9958 4.84822 53.0712 33.1784807416
23.0774 16.1232 52.9993 28.4612578598
21.3244 1.861 50.0106 28.9107451506
28.5014 9.07723 55.3644 29.4645150355
27.7833 0.135004 51.1936 29.5517143281
25.7578 15.2123 53.1787 28.4500962808
29.5961 13.9566 48.513 27.7649114283
25.633 15.4335 56.0817 29.7658361775
25.9584 6.87063 47.754 27.7035335978
22.5373 3.52568 47.7132 29.7267439088
27.2555 4.01373 47.7046 28.2385988821
23.942 20.0593 4.27641 32.5180109417
20.1014 19.8977 6.81509 31.1058160724
26.2876 28.5474 4.15156 27.2534325424
20.3998 30.8628 3.68226 30.9958769263
19.9912 27.6996 3.81924 27.6204293008
20.4954 25.1919 9.54048 28.7040177098
26.1796 17.8262 8.19679 28.7858235875
24.5431 23.25 6.13085 32.2631886029
25.4418 20.5018 6.88564 26.7426276775
25.3044 29.8093 11.283 29.7134790612
25.4227 25.7493 5.21306 27.2481821077
27.5126 26.414 6.69295 28.8346848046
23.792 23.0977 11.0244 30.096155635
23.5004 17.2453 4.07594 31.6569531403
24.9749 30.5357 6.8704 30.5036860596
24.1129 27.863 6.64371 29.3934133699
24.3576 20.2683 10.8743 30.8632060374
27.3873 30.7051 8.41715 27.488641178
28.9914 25.1374 4.6425 28.0896428717
21.3759 22.1481 9.51593 28.9316607949
22.6274 29.3742 11.8538 30.5000512956
24.6413 32.2949 9.90384 26.9408510018
27.8676 24.6942 9.09903 31.9544588309
21.5398 17.4847 8.63031 31.1944082591
22.9749 32.5228 4.47875 28.5677454778
27.025 19.1957 10.3692 29.3685126069
23.0033 32.7373 7.28663 31.4145608569
28.0394 17.3471 12.3993 30.5025713407
26.9246 32.0222 5.07126 27.2841551145
24.89 24.2686 8.64497 30.2197242445
21.8155 22.8536 6.78636 28.9171872806
23.0017 19.9105 8.23398 30.0772155922
21.3612 28.1601 6.11726 35.1958999651
27.4892 22.2774 7.46583 29.0043255012
28.6885 20.9477 9.62155 30.1934878723
22.0683 26.6682 11.0243 27.3287416594
24.0161 26.9603 9.1027 30.5167391198
26.3882 27.267 10.6916 30.1222921411
20.236 32.0015 6.42194 30.1092686792
27.995 31.9436 10.9335 28.1165923137
27.2143 19.0721 5.02367 29.7522119996
20.6681 25.4361 6.80171 26.3416304526
29.1691 22.4674 5.27317 33.4841979617
28.5042 28.8627 6.33212 26.0394635796
23.528 17.8814 12.5487 32.5181075749
19.8965 22.0065 4.57691 33.7844433224
20.327 30.9679 11.0458 29.7164356275
20.6464 16.9293 3.59661 32.7918672459
28.961 16.9071 7.99865 28.9081370174
29.1207 27.84 10.2096 28.3619931405
20.8602 25.1165 4.05809 29.1992292743
19.9041 16.7595 10.6888 34.0360021613
20.3651 22.0556 12.3978 32.8231669981
25.8912 21.5196 13.2917 31.027097737
27.7574 17.1509 15.4484 25.1585593743
25.1976 23.6118 17.357 31.5031878719
29.2926 23.7758 14.9842 26.8633189888
27.0027 27.1023 15.1991 33.0433685338
27.8263 21.3494 17.4167 31.3846397912
28.7424 26.3681 19.0131 30.2718998939
28.6033 30.9752 15.4109 29.3160651774
23.9868 25.3302 21.1232 25.3715058459
24.3987 30.2175 17.9745 26.595259134
19.842 23.1015 16.5326 32.0221727305
21.9599 23.3071 14.6013 26.6932742987
26.0939 27.163 20.3077 33.228551775
27.7704 20.0488 14.9755 30.7530571593
23.219 25.1861 12.7437 26.0475104411
24.6847 23.0439 19.9876 28.2349820092
29.1427 28.4913 14.3539 27.938667387
26.2501 31.3193 13.5524 29.1380164343
21.8406 31.6214 17.8603 28.6432215531
25.1729 16.8098 14.8194 30.0169327113
22.7944 28.9962 14.7454 28.3917494736
19.7487 30.4827 14.171 31.9401897298
25.3066 29.4845 15.6305 30.1138325761
27.7108 24.9125 16.7975 29.4392563544
22.0342 17.4482 18.7911 33.139862385
26.0483 29.9623 20.5032 28.8691114314
23.2488 19.4269 16.8157 33.3388627328
25.5924 19.8078 18.8049 28.9515226481
21.8199 31.5256 20.7381 26.2347541287
25.648 25.9079 13.0906 31.3608981601
27.4564 31.3486 18.0067 27.0614754402
22.2058 26.153 15.5393 29.6898598845
22.5023 21.398 19.1711 33.8079360788
21.1003 23.7197 18.9215 31.9826668879
21.9425 19.9276 13.834 33.1239880925
24.1214 21.8295 15.4571 29.2988216215
29.3071 32.3835 19.7914 26.911719148
21.3771 28.9536 17.205 27.4841586998
27.4419 23.6117 12.9681 30.8886000264
23.274 28.1637 19.4617 27.8757894872
22.972 25.4323 18.1894 29.7605990027
20.9017 16.7469 13.2902 32.9206112011
23.0608 32.0587 14.1462 30.7478989399
26.7574 17.2706 18.0711 27.5610183508
20.7103 29.0004 20.7595 30.2944218389
29.4519 29.1583 18.1884 29.6444211725
27.2929 16.8429 21.8127 27.4580983289
21.867 18.4034 24.6271 103.4991017923
20.5868 24.709 21.6975 32.1412663973
26.0088 17.8721 24.6038 90.7397770045
27.8159 29.4221 24.028 65.4406564888
20.8732 31.3852 24.9007 122.1022488727
22.0839 20.3612 22.0304 31.5245119919
26.3381 31.7316 24.4053 92.1218048824
24.4583 20.2411 24.2549 64.9164590311
25.8553 22.8219 24.3571 77.4561762906
28.2641 19.6475 24.1733 57.7205942722
27.9342 24.9566 24.1955 63.81956124
24.1977 26.8803 24.8673 124.2983009648
23.8677 24.4187 23.8279 38.7142408506
20.2565 27.4607 24.4753 113.2708711024
21.9946 26.9138 22.3187 25.6831046542
21.4748 22.8187 23.6263 58.4310537484
22.9163 29.3294 24.3735 55.2938203679
24.1166 31.0678 22.4687 30.4551880971
26.4389 27.0336 23.3949 30.0273454561
26.8686 22.391 21.6006 31.668393371
23.3539 16.4292 23.5754 29.9133964526
28.6318 29.9784 21.4718 28.6368004919
25.1676 19.0085 21.4845 27.7884803183
20.4266 17.2546 21.3072 31.2997494672
28.0857 19.7935 21.2346 27.9447480785
29.1666 24.2639 21.5282 29.5790244442
24.6694 20.476 37.7917 32.0267690228
20.7693 32.1417 35.73 66.187089502
26.9683 22.0466 35.4855 113.9647173701
28.1834 26.8696 36.2585 65.3438429872
21.7008 17.6991 36.5344 54.1802754276
28.5953 24.1208 35.8717 66.507373203
28.6516 19.7019 35.9149 70.5443577728
28.244 16.8006 35.8915 75.7587770781
26.3595 30.3898 36.1678 61.7334613602
29.1079 30.6264 36.1398 66.2151809569
24.3274 17.7019 37.6199 33.0046129626
24.1869 22.8266 36.1394 61.8298639849
25.2101 27.5307 36.1953 55.9524932341
21.5686 22.3392 36.4615 43.0623858847
21.6553 27.8458 35.72 67.3087007
20.0357 19.9627 35.9199 106.0485651772
23.3987 25.4669 35.8931 71.0761071582
20.5733 24.726 35.9958 58.2601556327
23.0792 30.2236 35.5778 90.2787899377
23.4204 27.49 38.5543 26.6728312899
27.3892 20.475 38.2642 28.6353232968
23.8181 30.903 38.4133 29.0073499667
20.8403 31.5389 38.4807 27.1707674723
20.3855 24.7545 38.5985 27.7783296206
29.5061 32.1378 38.7692 27.2268509552
25.2684 23.7715 38.5779 26.1630349341
28.5254 16.311 38.5011 29.6555192755
26.2875 29.1989 38.7735 33.1345811785
28.38 23.1698 38.5282 28.6507398776
22.1242 18.7031 41.3505 28.0006300003
21.9825 19.6932 47.4035 29.5157123616
20.1906 16.9701 47.5641 31.0749590654
25.4296 20.5761 42.3229 33.1591314153
23.7498 16.5517 40.1557 29.3445514013
21.2913 25.3028 41.9284 27.0276508235
19.9783 20.02 45.169 32.6029834557
22.6653 23.171 42.6113 24.5920608
23.4406 27.9291 45.7919 28.2772202412
24.7428 26.1786 42.2055 31.9775443915
21.8202 29.7097 42.1319 31.8965217082
20.1966 26.391 46.2993 27.1931071752
21.3796 28.9275 39.3511 29.133672031
23.6937 17.0448 44.9528 36.2691832551
25.578 28.6411 43.6052 30.4932118341
24.2863 30.8895 42.1649 31.5475923261
27.5305 22.3929 43.5651 30.0717513673
27.539 26.7376 44.8055 28.5911875321
23.2574 32.6152 44.0835 28.8867423573
26.3735 32.6792 41.5022 26.8861809841
29.4298 21.0882 44.8692 33.3553518033
28.8732 23.4901 41.2739 30.1429040161
26.694 25.8304 38.9391 27.2381516754
20.8479 21.1542 42.5404 30.8709560502
28.1335 30.7532 40.6773 29.4413676561
23.3131 25.3218 39.852 25.066466106
27.597 19.0551 46.4425 36.7328503614
24.642 19.3369 46.4275 33.9391888285
24.7817 17.9131 42.3716 29.6299481201
28.1019 16.545 44.8333 36.2404695898
27.565 26.1839 41.8107 29.5314439496
22.2894 30.8588 46.0814 30.0347544019
26.5757 28.8563 46.7534 31.0387099592
21.8014 24.0477 45.5702 31.116457945
27.0205 24.0448 45.5279 27.9249592876
24.4203 22.0346 44.6945 33.1520559894
26.1601 31.6485 46.8617 30.022482252
27.4973 18.229 40.47 31.0398166792
24.2833 25.0029 45.0905 25.5374601526
21.4959 27.3024 43.5449 29.7404123852
20.9066 17.4001 44.7256 27.4734503178
24.0356 22.1592 40.5222 27.6018910727
28.577 29.2244 43.2268 33.561814714
21.9758 20.8178 39.2158 29.8635806708
20.0448 17.0668 42.1694 30.1189382048
20.3871 17.3536 39.0486 28.2024632248
24.7773 25.9276 55.3646 30.340713807
23.0537 18.6502 54.0152 26.9724863786
25.0459 23.1776 53.6346 33.1071603298
26.6387 17.8774 52.9411 29.529468944
24.7116 20.7383 52.6836 29.7660496468
23.5583 21.0162 50.2338 28.9013560998
27.283 25.5624 50.7846 31.0291313563
23.9019 31.2158 48.3609 27.3166566345
25.8793 20.7705 48.7947 31.1428015245
24.9902 24.6411 51.3763 31.0365709006
20.2562 29.9822 50.1364 29.0066697931
24.2025 28.4526 54.5107 32.9968499912
27.2423 19.5616 50.8069 30.6593077339
26.9822 28.2387 50.5531 28.5609152548
28.7803 28.7848 48.6079 32.6550613104
26.4693 23.4212 48.2863 31.6820708619
22.4274 31.6 51.1314 27.7140697078
22.6915 26.5313 50.575 28.8977031046
20.9074 19.7926 52.7356 27.6543865165
20.6646 31.1644 53.4901 27.9935150682
27.9618 30.5712 52.1363 27.3098344849
29.0158 17.1164 53.9574 29.396078423
21.5588 27.8272 48.2691 29.0427295765
28.6059 28.6865 54.7288 28.8406446197
20.2086 27.4684 51.7821 31.1610829155
29.3374 24.1281 48.7223 30.760797684
26.7198 32.5024 54.3362 27.9212744816
29.0176 31.6867 56.0027 27.0232805893
20.8133 24.4064 51.9806 32.1418442384
21.5987 18.8809 50.0352 28.6783360152
25.7656 32.2236 51.2962 29.8835099342
21.4695 28.6061 54.3283 31.8431868693
21.7519 21.4986 55.2618 32.5505250686
22.3402 24.1249 54.5012 32.1757337425
24.1317 25.0584 48.0466 30.5644978116
27.8758 22.1536 55.6251 33.9253559368
24.4215 29.5999 51.6606 31.059351529
27.5781 26.1088 55.0831 28.3649890694
25.9414 19.5305 55.3614 28.4070364058
24.5244 28.3987 48.8262 26.2765671862
22.5169 23.4846 49.9051 25.9662308567
27.6663 17.5356 48.8481 32.8489616115
29.0361 24.9595 53.1373 28.1359972137
25.0039 30.939 55.9616 31.2198142769
21.1484 22.5597 47.8167 28.9867165748
26.1296 40.6706 12.3423 29.4575231371
21.5868 37.2496 4.11016 30.4811162951
25.1275 41.1875 6.78306 29.5785737769
27.8931 40.4461 7.7741 26.0217549459
27.6119 39.1622 4.86504 31.0900064835
25.6667 37.3029 6.15217 33.3715133094
29.1919 39.8755 11.5224 26.545072434
26.8515 36.3762 8.79477 27.7614794071
26.281 48.8916 10.7938 30.1200710647
26.5822 41.8156 9.86933 31.2023696069
22.9065 48.594 5.63682 29.8761002051
22.6208 35.4137 6.61521 30.2406004076
20.1332 44.3728 8.81883 30.608622698
21.7928 41.9157 10.1647 31.2581364676
26.5705 33.6113 7.83274 27.7906702444
28.8787 47.2406 7.05379 30.3815190317
24.682 45.5328 9.06062 31.5415931921
24.2298 42.6972 8.41673 33.9868395601
23.4 39.0696 6.24698 27.9269004373
24.0562 46.4717 4.42669 29.8897279132
22.2823 46.0801 7.22906 28.2426127708
26.7366 42.6092 4.62919 32.1166413853
19.8338 37.2052 9.28693 25.9501469648
22.5412 32.9169 11.3705 28.6077205053
25.3238 34.587 5.20222 27.4780210153
23.0824 37.3351 8.71824 30.6566093817
29.4794 44.6138 9.65677 36.6548785979
