3.51564 39.923 47.9712 29.5862845444
2.96893 41.5132 52.9832 31.9952700997
3.00857 35.998 55.8306 30.1141803998
5.68304 46.3857 51.7948 28.6046067268
2.06183 44.3782 50.6196 28.5614364119
9.05699 45.8267 48.8776 29.30267574
7.4572 48.0483 50.4255 30.7147183584
2.10281 36.0178 48.7209 30.1915881514
6.15979 43.7378 54.2274 29.9764970617
9.3742 43.4996 50.7745 31.7998353006
2.94635 47.2668 51.2675 25.7744386951
7.36907 35.2299 54.7698 28.3329449239
9.82076 34.3733 55.8683 29.9322017931
7.89026 42.0658 55.3623 32.3566705183
3.9023 35.0703 53.1482 29.8332544447
8.362 36.4831 52.4613 26.871587948
4.06948 38.9604 56.442 34.0903306974
2.41471 32.7861 51.3258 31.2705717317
6.16966 39.8247 49.0373 29.6695510503
5.2277 38.8294 52.0985 31.0867144439
0.380346 48.8746 50.0552 30.7055169254
6.85214 42.247 50.3097 30.6809924965
2.952 41.3882 55.7371 29.3389247205
2.3132 38.9193 52.4738 30.4184773885
6.48476 47.381 47.5442 27.7288195689
9.57678 39.1492 52.6185 28.1034741499
4.09745 44.0757 56.2892 34.652016167
9.53838 45.213 53.2812 30.5792626031
0.739232 47.6394 52.5569 29.2084648313
-0.191283 44.8087 48.9709 31.3560446226
0.816789 37.6734 56.3671 30.6679685104
14.1266 3.52052 5.15169 33.1756639026
13.1045 4.67262 7.85582 38.905408342
14.3407 0.980363 6.155 35.450524129
13.6536 7.54623 7.23963 27.5112398465
15.883 8.03002 9.07733 29.9745763526
15.2947 7.21001 4.36056 30.2980801855
11.6461 3.50602 3.61494 29.5167341766
18.0394 4.44772 6.11593 29.1856145421
18.8718 15.6582 11.4043 27.9495217432
10.4928 8.47177 4.84817 26.5603863434
13.6265 9.60354 5.10506 29.6313342695
17.211 13.3725 10.328 28.1031278869
10.9929 9.94333 7.18181 26.6126621615
18.7374 9.77642 11.3292 30.3180253153
18.8448 6.79607 11.8399 30.9653069633
11.8576 0.480351 3.94396 31.9093596756
12.8366 14.1721 7.99862 33.4899457843
17.6348 0.10109 9.92346 29.7376632736
15.0393 13.7784 6.50446 29.784661471
10.7615 12.6729 7.23672 32.1452679121
17.3261 14.7154 7.81373 28.1359901192
11.8422 8.5659 11.5937 32.7171295351
10.6992 4.45465 11.6485 30.1800590098
10.7928 6.38964 7.06559 29.0856012447
16.6525 4.37731 10.7964 33.2882120729
18.4744 14.1332 4.10723 30.97570321
17.2117 7.66795 6.38558 29.8948005341
18.5837 11.2171 8.87493 30.1528044208
18.4902 1.84081 6.32118 30.8301321396
10.9859 12.6221 11.3632 27.2442279884
18.0824 5.62721 8.82839 27.764914585
12.3621 6.32015 4.27292 29.8314471386
15.3283 6.77548 11.4273 31.0397387748
16.3804 4.36753 3.65303 33.857425523
13.3091 1.14945 9.06237 32.1107069456
15.1991 1.71993 10.7913 35.5056493834
11.4436 2.94382 9.48437 29.9590952058
14.4904 14.5663 3.7794 30.747204634
13.0138 9.61626 9.21573 29.7019736097
13.4106 12.7611 10.3629 30.6847011061
15.5616 11.2224 5.948 27.0552943767
15.4787 11.1717 8.69315 29.5297394893
18.2812 10.4072 5.78316 29.4970361148
10.1243 7.80919 9.60955 27.6419014762
10.5086 3.98774 17.9455 30.020847219
16.8502 5.901 21.2828 29.294433605
11.035 15.8722 17.3762 27.1803619521
16.6379 4.70063 14.683 27.3657309545
10.1854 6.03962 15.8534 31.3587538209
9.96631 2.30121 13.3063 28.6086136078
17.8422 7.12279 16.6412 30.9961194007
14.3894 9.09171 15.2215 32.4452400292
14.9866 12.1473 14.4428 29.607704487
13.8465 8.78862 18.2035 29.2642876539
17.5271 11.7372 12.9263 32.044242522
12.3781 0.26061 16.447 35.7054405815
16.9954 0.763289 14.4015 29.9704265142
16.7251 8.53595 18.9857 30.921918195
10.5075 14.625 13.1295 31.1491901895
19.1412 13.9316 13.5589 30.1613421186
17.9962 15.2396 15.8491 35.1523185634
15.9696 13.4948 16.7993 31.7430258308
13.0635 3.05756 17.7365 28.2077508908
16.5931 7.2936 13.717 29.5592774221
13.9977 4.01825 15.0697 27.9614808493
17.3809 9.96415 15.7273 28.3586491874
10.6867 10.5823 12.8262 28.7792659064
12.8074 6.47376 15.3253 30.1342799875
12.7926 6.06616 12.5536 32.1185477409
10.9567 5.02694 20.4879 27.8623946557
14.5477 0.089252 13.1731 31.363696334
16.3808 4.88756 17.672 26.763374881
18.9875 0.58009 17.4634 31.5181300413
17.862 3.7713 19.8427 29.0639178454
12.3904 14.0979 15.3119 28.0793044025
11.0581 12.0733 17.62 26.0546407987
10.7512 9.54242 19.0795 29.6012793226
18.4333 2.58575 12.3036 25.9434330077
13.7716 11.8455 18.3001 26.8148184458
13.9613 5.83765 18.3574 27.3940903164
17.3 11.3731 18.2843 28.6589319123
16.5998 2.09836 16.949 30.041636849
12.4123 11.2097 14.8738 31.6416986142
10.8446 14.1115 19.7345 27.8630796004
12.8407 1.86821 14.1725 31.1615049949
14.7048 1.10321 18.8782 29.7492638683
13.689 14.5086 18.4451 29.2662100524
14.1389 15.7511 20.8633 34.9315617822
16.2267 1.42248 21.3327 27.6333526468
14.9108 14.0288 12.1287 31.2247719833
18.1407 12.0626 24.6449 102.1467110315
16.2304 11.5812 21.1035 31.005132343
19.05 14.8883 24.4373 72.3201488283
16.433 1.65896 23.849 43.019865441
13.8348 2.68716 24.0829 63.1894801628
17.4326 5.70817 23.9163 44.0904202275
17.2083 8.93539 24.3244 84.7572453201
12.2651 7.92133 21.1728 28.2359677461
14.6554 5.1948 24.1758 85.1596076093
13.1099 7.68761 23.8511 62.4202622115
10.237 7.47684 23.8547 57.6397964232
15.6158 12.6857 23.6568 42.4666049219
13.6799 10.7606 24.2647 91.6013671068
10.7569 14.8648 24.2991 95.7415383626
13.5997 10.4888 20.8736 28.6988872058
18.6747 3.30348 24.4683 112.5142525145
11.2265 12.1571 24.0995 58.6698993724
11.7026 0.761087 24.4716 96.5033760086
14.6884 15.5532 23.6773 51.2121988153
17.3613 16.1932 21.3061 37.869802548
10.5884 2.47127 21.7181 28.8669774903
17.5301 8.89427 21.5712 27.2599134506
13.7415 5.54306 20.9484 26.1613673082
13.5099 2.82113 21.5414 25.7980746017
11.031 11.8168 21.4563 29.9842089267
18.9635 13.8276 21.6432 31.4532896225
15.1269 1.49413 35.9445 65.8137730019
18.4781 5.6652 35.7904 72.9600144731
11.8844 11.493 37.7114 29.3074944158
11.9789 14.2297 38.4987 31.585735325
18.1139 1.76125 35.7386 75.0521056867
15.8795 4.37449 36.1169 45.9580205556
15.7239 15.0452 35.8315 87.2173270888
10.7359 6.12625 36.0478 54.4874333664
18.9851 7.88644 38.7323 30.9447025381
12.1046 4.00558 38.4348 27.6135116386
13.5911 6.08318 35.3528 104.6478578211
15.8175 12.4664 35.7411 70.6694595345
11.0699 6.51185 38.7683 29.057363492
18.5285 11.3172 38.573 29.3792694473
15.0136 8.65696 35.6221 70.1772811443
12.9123 3.32719 35.8075 68.8156919004
13.3107 10.8208 35.5372 85.8115644415
18.5987 11.4829 35.8489 63.9000349598
17.9547 8.38512 35.8172 70.3204391397
19.7348 16.0866 38.4194 28.7200606009
12.6085 15.3853 35.8563 62.9614050678
10.075 11.0501 35.5026 98.3286953237
18.7559 2.29636 38.5518 32.028819016
14.9988 5.56895 38.7068 31.3969937141
10.2938 1.61632 36.0652 56.07262746
16.6486 15.8524 38.2251 30.2100986841
15.1782 1.24937 38.765 29.7502522333
13.6933 7.88573 38.2198 31.0828761452
15.7866 12.724 38.7802 27.6245234195
10.3433 10.3738 46.3977 28.9754928388
13.9964 3.13272 40.3643 28.9145345847
19.3426 15.4067 46.1815 29.7616825338
14.1359 8.19486 46.1986 30.8294712368
17.7989 3.058 42.6176 28.7997550003
12.1361 1.67949 41.9028 28.9821451617
17.0186 9.31058 40.7236 28.3761487162
11.356 0.866926 46.179 30.9370998389
13.8243 4.48144 44.6001 31.8838089245
17.091 14.2147 41.2254 31.6179187386
17.3388 6.12385 40.1962 28.8502210371
18.268 8.4194 44.0811 29.8762624583
14.4948 11.0339 42.3725 29.0341030616
10.922 9.44274 42.5067 27.3603447881
12.8279 13.2574 42.2613 31.8219619496
19.2135 4.32232 40.7604 29.8678957806
13.7483 8.6242 43.5308 30.0347143731
18.1357 0.295929 42.4193 25.8382327205
11.4715 9.62739 39.6241 27.7534390422
17.065 13.7554 45.8818 33.8498347349
15.1388 15.8 45.4686 27.2913827264
16.9288 8.80013 46.5386 30.3570108277
9.84421 6.95969 41.4351 28.9457633594
17.5447 0.118508 46.364 30.5243950821
19.0613 4.18846 44.6742 33.9533784556
13.3414 1.90265 44.4259 31.6401973552
14.2567 14.5169 40.1584 26.9040267779
14.6455 10.374 39.5803 29.4666114735
16.7086 12.4337 43.3094 33.4462193999
15.7773 0.146012 43.8252 30.5577352194
14.9374 5.72971 46.7878 26.641262573
9.91533 3.21777 45.8227 29.7179806884
15.4352 4.40166 42.185 29.9047570299
16.0955 7.40096 42.6458 31.4822546021
11.7235 6.22267 43.5057 32.3224851273
10.0191 3.57071 43.0334 31.1515630318
12.6434 14.5917 46.0427 32.9637259922
17.5508 0.0356803 39.8558 29.56110854
10.1916 5.48649 47.3935 30.8228734598
10.5141 12.2452 41.4922 28.5350387037
11.8001 12.1596 44.5985 34.1216451263
17.3679 4.72876 47.0614 32.7733392002
15.1091 16.2979 42.4186 29.8202213052
18.8249 10.5598 42.535 29.5104116295
10.6935 7.73181 45.7414 30.5170926922
17.7806 11.2605 47.2362 28.0299978741
17.0939 2.3097 48.3504 32.7282961578
12.831 2.61639 49.7818 30.72782508
17.3569 5.8954 54.433 28.7751775583
12.3502 13.9175 48.8514 32.2008016801
10.7071 16.4984 47.7495 30.259527531
10.2824 14.3489 51.0377 31.00979345
15.6956 13.6306 53.5869 32.3719042394
13.9372 3.43388 52.0099 30.6991240031
19.3443 14.5894 48.8826 29.1953585884
19.1987 11.5796 51.874 31.4490376175
15.9347 6.66329 49.936 29.1086621353
16.4099 5.0184 51.9976 31.7203166647
18.2712 6.99522 48.1031 29.516921856
12.5165 12.3198 52.8763 34.9456296773
12.196 7.31087 50.2892 32.0908831857
14.6328 14.9775 50.2057 32.5783317787
18.1847 10.1753 55.7431 30.1082229113
17.0497 13.5118 50.5726 32.0101509316
10.9069 0.900858 49.1741 34.2126492584
15.9534 11.223 49.2267 35.8415688281
16.3957 8.46783 54.9004 28.1218593657
15.9257 9.07469 51.2331 31.4158933579
17.2651 0.497083 54.7041 37.5122637211
16.4087 12.3436 56.0187 28.4569033198
12.9867 5.07602 48.4838 31.8862933145
18.586 8.99752 52.5106 30.0079188532
11.5443 11.2097 48.7044 30.7777011836
10.5481 9.75236 55.2477 28.9068965765
11.4091 6.17336 54.5345 31.1649595407
18.4634 2.69333 55.8689 31.8279795084
11.7947 3.50203 53.7657 35.010317002
18.67 14.1234 53.7314 29.7483870501
11.8234 14.456 56.3919 33.3458520617
14.6071 0.866065 53.1333 36.5981750179
13.6962 6.68754 52.7349 31.6660945933
14.0872 9.4138 53.6777 35.7184057033
11.7693 14.9944 53.4011 33.9815094558
13.5414 9.46069 48.802 32.07435612
14.762 0.904231 48.8271 30.902422733
18.7178 2.94478 50.7984 33.1054750375
19.3348 7.22296 50.4078 31.8406292949
12.9724 11.7402 56.0394 32.5376840226
18.945 0.708676 52.3497 28.8413974862
14.5057 16.2057 52.681 29.1186904661
19.1402 16.4581 5.89141 29.7387603892
11.1079 23.3059 8.53811 34.4519756143
11.4232 18.4383 5.80243 32.2785816638
16.7555 18.5163 5.54191 30.3738193798
13.6564 19.9121 5.39477 32.2317769388
15.0541 32.5442 6.9001 31.0946017652
13.3707 21.1818 10.2289 29.7713067783
11.103 30.9977 5.36155 32.0163150827
13.2349 18.3061 10.0316 35.240755162
16.3786 25.9781 6.04972 28.3494540424
13.7582 21.8082 7.45284 31.163046725
9.78089 27.294 8.20196 34.0845285191
12.252 25.947 7.64904 33.2454643427
13.8971 28.3226 6.69465 29.286596399
17.7895 23.6985 6.29745 26.1931681803
11.8026 17.0227 8.05591 37.8095602407
19.6107 27.8785 8.30198 28.9969195376
9.96789 22.4305 5.77192 27.8837927589
16.7729 30.9335 5.95934 31.1872650573
11.4611 29.7763 7.75455 33.8166426547
15.1586 22.7398 11.6549 32.2885013279
18.1591 31.8123 11.1951 30.828496435
16.473 17.4174 11.0271 27.8655465455
14.5197 23.669 4.97863 29.0385102906
19.1553 19.0466 11.3197 29.4383996019
18.7235 20.366 5.09445 27.8627494347
16.043 29.6902 9.93769 28.203235035
13.6905 31.1252 9.00775 31.4082095713
18.3873 19.1639 8.15362 28.8589384841
16.2807 17.1087 8.30881 33.7733544673
18.3738 21.5455 10.479 26.7150006
16.5047 24.058 9.38553 27.5250909374
19.1103 32.3888 6.25144 30.7327462353
10.7966 22.1653 11.1693 33.3934335822
16.4263 21.7072 7.95716 30.2260323007
17.3487 22.543 3.99106 27.7097172686
13.6094 28.1702 4.02008 30.3872551695
16.915 28.6228 7.71767 27.9522606345
14.9013 26.3516 8.76649 30.2191381801
15.145 27.5897 11.2335 30.352012248
19.0292 25.4687 9.67198 30.7353271646
11.7706 24.5382 5.10126 29.4234773165
18.3187 26.9332 3.87552 29.9541839811
19.0403 28.5199 11.2748 30.7539081583
10.6877 30.7178 10.5133 36.4834650596
9.93518 28.8582 3.83844 28.8816572654
11.4562 20.9999 3.66376 29.6711154014
11.7692 19.1292 12.4747 26.8578132828
9.71961 16.7103 4.06497 33.0914183047
19.3479 22.8585 19.7713 35.8606254349
9.64617 21.0814 20.2433 27.6526089527
14.2592 18.9156 17.2682 31.144998191
16.4687 31.3699 19.9627 31.5934387829
11.2825 24.4735 16.4575 31.9129346869
11.9018 31.958 17.4137 31.5962902586
13.7266 22.3684 15.4726 26.6785002865
18.2446 20.8432 13.8616 26.4390542995
13.3894 26.4452 16.3081 28.9294759645
17.9544 27.2712 14.856 31.6640073148
18.5608 28.823 19.1544 28.2966971972
15.3337 30.201 13.1965 29.8583252276
13.0888 28.8689 14.6262 30.4648851714
13.3624 26.3218 13.0579 37.0260090326
16.4935 21.0059 21.1512 30.0018754042
10.3242 18.1399 15.4264 31.7534643448
15.2534 30.1204 16.8879 32.9483765786
17.616 30.037 14.6723 29.9029401997
19.4603 31.9111 13.7298 29.854143324
12.8542 29.6233 20.8896 29.8642309062
17.6542 32.0717 17.1409 29.3325255612
13.6586 22.2511 19.8777 28.688749547
16.9254 17.1418 14.2718 31.9032110241
17.7473 19.3604 16.1842 37.2347700256
16.4101 23.1281 18.8634 29.887295812
11.9391 26.3605 19.2268 27.7932443091
15.0904 24.4122 13.9671 25.5925798843
13.7423 31.7456 19.6553 28.4881367055
12.0827 21.6555 17.463 27.2379619987
11.0528 24.3403 13.4239 35.0018449382
12.2427 19.8812 21.0678 27.8354673889
15.8721 21.4524 16.7529 27.1239635083
14.1036 16.4741 15.6756 30.4648793224
10.589 21.1648 14.2906 29.7738972086
12.315 28.7903 17.9833 25.9737278563
11.6457 18.8432 18.2152 27.8921580425
16.075 27.6709 18.1902 29.0484365243
16.1262 25.5329 16.6221 28.178469011
17.4616 23.1274 14.7995 25.6861522763
15.8282 19.9663 12.5802 27.7680289759
13.7584 19.8588 14.2656 27.3612575846
14.8273 18.9263 20.3586 35.5577254278
19.5178 17.7358 20.7701 32.351835548
18.8202 23.9831 12.267 28.0181954466
10.659 29.88 13.6849 33.0515533232
14.56 26.8987 20.4235 27.3105908684
19.1625 24.0835 16.9468 28.7441077701
10.0129 32.8353 13.7017 28.4835771874
14.1124 16.5748 12.8287 30.3200965716
17.4536 26.5221 12.2848 26.6427253109
16.7425 31.6411 23.9863 57.221330107
13.2053 20.0886 23.8432 58.6862472592
11.2469 17.0205 21.5417 30.9637512276
16.9862 16.8016 24.1707 68.9255017344
15.4553 24.5838 21.4724 28.4056901156
11.7292 22.5629 24.2399 104.1516298065
19.3374 29.2818 24.4437 91.0799547416
17.6941 19.464 24.4253 94.0786602436
15.7706 21.4623 23.7135 42.8183685243
10.1576 29.4517 24.1811 65.0520562994
13.512 24.8065 24.1328 61.332538382
16.5606 24.1236 24.4517 88.3574543367
12.5525 17.4934 24.2572 105.3976912486
14.4743 27.9943 23.1971 27.7581375788
12.2449 31.2628 24.5279 82.1181194067
16.7531 27.2285 24.391 81.4042378024
11.8193 26.7875 24.1217 67.3303558236
14.6862 30.1698 24.5949 93.2252666278
12.482 24.0516 21.2185 28.3739335018
9.93821 31.7426 21.8109 28.7151919098
17.4175 27.0565 21.8502 28.9023231958
19.5672 23.85 24.2702 78.4675697319
19.1968 20.3648 21.5645 29.4727568967
18.4672 30.0504 21.7655 27.4719775533
19.5669 25.1891 21.5327 30.6006114211
10.2568 28.4491 21.2146 28.9255430547
13.503 18.0269 35.9437 69.4719001024
16.2196 31.7137 38.2332 27.6895491401
14.6768 29.9502 35.9463 61.0799586851
10.1518 29.9361 35.445 103.3435656299
15.8049 19.7307 35.9491 76.1387979556
18.5429 18.9998 36.0762 71.5360825081
17.6704 29.96 36.0477 77.8012668987
15.1031 22.7677 35.9275 55.2549306193
12.2516 31.5163 36.2315 38.6709692933
12.3316 22.4649 35.5006 103.3888919964
12.5021 18.0282 38.685 32.0096352981
19.5993 32.2537 36.0579 62.0396449465
10.2524 16.5204 38.7818 29.8255245994
18.3869 23.3517 35.7322 108.123221372
12.5504 27.9348 35.6915 76.0212135044
10.7678 19.5758 35.9702 67.2788307838
17.6089 26.8501 36.1483 69.0739876117
11.8473 25.0572 36.05 50.657638283
14.9789 25.6719 35.8037 77.1427620106
15.4104 20.6704 38.5961 27.9731394344
18.2008 18.8009 39.0588 27.2624878395
16.9925 22.9965 38.4603 28.6910961298
15.7661 25.916 38.6535 32.2765549807
13.1584 22.1549 38.512 30.6999077751
12.2518 27.721 38.439 30.9994902954
11.0194 20.2981 38.6684 27.5944253468
19.3249 31.423 38.7271 26.7102642529
11.8266 21.5131 41.5071 31.2278995858
15.8748 31.9025 42.7222 34.8963229402
13.1562 31.1223 45.7417 32.6767011741
10.8365 30.0555 45.1364 28.147963032
17.3454 28.7465 47.0471 28.0148311883
16.7004 19.9617 41.521 26.6988327387
17.927 24.0427 40.8668 26.9048511504
13.2265 17.726 47.3158 31.3058685939
18.1594 21.9693 42.3681 28.218684562
10.1202 29.7005 39.147 29.1755507792
11.0907 27.25 44.6439 31.5849484121
9.92825 20.9298 43.1845 28.7792369649
12.0137 24.412 41.6235 32.9330250301
12.3923 22.6749 46.8706 36.9027928826
9.83263 21.5715 45.9155 31.7770782826
17.7273 28.1231 44.2273 29.6385608158
18.3036 25.5414 45.2495 27.1579285224
10.4674 18.2883 43.3753 33.1067043338
13.5138 29.7728 41.9505 33.9724403651
18.2596 31.6818 46.761 32.9285333359
16.625 18.487 45.4837 30.3163123886
14.2436 32.2603 40.2916 30.537041393
15.2413 17.6056 39.8542 28.7206153964
13.2482 18.0966 44.0313 34.7698174622
14.1229 20.4683 42.8282 33.4878412613
10.5445 30.0022 42.2132 29.665220628
16.3574 27.9708 41.5656 34.2805064072
18.3907 32.2314 41.5841 31.9988822918
14.2771 22.5086 44.7867 33.1785291529
14.725 29.1743 44.4542 28.952788864
18.2981 22.7723 44.9443 27.3998498109
16.4158 21.3103 46.196 33.3619429136
17.6153 17.9259 43.0505 31.9141632869
11.8232 32.0493 39.0802 28.8142803324
14.0455 24.8372 43.3725 32.4523912267
13.8066 26.8068 45.3256 31.2869593396
16.6258 25.3022 42.7813 29.6503035092
17.766 28.2884 38.8358 29.9022199587
19.3647 32.2044 44.3431 32.5066693486
19.3029 21.2417 39.2913 30.1374657361
19.4422 18.0832 46.7086 32.2214770259
14.6451 29.128 39.0965 28.8919656931
12.583 25.1191 38.8716 27.3719700642
11.9959 19.8384 51.1772 32.2904769824
12.4457 18.1125 53.3349 31.0422781478
10.8497 24.7115 48.4324 27.9714596608
16.3447 18.741 52.078 31.2368466135
15.6644 16.6354 48.2553 31.3121115198
15.036 21.2643 51.8951 27.0846581964
15.7013 30.2426 56.5425 32.8949348563
12.0684 22.4658 52.2676 31.2324489425
18.22 30.9556 55.1055 31.7541871005
13.7442 24.3791 50.8268 28.6397437591
17.3123 18.6904 49.4512 34.0462289987
16.3532 23.9618 49.8074 32.5309039864
11.4225 29.1512 49.0011 31.325090657
12.427 26.4838 49.6606 25.0241929172
15.6219 20.8841 49.0468 29.8828941452
17.4433 22.652 52.2351 29.0134092473
15.6695 32.1023 52.9245 33.3234358882
17.0884 25.9429 47.6857 28.3349807663
12.0092 28.7909 54.684 33.7664129087
18.4308 20.2186 53.6691 29.0699677726
15.564 29.1904 48.9237 32.0755864738
13.7497 31.0269 48.4331 31.0671233839
17.077 29.6041 51.1984 36.3427410845
10.7878 31.0313 51.2152 36.3315597341
14.2482 32.3347 55.398 29.0646513096
13.9982 18.9961 55.5337 30.0777549677
13.0522 20.2174 48.5215 33.5547053821
14.368 23.5137 55.1642 25.9580110986
15.659 21.1155 54.9163 29.4634643786
11.7705 23.2462 55.1284 30.2094682066
19.4417 23.3025 48.0763 31.0729604524
11.8543 31.5812 54.0774 31.0538008809
14.9738 25.3568 53.1112 28.9517486111
10.0591 26.0666 52.4429 27.0600923785
10.5559 26.13 55.7972 29.7293381476
12.4773 27.0885 52.4966 35.1918049951
18.8745 25.2668 53.1244 24.8621872879
18.3966 28.4198 54.8216 25.2275474307
16.9762 27.2541 52.9246 31.4504095702
17.2932 16.6246 54.1466 28.3009832923
19.7752 30.8931 51.6915 27.1746709515
14.3918 26.6237 48.0132 30.2332655638
18.9145 26.7287 50.0857 29.8919491066
18.8063 24.3998 55.589 28.7791220739
9.79874 23.7272 51.3063 31.3976646938
10.3647 18.7998 55.2378 29.8181218466
15.7029 17.0772 56.4151 30.8519696558
15.2984 26.1262 56.2014 30.7230319473
19.3563 17.6219 55.5442 29.6298522622
14.9713 36.6282 6.62762 30.1153067551
12.8482 35.609 5.1797 32.3798599591
16.6466 34.6756 7.77914 32.31449873
15.7029 42.3589 11.0727 29.9990946765
18.7721 35.2913 6.2396 31.1964885499
11.1568 46.5845 8.271 28.1053186545
14.4183 39.5734 4.25563 30.2689215271
15.0392 39.5124 7.13282 34.1477541315
12.8175 35.9141 8.46855 39.9227727799
18.302 40.5058 5.32063 29.3018469432
13.5515 45.2418 4.98642 30.975704875
17.2755 46.5404 11.8084 28.966017054
10.7025 44.4105 4.53741 31.0842244695
14.8156 43.301 7.0224 30.5866275131
19.2132 46.0613 7.19141 28.795486766
17.1395 42.4576 8.83173 30.5793881242
12.4075 47.5973 5.91571 31.6964310807
17.6155 39.9772 7.89161 34.0435523632
14.7063 45.2876 11.2746 30.8466067671
11.8064 48.1009 10.3246 28.928508441
19.7935 39.052 9.36365 30.5154436374
18.4619 45.2233 4.21938 31.9963731187
16.7676 48.5819 5.86114 31.3597580066
19.671 38.5117 4.35861 29.4276806305
16.8891 46.9324 8.33995 33.4501757906
19.7915 36.2114 11.0155 33.6729210531
12.5148 38.2866 10.358 30.2659203861
13.0385 32.7054 4.98418 31.957942388
15.9001 36.5533 3.79533 30.8249889612
17.4787 34.5757 10.6052 33.4208667618
14.0321 45.6407 8.56297 31.9389773229
14.9842 38.3352 12.5428 37.8063987449
14.4465 35.5293 11.0133 30.2331998426
16.0361 41.8658 4.58024 29.9717646389
12.7446 41.7353 7.68442 27.7528672691
19.409 44.7816 11.4605 28.3343572318
13.3243 41.1362 10.2519 28.9476538255
10.8442 40.7629 6.09636 29.651640374
10.6806 33.2311 11.1207 30.653969285
18.5379 35.8994 3.56326 33.1259779923
12.86 46.9937 12.47 28.065617385
13.3451 33.124 10.7976 28.3358199278
19.7863 43.5297 8.66134 26.5120349792
10.8824 43.809 8.46997 29.5771443892
10.6519 40.5277 11.4516 28.7029409013
18.8293 39.8781 12.4421 34.9227693586
19.5404 48.7618 12.1579 27.1914701212
12.5954 39.9996 16.784 29.6473217739
12.9117 36.5343 15.1341 28.7074894847
17.8382 47.2574 14.3398 28.1857792449
10.6407 39.7528 18.7419 27.4844541998
10.368 44.0394 12.8611 29.2464387496
14.4597 32.6199 13.2331 30.772108871
18.8549 38.3576 14.6598 29.1472367066
18.2014 34.0037 15.0322 28.2713865835
15.6428 36.8764 14.7626 28.932397331
15.601 41.2353 15.9855 30.7540629193
13.5398 44.7728 15.3302 29.9727470384
19.1644 46.7761 17.9231 28.3735534845
13.2946 42.8071 17.3471 29.8287729973
16.3243 45.2253 15.4298 30.281870562
17.4927 42.7638 14.883 29.8826393147
18.2111 42.6585 12.2905 27.3198861321
16.4446 45.616 17.9967 30.3098695023
16.2623 34.7147 13.4353 28.3302023764
10.2604 36.7861 17.9281 32.772809695
11.1062 40.2749 14.1338 28.9012650978
11.7499 46.2617 16.6444 28.5438000757
11.7204 45.7606 19.4384 26.1898991062
13.8506 40.6824 13.513 28.107210733
18.2218 38.1427 19.4068 29.2119127
17.1222 34.5308 18.2429 36.1701550878
13.3469 36.0797 21.0884 26.3683652724
15.0004 39.7717 20.4599 27.640322205
10.7252 43.1318 18.8449 27.7633898853
17.521 41.2316 19.5553 28.6048589761
12.4093 33.6624 15.0424 32.8894565399
13.0143 35.9435 18.1964 34.2950731587
18.4891 45.9198 20.6583 30.0665341544
14.5023 38.1474 17.8865 29.3995130133
17.0868 38.6922 16.6197 28.9700867205
10.5931 46.6227 13.894 25.3034711708
12.9733 43.2455 12.9166 28.7177855442
14.2042 47.1719 19.0998 30.7616325499
15.3556 43.3987 19.1859 29.4019945742
11.6497 36.6191 12.464 29.436294912
19.1501 42.1298 17.3482 28.7173790411
16.318 34.4036 20.9461 27.7574587628
13.6437 44.2793 21.3841 28.2672104784
11.3227 38.4248 24.4689 89.9371295013
18.502 41.651 22.1052 26.762055195
16.0032 34.3905 23.7138 43.9497296766
15.9793 37.4367 21.4365 26.6468595125
13.0398 34.1825 24.3963 75.9069070507
15.625 46.4297 21.6642 27.5055584409
17.3426 37.6313 23.8595 48.1038448172
14.2248 37.1706 24.0906 66.3041450658
13.1982 45.1866 24.3684 78.8317854498
10.397 48.1144 20.6456 31.9359431178
16.7095 47.912 24.2635 80.418932136
15.9454 44.7585 24.1633 70.0917225553
12.4353 42.2566 23.7493 50.8282922654
14.7744 40.2076 23.8902 60.9487144577
17.9391 40.2571 24.5253 104.7988142236
10.2919 35.4905 21.7075 28.3945063434
13.8442 47.8475 24.0975 52.8710399757
18.8501 44.7316 24.2527 76.5210182936
18.3106 48.5795 21.7373 27.9832027173
10.5149 45.4832 24.2185 73.0418994699
15.6457 42.1634 22.2904 26.6254575223
10.3368 35.4973 24.5979 81.3582908256
13.2193 48.9108 21.5272 28.2115989135
18.9756 34.8662 24.2418 92.6174093685
19.1044 33.9443 21.22 28.8113221036
12.5682 33.2668 21.4846 29.3686280842
11.7908 38.2876 21.8075 26.0032086311
12.5872 40.7809 21.3136 25.7573261859
19.2418 48.0926 35.7781 79.5045775242
18.8848 37.3535 36.3083 37.5218743989
15.4357 32.7919 35.6688 79.3277071431
14.318 47.7793 36.1279 52.3559188643
15.3849 39.893 38.161 26.4087668928
11.0923 48.2642 38.5688 28.7929249556
12.504 36.9304 35.7798 68.3865650306
15.0162 44.9613 35.5997 100.8710688745
12.8013 34.1646 35.7596 74.9245404459
10.3063 44.3863 36.0176 55.4666741868
17.844 34.8129 35.611 92.4579305297
18.7465 40.955 35.8477 73.4733193668
15.3028 36.4644 35.8759 56.2704465024
13.5686 40.5199 35.5693 88.1706785618
10.5708 34.7186 37.3953 28.2012141511
18.105 40.7204 38.472 29.8670251019
12.792 43.1455 35.7046 72.9466750243
10.5176 40.2172 35.9535 57.597231316
16.3178 39.2114 35.6868 78.3272106062
17.7853 45.688 35.9222 69.4149111909
11.5024 48.0105 35.6928 91.2388591094
13.0616 38.4042 37.9386 27.1932681825
17.2492 46.6545 38.6502 28.6220268341
17.465 34.5344 38.6286 29.2651557489
13.7898 45.3258 38.178 27.1109936122
15.2131 36.0521 38.6332 27.1503959719
10.5049 40.2185 38.8503 29.5000259731
11.0268 45.0116 38.5622 29.5275218677
13.9551 39.1624 41.9578 30.1815998305
13.0683 39.0753 46.6574 27.5346692958
13.1304 34.9815 40.1359 31.2335540719
16.9458 42.7065 40.5404 32.6540545007
11.3953 46.6825 42.8946 36.1534376207
18.0956 37.1017 42.157 31.9629734924
13.8418 48.0711 39.2937 26.6297974316
19.3647 39.0302 43.3366 28.4387025942
11.6083 44.988 47.5291 29.1271091202
19.259 41.9847 47.2347 27.657447221
18.873 38.2171 39.0911 32.0890488319
13.4305 41.7665 41.9078 34.2528013175
12.1409 44.5242 44.8036 31.0140453154
19.0041 34.7146 40.8001 34.0639462974
14.9871 45.7572 42.8317 27.5540137367
17.9704 46.286 42.5616 28.8190891304
15.8221 45.1667 40.1799 26.3500533652
13.6976 48.211 42.046 28.2628147692
11.6844 38.1322 40.5021 29.5409236224
17.2915 39.9837 45.5508 28.248216644
10.7974 42.6041 40.2823 30.3986031544
16.0314 37.9369 40.2896 28.9815545661
10.0657 35.2274 40.2549 30.9629502774
18.3783 41.5208 43.0024 32.1210237239
15.5339 46.5391 45.5524 28.9957870778
10.8558 38.2566 45.5222 34.1966948457
14.2038 42.3665 39.3532 32.7892592809
13.666 48.1184 47.2729 31.8717858349
15.9251 42.3733 46.3384 27.2491195339
13.2656 36.0433 42.9222 33.1939347108
11.339 35.2958 44.6569 33.2013313435
13.8236 33.8232 45.9239 29.0105376392
9.60408 47.9839 44.8261 30.79990444
15.7639 36.6144 43.791 30.5547287134
16.2331 34.1228 44.6899 32.8177856938
18.5431 43.3012 44.9993 27.1450673208
14.9478 39.1851 44.6253 29.7433999103
18.3782 46.3497 45.8001 30.5494664703
14.3764 43.4205 43.9973 31.0098167304
19.3793 45.7616 40.4824 27.4110619809
18.7628 36.4484 47.3399 34.43249308
17.1697 33.8514 47.7081 28.8812651521
11.5936 35.2476 47.604 29.5879357094
16.4606 38.0233 47.6874 31.3681359107
14.2046 40.2483 50.6303 30.5969549623
13.8073 36.8521 48.1639 29.3854260252
18.4041 33.2021 52.9864 28.7502263021
18.4939 41.3437 49.8059 31.698825261
14.2946 46.2114 55.5065 34.8681683422
10.4615 43.1064 54.9546 30.6585701971
11.3022 41.387 51.3684 33.7352929993
17.3378 38.7635 50.1656 33.4662227892
15.4928 37.8299 52.3811 32.8522983664
18.4666 34.014 50.1261 33.1630475708
11.1655 42.3693 48.5471 31.1545191626
18.9482 38.9219 54.6335 29.6029445887
19.3184 49.0588 48.8182 28.8809761586
18.3051 44.7924 51.8846 33.9082012176
16.6019 43.1476 50.2859 30.3193208909
13.3362 32.7866 51.2917 30.9615880888
11.9421 36.251 55.1985 31.1445898893
13.2356 42.9344 55.9973 28.4577730606
13.1798 46.3362 51.1389 28.0209967957
13.7508 45.7489 48.8164 28.2223763724
10.5112 47.625 53.5839 32.0726928329
15.8164 35.1033 52.5871 31.2784946187
14.6108 35.0716 55.0317 28.5505482168
14.5243 33.9089 48.5513 30.2071323732
10.9398 38.7428 54.929 32.848808091
12.8199 37.8924 50.6526 29.5740197179
11.0292 47.5154 50.6052 30.778250623
10.2786 33.4994 49.3883 36.0291740006
16.1135 38.9006 54.9427 31.9461713549
18.5421 45.8033 48.5483 28.1711855262
16.1569 44.5468 47.9441 26.6608482901
14.6817 42.5518 52.4105 33.7253924685
15.8943 41.9091 54.7969 31.2824114328
12.9125 35.5373 52.3514 29.3917722797
18.3665 43.9108 54.8565 31.5159608773
13.0383 44.5467 53.235 30.9065516989
15.2326 48.1637 51.0928 31.2301573752
10.4477 38.9195 49.5488 31.0128913046
10.0134 34.5422 52.0927 30.8380234556
17.7575 47.5439 51.057 31.7578033535
19.3424 36.6288 50.7569 33.5985055194
13.8058 41.2158 47.8468 32.1880064125
12.042 40.5306 56.7071 29.0072305147
12.8341 48.2794 54.7429 30.6947052455
16.7945 47.42 56.5601 33.2109516394
22.5982 2.08243 5.58745 28.320766333
19.9912 5.71298 4.93545 28.6156399338
25.3243 5.29732 7.52377 29.5922138189
22.9964 1.4392 10.5788 28.9234576999
26.932 3.32046 6.38234 28.3291527671
20.4824 7.86256 6.35568 27.3047476871
27.7756 15.84 6.25246 28.9725043856
27.8837 12.9655 11.4335 26.8430751519
23.2341 7.59434 6.69522 28.4150091864
24.627 5.69812 4.94537 30.6862323211
26.7546 2.63446 10.3676 31.974229054
23.6694 0.738918 7.97272 34.983398419
25.0995 11.9442 6.75587 31.8700656881
28.8254 8.41027 6.23389 27.5178460471
24.0897 9.80222 5.17244 28.6226746406
27.1972 12.8443 4.98004 28.7384266667
23.6241 13.9707 7.52505 30.1961866179
19.7742 0.922259 8.76077 28.1270081671
22.0745 4.49463 6.07501 27.029406054
20.5914 2.765 10.6943 25.4172599037
26.7739 9.94531 10.4319 31.8603332483
27.5522 11.9651 8.49577 29.3349893641
24.7906 15.6074 9.46397 31.6804867796
20.6845 4.67755 8.66673 27.5506158155
28.9447 14.4804 8.25608 23.8515543892
24.7148 3.34839 11.9189 30.3886661074
20.3057 1.09134 4.5863 29.8314804624
27.1016 9.76507 4.30592 30.061224716
28.936 4.19648 7.77423 28.3764117938
19.9079 8.03508 8.97013 29.9009937268
21.2308 12.6337 8.33827 32.1430899205
26.8912 7.7932 8.10249 30.9406010846
27.4985 15.6752 10.4103 28.453140597
28.4451 6.27575 9.41201 31.279191145
23.2024 4.94141 9.62072 30.7640528772
23.4611 13.7204 11.4134 30.7912234761
29.2086 4.8363 3.96912 29.8869687884
22.8671 11.19 10.3481 31.0498764764
22.9527 15.2491 4.92909 30.125726327
23.9861 9.09305 9.27127 30.4039159262
22.6137 7.44645 10.7765 28.7795325232
20.6081 12.9885 5.3687 31.2601810185
26.9368 3.1303 3.49212 27.8129242312
21.2783 10.3805 4.63772 30.2763686121
25.469 15.1481 4.11387 30.1020380501
20.0891 15.2902 8.82375 34.0175519359
26.3623 1.125 7.66874 32.1100325252
20.9717 5.1998 12.3975 27.337589433
26.6051 0.0925056 12.1545 36.0561271636
28.3357 6.12716 12.4911 33.6632828342
27.4411 0.440524 3.70345 30.4753658273
19.9867 11.649 18.8645 36.2246771437
26.9513 16.1065 15.9889 29.8848162188
21.3174 10.3376 12.3805 31.7130442654
19.7865 1.39017 19.8544 29.4281805506
27.2649 2.40135 21.1127 26.493902399
29.5662 4.09123 17.7832 29.175936294
25.7284 13.5368 12.7862 26.6547468521
26.7596 2.26227 14.0662 27.6994047927
20.5667 5.85875 16.6866 31.1566745514
22.4338 3.26002 16.141 31.3136861398
26.3626 5.29842 14.6731 33.5458528549
20.4724 15.7673 16.9094 32.8062061462
20.3871 1.59502 15.0125 30.320531575
23.5595 13.343 15.5386 32.19279154
21.2019 12.2027 14.6012 31.6382053419
23.4338 5.10156 13.7171 32.2541604469
25.8006 8.39444 14.91 30.2383179416
25.9357 11.8617 14.829 32.9925413202
27.8486 13.4338 16.1272 28.0001544559
24.3236 1.43199 15.5891 31.9204968168
27.5714 9.66385 16.6911 26.0346089883
21.7098 15.6595 12.421 29.3088739487
26.3704 7.63577 21.0057 31.0015319835
21.272 14.2521 19.2532 29.6417613331
25.5899 15.8116 18.4298 29.5450195923
19.9765 10.3922 16.1372 31.9845001723
24.8226 11.2613 19.0658 29.2894403735
24.3614 8.83288 17.6791 34.2974142148
24.4921 6.50867 19.3422 32.5864064317
21.8455 8.22524 16.1012 37.696310922
23.2333 3.83912 18.8354 31.2443030706
27.7046 7.65335 18.4527 31.0706051405
26.7811 4.9778 17.4536 30.61369155
23.1967 8.34277 13.3365 33.9426674114
25.9491 2.47944 18.6936 29.0104446581
28.7127 1.80252 16.462 32.0770185604
23.8598 13.8336 18.2184 27.9371727931
27.5059 11.6509 18.4175 28.7182811516
20.2225 4.92907 19.3329 30.44837641
28.0173 15.3124 19.942 32.2812916484
19.4172 4.22874 14.5546 27.2942462972
22.441 16.2866 14.983 31.2334515628
25.4648 16.2086 13.5421 30.036541338
29.1226 3.10736 12.8049 28.423485003
27.5734 8.687 12.6516 29.9816105677
28.5619 11.9701 20.9836 26.5946319092
27.928 5.12751 21.0972 29.7179680272
22.4942 3.71506 24.0151 63.5958471785
21.477 16.2397 24.5591 76.6953336225
25.811 15.3299 24.2941 71.0706019474
22.591 7.68373 21.3962 35.5684876004
26.5036 13.6969 22.0242 29.7656444316
22.71 6.29935 24.114 73.0651371999
27.7579 5.51022 24.0215 85.2899864193
27.2224 2.67305 23.8977 57.9862261806
20.4838 10.1246 24.1041 50.4130698667
19.9449 6.94057 21.3253 33.2601441865
23.4748 13.8932 24.3457 73.4313963707
28.3967 11.3727 23.9767 75.7041635914
25.4533 7.04303 23.8716 58.7563934319
23.0559 10.9288 24.4863 89.4880046901
24.6838 1.70632 24.5131 108.5535191867
29.4548 0.774617 23.7989 63.9398993814
25.5649 9.87931 24.286 89.6227818737
22.6343 10.8221 21.5997 29.4068389505
20.0004 7.30903 24.2096 71.2331275166
28.6634 15.1453 24.2003 86.210830442
23.4314 13.5767 21.3068 28.5131642596
20.3307 1.28069 23.519 45.9534197986
19.6734 11.0212 21.5271 27.2323406293
21.9574 2.94391 21.0313 30.9130242679
25.8532 10.7 21.5488 27.3619391601
21.4671 15.9333 21.7569 28.6133170128
24.4792 1.78591 21.7459 30.8911539532
21.0428 1.80952 35.6314 72.7392475816
25.8043 8.61566 36.7678 37.7960357839
23.4913 0.312892 35.7809 70.7518792514
21.1523 9.42442 36.2496 50.1593280514
27.3831 2.86152 36.2971 53.8853039995
20.9937 4.78864 35.7099 61.5306960506
25.0483 5.94723 35.8201 74.0996262432
24.5443 2.68265 35.836 74.5164332681
24.2234 10.7985 37.6397 31.1770824342
23.3239 16.5111 36.3142 49.4142678339
28.4873 5.3903 35.9097 81.1470025142
22.9218 12.5237 35.8772 80.9752288908
21.4207 4.32065 38.4592 28.1377561955
27.6225 12.4391 36.3583 40.1945711518
27.906 9.76909 35.5088 118.5773209282
22.5298 6.98028 35.4567 106.4751283848
28.4244 7.54122 37.9256 27.8061993728
20.4188 13.5642 35.6589 81.2027504793
26.9003 3.53185 39.0918 26.9310803226
21.4775 1.07887 38.3425 26.5611267043
21.6562 7.28984 38.5606 29.3547223557
25.2655 14.239 35.9464 85.7145458861
24.1283 4.38111 38.2461 27.0294037106
27.4742 16.0506 36.5271 42.3427479621
22.2363 13.3948 38.5768 25.9981448018
23.0897 1.93538 41.5434 31.8585071277
23.8372 4.62279 42.1548 36.0061015801
20.0657 12.0957 45.3968 29.5067836582
22.1913 1.5208 46.9467 31.8170222861
21.8348 13.3309 47.2125 26.4221472105
24.0186 14.9164 43.9606 33.7682649444
24.8418 0.165189 46.7341 29.9894687208
21.4188 6.1191 41.9644 31.0812398586
24.3736 11.9325 40.8892 29.7672834994
27.6565 5.89337 40.1975 34.0165209024
24.907 6.42121 40.6182 31.2510772977
21.1701 14.3394 43.8691 32.5511323852
19.4762 13.651 39.8754 28.5787454968
21.7276 10.4005 43.5366 29.2117228753
26.8288 12.6867 46.7979 33.8512465226
27.1714 1.45039 40.7499 30.666635267
25.0377 9.22237 41.3904 27.8254104109
26.7274 4.4463 46.2598 36.7318530503
20.9066 0.66637 42.9013 32.4137461561
22.3267 8.63019 41.2636 27.9649696283
22.1246 7.69887 46.0987 33.5065850119
28.4201 14.0921 41.2294 32.8581831865
25.4966 15.6611 40.3903 28.5844119733
23.2943 3.89223 45.1544 32.7712492234
28.3971 1.26841 44.4356 33.9638017178
19.8356 1.62321 45.2551 30.6288120157
25.5825 2.19904 45.0393 29.4949302271
24.1761 11.6767 47.0455 33.0735152958
24.057 5.47181 46.7858 33.1022224355
21.5048 12.5451 41.5754 27.6912541491
23.6905 9.52337 45.2052 31.911251137
20.2149 6.79941 44.2893 28.9766476121
26.015 8.81141 43.8579 33.2693479758
27.8786 9.41553 40.0912 32.2999660839
27.2702 7.24261 45.6876 47.0074870574
27.3058 11.2519 44.2121 32.8126866856
26.1279 13.4413 42.8646 33.2966589837
22.9317 15.989 39.2782 29.5819479452
24.5403 15.7164 46.6628 30.4610964198
28.4624 11.916 39.1483 29.3105601372
21.5261 10.5309 39.2123 26.8134850327
27.9841 16.0887 39.1274 30.4672795084
29.7067 2.06854 42.112 30.3305983154
25.4013 0.603621 42.6806 33.4365846835
24.1458 1.41848 39.0 26.9169550414
25.8278 13.2108 38.7415 25.9170568932
22.9336 4.44822 48.9839 33.384686177
25.0227 8.34372 52.8248 26.9157613714
23.7687 0.8625 50.6951 27.9866520063
26.2433 1.15676 49.3359 33.205315418
26.9817 15.2443 47.7819 30.8746989378
24.5632 10.4838 49.5193 32.9872959443
24.3193 3.88703 53.3864 25.6022157765
26.0462 6.6861 51.0149 35.4511760516
28.5148 6.5736 54.9654 32.2276894667
22.9993 13.8777 54.0044 28.0989307018
21.2824 2.1147 49.6946 28.5148364985
23.8294 10.9648 55.4699 30.2138749117
24.8218 0.908627 53.5516 29.6930942895
23.1053 0.287735 55.8627 28.2044415811
25.6223 13.4282 55.1172 28.840355725
26.3246 10.6555 52.6875 28.7524911456
21.8408 12.8462 50.2723 26.3407088947
28.6122 1.94197 52.742 29.7133261924
28.8395 13.1607 50.7766 29.0933913069
21.8762 2.55072 52.7655 27.5006796174
26.1187 14.432 50.5178 28.6382564415
24.4624 12.6926 51.4536 27.2993206072
28.7405 11.4907 48.6751 33.5099327426
27.5016 3.76123 48.8428 34.6568642583
22.5449 5.89391 53.5359 29.187523177
25.0475 4.083 50.5958 27.7448240967
23.7295 8.1667 55.1739 27.4287101906
21.0817 15.0789 55.6884 29.9823042011
20.6263 15.0843 51.8113 29.8866416028
22.7661 9.26236 50.9984 28.0120673398
20.9153 8.56095 48.6053 30.6821129392
22.3676 6.54239 50.9043 30.0235406803
26.361 15.8693 53.3805 35.4099677206
27.1314 3.97475 53.834 29.853239782
29.3914 11.0091 52.6352 31.9490820057
26.0389 7.56799 56.1204 30.4171774039
27.2623 9.69014 50.251 33.5502464425
20.5708 9.30237 55.141 26.2404884234
21.955 10.9551 53.3423 29.1603398674
27.9919 11.5256 55.2492 35.0366716261
28.7685 6.47858 52.2277 29.6068400644
28.8782 16.1588 51.9134 32.9798381553
22.5621 15.7403 48.8569 28.6077689807
20.1278 6.57727 55.301 31.0207137426
20.1253 11.2469 48.6752 28.3339795292
28.8281 -0.090128 50.4725 29.4515457404
19.8431 4.10602 53.5938 30.5032891995
23.9567 3.14496 56.4493 32.6844270683
27.8353 18.4142 11.7754 30.66377688
29.3214 31.9855 8.56468 30.0653334171
22.2877 18.1451 11.2928 29.1946204821
21.516 24.3871 4.27846 29.7362692345
25.2262 24.9511 7.64253 31.1947236933
28.1403 22.0907 7.9885 30.6352863026
24.7492 19.5863 5.24826 25.4296233048
25.47 22.6419 6.21141 27.8327787263
25.2308 24.1391 3.54444 28.7233697938
23.0232 26.4935 6.30949 28.8737493768
24.7947 26.9852 4.11257 29.4477181845
27.7245 26.9687 4.66937 29.052193449
22.6125 17.9709 4.63684 27.7071999946
19.8833 31.6265 9.07149 30.0685401499
25.9744 30.6215 6.37978 30.0655790559
23.0085 21.9264 4.50467 29.617741002
20.2024 31.8167 3.87581 30.4886968787
26.2978 26.1082 11.7672 28.0056203457
23.5236 18.1553 8.6211 28.1579793771
28.3356 25.2687 8.10437 28.9696593472
26.0255 18.0028 7.16379 30.9565242473
27.5038 19.091 4.28228 27.6536619237
23.2048 30.9616 6.36088 28.0741373948
22.3922 21.9305 11.3034 27.1499962665
23.6001 20.8351 7.60853 28.1650341545
20.4372 24.5172 6.97122 30.1702798756
23.5791 24.5459 10.0299 34.6143883814
26.592 29.1556 11.0646 29.0250970012
24.8259 20.7336 10.3115 29.709104978
27.7855 21.1917 11.2568 28.6396607622
28.1381 21.6237 5.16955 28.0320204036
24.3339 28.2067 8.1356 26.4292236406
20.6567 22.7198 9.44609 27.9291655708
23.9445 27.6 10.9173 29.5471114569
28.5709 19.0479 8.60584 29.8253371896
22.9877 31.6174 10.5228 28.2419340155
27.0296 27.861 7.34539 28.7834021725
21.7205 29.6658 8.47771 26.4163779972
20.5756 27.8943 5.4573 33.1972326791
22.3797 30.0083 4.19224 31.7839783164
25.4138 31.1272 9.54005 26.5150243986
28.8524 29.3027 9.24106 30.8620428322
28.8951 25.3669 10.6282 27.5865234749
21.0866 18.3142 6.99921 28.1521030118
21.6016 29.2654 11.8726 28.2476662634
27.1833 30.9078 4.11821 32.8470571079
25.5817 23.3429 11.6672 27.1563232612
20.8256 21.2453 6.85949 28.0573650495
29.3727 24.3916 4.87736 29.3813979872
29.0668 28.4981 14.9784 32.000829564
29.4248 24.3926 13.3757 30.1244518545
20.4033 26.4232 15.8664 29.3092257772
21.4867 29.1652 16.9016 28.9133563485
29.0386 22.4035 19.8993 28.9996222726
23.9606 20.5179 14.4906 28.5711931483
24.903 30.8699 19.5116 28.6381826821
27.8156 32.0303 18.1241 30.99337765
24.2977 23.4246 13.9287 28.7853546364
21.5195 22.8491 16.1193 29.9900740333
26.1428 23.6994 16.0948 29.4389942616
27.3884 21.7573 14.2229 29.6859183714
24.1717 29.9238 16.9852 26.432882405
20.6158 31.4455 20.9414 25.4264894576
28.1274 29.212 17.7743 29.7237444414
21.4652 24.1467 13.4766 31.4378491314
21.0313 20.1102 13.129 29.0776843187
28.9239 28.3339 20.2881 27.6127790053
24.8908 28.2427 14.0556 29.1558963478
25.79 27.6614 17.1777 30.4967414154
28.1698 24.6551 18.1834 28.2950514795
22.8773 27.3351 19.2117 31.8733998496
21.8288 30.7864 14.3051 30.9507861151
20.1927 26.7068 18.842 30.6204092432
22.3865 27.2159 13.8966 33.6553281883
23.8898 17.3888 20.3617 35.0269271578
26.6173 20.0723 16.5551 33.1869437099
27.3174 30.3968 13.5401 30.8637902813
20.0623 18.3522 18.0366 35.2604340488
24.3512 17.9368 16.5588 29.4342794971
25.2291 21.2082 18.7648 28.3724925984
22.0162 21.0738 20.9437 29.0756764819
23.644 23.3956 17.8085 32.2073755595
25.033 31.4609 14.8242 29.3401507745
21.7944 20.0757 15.9934 29.4060530724
25.5366 25.64 18.9548 26.8525480088
27.1192 26.1919 14.4497 28.963634125
20.2065 31.0919 18.3322 31.3886578263
23.4308 23.4499 20.7296 28.9253755481
28.8075 18.1469 16.4058 29.9444265132
29.2615 25.3785 21.0315 28.5506877763
23.013 19.429 18.8822 26.4814995166
27.0415 32.6252 21.0036 27.9788868815
29.0965 32.5375 12.945 30.9745050955
23.012 29.712 21.2779 29.9031941714
29.6212 31.0209 21.0616 27.5154236996
27.7684 19.8082 20.9053 32.9184265423
26.1286 22.7689 21.1098 27.6203380064
26.2756 28.4173 21.2942 29.9033932956
24.7921 18.5952 12.3817 28.6226500919
25.5362 18.1013 24.5368 85.7256662826
22.8156 18.5957 24.6964 91.8120502502
25.0757 19.5113 21.8054 27.562362737
27.7588 19.4963 23.8964 44.7667895566
28.9716 24.97 23.9539 54.8423506026
27.2334 31.716 23.7972 65.1587595711
22.0915 26.2786 22.0388 31.6909836734
22.839 20.9815 23.5406 28.873968535
22.6667 24.0112 23.8608 54.8148229875
29.4429 17.4589 20.9866 29.1372730868
25.6611 21.7433 24.0454 61.4287464346
21.7477 28.0167 24.3637 98.1285341196
25.2077 24.344 24.2175 66.3760320856
26.7763 26.6488 24.7603 130.6120788069
26.4485 25.7875 21.7822 26.6928690025
23.3763 29.9515 23.8352 52.3109886787
20.087 21.0978 24.5136 87.5087585905
20.236 32.1741 23.9153 55.4612403697
26.0661 29.3982 23.8223 52.1208723005
29.2575 22.0854 24.3653 100.495306466
22.7659 21.8004 36.0924 84.7016218965
24.33 21.6208 38.6179 33.9847175707
23.9174 19.1679 35.9675 86.2537732223
27.7446 21.2761 35.852 85.5841100458
26.6786 18.8146 36.2731 59.9049283194
29.2669 32.68 36.301 61.3641322828
22.6842 30.8044 37.4432 28.2340401599
24.1172 24.4936 36.2177 52.7041305053
22.5938 26.502 35.954 87.8483613877
27.1445 21.2032 38.9701 34.135390358
19.9515 21.1631 36.4291 45.6561070921
26.9315 24.0589 35.6709 79.164928604
27.042 31.3613 36.7038 34.090135635
28.0661 26.418 35.5491 75.470576385
23.6743 28.872 35.789 86.2836294278
26.5306 29.0168 35.4271 120.1816899576
20.9436 29.1962 38.6162 28.8261816395
20.0057 25.6156 36.8416 37.6105470776
20.4007 16.3521 35.6893 97.5423641841
26.897 27.5731 38.0962 30.3157813743
26.9807 24.7446 38.4685 31.7015426993
19.8151 25.8058 39.7049 34.0630329447
29.1101 28.3091 39.8835 29.2735567159
27.2433 30.8887 39.4277 30.0008204834
23.8207 21.5513 43.4691 30.378473713
27.5507 31.5649 47.8366 36.0792830042
21.543 29.0135 41.4553 33.4741126012
25.3725 17.3075 43.0846 32.3064789091
20.7367 25.5454 47.7842 26.875615238
26.3719 25.6282 43.0586 28.1003778162
24.0045 24.0328 41.9999 30.8384953576
21.1141 25.0465 44.6847 30.0782360849
25.2079 28.0099 42.5996 27.8646391458
21.5414 28.7973 45.2968 31.9010385454
21.6455 19.0966 44.9841 29.0804098839
27.8104 17.9932 44.4428 34.9506047716
28.3591 21.697 41.6971 33.8037939851
25.9509 20.6074 46.9464 29.0443600254
28.1588 29.2311 42.4367 31.1991363828
23.3841 30.7457 45.8619 30.2010089905
24.3058 30.6593 39.791 29.0236373625
21.2978 24.1982 42.1325 29.5587578969
27.6259 22.7559 45.7414 33.0786769747
28.4096 24.539 41.2605 31.7360169629
24.3486 24.5078 39.4313 29.8662883563
19.798 29.7779 43.3993 28.4981962238
20.973 21.4283 41.4092 32.6531683747
24.0197 18.8696 39.2689 28.9234689784
24.7994 28.1791 40.004 27.060508322
26.737 20.7383 43.7225 32.9280249729
23.9718 18.4365 46.337 31.2974255079
21.0232 21.8177 45.085 28.2794366418
28.9063 17.1563 47.0231 30.2708968907
23.9851 22.8621 46.4913 28.2738839027
25.9445 25.0601 45.7446 33.5035048437
27.2936 28.7092 46.3889 29.642956729
23.3263 19.0195 42.3238 29.6217175374
22.6664 27.0638 43.2612 31.13340189
20.3459 17.2861 42.9907 33.5623433366
21.6847 21.4559 47.8235 32.5233175875
25.7603 30.3629 44.4338 28.7399122091
20.9771 18.0643 40.3277 30.99169569
23.7384 32.1029 42.4444 33.3445718225
28.4142 27.1657 44.4103 29.1373910216
26.5336 18.6896 39.0371 31.0089435502
22.5861 26.7635 38.9049 27.7135608033
28.3026 20.3998 54.8424 33.5334930275
20.2977 32.0173 48.9781 34.2006117094
26.7849 24.7357 51.0805 31.7394462779
27.1039 18.3014 50.6199 31.8448891433
28.4384 19.6329 48.2458 30.0994295181
21.8287 20.8555 52.5053 28.0355962726
21.3693 28.4125 50.745 28.3976473954
25.3649 22.1051 49.4372 29.3601155214
21.3901 23.425 54.1718 26.4153714066
24.1112 23.2534 53.9039 27.6138777105
23.118 16.6791 53.1018 28.747464478
28.2245 26.5795 49.3644 32.6283312482
20.3927 28.7833 47.9351 32.033200506
25.313 29.7957 52.0864 32.1030681721
21.2242 25.4836 51.6829 27.2530308291
24.0098 28.8172 49.8492 34.0083525818
20.1848 17.6612 49.4308 28.9826522915
25.6177 27.0658 47.9931 32.8699647234
22.1177 31.588 52.8287 29.9876279291
22.7719 18.905 48.952 28.2209670006
23.7735 24.2758 50.8382 32.3498616637
26.1155 32.3933 52.6534 30.4884210876
22.5718 18.8331 55.046 25.8442530964
27.8193 27.9101 51.981 32.7927707495
20.4187 20.6198 55.697 28.5124426412
20.1682 22.6628 50.8816 33.6069380156
24.2191 20.2593 51.0705 28.6898255784
20.4764 18.2934 52.4022 30.4135508147
27.2237 20.3952 52.1578 29.309056957
22.7022 26.0789 55.0348 31.1519417415
25.5454 17.6606 55.547 30.922615
28.4309 28.7112 55.6839 28.4875925522
27.8183 23.3302 55.5191 29.0822477004
25.0088 20.5837 54.4395 31.0682716592
28.0018 22.3058 50.4855 28.122791432
20.6489 28.1107 53.585 28.7890276562
23.3094 29.3214 54.4158 31.1327107581
24.5532 16.9071 50.6345 27.6473719177
24.6136 31.0374 48.2709 32.3120525056
25.8703 25.5231 53.7076 30.381318424
23.2447 25.1536 48.0044 31.1788937843
25.8805 28.0595 54.6231 27.1249639347
21.4492 34.8892 7.02394 30.6148197453
24.1683 35.5815 9.4714 28.860040636
20.4286 47.3232 4.59036 26.9799954212
24.0545 45.0693 12.0184 30.783517904
25.5138 35.6148 5.1274 30.5721028332
25.2476 34.8755 11.9115 28.0432488729
23.7934 39.0596 7.09221 27.1833083103
22.3847 37.4913 10.1728 28.8038558827
25.6506 37.3271 7.59808 29.6503598787
19.7407 42.8339 5.75667 32.5699339341
22.9445 42.5059 5.28896 30.3733393762
25.065 47.9415 4.81349 28.6170445414
25.4311 40.9893 6.28783 27.5627826697
25.5013 43.5195 4.30808 27.6148897053
26.2693 39.9507 3.73909 29.3762545214
25.8235 41.5587 9.52467 28.7906587927
22.6167 44.4237 7.28037 29.6921790849
28.3169 35.833 5.60879 29.7771458267
27.4681 38.5977 9.42992 30.15523267
21.8921 45.758 10.2524 29.3564369041
26.5936 45.9491 5.61534 28.0864725452
28.7118 42.2643 10.6888 29.3906770991
21.2729 47.7016 8.17611 27.3627787774
25.3948 33.4348 7.58779 30.0699996076
20.9214 37.7639 7.02857 32.2197993979
21.377 34.0581 9.73408 28.6136868704
27.2137 33.0332 10.8571 28.4250804438
22.2812 39.5525 4.27504 29.56068774
23.5306 40.2527 9.60578 27.8808282384
28.8327 46.6501 9.99813 31.2028815282
22.9547 33.6889 5.11898 31.6537593819
22.7556 46.7821 5.95778 29.2042109217
28.2165 48.0155 7.24761 28.009063099
29.2813 48.9296 11.8501 26.9185798427
27.5665 44.6484 7.95773 27.3918176506
24.4561 37.8019 3.6434 30.445633082
21.1708 41.3458 9.97657 32.7429370839
28.5233 36.1377 10.496 28.4283965562
24.8018 44.1451 9.21895 35.0570670039
27.8781 42.0753 7.04934 27.1552354411
22.2536 48.2318 11.7469 28.3487669376
28.1971 42.8879 3.75404 27.9273718895
27.1462 44.4058 11.4872 32.0806411976
29.081 45.8473 4.36104 32.634324704
27.932 34.632 8.11696 28.0738351054
28.7934 38.4024 4.21741 32.2895538874
27.6118 39.9164 12.0541 27.8706894136
28.916 37.4825 15.7236 28.4751798138
20.0455 35.9142 14.9618 28.5701232333
23.6853 33.1423 18.2022 28.9870565175
23.5267 37.0951 13.6144 31.9542068649
23.626 47.405 17.159 26.5501675129
22.963 36.8863 16.319 29.699856964
22.3264 43.7505 14.0042 30.4583076339
27.295 41.3212 18.9358 28.0902680517
25.1277 40.3808 17.3709 32.1524483211
20.0366 44.6014 16.4061 27.3808557254
21.6684 39.9753 20.0391 28.649643053
26.3222 38.1114 21.2226 29.5033793225
24.158 44.2133 20.3915 25.9000579506
27.0852 37.7556 18.4234 28.6786062221
26.6141 43.3035 14.0122 28.474052693
