3.81603 46.8043 19.8778 34.4131421734
9.66888 33.4524 18.2283 29.7829894914
0.558783 41.1424 16.7404 27.0385179102
8.67768 36.6844 15.0541 32.0403609617
7.392 46.5644 16.2419 34.2958621766
-0.121712 37.6199 18.9403 29.4329210603
1.91421 35.3528 19.2445 30.7621921938
2.99899 37.3974 17.3493 29.5786329706
8.2957 42.0603 18.4988 27.4211857689
4.60175 35.1907 16.0559 36.8835581174
1.77868 39.9609 18.9841 29.4523406762
3.69492 47.5108 15.5069 29.5175566905
1.94228 33.5852 14.6372 30.2248906409
9.04303 46.593 12.7784 31.8705032412
6.4511 47.143 13.3852 29.0182834977
8.23157 48.1643 19.8093 26.1875105206
5.27425 44.2958 19.8769 31.6646022073
1.09995 47.3582 14.4832 31.7628314325
0.262153 43.4864 14.2318 29.8968645191
3.07721 39.9766 13.0868 30.4528351324
0.536215 40.774 21.3285 27.9100728972
3.81118 39.5132 21.172 25.087073318
0.00380417 45.0965 17.5439 30.0719376276
2.8726 42.7251 12.7721 31.301421257
6.49152 39.5904 21.3638 26.2487319536
7.31299 36.9547 24.4098 78.2454967341
6.33749 47.0825 21.4362 27.6606285759
1.22789 40.412 24.0187 56.4661850575
3.82344 39.042 23.9358 54.6704507411
5.29553 35.1034 21.6223 30.1832149228
2.90147 36.3095 24.233 62.3836318884
0.508457 48.1633 24.6087 94.1846630829
5.33356 35.1326 24.349 65.1813748745
6.55923 39.5259 24.0569 51.5128724812
2.40147 46.981 22.5015 28.149441603
4.90059 42.1963 24.3019 65.5386770655
1.80651 43.0992 24.8153 112.6094972997
6.58401 44.4755 24.1543 56.0805039048
8.44369 42.1529 24.5617 86.1244827428
8.57683 46.4209 23.9472 49.3831176905
2.39334 33.365 24.4743 77.2046261963
6.21251 48.0074 24.1419 66.7039943296
3.81836 45.157 24.1071 59.0814374502
7.70434 44.5448 21.4473 26.7258166762
8.41172 41.6462 21.3654 28.4985649575
0.108241 36.2438 24.2686 69.5831962014
1.55338 43.4067 21.7498 31.5527053496
4.25891 42.3092 21.5653 29.574900498
3.1851 36.7144 21.2942 29.1906702665
7.36532 36.8997 21.3806 29.0492066158
1.79272 36.083 36.0356 74.3065563073
6.54279 37.0435 36.1221 73.357699127
3.66619 43.9653 38.6691 28.6969736859
7.51741 46.7353 36.5415 36.0200543559
7.82321 41.3186 35.9474 79.3930824097
5.30305 48.0858 35.1703 118.5708469238
5.58209 34.381 35.6239 91.6517315673
1.66502 42.739 36.236 62.6504078836
0.847056 38.602 36.1081 63.1634551855
5.28506 39.6942 37.0605 35.2121401613
6.17349 42.6894 38.3875 29.2924385627
9.40469 37.2953 35.8064 90.3143357163
9.34939 37.986 38.6569 29.7141569618
3.23118 46.5381 35.6916 59.7634593506
3.1197 33.0993 35.886 54.9417747485
2.79189 40.3007 36.3921 63.5654307919
3.64301 46.7059 38.4695 29.43899326
0.701632 42.5389 38.7812 26.0560862176
6.99297 44.0588 35.9252 69.1102303419
4.24798 44.0714 35.6678 87.2079377169
5.37 36.7743 38.7155 26.4517257492
9.90615 41.944 38.648 28.1998745196
0.645062 46.1974 36.0351 55.0180260751
2.5018 33.148 38.6536 29.5647672546
2.4912 36.5884 38.8179 32.1119632919
4.8735 36.8612 42.1649 28.8026995193
5.25199 34.1592 41.62 30.4739914783
0.195438 47.5846 45.9109 27.6905276009
8.96549 42.1222 45.8109 31.7118713561
0.0311504 38.9279 40.4774 27.8332383771
2.57886 37.3371 43.5661 32.9298222648
8.30984 35.7309 47.3284 35.5458055235
-0.0175689 40.8107 42.5844 31.3528891203
0.682333 34.0546 40.5467 28.7660100162
0.77197 44.7023 46.039 31.3776972572
8.00018 35.7849 39.909 29.5407383325
5.23857 39.1037 40.0937 27.518358891
2.72335 32.9398 42.29 31.3315866395
5.60636 40.9151 42.5927 32.6316443182
6.60229 46.6932 44.7115 29.6943347874
6.35184 47.1463 39.3793 28.009277189
4.27691 43.3655 41.5139 30.7824176143
1.99584 35.1791 45.7335 36.5364163523
9.56078 45.7903 47.0926 28.7837287819
1.30541 43.2293 41.2252 28.5816323548
7.05894 40.4789 47.2871 31.7527820306
6.95377 47.7149 42.0656 29.2360613349
6.68516 44.59 40.6479 28.1583882296
9.72122 46.6618 41.7212 30.0439000622
0.921541 46.836 41.6183 31.0137169357
8.42295 39.824 42.354 30.7665193145
9.33716 32.9491 42.6374 32.6990861595
6.31046 34.3969 45.4579 31.9568895857
9.56541 33.6076 39.9422 28.5801666083
6.42113 44.0126 45.3183 29.5145278211
5.40185 33.615 39.0344 29.181499543
3.94246 47.6922 44.5485 29.7375552686
4.23048 40.9957 45.0936 30.2427752733
8.58449 37.0962 42.3067 30.6534795274
6.5241 36.8258 44.2501 30.8942914728
2.67855 48.4982 46.8358 29.3866295748
3.52817 43.5693 45.8446 32.6244553631
1.84007 39.8533 44.5649 32.5238248114
2.88892 45.3181 43.1331 32.8413198508
7.82565 43.168 42.9859 29.6897591399
5.42207 38.7035 46.1811 31.6806312857
0.655451 36.4849 41.8311 28.7543072488
9.54846 44.7236 39.5436 32.395107923
9.79039 47.024 44.6785 28.6034027948
7.71663 40.1852 39.742 27.5344594897
1.05202 47.4479 38.9065 29.9040042946
2.3416 39.5731 39.1417 31.5294865101
5.07272 33.5858 47.6832 29.3200410915
3.83008 35.1034 51.7621 29.7406195541
1.21506 35.4152 50.3574 29.5512344772
3.98379 47.1219 49.0039 33.582506851
5.16604 37.2588 51.1198 30.445692712
1.46009 42.9665 55.7912 26.8037766532
9.43302 38.862 52.5281 32.2737395054
7.94376 36.5907 50.9524 30.7530929845
9.71358 40.527 50.3022 29.8129583478
4.91165 41.096 51.5287 29.5478229093
3.74061 48.777 53.7608 28.2447083316
7.08549 41.5991 49.809 32.4671093586
2.98547 41.6509 49.7775 31.84399638
4.47029 44.1998 48.5074 34.6781708165
1.36025 39.4199 49.0569 32.5875782214
7.40935 43.8941 48.3014 29.0950138004
8.74496 48.2157 48.9609 27.3589541678
5.26236 43.3534 53.1616 30.3135803596
2.58725 48.1266 51.2045 29.4837444151
5.80162 46.2517 51.8404 29.7307239247
8.4926 38.2917 48.66 33.911706429
9.53595 44.8564 51.8586 27.4719814547
7.91124 45.8557 50.3423 28.2792210517
9.33416 41.7792 54.9548 31.6808205916
2.75657 34.8242 54.1005 26.3915630041
9.31557 34.9981 55.6143 31.4194549757
4.05234 46.543 56.2202 27.2586701044
1.56358 37.6259 53.7278 29.4031724432
5.41736 38.3433 54.9184 32.7466400301
6.30959 47.0979 54.4856 26.7956045384
1.43213 43.7039 50.8845 29.3510463354
3.21359 35.6491 48.2376 30.7055823505
-0.0484376 38.0971 51.1574 27.0203824006
4.03641 38.8623 52.8931 26.5515240193
0.105706 34.6056 52.8344 28.173734499
8.13437 39.1802 55.2041 31.8449611287
4.2372 42.2753 55.5042 27.6039849109
1.46206 45.634 54.965 28.3496658137
4.00449 38.0791 48.5943 32.709884151
3.1168 45.4914 52.5064 28.662229206
8.60575 34.3104 53.0648 32.6649496565
7.94786 43.9625 53.8746 27.5684168868
7.20319 34.1293 49.5009 28.7352643325
2.13285 41.3587 52.9369 29.0576139195
0.475249 39.405 55.6026 30.118223328
4.31423 36.1515 56.4565 30.6210228885
10.8781 4.24318 8.06329 31.7356796355
13.5529 0.239023 3.80586 28.9386081908
14.2596 0.0101436 6.87382 29.8511893373
16.3105 2.1484 6.24593 31.6903945006
14.7695 12.6154 4.12453 25.5525811033
12.6275 10.596 4.17552 31.8873670282
16.1781 2.41009 11.0287 27.8333039563
18.6183 0.728659 5.71413 26.3133998486
10.6466 16.0633 4.22255 28.5102071821
11.4871 7.95372 8.34398 28.1833374658
17.4072 12.9157 10.4796 31.2603000337
17.4843 10.7426 4.40815 34.8835275116
15.6601 7.02194 5.46748 31.0347849547
15.3175 9.0268 9.24482 30.5924721927
17.3899 6.39095 11.7058 32.2813771512
19.0431 7.7351 7.80554 28.9156363575
11.7135 9.01675 11.9158 26.9710819483
12.6852 10.4761 9.94288 31.5410191825
14.0176 13.27 8.55239 30.3999360978
16.9147 9.13364 6.81086 31.632112459
10.3609 14.2823 9.873 29.0882192458
14.4199 12.6248 11.1099 29.1383921414
12.8501 14.0071 5.32113 27.7012616023
17.473 14.4093 7.9071 31.7439444457
10.854 9.88091 6.22009 32.0742080531
16.1296 4.26771 4.16424 29.697813844
12.6349 3.90362 9.87927 28.4009558942
11.2624 12.6105 7.64277 30.4360527336
10.9772 6.27625 6.17347 33.5669038186
15.3944 3.526 8.70072 34.2998131272
10.7909 0.953486 4.83503 30.7063748231
13.4997 6.67946 9.64912 28.0560376366
18.814 2.38742 10.7601 29.0939542206
16.2784 6.3557 9.02184 26.73635027
17.8443 5.03257 6.86577 27.439451235
19.5174 9.17719 10.5299 32.0675497853
15.8827 12.2806 6.47804 34.3917085029
13.9492 16.0154 6.94126 31.6541087338
16.6279 10.2412 11.1878 29.4988888653
19.1058 5.76659 3.84145 28.6556803185
11.7066 2.26469 12.309 31.095274357
12.786 14.4311 12.3115 30.3326123848
13.0075 7.53664 4.74337 32.8408274028
19.2292 16.127 6.13983 30.2588235538
11.9832 0.452511 8.53418 33.5026156308
10.0578 12.829 12.0883 27.204112554
12.0399 2.56665 16.3398 32.4853814045
12.3983 15.3609 16.8791 27.6090225537
19.3057 13.8972 16.6915 31.9866927432
15.5076 4.40285 12.5286 31.5669865098
17.8441 6.13894 17.4449 32.6935895116
15.9579 2.50463 14.8348 28.6256801353
10.501 4.69987 15.2353 30.7260147267
11.3549 7.35527 15.7797 29.6275506182
13.9584 7.72625 15.3638 27.6010079017
18.9561 0.311653 18.6474 28.6868882927
11.3275 12.5985 17.2381 28.5652772681
18.024 2.48361 17.2553 28.094137892
17.8175 16.2811 18.0908 32.8310336616
16.1289 8.22828 13.1975 27.6647662834
10.5801 2.95735 20.0166 27.354425487
18.165 9.4399 14.821 30.4376134668
17.5162 8.84606 17.6782 32.0869781533
15.3909 12.2198 15.4407 34.1767886976
18.9375 13.7888 19.6927 33.2387041315
13.0269 5.39254 20.4488 28.7221960061
18.0368 12.2034 14.8323 30.9619950504
13.8383 14.7161 14.8136 30.6401590722
14.8199 12.0633 20.6394 30.6199696297
13.8564 4.12135 17.9878 33.2478236042
17.7468 4.60507 20.0455 31.0841975703
11.0119 11.6354 14.6118 32.3219577401
15.6029 1.74939 18.7649 29.2127994916
14.0224 11.9073 17.8835 35.298075417
10.5094 0.865548 17.9358 27.4337375882
15.4817 5.22496 15.8609 33.4209532759
13.9999 7.95815 20.2487 29.5404773912
17.4775 11.7819 21.2578 33.2781643667
18.6175 9.29772 20.6565 33.7264070753
14.6783 9.11142 17.7403 30.573660981
11.3824 8.34938 18.3611 32.6492040766
13.8182 10.4891 13.7131 31.2039369231
19.0318 2.00509 14.3708 29.6768558934
13.5944 1.06248 14.2016 33.080887856
18.0703 14.3858 12.8872 34.2961012962
19.5515 15.8525 21.4415 29.8003088094
11.2005 4.93515 12.367 29.7241854632
10.2952 10.8652 19.0054 30.6268004933
13.3387 6.96083 12.4663 26.9243930593
13.1184 1.90829 20.8226 27.4866537104
15.9166 16.1042 13.5041 32.4145558261
14.0831 14.663 21.4689 34.11978225
17.2467 1.80366 21.304 26.711202211
13.0689 1.86613 23.6606 41.5737133971
10.6177 0.128051 23.766 51.112416806
14.9827 4.22422 21.673 25.1010599778
11.8214 4.52217 24.2269 97.6073301494
14.8091 4.69277 24.1529 69.9100746174
10.5842 11.2745 21.6708 33.6954371076
19.6925 4.01491 24.1509 72.6484459286
13.2602 10.0682 21.6724 29.3882153228
15.7186 7.22827 24.2256 79.6168635202
17.0031 2.6294 23.8824 50.5268032222
19.8182 8.94256 23.3805 34.0575571172
10.9589 8.84572 24.3749 85.3187567861
13.6878 9.4766 24.2425 77.7095614378
18.4482 6.82973 24.1423 79.7335443717
15.0211 11.9625 24.0965 76.8650449474
17.5245 12.6876 23.8412 47.651031728
13.3008 14.4376 24.1691 76.899746372
10.43 13.6881 24.2947 76.6955099413
11.2824 13.9295 21.5199 30.4162825705
18.7548 15.0048 24.0081 55.5098508132
15.258 0.406285 24.4084 98.679727385
10.3297 5.25304 21.388 36.2860186214
16.4308 7.1117 21.4293 32.0086308493
12.1769 2.1626 36.009 74.0407907521
19.1999 14.9483 37.8956 29.1419463399
19.0076 12.4553 35.9731 56.332955252
14.7431 1.48183 38.6157 28.3451969948
11.6232 12.9874 35.3431 117.2450422907
14.9042 3.63364 36.6114 31.2372390004
13.1647 5.53253 35.4926 95.1317265108
11.7929 8.24224 35.7778 68.3286452554
16.4434 6.58151 35.5202 96.1550701935
18.7571 8.9345 35.7621 69.2701947319
17.5633 3.0189 35.6993 88.8626218323
16.8901 0.30092 35.9042 72.9012892645
10.4254 10.7017 36.0739 45.4268177641
18.2689 8.67907 39.0442 29.7237187766
16.289 10.8166 36.0523 63.0316592292
14.8067 8.50122 36.4332 38.3013813353
13.8987 16.1289 35.6473 78.2646923997
10.3864 15.13 36.4395 34.8012554916
14.5268 13.2677 35.6977 82.2807177522
18.8047 11.7493 38.6818 31.8566686797
18.1511 6.18597 37.8355 31.6275547983
10.7388 4.61183 36.2965 34.2981102004
18.716 3.15389 38.5152 32.6670462567
12.1139 7.28387 38.5511 27.7638833444
13.4502 13.3522 38.2063 32.0567846993
10.2322 -0.164665 36.1533 68.4892378424
15.533 15.5837 38.136 27.8571020287
11.6797 -0.0447268 42.141 27.6099094306
15.62 13.0537 42.326 27.1081437742
14.0686 14.8538 44.1919 28.826037056
14.1894 5.84133 42.1048 34.570173598
12.588 3.27534 39.5109 26.9472396559
16.867 9.20443 44.5312 30.5270291968
10.0309 5.09513 39.014 27.423955726
18.73 4.56066 41.3678 32.5106107475
17.8227 2.32855 44.4735 26.7041127317
10.2624 13.94 46.1758 27.447141587
17.063 11.0367 47.3671 30.0202491866
14.6654 14.5709 47.2127 30.7423539434
14.2968 5.35089 38.9123 32.2085553268
13.9353 11.0504 41.4998 31.4701635167
16.7002 5.15842 43.4155 28.7157404355
15.3311 4.60114 46.3618 30.6066855564
16.6387 6.773 46.4125 27.8373391649
9.91902 4.14735 41.8104 27.721312997
15.4312 8.52392 42.0651 32.4265052053
16.9581 13.9504 39.9683 26.8603145142
14.3322 15.521 40.8148 30.3649331405
18.564 15.1181 42.1763 31.1826785898
17.4863 11.9011 43.7906 31.7311714441
12.2342 8.55261 45.262 34.1606093074
18.3529 7.17577 43.3645 26.2209654016
12.133 8.75875 40.8572 29.9995523262
11.4957 6.10716 43.4798 30.4865249013
12.4873 12.7267 45.2564 30.3356899682
17.1182 13.7566 45.9396 28.9921259234
12.6268 2.62717 42.2217 29.1457410523
9.94521 4.97348 45.6844 30.8386881313
17.3079 1.19679 40.0788 32.5914091345
17.397 3.12056 47.3183 27.6694549415
15.7816 1.55664 42.3425 30.2678907974
12.1796 10.8503 43.496 29.905121842
16.4857 16.1088 44.0561 26.5258802657
15.6877 8.46959 39.2082 27.8890542961
13.9994 2.25994 44.9244 34.7464761842
14.5885 9.39752 46.7751 30.1498858719
10.294 10.3865 39.0471 35.9256012666
11.7957 2.04433 47.0114 31.9542494106
11.4369 15.1996 38.8488 30.2874573029
15.6991 11.4012 38.9043 29.8003787492
11.028 11.9055 49.5011 31.3448258443
16.4965 7.28611 53.3261 29.8447121564
15.2812 16.2079 50.8905 25.883044203
10.9828 3.08532 50.7431 27.3628702551
17.235 1.24314 54.2826 28.2124207521
17.3031 4.80943 51.1853 29.5094415949
14.6386 3.84756 50.5325 30.1860516224
17.3278 7.7084 56.0462 27.9806482453
14.6818 8.39679 49.5931 31.8777597942
11.227 4.78628 48.2542 29.4499282764
17.618 7.38362 49.0616 28.554222395
17.9796 15.5819 52.3301 26.6596571697
13.6026 2.75406 53.0994 25.2273338542
15.6912 13.4304 52.759 28.7777239787
15.9814 11.1779 49.8553 26.0828312839
15.5061 10.9648 54.8994 33.5935009955
16.5134 14.1206 49.4456 25.646959895
16.7931 1.65491 49.8951 26.5870372758
10.3767 14.5116 48.7761 32.8152929039
12.5829 5.66957 54.8712 30.2349182674
12.4457 14.2798 52.842 32.5460855684
18.7341 15.1332 48.5933 27.7318761664
18.8626 2.72962 56.5168 29.5800448412
16.5981 14.8066 55.3344 33.1870715559
18.9959 4.9917 48.1997 25.9346246334
13.8856 5.74883 48.5208 30.977145606
15.9763 3.9102 53.9152 28.520691913
18.3436 12.6377 51.4483 29.8896812287
12.693 16.1185 50.2885 32.8285631477
11.0015 3.68186 53.6071 27.7847065662
14.0628 5.99979 52.5604 24.8314089945
12.2687 7.40773 51.213 32.2037439257
13.5365 11.8304 47.8162 30.9566228274
19.0536 0.316075 48.3193 27.793336856
10.2758 10.9869 55.3788 29.5504352884
12.288 9.63095 53.0126 31.3735202848
14.1716 8.50278 54.7122 27.0564138759
13.3315 15.5542 55.3564 29.8587628506
17.6216 9.15313 51.4828 32.6919366777
19.8297 14.8685 54.657 27.6927485644
10.2523 13.3643 54.0489 29.3600408695
13.3486 11.7446 51.4902 31.7793396421
13.4867 2.94995 55.9874 35.2926625835
12.2011 0.594371 49.8647 28.4021719178
9.95503 7.25349 49.2848 34.5402085506
18.5378 1.22575 52.066 26.0495393363
11.5438 25.8314 11.1132 29.8912858306
18.1316 19.0986 8.61715 31.7303055943
14.7281 31.397 11.3098 31.4435927556
15.8304 20.5399 11.6546 37.0233787502
19.4905 25.4186 5.46833 27.124155947
12.011 20.9955 6.58861 31.7025076355
11.7675 16.9549 8.55549 29.109781293
15.6252 17.6555 11.2701 34.7523621176
15.3272 23.9775 4.83301 28.6545655537
12.3161 23.6019 5.20669 30.4417301701
14.8074 22.051 6.98976 32.8393897127
16.3145 25.2964 9.80062 28.9543685958
16.6255 30.078 9.22283 26.6327957137
11.015 19.2955 4.22623 31.3721917449
14.0059 26.7158 4.20977 26.775115485
19.3625 32.4429 12.2696 29.1144832459
9.72714 17.4781 6.42419 29.2435595085
17.0526 25.1274 6.76552 29.3845182559
12.4196 30.2031 7.95423 31.0707545373
13.1007 27.7842 12.2016 28.6245377112
12.3564 23.2146 12.0519 29.8414653088
16.2429 16.8502 8.78927 34.7809587606
12.8848 17.0761 11.1115 33.26965897
11.2726 19.738 8.97951 31.0182541666
17.5692 17.1734 4.34331 30.2716637212
15.0475 18.3691 5.39032 33.5637383951
18.0368 21.3083 10.1509 32.1780641029
16.4488 29.8594 4.08478 27.5629749902
10.5286 29.932 5.91077 28.5625718742
13.4012 21.5871 9.99615 34.1860941333
19.4108 25.7145 9.56036 27.652767107
19.4375 23.2301 8.67779 31.064721156
13.8785 24.1651 9.02109 30.4670771828
15.2696 27.8159 10.5286 28.1964901941
14.4297 28.2985 7.77017 28.4198220007
18.4444 20.6289 4.40187 34.9271459232
12.6521 25.9037 7.26462 29.7448522854
16.8348 19.9994 6.78944 30.4248155831
16.1797 27.72 5.8812 26.5663998308
18.9275 30.6921 4.02353 32.9921869563
10.7196 30.6186 10.239 29.5628612351
18.5134 28.0283 7.91961 29.4843400683
15.9739 31.3403 6.61977 27.9445582873
10.2925 26.1797 8.63173 29.9680808549
19.4392 24.8686 12.3833 31.9651064869
11.3845 27.9437 4.27165 30.6711061968
13.2658 23.0112 17.0657 32.341945063
11.1826 18.095 13.4588 35.434369908
17.5638 23.5713 18.2926 31.9013203089
11.9318 17.9865 16.1598 28.3816861593
18.1119 19.4197 15.0958 36.0250612989
16.171 30.0689 21.2388 27.1856413882
12.1797 25.0882 18.8135 29.073988072
12.2141 31.4481 21.1023 28.1957204859
13.6289 23.7355 14.359 29.1276258371
16.3018 21.5732 16.222 29.4570930363
15.3135 32.2266 15.7016 28.1117545131
18.6664 30.1265 15.0154 27.8289314274
11.1121 28.1408 19.7633 24.5945520243
15.0937 30.3642 18.547 27.7805379873
16.7493 27.0329 14.2991 29.2281320653
14.5594 29.79 14.5881 27.9849985773
12.6831 23.8874 21.1455 29.7661211557
11.3521 30.5804 15.3749 28.703130258
17.9941 32.9358 15.303 29.3428879559
16.4549 24.8418 12.5148 30.4120316896
14.4888 18.5713 19.6296 30.9308993319
10.2326 19.6227 17.6338 26.8949355151
18.76 31.739 19.0066 28.2194049384
12.3067 31.4908 18.413 27.9807026616
16.33 17.3809 16.0021 33.3844611536
19.6456 23.7248 16.1921 32.9645120661
18.2727 26.7658 18.5832 28.2004921994
14.5656 19.4107 16.829 34.4384849156
18.6202 19.7812 20.278 28.6251297136
11.1222 21.6742 16.1109 29.389756709
13.4255 26.425 14.6577 27.6873498381
15.1147 25.449 18.1491 30.6580254933
16.3724 20.9923 19.3627 28.2666899272
10.115 16.9188 19.0459 26.407686762
10.9225 26.4579 16.0527 27.9428491772
17.1186 17.4869 20.4813 32.1762178992
19.1819 26.2962 15.2806 28.5399501848
10.7242 20.5146 20.3567 29.5017052539
17.8394 29.5004 17.578 27.8969189165
15.2154 27.7426 16.6252 25.4298775564
12.3405 28.6211 17.1126 27.3409067783
15.9344 22.4487 13.6275 32.6959350266
10.5282 21.0989 13.5531 31.9407049467
13.0561 16.3227 19.3997 32.4591549295
14.9195 26.3383 20.9789 27.4977163501
17.4542 27.4968 21.3609 25.557066768
16.9494 29.4228 12.5077 29.5825271214
12.0761 30.2837 12.546 30.0386597525
12.6212 19.2029 23.8837 60.4660010188
13.5081 28.3376 24.1637 77.3655028767
19.5416 29.4443 24.0628 63.1836006375
11.1358 26.453 22.0281 25.5141055369
18.4759 32.0389 24.6179 90.4264674663
13.7101 21.9509 24.417 105.4552684759
11.9364 24.3328 24.1929 67.6784519875
16.3782 21.6307 23.7525 51.3258201274
13.5466 28.8172 21.2884 26.716169389
13.2518 20.5937 21.4644 29.7358258206
17.1692 17.473 24.3118 102.8801452997
10.7045 27.8815 24.3982 93.4013577014
14.6783 16.8713 24.1378 77.0970480065
17.2848 24.4473 24.1102 67.9721330529
15.487 22.555 21.2342 27.8670920051
14.5196 25.8488 23.7205 45.6039774767
10.3988 18.3975 21.7189 27.5490793701
15.8815 30.1799 24.222 68.8383422657
17.4906 27.3307 24.0381 63.9323062067
18.3154 19.8097 22.9753 31.751001657
19.5017 29.7873 21.0968 28.8854348647
19.8682 22.9111 24.4608 102.2914086465
18.0882 24.431 21.171 30.35342302
15.5246 18.4482 37.5567 26.2328335537
19.574 22.25 36.1709 38.6122725997
16.9622 23.531 35.8084 72.1064269846
16.3226 27.95 36.231 55.0940771014
12.291 28.2523 38.5941 30.2173807388
16.4269 20.3776 35.4269 95.4750376207
11.0056 31.6679 38.2428 27.1596508722
10.5771 19.482 38.1355 24.3805332806
9.85995 23.3902 35.8286 75.9776732954
14.4309 24.8983 36.0592 59.4544502964
16.4808 22.5553 38.7228 31.9417675756
12.8695 22.7514 36.0776 54.8196261858
13.8543 31.5496 36.2458 39.2625102866
16.5136 30.7873 35.9389 65.2400656793
13.4332 27.4901 35.7747 93.2636876368
18.5488 17.5332 35.3836 82.5936198493
11.6626 29.835 35.5931 81.9047116151
18.6403 25.9898 35.9284 67.6443664977
10.0341 32.5906 35.5834 81.9217078719
13.5378 20.0568 35.6285 68.9380512439
10.0632 20.6438 35.6414 76.8939355786
11.5658 17.7201 35.468 94.2891425588
9.93561 23.7472 38.5844 30.334636255
17.3818 32.4754 38.6333 28.7774399086
12.7872 17.6704 38.5572 25.5062122534
19.4233 30.9183 35.6545 83.7400274745
18.1244 17.5885 38.3232 27.2997674513
12.6684 19.0898 47.6321 29.9688657816
12.5074 18.5872 41.284 27.5083019908
13.5148 31.6918 44.1992 29.1921796678
14.9058 20.2673 39.6222 26.7338177185
17.6219 20.7334 41.8981 32.8982277349
10.7269 31.6135 44.8694 29.8333298812
14.5377 23.6323 43.1072 27.5432820924
13.5181 24.0228 40.675 29.5458571205
17.6893 24.2333 43.0004 25.9765032649
16.0797 26.7502 42.8507 30.0087690139
16.1848 18.4799 45.6111 26.5023826953
17.7206 25.2487 40.2937 26.3665065998
18.9073 28.0235 42.7382 25.5392150794
18.4815 24.5204 45.6785 26.2703336644
15.2637 25.4546 38.7905 29.3381784411
16.9164 20.9055 44.5146 27.5940084666
14.53 27.7691 40.5449 26.52244037
13.5272 30.8263 39.2476 27.1728653099
11.9326 29.0605 47.4128 32.8442957852
18.4035 16.7664 46.4709 29.8923037062
13.2184 19.145 44.854 28.1337572384
10.4081 32.2749 47.3993 29.8613625792
16.5515 29.6294 38.8164 28.9840204752
11.5142 22.0013 41.8198 27.8216007311
15.285 22.7394 45.9249 30.0201427822
12.3912 24.2297 44.8529 27.5016631144
12.2564 16.9914 43.5541 30.741731222
17.1631 32.1077 41.6556 29.5620540025
14.7829 29.9456 46.2397 32.489423574
14.5215 20.8419 42.434 25.5474577603
19.3451 22.3763 38.8666 27.1110265351
15.1966 27.0243 46.226 31.0638069855
11.4372 21.3701 44.579 31.7742419356
12.2403 28.436 42.2801 31.2182560084
18.3123 27.9055 39.9753 28.6058331242
12.4156 27.3454 44.9425 29.246255621
15.231 17.8773 41.8732 25.756636049
18.3897 27.5272 45.8809 28.4986772774
14.6675 30.542 41.9978 26.5904660628
16.7006 29.4978 43.865 29.1135234701
17.9439 18.0205 40.9595 31.1099861607
11.3649 25.9962 40.3408 29.3094992284
10.2118 25.1297 42.9835 28.9944309162
19.1925 21.8726 45.9867 27.0353689499
9.86642 16.4719 44.7701 26.7964201674
12.4678 21.5771 38.5759 28.032949011
13.275 20.2405 52.0227 29.4754590634
11.2705 18.3434 51.1384 32.7670959573
14.1577 25.8295 48.5944 29.5298256101
18.7822 17.6146 50.409 26.4911993753
17.7674 18.8989 54.6382 32.0796305383
12.2438 24.2908 47.6322 31.0344998211
15.1351 21.0627 50.2227 28.7008915465
16.3884 23.2355 51.5106 29.6573699681
15.3816 22.657 53.9901 30.3485178944
14.825 27.6012 54.6871 27.2301980277
12.5452 29.6756 55.2204 29.7359100727
19.0205 22.4546 51.3881 32.555881038
15.9491 25.8154 51.1339 28.21816227
15.5299 29.6681 50.0613 29.2842227693
16.3193 18.7548 49.6778 27.6831260372
17.5677 27.8479 52.2234 24.8690150023
13.0434 28.0699 49.8791 29.9716499247
10.5346 29.5406 53.0455 31.1219727564
10.1001 32.1457 51.8973 34.1732259517
17.8776 26.9854 48.8488 27.6233950751
15.2381 32.0305 48.2883 28.6482160644
14.8225 17.6047 47.7659 27.4590633293
14.8172 20.0485 54.1439 32.4950635606
13.773 21.7727 48.0666 29.7529194043
13.2527 24.2362 54.939 29.527619443
11.5951 21.9924 50.709 32.3471172177
19.5621 22.6816 48.459 25.7784426841
15.5557 16.8202 53.6521 28.5095799405
18.5947 29.5993 49.7982 28.9953441199
13.6409 26.1147 52.715 32.8602348529
12.502 32.2766 55.8902 30.8322769053
19.7466 30.8743 52.1686 31.8732938389
11.1272 22.4812 53.5678 31.8622537903
16.3904 30.3187 53.2696 28.0819786126
19.2992 25.0639 55.4664 30.7153810394
17.2692 23.0129 55.9437 33.6569966737
10.9263 27.1558 51.6885 27.2645512898
18.0493 19.8467 47.7641 29.5132354729
17.8128 27.4671 54.9748 29.3768659945
13.7022 30.2113 52.3412 28.1086514221
18.6552 32.7669 48.3747 29.4972284723
19.7285 19.8215 52.2465 32.6276764244
9.7211 20.1522 49.2625 27.0229478518
10.0617 24.0617 56.0617 27.0551265466
17.0711 32.4311 50.7742 27.3409196759
15.1923 32.6567 56.3893 29.158076813
13.4711 18.3135 55.8864 30.2044851503
16.8892 24.2473 48.0772 29.1040471089
19.7501 34.9466 8.96499 26.0609961231
12.3258 34.973 6.41693 33.4224926298
17.3247 43.8883 9.74194 30.0773219638
13.5335 46.5009 4.74874 28.3717031785
10.8937 41.9981 6.04935 35.6788144188
16.9777 36.0038 5.63288 34.8924093754
9.88902 33.5948 6.79732 30.1242362171
14.3405 35.1849 4.14099 28.7743798907
17.746 32.9746 9.63659 29.4471249483
12.3483 48.6736 10.9024 27.9969665587
17.0213 39.0551 8.59709 28.642413776
13.7753 32.5811 7.31922 30.531411155
18.839 36.9508 7.48432 31.4959076421
13.8052 41.6421 9.47438 34.5529027787
16.8874 39.9126 3.87775 31.6015479839
14.284 39.7758 5.00476 30.141668775
15.4834 44.4896 5.23326 28.8157954277
12.6347 44.2963 9.06682 31.1794964495
18.5898 39.6507 11.3053 28.7751699104
18.0523 40.2323 6.46226 28.7748283601
18.5698 44.7291 5.42744 27.3543500885
17.0891 47.4118 5.37698 30.1524254627
12.0188 46.7047 7.08219 31.7289596649
19.2797 48.3892 8.38189 30.1667903806
13.6374 35.695 10.82 30.2981000211
11.211 40.9552 8.9102 29.3759696026
15.3118 45.2469 8.28725 33.3571070401
16.1722 47.9375 8.67257 29.0186398573
16.6583 41.556 10.6528 30.3901315821
13.5222 42.4033 5.27582 31.1504556289
18.4375 42.8516 7.52387 30.272958835
9.73973 37.564 10.8368 32.9644086104
17.6559 33.6137 6.64119 29.1712036241
15.1708 33.5174 9.39877 30.6315695909
10.7073 38.2923 8.5184 31.7791887357
13.1416 36.9186 8.2144 33.0846076929
14.4079 39.1514 7.54987 31.7542187003
19.5797 36.526 11.219 26.2109004636
12.0291 45.9989 11.1585 32.8047323649
16.7973 37.1977 10.9599 33.5845988636
17.9245 46.487 10.9042 26.1117740621
15.0821 48.8663 11.0634 29.4805505263
10.7943 34.8233 11.1502 35.6583859651
18.9801 45.638 13.9488 28.8594932024
10.6144 38.8268 20.0838 34.9831742898
16.2799 33.0555 19.533 26.5361704587
13.1641 35.2725 14.9216 26.5708342876
17.54 36.8449 16.4624 30.6647251409
10.6291 43.8899 19.0968 31.7408808029
10.6645 34.9875 13.9064 28.3395742681
18.4766 40.9432 20.1126 28.0964050951
12.6976 47.9642 16.4666 31.7242038676
16.238 39.5957 16.4454 28.5013043592
11.1097 41.3668 15.6205 29.7817759754
13.1747 43.6731 17.851 28.7243506203
13.8575 41.2493 16.5317 34.3209669767
15.2637 48.1443 17.1953 27.1598355609
14.673 38.4694 18.4718 35.0651569527
18.4804 38.968 13.9055 26.4999583001
14.861 33.5756 13.3397 31.7777967383
17.9247 43.8648 17.1046 29.4131065947
14.6802 44.441 20.0962 27.5421478458
15.7 45.1357 16.8954 29.3626968628
13.5276 37.0818 13.0974 26.7961727208
12.2801 45.3045 15.7181 26.5024116849
13.8035 45.2299 13.5854 34.6247272709
19.1995 47.9007 16.0421 29.1686980722
13.7571 33.7187 17.5114 28.5193639703
11.3866 35.5092 19.0557 30.4882233854
11.8289 41.44 12.9683 32.2555713414
15.8748 35.9228 18.4744 30.2272663497
12.5494 37.1131 16.8986 30.8064586147
18.3709 41.0442 17.5067 30.7476172483
14.9677 42.9612 14.6454 27.3110330914
19.403 34.9289 13.3832 24.7879578888
10.2207 46.6382 18.0076 29.6623236212
17.7365 35.2655 21.0902 28.0388899688
10.3876 38.6218 16.1197 29.311237418
12.6097 48.2058 19.6204 28.650366464
17.8287 43.2514 14.4637 30.538939112
16.7552 35.7482 13.8939 27.8092176546
16.5019 46.8577 19.6043 29.3609539713
16.7424 48.5218 14.9413 28.2356029716
15.7772 38.5907 13.6168 27.1798283096
11.2623 38.3789 13.2792 31.8663037036
17.0872 43.0149 21.0627 28.2847342837
16.1514 46.9155 12.8163 30.0821465122
18.6671 45.363 21.1474 26.8864176079
14.4953 41.0966 12.6001 31.5681433123
9.99885 37.4994 24.4939 90.5375340787
15.8831 40.0593 21.7406 28.4158490776
18.0007 42.8268 23.6218 36.5331713915
18.4827 38.4833 21.5361 32.8062508344
13.5239 39.1185 24.292 60.3447018293
14.4374 32.8273 21.3655 25.82788568
15.3867 37.0624 24.4565 84.9625628351
10.1394 36.5693 21.5384 28.060386909
11.6812 46.6718 24.6088 102.8874009018
11.1418 43.9305 24.4845 70.55385621
16.1741 40.3754 24.4419 67.9312085519
17.2837 34.8621 23.9788 43.3329012845
13.5879 42.4157 24.2003 45.4280693272
10.4002 44.5823 21.8709 24.4410786757
19.2212 32.8177 21.8171 29.472562806
15.6398 44.0224 24.7713 116.4950019193
12.5878 33.4513 24.0774 75.5911520441
14.3175 46.4943 23.8981 39.2713061345
18.8114 39.2307 24.5167 102.5866131319
18.6385 45.6159 23.8022 46.9540222496
11.3698 40.9275 21.7611 30.107435928
10.2409 47.6644 21.4197 26.6784395325
12.626 36.0603 24.0491 50.2301118263
18.3492 48.5902 24.1039 76.3290710379
10.853 40.3345 24.3959 64.8341084534
10.4057 33.5402 22.2183 34.6366835135
13.336 35.5042 21.3068 28.6491474939
12.9938 45.7376 21.4758 26.4922455308
13.6961 42.1208 21.5902 30.3569428214
15.3211 32.8715 24.2511 67.8691203431
19.0734 48.4497 21.2367 24.183112085
15.4107 37.272 21.3436 27.5217179143
15.1638 48.4136 21.5488 28.7628368721
11.2242 35.0425 36.1255 44.9937068618
15.8881 35.5101 35.8862 57.3293200576
17.3598 45.4888 38.1114 29.8277878319
17.7838 33.8071 35.5752 86.1164915224
10.7555 47.9866 38.7795 29.608673498
13.4737 40.5739 35.7393 93.5930646942
10.1807 40.1161 35.8299 65.5712819443
14.558 46.0031 39.006 33.6209094699
13.5221 43.0979 36.6877 31.4960915151
17.5823 38.9396 36.193 66.0930682753
10.377 45.7847 36.6216 44.1530363079
18.623 36.6257 38.6636 28.2031975499
10.936 43.136 35.7271 96.8864432903
13.7744 46.4721 36.4816 43.863462707
17.1669 41.7669 36.1867 50.4720169967
15.8184 44.8274 35.5081 117.8739569102
15.0104 38.2798 36.2008 55.9146295857
18.4933 46.7901 36.0682 55.4922117753
13.5902 34.2096 35.5072 102.7377776901
14.2531 49.0411 36.0593 69.4793168214
11.7033 34.8332 38.7641 25.3262223439
15.0722 41.152 38.4668 28.7693370453
12.1039 39.8103 38.2231 28.2999974432
19.0053 43.3966 38.2014 27.137622417
15.9591 35.1483 38.7804 28.0235535732
14.1778 33.9064 42.3926 28.4083837635
14.2317 43.478 40.0275 30.4093200892
19.1352 46.5501 41.9085 31.6006890567
10.8832 34.7848 46.0933 27.5473692576
12.7924 47.4373 44.5427 30.5979564902
18.1813 42.2318 41.3857 30.6847966841
13.7882 33.4955 39.685 28.0876933743
12.4245 36.3935 42.5263 31.603944905
13.325 48.5988 47.1005 29.2523578433
17.1492 39.3596 44.9589 32.3880469814
17.7836 36.8451 41.3059 32.4874175289
13.232 38.431 44.4345 30.3211530152
15.7152 36.8052 45.022 30.8585990492
10.6801 43.7439 42.7645 29.8112641478
17.9277 45.5391 45.4014 29.8696537603
15.1158 40.5521 42.5726 29.4872460598
14.9613 47.8862 42.8015 31.5363916251
15.0277 44.1149 45.7706 30.6075068006
16.2845 35.0794 43.1385 26.8645738414
15.6968 43.172 42.1741 29.9859544645
16.4075 39.2197 40.6087 28.8666280689
18.7446 47.8437 39.3433 31.8541473646
12.3526 39.6805 41.6256 29.4421779203
12.3532 40.9054 46.2628 28.3216271047
19.2996 40.787 43.7745 34.093532045
12.0754 37.159 39.8268 24.9455423734
14.528 37.5018 39.0762 29.4512744993
13.9423 34.0103 45.8716 29.8435790203
18.2927 40.7219 39.0302 26.6641774632
11.2894 43.3672 47.152 28.5964345506
10.1512 35.2097 43.6404 29.5823537714
12.4097 44.5413 44.7902 31.750404423
17.0615 48.3689 44.5672 29.8051983741
12.5862 36.9754 47.0007 33.1206384064
11.7875 42.3299 40.5454 28.0712858208
16.782 34.0947 46.7472 28.6280120804
10.6336 40.882 43.5908 31.2612381801
15.0474 41.0104 45.7688 29.6473238723
16.8146 45.5602 42.8916 29.5234050273
17.6212 43.0977 47.5503 29.9795675579
13.3097 48.439 39.865 29.2269535076
17.895 33.068 44.3169 32.3290169685
16.2478 48.8498 47.4079 28.442669936
18.3856 38.9311 47.6021 32.6056979881
12.7559 33.2113 48.8427 31.1508414302
19.6612 48.738 54.9466 28.3085021584
15.197 37.0172 50.3494 31.255759395
16.3967 33.2127 53.9052 29.0904967676
16.2696 47.7883 55.383 28.4628345442
11.9318 46.6129 48.6818 28.3866527342
12.6636 36.0305 49.7978 32.4624438991
17.2683 42.8307 52.0496 26.6720733335
16.9428 45.3969 54.0536 28.072861445
12.9635 32.6395 51.706 29.0082745045
13.3863 41.418 49.4866 30.7489155956
18.9382 43.9127 50.2251 27.6537204458
14.3865 43.0474 51.96 28.2468141424
16.7865 42.857 55.8396 27.9984585213
14.5258 45.7349 52.5146 24.7141581597
16.494 46.4183 50.5954 27.873637544
16.6101 46.1107 47.9298 26.7153002395
11.6514 39.1789 48.4185 33.006659061
10.1427 46.2985 54.3677 28.5224535816
11.3273 42.6859 51.0726 28.8078196341
18.7296 37.0066 56.2333 27.5124322201
15.4443 38.8432 52.4976 28.7205281606
14.7564 36.0028 54.0866 28.3668992283
12.027 46.3734 51.3497 27.1229654327
16.7827 36.7583 48.0979 31.2211783961
15.1985 34.5199 51.422 27.8844749463
12.5518 38.6831 53.3409 31.4334132321
17.2106 40.2712 50.9021 28.5461700944
17.5742 37.224 53.7652 29.1585629516
12.9475 42.986 55.3613 28.4061696191
11.607 41.4868 53.5234 27.8834386914
19.1812 35.478 48.9773 29.4166283037
19.0577 47.3097 51.9502 26.4209373763
14.9961 41.4578 54.2822 27.9513271209
12.7216 45.4748 54.9354 29.9127172696
11.0153 36.4889 52.2245 30.8980537236
12.1103 34.5702 54.3209 29.427421703
16.0926 41.1566 48.5489 29.2037228482
11.3409 48.7085 52.68 28.7054885342
19.1143 35.6402 51.8335 31.5074866339
14.0689 48.8885 53.5872 26.4379579966
19.004 33.6115 53.4972 26.6655709039
19.4253 42.094 53.9652 29.5221695586
19.6775 39.3823 53.4419 28.0322215772
14.9931 48.8127 50.8074 29.4173167461
13.9291 44.4503 48.4968 31.2407386917
10.0589 37.6817 56.5487 32.0363623702
13.0118 37.8718 56.1893 33.2393078011
29.0416 2.42363 6.50881 31.0373083769
21.1728 14.6375 4.60038 31.9224388223
27.3094 3.16996 9.14182 29.3471343546
24.2953 14.701 11.8806 31.7864383037
25.3437 4.22644 7.05309 28.39284531
28.5356 12.5977 10.0574 30.7097057055
22.6266 3.74262 6.33192 25.1540122747
24.6896 1.33904 7.95608 31.0152319388
28.7239 12.7615 6.38512 29.8730508681
29.3554 14.7719 8.24111 29.7944997572
20.2006 12.1088 10.1871 31.4554695645
25.4755 7.06465 6.09467 30.6977387449
21.7375 12.6593 6.44982 28.9402632783
25.3046 10.0345 5.7552 32.6810038245
24.2999 12.2094 7.3644 28.0068737388
23.9676 14.5177 5.09402 28.6695690174
24.1397 7.72168 8.51677 30.2476110344
27.1617 10.9239 7.99444 30.286807872
20.2925 14.0431 8.32423 31.7849310828
22.5371 10.6038 9.01181 27.857987128
24.7007 15.9317 7.89446 28.5494697149
27.6777 6.24279 3.9837 32.7089659486
25.6546 13.9013 9.23465 30.9106506504
27.1085 15.5012 5.75329 29.090194757
21.5803 8.84969 7.06467 28.8977986962
22.5206 2.31501 12.058 27.0167558834
29.5477 7.96705 5.19188 29.7972613614
25.9619 11.565 11.3396 28.2611630907
19.8993 3.6236 8.58428 29.1887966157
26.9505 3.49401 4.99273 35.1588577327
28.9573 5.38126 11.2165 30.0563560746
25.3758 4.56157 10.6442 30.5341784489
28.8918 8.57009 8.31626 32.044241018
22.0421 5.67824 9.14177 27.3148522246
21.0106 5.8111 6.18182 25.9583855048
23.1528 3.24029 9.58877 24.5954297081
20.3949 10.3001 4.88172 31.7694515402
25.7275 7.74126 10.8923 29.4137721598
28.2812 8.23287 10.809 28.7294836127
26.9357 0.580772 9.85612 33.7300165724
20.2951 6.26526 11.0921 27.214617526
23.6324 9.6163 11.3048 26.3940561454
23.0581 6.82959 4.48528 27.3532012738
21.2513 1.60828 7.1063 27.6903869583
22.5052 12.5525 12.282 32.4951842119
23.7489 2.36966 4.15612 28.5493935629
22.194 2.10671 15.623 27.2368824277
27.2509 0.465826 15.3232 28.4196857269
28.4438 1.17906 19.463 31.2162276991
28.238 6.48217 19.8644 28.9498662191
19.8392 4.7392 16.269 29.903022821
24.8857 6.46176 13.7426 28.6904378922
22.1574 10.2123 15.9229 29.1853576295
28.0375 8.77341 14.9919 28.0660442216
24.113 4.27761 15.9587 27.9771080381
27.814 6.20703 13.8294 26.938304784
24.4649 10.8978 14.2057 27.1876431003
21.3402 12.4767 18.1897 27.6275110307
21.7986 14.9194 15.2141 31.3245628502
25.3176 8.60454 15.5257 28.4280510179
27.6108 16.2555 17.678 34.577771929
29.3361 5.49677 16.664 28.7897354348
26.5897 15.6608 13.3308 34.6992883151
25.3752 11.6439 18.1245 31.7750848904
24.1216 14.5529 18.8436 30.882386438
20.6398 10.3788 13.3357 30.3762817895
23.5842 12.8853 16.2023 30.5690496052
21.7878 1.41741 18.2775 26.8560028579
24.1894 3.19366 18.8388 24.6312331756
22.2106 8.67793 19.7956 29.1375172798
20.2906 16.0702 13.2416 35.3594433153
26.5991 15.0321 20.1172 27.1819332802
25.8963 1.3738 17.8029 28.5856995938
21.3502 4.31581 18.6156 27.1757514047
28.9138 13.2358 19.998 28.3508190629
24.8812 8.75762 18.3727 29.6745122857
25.8566 5.84138 18.3267 29.3363207345
26.9728 3.67604 16.5061 26.5497506727
22.0713 6.19082 21.2157 28.6461893366
21.874 13.2264 20.9563 30.4698135144
28.2689 10.1446 12.672 26.2113983682
25.0189 3.42993 13.3053 26.2002236799
22.5574 6.70535 17.443 30.1488704165
27.6665 11.6206 16.3179 33.3165728226
22.195 7.51166 12.794 31.1194396407
27.8241 3.10252 13.7407 31.0836626163
20.2426 10.0366 18.2751 30.0415002038
27.0447 12.7678 13.9285 28.7680327175
20.673 7.54892 15.2654 31.7716778867
20.429 3.90502 12.7553 31.6679342591
29.1558 8.1248 17.6722 34.6485989627
24.5247 0.668313 14.4748 26.9241666121
27.5885 10.9545 21.4194 30.4706415173
25.3273 12.6659 21.0447 25.6504579199
24.6335 5.45107 21.2052 27.01792126
22.4642 4.73489 24.3004 76.2554451278
23.5624 10.229 21.7869 27.9776125218
20.7784 1.06194 23.916 49.8679636
26.681 2.5496 24.3275 77.530338283
22.0542 7.5127 24.0063 52.3436813237
28.0747 -0.0307889 23.8503 41.7972504953
25.4705 5.42032 24.0496 53.3750411629
25.6723 16.0582 24.3309 78.4401301924
21.4455 15.1373 24.3612 85.7825701367
23.2944 9.92024 24.5832 88.5821583832
23.9507 2.04985 21.4058 26.784328317
28.4276 6.9139 24.494 77.2033047228
25.6956 8.44177 24.4298 68.6311200594
28.0362 8.18347 21.7741 27.3619494578
20.1563 4.14783 21.2663 26.8876936658
22.3905 12.6634 23.717 31.3270887115
25.2606 8.26675 21.5582 25.3469157763
23.943 2.26612 24.2289 61.3085472647
25.2569 13.322 23.9017 56.8966333347
26.7462 11.0865 24.1052 59.886040526
29.2469 4.28225 24.0838 49.7310629282
22.9763 15.6477 21.6916 26.9090090537
20.0069 11.5016 24.591 111.8517911504
21.2424 1.59569 21.3663 25.3881894777
26.911 2.96641 21.5282 32.3898135831
20.3418 3.6399 36.0404 61.0933788762
26.6072 6.7545 35.9248 43.4374764144
25.0353 4.14947 35.3527 122.8308121568
24.5713 5.91179 37.8244 27.5019751443
22.8291 15.3321 35.7827 56.2148539224
22.8864 2.78311 36.484 32.7398885963
29.2898 6.86635 35.5268 101.5509323884
20.5366 6.66707 35.9102 80.9982800345
25.6393 10.213 37.7429 26.6534471737
22.788 8.24598 36.6198 30.903197534
25.1376 9.00102 35.4184 105.8042732315
25.7861 15.2614 35.6788 83.6050839836
27.9134 2.69138 35.8151 63.2702443886
20.9336 0.494384 35.9456 86.1130977216
23.26 12.5868 35.8078 67.2975884608
28.3854 13.9054 35.6976 91.153444568
26.0482 14.2229 38.2297 27.0900622021
28.0274 11.081 35.9209 70.4984624919
21.4428 10.6685 35.4959 88.4649626015
27.8163 3.69874 38.4876 31.4311294133
24.7057 0.461019 38.7059 29.3702716251
23.9099 12.5915 38.494 29.4717625757
28.8448 6.55349 38.5988 30.7746580838
27.005 0.119551 35.4489 110.1919747655
27.9758 12.1314 38.7608 27.3869849416
19.844 15.2889 35.287 100.3983143648
22.885 5.08416 43.5857 29.7349917368
23.8887 13.7635 44.8428 27.9014237171
27.1399 4.29335 43.5225 30.5527308302
22.0542 2.22997 46.9697 28.3316699582
24.9485 2.184 46.6882 28.9670097389
20.8147 10.0996 42.4821 31.6585346407
21.4884 5.49349 41.0083 29.6409199794
26.2639 6.82405 42.9607 30.2255016628
29.0238 7.85266 42.8019 33.24766696
21.4811 7.47718 47.5196 30.9224186304
28.7174 10.5905 46.7314 36.3844479129
21.4571 11.2423 40.0638 29.9514184806
25.5532 3.16514 39.8274 29.9817604166
22.8594 15.5066 41.9967 27.2405308398
27.7247 14.1665 42.2764 31.4236610179
27.0266 8.98918 39.8278 29.4899119321
29.2641 13.2182 46.7762 33.9168785491
28.2541 1.48364 47.1146 28.2839577754
20.0493 0.500495 45.6173 26.9084825122
25.8937 15.5569 43.8816 30.2375245871
27.8053 0.638859 42.4867 28.731922943
23.6228 7.4808 41.2988 25.9842784761
21.673 14.5176 39.5022 30.9385594442
21.7897 1.7317 40.4023 34.2211170176
27.4665 4.33179 46.6852 29.515748902
21.0284 3.80506 44.9962 28.4737507189
20.0211 2.36922 42.8661 31.4349159688
26.5322 0.344641 44.988 31.3751602649
22.3248 9.72893 46.1558 28.0554059377
26.0138 9.15362 46.0981 32.5462620975
24.0393 7.04009 45.2977 27.8321295375
21.56 14.461 46.0284 27.5369882725
25.4931 6.19197 47.5044 30.2448830511
23.3239 9.08423 43.2545 26.9236841493
24.5662 1.19752 41.8243 28.8752754277
23.0993 12.613 42.3222 30.3877425552
27.0804 11.3198 41.9006 32.330621824
25.1228 11.0157 43.8907 30.8763386609
24.9718 3.1387 43.7565 29.1574199017
28.3187 15.3614 40.1888 29.2212023414
25.9011 6.32611 40.1443 27.0780533651
29.7188 3.05303 42.7383 30.914028603
19.8959 7.80342 40.9647 29.7098849929
20.3646 12.8403 43.7517 30.1012479905
29.0675 10.6559 43.639 30.7644746748
24.4563 13.3233 47.6605 29.2448668269
25.2809 16.0784 40.1757 27.8331224363
20.0571 11.238 46.3053 30.4769547959
23.1766 9.13095 38.95 30.3911175108
19.6361 6.25827 45.4077 31.4082281038
26.9386 14.4429 47.5395 30.5127326531
22.8356 4.05211 38.9106 28.0844286047
19.8774 9.2502 48.8237 31.5619677499
22.8539 1.9489 50.3817 27.2702247711
21.3469 5.64404 49.9563 29.782847941
24.2495 10.4993 47.638 30.0783485737
23.3729 14.5739 53.806 27.5938176145
21.5492 2.12984 54.9371 27.398106779
22.1015 7.02413 52.3081 31.2487179078
21.0072 12.2087 55.033 33.4981006766
25.3554 0.766967 53.6759 32.5449583365
24.4965 10.114 50.402 34.3579737948
25.4766 4.51141 51.3425 29.8077840228
20.852 13.311 48.5335 32.4414960128
19.6916 3.93323 51.9154 28.7883454008
25.0753 7.19748 52.4996 32.070066369
27.0774 14.8309 50.0775 28.5982161328
28.6583 12.7022 51.0578 30.6460567525
29.6595 3.6571 49.2074 32.0119901365
27.8712 14.1408 55.9824 32.6510013955
21.8484 9.59125 51.0828 34.9575351505
24.1946 11.0496 56.2047 31.1148790068
23.2356 14.4123 49.759 27.4641334487
25.142 13.8847 51.8893 29.4074468065
20.0284 10.9452 52.7097 29.543817151
20.382 2.45688 49.2854 25.2132216116
21.5054 0.0200458 52.4411 31.0503033038
20.0095 8.34748 54.207 31.7235625
23.5952 2.57909 53.0088 26.8102687092
26.6443 2.24373 49.6463 29.2119730444
23.7169 4.98343 54.8559 33.1393688955
20.7238 4.76471 54.3766 28.96920233
26.4824 9.90492 54.6809 29.8918031164
28.8264 9.70675 55.8346 29.4462164077
25.387 13.368 55.5129 29.9898318106
23.8801 4.519 49.043 29.2461718558
26.1502 7.75045 49.8684 31.3052372917
26.1582 0.83475 56.2444 34.6184367634
27.8792 1.61793 52.2896 36.633539011
28.6111 8.16429 50.9688 31.0220207643
26.6825 11.2121 52.1316 34.1755874908
22.0237 8.91153 55.9111 29.3861681037
21.2655 14.2284 52.0062 29.2299300289
25.5691 7.52374 55.353 28.9269269613
28.1884 5.1553 51.1151 30.5097978569
22.9776 19.4091 5.71949 34.4166445914
22.073 25.9576 8.93322 29.5289813032
21.9353 20.131 9.10582 30.2153304383
27.1446 20.5902 5.48355 30.0933128709
29.4706 18.3669 9.13474 26.5976587045
25.2881 20.121 7.26877 28.5505265313
24.474 17.473 4.07344 33.8527807144
27.5907 29.028 10.7481 31.4367924056
28.3552 27.0801 5.87579 34.3048070296
28.5128 21.0014 8.56031 28.9911125607
28.6552 26.9457 8.94904 38.1730244303
26.576 32.7112 8.68213 27.9297474817
24.0128 24.2779 6.69189 34.6248853882
20.5235 18.3996 7.32806 31.0108478431
24.0987 28.6592 8.42839 29.9283425766
25.7317 18.2672 9.2681 30.6837073318
29.1497 22.5552 5.86167 32.7391830325
21.865 29.7982 7.14749 28.7459836974
28.7764 31.6923 4.92299 31.8097076179
20.1848 28.0025 5.46027 29.5040680508
22.8319 26.8076 6.02528 27.788575398
25.7332 28.3474 6.01028 35.1977267939
24.8776 29.9518 11.4897 27.6501663444
25.2368 24.5325 4.0939 29.3211157672
23.6642 18.9407 11.0088 29.5771119848
29.2939 17.1768 6.70568 31.1086475836
29.1268 31.497 9.48683 29.6716602944
21.2489 21.4432 4.43732 33.8271409677
24.155 32.275 4.67694 30.1863952922
27.7164 17.7323 11.2586 28.8769720114
27.9309 24.6727 4.59561 31.4878345508
27.3227 17.8324 4.10066 33.2725535256
23.6495 27.1625 10.8341 28.0201655625
29.5384 24.7423 10.6825 30.3192615563
27.7835 26.8139 12.4871 29.1816540301
26.1302 31.1051 6.28486 31.3786115136
27.295 22.8914 10.4912 30.5756357021
22.5267 22.9875 9.55889 28.0787228138
22.1241 32.433 6.27733 27.4892521619
20.5641 20.5988 11.6372 33.4776330096
25.7009 25.3327 11.4588 32.1099543021
25.1439 22.4971 8.72324 33.4079492922
21.2669 23.4324 6.49124 29.6066789445
23.9659 31.4666 8.91256 25.5447937814
22.3094 16.6115 11.4205 31.2558141228
19.9257 29.4592 11.7534 30.7820583337
20.0043 30.2659 9.05211 30.4405689713
21.5728 23.1485 12.1821 28.5521571522
27.6534 20.5512 11.9341 26.8430939126
21.5638 32.5646 10.0737 25.5972158112
22.1907 16.2708 8.66846 31.9766693997
26.3951 32.1302 13.3615 27.9014686027
25.3741 28.2208 13.7747 29.7179455369
26.0211 29.2542 19.2064 30.1496881704
23.2645 32.414 20.1598 28.5871869974
24.1937 21.7953 15.1174 29.7677058022
23.6554 24.627 13.6568 28.4034954421
25.3747 17.9924 14.7912 33.0579780335
20.3048 16.9172 17.3666 28.8055638634
28.1744 21.0477 17.248 30.1669047635
27.7209 22.1568 14.5136 30.5908805706
29.6813 17.4334 19.7335 33.0876548615
26.3343 30.5797 15.5593 30.9147574004
20.7832 18.8736 13.9414 28.0460495882
23.0183 26.7305 15.0587 26.817950665
25.5267 27.2873 16.8145 28.6907200599
25.0652 20.1839 13.1584 31.1239754721
21.1491 17.6747 19.8024 27.1349931951
28.7626 30.8719 12.4783 28.1251199641
22.4261 31.1835 12.6688 28.9311605494
26.3885 24.5438 14.4204 27.577003091
23.8795 31.0655 17.1949 32.1213381556
22.8225 17.7333 15.4392 28.3727013755
28.0923 26.8048 15.4267 27.1534095624
21.4487 21.6748 14.8822 29.5182261237
22.7875 20.0438 17.2829 27.2788081034
24.0664 17.5902 18.8548 28.0401461416
26.3034 18.5948 17.42 29.5858622914
28.7885 31.241 20.2518 30.8256247222
21.8838 24.7997 17.3464 29.9934953035
20.9885 26.6551 19.1759 27.137067743
23.3483 22.6365 18.6921 27.6230608357
25.6222 21.133 19.1033 28.4505392629
23.1281 28.4921 18.9385 27.8199381712
20.8485 28.2962 16.4463 29.3445334045
21.569 31.171 15.3735 29.9245937974
27.7482 23.838 18.415 29.3507741782
28.4055 29.2802 17.4381 26.3069038957
25.1772 24.559 17.3272 30.5146213213
24.3343 19.454 21.381 27.3231029713
21.4573 27.2423 12.7028 30.2510679892
22.3587 22.9591 21.1616 28.6741885931
19.8825 19.9257 17.4911 32.5572038288
29.4825 31.7503 16.151 31.5976851799
29.2422 26.3151 18.3111 28.7305364268
28.6804 26.9107 21.1238 27.2951059399
22.278 29.9239 21.0266 28.1603003063
23.0885 17.639 24.2561 76.095240294
25.9484 32.3381 21.2948 32.660914456
28.6299 31.85 22.8734 29.8794524909
28.1209 17.4147 24.561 113.7129442551
26.4345 28.3993 21.7099 28.834581903
23.0278 22.5279 23.9938 53.572503618
20.9639 20.1344 23.9298 63.4836660998
21.6894 20.0993 21.3982 28.2920984249
24.5324 20.3495 24.0491 70.3965356924
20.3013 25.8487 24.0636 59.9245224212
24.2603 31.4727 23.6853 40.3868988375
25.0161 24.5389 24.2597 67.4994128166
28.4488 27.5297 24.2135 74.0344285637
27.9921 24.7805 24.5303 80.5390151794
28.0212 18.52 21.8801 32.5785829822
26.9772 21.9374 23.8678 46.2871526211
23.1467 26.6093 24.3647 98.3363249265
24.9549 24.3264 21.5121 29.4709670769
26.7474 30.1429 24.0658 74.5288754459
22.339 29.482 23.7129 53.971453672
25.6621 16.8609 21.7292 24.8375895975
27.581 21.2335 21.3321 28.4076319673
20.6987 25.0146 21.3377 28.9438491045
27.6344 24.3939 21.2064 29.2434060047
24.069 27.0372 21.5617 30.8177923185
25.8307 17.9652 36.8754 29.6716094319
22.9506 18.5469 35.8107 77.4365778427
25.6662 20.8236 36.2863 58.1441627176
23.1891 21.8144 35.8512 76.1508680478
20.868 27.8457 38.6229 27.9460841866
28.3976 18.4454 35.6348 108.705480594
26.6078 25.5269 35.481 114.4091052812
19.7493 24.9832 38.3091 26.0360061853
26.0414 28.4139 36.0724 46.2092918605
28.4647 19.8459 38.4391 25.1637239737
20.8298 18.932 38.6718 29.8055388996
24.2087 24.516 36.9515 27.9859030183
29.4012 26.0167 36.2224 38.1748496648
25.554 22.857 38.6779 25.6409535628
23.211 27.1027 35.4956 93.8303196187
21.3339 24.4897 35.6472 81.9537199191
26.2972 32.5072 35.8218 55.8779193222
20.1267 19.6674 35.6126 72.5120533035
28.269 30.4308 35.4729 95.0416409624
24.1282 30.9131 35.8875 68.4489341991
27.7678 23.0364 36.8199 32.9486023807
20.7311 28.0957 35.9624 57.0366892673
20.0382 31.8175 38.3549 28.040215404
27.4062 27.8455 38.4594 27.0293017488
22.9667 16.6676 38.2866 28.7108161656
22.1506 21.1161 38.3197 24.8100833549
23.7841 31.189 38.6762 32.1790012657
29.1494 24.9952 38.8696 27.1514109195
20.7564 16.8657 42.595 33.3380628664
21.9299 21.534 42.6644 28.5115270301
22.6673 23.7722 46.2553 26.8559471028
28.9454 27.9635 43.5768 27.4151681426
24.8736 22.4485 42.3191 26.8032108904
22.1771 23.5487 40.0435 28.7113175234
28.9584 21.5763 40.5227 30.8778265394
23.3084 26.1777 39.2137 30.8264401245
26.7103 23.543 45.541 29.2469480778
