17.3115 5.26789 47.5138 31.4136790998
19.0185 5.06149 53.5812 29.2589765444
24.1633 4.58475 50.3319 27.3443690364
15.6189 7.91647 48.4523 28.5258393442
13.5059 7.62546 55.7862 30.0361580608
12.8009 6.11992 51.6499 28.1729105287
16.5708 1.62991 52.3837 31.9518489977
16.3309 4.53035 51.9646 26.0411853181
20.3467 3.66549 49.9901 32.7010240601
21.0447 3.50639 52.6442 30.9756685682
18.36 5.31441 50.1032 25.5790899063
13.1944 8.83907 51.9543 26.8061978576
17.7576 8.21657 50.3529 27.9377595898
22.1973 5.58518 48.8549 29.9880418373
13.2558 10.62 54.1519 29.122292314
24.4512 2.62889 48.4592 32.9559817314
22.4578 4.62861 55.6855 28.9280428318
20.8155 8.66087 46.8204 31.2814098971
20.6318 7.47505 49.8865 31.831528182
13.5605 3.16999 52.6505 28.7117602516
15.2348 12.7718 54.0768 29.5692755229
17.4903 11.9502 52.2243 25.0794456694
18.8255 14.4342 52.3965 28.6142577161
19.7808 10.605 51.3363 27.7505616347
22.2956 11.5835 49.7731 27.3415705754
13.6729 9.64463 49.2866 30.8878217765
18.6613 15.6243 55.0468 27.9114529804
24.4899 10.4818 51.8718 28.1201390338
21.8541 10.3679 53.2536 26.6564490054
20.7242 1.08728 53.9852 34.1581468024
18.0137 8.28535 54.2365 26.5973427407
17.5121 4.49017 55.6279 31.3883632872
23.8009 3.75537 53.1087 28.8003295007
13.5356 15.4846 53.6418 30.7148723924
13.5535 13.8986 50.7511 33.043896649
15.7381 2.38793 55.1599 26.194969316
15.7302 6.57122 54.1155 28.4497375469
22.4986 7.36186 54.5077 31.7119492412
13.3873 0.8381 54.4518 27.3189436062
18.6479 11.0145 55.1239 30.8791820028
24.3346 13.337 50.4528 28.1601635794
21.2905 11.1298 55.7155 25.8222621612
17.1202 8.63127 45.872 27.5214289336
17.2845 0.110943 56.4304 30.3954914631
18.1 14.0649 45.949 31.4748296895
14.7153 2.23204 45.9094 29.6918552987
17.9321 31.6737 8.23587 30.440461831
23.0957 22.0434 5.38247 31.3386481147
24.6583 24.4628 11.7582 25.9700814315
23.0046 29.9199 9.64281 34.2889774996
15.8451 26.6903 11.5478 33.7652717932
17.054 21.4146 8.07004 29.3490303452
23.889 20.33 11.8585 32.8813228195
23.0101 24.62 3.84009 27.0758093363
19.1437 29.2302 3.95493 33.1922275136
12.6457 20.1951 7.18625 34.2116866658
17.1737 24.1476 7.83142 30.7921609787
19.8221 20.3739 8.00787 30.5534672273
20.6444 17.4512 5.46323 25.4552104416
15.3709 20.4241 5.99641 29.6252445289
14.1929 23.4973 5.16017 29.1019371023
14.6361 17.8906 4.56088 32.581633133
17.4263 28.4515 14.2544 30.2792587919
14.932 27.7814 7.1783 36.7548036115
22.823 19.0836 5.24138 28.1501804165
16.7952 32.0114 11.3823 27.2242119002
24.069 27.9244 11.4298 28.8149313315
23.9099 17.4526 7.26356 30.9460059511
12.4869 21.081 12.4777 32.3629922476
18.4051 16.7977 10.4702 32.5813084266
14.0498 31.2181 4.3255 29.7070869518
19.8271 26.9552 9.14032 33.1661198894
13.6287 17.4001 7.24888 30.4595028012
20.6854 18.3279 9.54121 34.0446570838
14.2348 18.0709 10.2074 30.8566429148
16.5615 18.2967 11.9289 30.0493349415
22.8284 17.6338 11.1203 32.0463202763
21.8383 22.1052 12.2887 32.5466468311
13.7664 20.7966 9.83599 31.3977265248
19.3118 27.5698 6.00835 32.2374359428
16.7184 21.1363 10.8775 38.0987981909
13.8958 31.5486 10.2168 30.9565643585
20.7018 22.5492 9.73739 32.7610515638
18.8753 32.2876 4.36792 32.6849761286
17.5662 28.7964 7.7238 33.3911761649
21.3903 25.2004 6.396 33.0787200218
22.9118 23.9964 8.38271 27.5528975748
13.2982 31.6397 13.045 28.7300851279
16.6457 22.2003 13.6935 37.2033403061
21.7934 24.6836 13.5272 26.9072193551
13.6736 30.5623 6.99112 30.9089325275
22.1683 25.8878 10.5971 29.2203745891
20.2353 21.0319 5.12087 31.9799978491
15.4406 32.3425 7.96438 25.6704445508
21.1875 31.1381 11.2199 30.1036013686
17.086 29.0894 10.7728 31.6996369874
23.5202 26.9822 5.95601 31.1753284536
24.059 30.3429 13.5962 26.4751175062
18.4926 22.9991 3.84542 29.7970070104
18.8045 24.3244 9.85102 28.6585120784
23.3958 27.1268 14.054 27.8130170191
21.5518 17.9276 13.7654 33.0987297701
17.0929 31.2928 14.0558 31.4208975481
17.8518 25.2905 5.23215 31.3181512352
23.1834 29.4915 5.20796 31.9332213402
17.6091 24.7105 12.4914 34.0149959001
14.7152 25.6751 9.10327 30.8410138146
18.2594 18.8843 6.19084 28.8925006016
13.488 26.1964 5.26073 30.051744691
14.0783 23.1324 7.99898 27.4055288336
21.4963 30.8683 14.0261 30.5147264505
19.7528 28.81 11.4729 32.2638584298
22.3722 32.2933 6.20218 30.4627884841
12.9197 29.1027 14.0601 29.4994474179
17.5859 31.3419 24.2696 81.3825315977
21.0377 30.2273 23.8879 55.1282535591
14.4522 25.8254 17.3086 29.0706727595
13.6354 16.3809 24.2033 65.5163548025
12.4433 32.07 19.7512 28.4392184351
17.6183 20.5972 17.5711 32.640613057
24.0971 28.912 24.3805 81.9988846057
17.5601 30.7114 21.4408 28.504250314
20.2238 26.0316 24.3204 86.4927706195
18.687 24.6192 17.2799 35.2086698964
21.6982 18.8259 21.4909 28.9566939792
23.7198 30.1766 17.7887 30.7227007641
23.3363 26.0999 24.3464 83.0471045594
14.55 18.2717 15.5777 31.1553148037
16.3428 28.1268 17.0156 31.1017222182
22.9059 16.6723 15.9724 29.7023322091
21.9784 24.933 17.1936 28.1977045054
23.2594 27.1924 16.9572 30.1667465827
20.5432 24.1914 19.7353 29.1944948412
15.1653 18.5337 20.8966 26.3629060768
13.5531 29.567 24.2343 75.9880871508
14.7066 31.75 15.5878 28.7300059585
20.6177 28.482 17.1365 30.2346258736
21.2797 31.1951 17.2207 28.4221730518
15.2502 32.2503 20.9469 27.3281650132
16.1168 22.9032 20.6102 30.7562985705
21.2307 20.2149 24.1488 74.6338782568
17.0368 32.1373 17.8383 30.6345506771
14.0924 21.1684 21.2984 29.651195067
23.5235 31.705 21.4231 34.4840996613
16.2532 23.1963 17.728 31.3886026263
14.7721 26.888 24.502 91.6256001451
21.1154 18.8592 18.3511 30.2820749811
19.4149 25.2564 14.4388 32.3255947301
13.6914 23.166 16.2578 30.5701708654
14.585 25.2699 20.0299 31.1154345117
22.3102 21.9668 19.4129 29.7091122091
18.68 22.8916 21.2539 27.6643918801
14.833 30.1875 18.3967 27.9869361268
15.5955 27.2548 21.9196 29.6065513776
18.4385 27.3549 18.4553 31.3345966441
18.1748 27.9194 21.152 26.6980458205
20.7182 26.5039 21.5602 29.6818056773
18.502 20.3512 15.0264 33.4728960988
13.777 29.4271 21.0963 30.6537795995
19.2994 31.728 19.593 32.0089204758
17.6503 21.4761 24.198 70.5752445884
15.4376 19.5325 23.8372 50.226786282
23.5399 29.1136 20.2571 28.3519909811
23.1638 20.1177 17.2303 25.727243931
14.8814 32.0317 24.0046 54.894878025
18.7985 28.6384 24.2364 76.1615295345
12.534 30.009 16.9686 29.2170591361
19.368 16.5243 14.7453 28.8218092356
13.4959 22.085 23.9953 51.2225480604
20.2907 22.9477 23.71 56.1305492148
20.8736 29.5749 21.236 28.7760112207
23.8942 21.3895 21.9659 28.8616009109
24.1879 24.5127 19.32 27.048066449
20.3864 28.1996 14.5623 27.4418150883
18.0234 18.6598 21.3405 29.8518616804
23.0492 22.9245 15.6562 30.897107765
23.7405 18.8717 24.3285 64.4966692013
17.5972 25.1939 23.5018 33.8890986696
18.948 18.4776 24.1537 57.9971726857
23.6481 26.4505 21.348 28.7358660711
19.3842 20.5271 19.8073 27.564604845
15.7606 23.5972 24.6176 99.6697730912
16.3131 18.1803 18.3031 30.1410349641
16.3121 16.8396 24.6361 100.8374828234
13.2014 17.9335 18.7705 30.9796285678
21.3139 20.627 14.671 31.5430555608
12.4903 25.0805 14.5374 32.2736452465
14.1953 20.7527 14.4783 31.9967423315
12.6641 25.1069 23.9434 48.4063634703
17.2208 18.0204 14.4616 26.2441310327
24.5773 18.9541 20.381 25.8577463415
24.2778 31.6793 24.0208 62.7922113722
14.8408 27.155 14.3977 31.0390464435
14.6837 19.9231 38.246 27.239542015
12.3703 31.4196 42.7385 29.2029242649
23.7937 16.3247 45.7711 31.4499863726
17.6945 20.1632 36.7734 28.7742495041
13.6263 30.7238 44.7754 26.4356364802
19.0238 32.4369 44.556 31.2462274598
20.2806 16.6297 35.9785 60.5534467476
23.5383 28.3773 39.2383 31.0449189725
14.8923 24.0283 38.6718 30.1646939431
19.0855 21.9971 35.5841 95.0225560189
19.7243 23.4 39.9784 31.5661467096
18.5819 20.9215 39.2213 30.3961547718
15.1978 21.2868 35.8141 61.5320628042
15.4699 32.0768 42.156 31.5462924044
21.875 21.4763 35.8635 64.3485899172
15.4276 31.8415 35.984 52.0357176429
17.164 25.6444 35.3926 98.7374847646
16.9674 24.2923 45.3266 31.3632879433
19.9501 26.7993 37.8742 29.2193106416
17.6473 28.2703 35.9733 46.9762958529
19.6937 24.6668 35.7287 59.9387203168
22.0537 18.7791 36.082 49.255955443
22.5755 25.3501 38.5457 26.0585728928
23.1163 28.421 35.8064 82.4303594383
18.7703 29.5041 44.1323 27.9043994152
17.9136 32.6211 38.8687 29.3730662584
23.6105 28.0159 44.6094 32.4982823408
22.4988 18.4742 43.4408 28.634067776
13.2335 19.5238 35.2776 104.5874926131
12.9227 29.5482 40.5287 28.6778983849
21.0397 29.4254 38.0105 27.2370161421
15.8076 17.2373 38.8647 30.3972734945
18.8648 16.6789 38.3278 30.0697839508
22.5441 18.8058 39.1183 28.9102976846
23.2628 31.5727 38.843 29.3417733358
14.0007 27.9404 44.456 30.0449939264
22.1962 16.7599 41.0118 27.6033676298
15.9477 21.643 39.7981 28.6372368857
19.7747 22.9093 42.8932 28.5456848464
22.0519 22.7113 38.7255 28.9254099556
22.8147 20.7515 40.8295 29.2219080994
21.3185 29.6201 45.4847 29.9862027363
13.9565 26.9436 38.8029 29.3222763869
15.8716 25.0086 41.3181 30.7814927584
15.2492 27.8385 41.5925 27.9089511167
16.9723 28.3627 38.5936 28.786697255
18.3234 26.0548 40.1685 29.8432203306
20.5939 28.7358 42.1938 27.5720312134
21.7219 32.4745 35.496 98.737398342
15.3264 30.9774 38.9003 28.0652506338
14.4956 24.068 35.7987 57.0020021685
19.5281 30.5987 35.6801 87.0085860472
19.1814 29.8537 40.1963 26.6910709632
22.3637 25.5447 35.658 84.6297200831
18.0989 19.2216 45.1301 30.9143954179
17.5503 17.9866 42.765 28.3746338677
19.4318 18.5615 40.5812 27.9213967159
19.7467 25.9993 42.6083 28.322998717
22.8984 30.5788 41.6949 31.1385244471
18.983 26.4609 45.1632 32.2049038683
16.2576 20.4303 42.3299 30.4155283952
17.12 22.9938 42.9274 29.5983887904
20.5964 20.2751 42.399 29.6018416221
20.7451 32.4955 40.086 31.1720641386
13.493 27.0631 35.9031 55.0204745698
16.924 29.8301 41.9048 28.6189960582
13.6119 20.1066 42.9941 34.3642012288
22.6376 26.2645 41.2487 31.6115520422
24.0841 23.3138 35.8581 62.9274944859
23.2302 25.3271 44.1026 32.0071386146
12.3537 17.9622 39.1185 28.0925519939
12.8407 25.8244 42.3573 30.2080873785
12.59 23.4463 39.824 29.2074630528
12.5092 24.131 44.72 31.4102750226
23.1402 31.8803 45.6858 34.8232067526
24.5586 18.33 35.4323 90.2642151076
20.8959 23.7545 45.4429 30.7024503919
24.2294 31.5621 36.0852 57.663043219
24.6991 21.0449 37.9348 28.1442856245
13.6562 19.6722 45.7304 36.8056697495
17.3887 17.6113 35.7825 85.8630805975
15.0819 29.2824 35.5357 92.8299180546
12.4614 31.8516 38.8474 30.1495813518
21.5792 18.5179 55.071 27.5599761098
18.652 16.7259 48.7712 28.6513732967
15.5569 17.7728 48.8191 30.4138395956
19.5206 17.1907 46.178 27.9142131063
20.9813 20.4432 53.141 28.9108225424
23.7457 17.4501 52.5719 28.6345818738
16.0627 31.2151 47.0141 26.0222550926
22.0165 31.7351 54.8982 28.8864256886
17.9325 21.4745 48.7935 33.3776792794
18.5761 22.0347 46.2148 31.0337047243
15.8947 17.7222 46.0869 30.4580377973
20.9255 23.7939 55.1394 30.7930346938
17.4708 31.4298 49.6417 26.4732172149
22.9723 22.0685 49.1619 30.1319681675
17.1475 27.9497 55.3403 32.1080573366
22.7375 17.6033 48.7762 33.6885443162
24.74 30.7907 50.7025 34.5339694702
19.753 25.3079 48.0793 30.78464639
20.7002 29.6097 48.416 31.3887006614
20.6311 24.8802 52.3014 27.8264957796
15.7617 19.6618 53.7752 32.6757681508
24.3939 19.4787 55.7121 27.8731340782
19.1687 19.2124 50.0687 31.4666093905
21.2243 16.5394 53.1145 28.7312383162
19.8792 30.8367 52.9648 33.4329894354
15.2965 20.6208 49.6017 31.6760425677
21.7964 26.7173 54.3422 32.9511119768
15.7901 23.0537 55.057 31.150874197
18.159 22.316 53.5802 30.3333318637
17.7467 24.0416 49.4317 29.1311053479
22.7476 22.5818 53.5172 27.4680032465
21.7675 24.6876 49.7835 32.7309573184
15.1067 27.0524 46.7569 29.7649238619
14.9209 24.7822 49.3709 32.6367008591
23.1425 26.9308 50.8291 28.159998754
20.6038 28.1006 51.779 30.6308395332
13.6824 21.8447 47.6288 30.5577178598
13.0661 28.7046 47.7167 28.8726174285
16.5741 28.9966 50.4085 26.3118411801
17.022 31.0427 52.7878 29.8479816364
14.472 26.8942 51.0463 27.9937682636
14.0487 30.8992 49.0121 26.4369863049
18.8353 18.6749 55.5345 29.4239890922
23.2942 28.8845 48.904 32.9440491489
15.7576 25.7792 56.2339 28.3901135615
18.3432 19.8206 52.5115 28.8886600505
13.179 23.6255 51.8576 30.0795146646
20.2129 32.4543 50.6221 34.8643171027
17.4107 28.8332 46.8375 28.5313921805
14.0322 20.5842 51.9109 29.7189995279
24.5117 31.4511 53.6018 30.206844795
21.8007 18.6043 46.1971 29.2204314775
12.4214 28.4406 54.7434 26.4536941727
16.285 16.6501 53.4071 33.650636178
21.5757 29.2433 55.8308 30.6883056326
14.1977 26.3306 53.8023 30.4115544589
18.7602 27.542 49.1643 28.4741076982
18.0828 24.6778 51.9761 32.4255905154
17.9424 27.6811 52.6301 29.8213008887
22.0204 19.9255 50.3966 30.9807891887
13.8926 29.8719 51.9295 26.3556197027
15.1751 29.8147 54.9169 32.2340082162
21.9662 21.4947 46.7266 31.6627732954
14.533 24.2244 46.5285 29.1960387658
24.4929 27.2156 53.1697 29.6543410083
24.4043 22.3695 55.8038 28.4323663615
12.7984 22.483 55.8783 29.7479546424
13.1544 16.6822 49.1735 25.8926256877
19.3015 32.0262 47.1716 29.574729241
17.0979 20.5094 56.386 26.7180177521
21.8847 45.7435 13.2792 34.1795214574
22.0122 34.0013 4.23544 26.0664120092
22.6115 42.3306 7.13705 33.323261072
17.3777 43.5609 3.88039 30.0237293762
23.7336 44.3804 11.6844 29.7365111351
19.9966 36.1139 5.87735 29.8240626358
16.1774 32.9411 4.56041 30.955726868
14.2639 41.9691 8.78997 26.2565238198
13.7763 39.3756 3.98103 31.078998948
20.651 37.3182 13.0601 33.7348560831
14.5239 38.2378 12.7088 32.4553429696
15.2808 37.0228 4.66892 32.0375906815
12.7282 35.0819 8.00098 34.2146716587
22.0477 48.3701 12.5486 25.9724264413
21.8018 34.3796 13.5923 29.9711397213
17.4261 46.2839 4.87511 29.405868332
19.257 33.0679 10.5002 28.1898074701
21.1206 48.5498 6.52778 29.7697936168
20.289 41.4536 11.0431 33.4942250917
15.2059 44.2946 10.3389 30.96077565
15.6856 48.0512 12.6706 29.8395595934
13.2342 43.5279 12.2071 30.9690219586
17.0157 45.5936 7.7119 29.3743430236
21.1551 45.3109 3.72293 35.7478194553
16.0735 34.8708 10.805 31.5668291213
17.4426 36.693 12.347 27.3151841886
15.0135 45.3281 13.4134 28.3214526815
24.3357 48.32 7.32853 33.3887046615
19.3203 35.4118 8.49372 26.4027542369
23.7398 32.9168 8.47179 28.4382244024
16.7098 36.1815 8.20672 30.9422867334
15.1711 34.6102 6.76895 27.8213536964
19.1495 34.4452 13.0284 27.7027153787
19.3759 41.3037 4.12435 29.6063428592
18.9509 40.1066 6.99041 34.0442387293
22.7225 37.5856 7.62275 33.203705995
21.777 42.6834 4.69447 32.3802231549
22.5426 35.2806 9.53967 32.4060140017
14.305 46.9267 5.28835 30.1539581036
13.9651 39.3849 6.86436 30.0053508479
15.2575 43.7414 5.96214 31.950010356
17.0259 42.3872 8.08262 32.6973225533
19.9233 46.2447 6.17039 31.9002434254
22.4346 44.4352 9.01448 34.3354696877
13.75 46.8717 10.8093 28.6360037867
15.6343 48.0775 8.34066 28.9475878582
19.7702 45.6295 8.91132 29.3108398213
17.5746 43.6844 13.0495 35.2946620078
18.4133 43.6335 10.3154 31.4840073426
13.1948 34.217 10.552 32.711351997
22.9264 36.5561 4.90322 30.3347720318
20.4059 37.2803 10.0817 32.5949974831
12.6576 48.5786 8.35348 28.4264490469
21.0892 39.9697 8.6834 32.5247780463
19.8902 32.9372 6.73918 29.5845937371
16.6161 38.9468 8.16815 31.2996939527
19.5287 47.8583 10.689 31.5703923091
22.6048 41.9839 12.2451 30.7622410196
18.1698 39.6272 12.2873 29.9418145149
13.3253 40.7623 11.3875 33.8720662898
15.8353 39.829 10.6613 31.4150092781
18.9633 38.4567 4.40768 29.9286662135
24.1523 48.3906 10.3388 30.6139504736
21.465 48.9265 9.14282 29.7848660033
16.0103 34.7729 18.4517 29.6119498038
16.3784 36.0695 14.7826 31.1644678366
23.1974 33.8073 18.2173 29.7335489086
24.0124 36.2378 19.6806 29.7564535363
16.2861 42.5554 24.3814 88.6261903222
15.7207 39.0371 15.0284 30.2195934395
13.4033 34.9649 19.1425 28.6582960121
13.9394 46.7138 18.3369 31.4413895761
16.3427 37.3266 17.7918 29.9392046677
14.2986 44.3331 24.4472 86.2146837801
21.8855 46.9123 21.9583 28.3308778356
20.2518 33.5624 16.1268 29.0288701539
21.0706 35.7384 17.7028 32.1591292813
12.491 34.0718 24.008 58.598277072
13.2824 36.8921 21.0273 27.2449147091
18.4203 41.8778 17.5069 29.5713030019
20.2927 39.7638 14.7329 31.2373005432
13.6983 37.2784 23.9797 62.6500241346
17.3814 48.5448 17.5114 31.9951192996
19.5607 44.3981 17.259 28.039345178
20.407 47.28 18.9255 28.1744125886
22.2255 41.7166 14.9466 29.3538400317
22.2059 44.2921 16.1425 28.7525461376
13.7842 38.4976 18.2578 27.3869265093
14.012 34.4382 14.5862 30.8213310069
17.6499 40.9653 14.9092 30.5672380584
16.216 34.9325 21.3143 26.7867316489
19.9387 36.3435 20.0529 29.6255090921
18.952 34.2004 21.2659 32.3688156041
13.6622 40.4528 16.2953 30.9054827727
14.6105 40.1019 20.4872 29.4298974423
20.3315 39.3225 17.6459 29.0119773635
18.1097 38.4491 19.2296 27.2633383426
22.0173 37.178 21.4362 28.2839324507
22.1162 39.7127 20.49 27.5459171148
17.2877 41.1978 20.0821 28.9880965935
12.4692 42.7085 17.9423 32.0692149192
14.36 45.1797 16.063 31.5599943339
21.9657 41.9086 18.211 28.5082201111
15.0902 44.1898 19.5911 27.3937042307
22.0118 33.5111 24.3911 98.2369750835
23.6007 48.1113 16.5983 30.1037208055
24.2298 43.1303 23.8978 65.9381161816
17.7105 46.1655 18.8101 29.9585751916
17.6646 47.4274 14.649 29.5752174765
20.1482 38.0013 24.1426 67.2672093703
15.5941 35.1905 24.3668 80.8729055306
18.0678 36.078 24.3279 72.0517440054
15.9892 37.7936 21.1551 26.9412790489
19.2201 45.2046 14.5181 31.0760598806
19.0863 46.9511 24.214 73.7136856669
24.496 42.5939 21.1368 29.8729719234
16.2524 38.7996 23.9934 57.9413350982
22.8113 36.9857 14.8958 28.2734949808
15.5322 42.8164 16.8912 32.7395417437
17.3096 43.618 21.7748 30.6778961883
19.8427 40.9399 21.4815 28.5965276061
15.7524 46.7309 24.2719 80.1974128189
21.6657 40.8554 24.0947 74.1422562337
20.1274 43.7486 21.676 29.3998512336
14.5365 46.1097 21.5007 26.6272263581
21.9384 46.6252 24.7213 99.2521226013
22.9822 38.2318 17.5492 27.1108842999
17.678 46.8117 21.5529 26.267144305
12.8604 42.5551 20.9089 27.7196298218
13.9563 40.4511 24.0302 69.5562381407
24.4759 45.5437 16.9519 32.5478047711
21.5841 44.6743 19.6101 26.0825957722
18.599 40.6785 24.1413 69.7073398336
22.3263 36.3413 24.0817 70.352674676
20.7643 48.2322 16.418 27.9521091417
19.2428 33.6993 24.0554 51.3292566975
17.7003 33.5224 15.3548 25.9210371583
21.306 43.9752 24.1997 73.2002589267
24.3401 45.0897 19.4809 28.7972256791
24.4352 39.9855 23.72 57.4198058196
24.0375 34.4654 15.833 26.6713712953
24.4306 48.576 14.169 30.7364347813
17.1604 42.0705 45.6045 34.1088180818
12.9129 48.0334 35.5466 88.1983345879
22.3139 43.7259 43.8094 29.6964101976
17.7441 32.9877 36.1519 49.4176276116
15.4976 36.4369 36.6157 34.5345857763
18.224 35.9306 35.6322 105.655645197
17.4753 39.1021 44.6489 32.5213175837
15.9414 33.9718 40.1942 32.8456467537
13.5769 34.4524 35.4832 124.6612552725
22.1488 37.9591 38.5249 26.5476561922
21.0374 35.3355 38.653 29.7962995736
21.6227 39.4496 35.7228 91.6607243519
19.4048 38.3242 36.651 30.9503441197
14.4234 38.7348 38.6745 28.7061619806
13.9911 34.5381 38.3648 27.9119596358
23.8804 40.5123 38.8523 29.4957327824
21.2339 35.3542 35.9663 57.6828457169
21.1648 41.3188 39.2832 26.635455248
20.9059 41.9131 36.3254 42.1824847814
17.3896 40.0541 36.5067 40.6355858248
23.1002 43.8551 39.4369 29.3057425121
12.8664 43.2396 36.1608 47.6423788035
15.3818 46.5479 35.7818 56.5891667865
17.8592 48.6449 39.9755 31.2515701394
23.0727 48.4623 44.8439 30.732605342
18.0822 47.0917 35.6765 99.1035225257
12.621 36.6533 39.3708 32.7370088504
18.8886 43.2226 38.951 25.8501992414
19.9744 45.2499 36.6731 35.4480148012
24.7196 34.1876 38.9828 32.9226802884
16.88 48.0337 42.9317 27.7991462922
16.8954 38.0981 40.186 30.9668187226
23.897 46.9901 35.9757 83.805519186
19.5285 38.9804 39.5434 26.2536358061
23.3603 36.3646 40.8112 27.3811391201
12.8562 40.6682 36.151 57.2463202547
12.8759 47.9309 42.7365 31.014341902
19.2456 36.8366 45.123 32.5215984624
12.7473 41.0624 39.0233 32.6353675082
23.6121 37.109 35.994 64.7954809207
17.0514 41.4069 38.9894 25.867607386
16.8184 40.484 41.7598 27.0721369543
15.0531 48.5291 44.9765 29.1196444785
20.88 37.3637 41.6284 29.5995249522
21.4179 40.8224 43.0804 28.5586764948
14.42 43.9806 42.8684 32.026421846
15.0295 43.3311 38.7839 28.008822014
14.566 41.2677 41.4233 29.1776998098
19.4239 41.7475 41.7597 27.2216311486
20.8999 45.4734 39.5142 29.8486225278
14.3257 42.8266 45.5627 28.8954329083
18.6378 47.8273 45.2056 32.5374398923
17.0331 45.4986 39.4985 30.7462415597
16.7286 45.2239 42.3008 30.8181389995
20.7174 48.0703 43.3929 28.0105318557
21.5326 48.0714 38.1231 30.9498410153
20.6166 45.4129 42.4035 31.4279515293
16.0588 33.0033 44.8458 34.0633113969
18.2162 43.0199 35.6656 98.4634339638
18.5488 35.3729 40.263 29.3165440191
15.0677 39.049 35.703 105.9708197398
21.8265 32.7937 43.0722 29.2797711784
12.6607 40.9104 44.4149 32.5901818677
13.6717 38.5871 42.7027 32.4511309403
16.1908 37.2944 43.2549 36.0513959094
22.7425 44.2996 36.0862 79.6669422605
19.3534 34.841 42.8464 32.6953234334
21.4467 38.2299 44.1872 28.5114086297
14.6414 46.6516 38.3051 29.1504356697
23.885 48.4848 39.5469 26.6813206988
18.5252 43.6806 43.5002 28.9306666471
24.1608 47.33 42.2433 30.6436420529
24.3699 40.1721 35.8251 79.5367493506
23.5836 34.8212 43.1618 29.3736532859
13.5954 36.51 45.3058 33.1645454895
23.559 36.7015 45.3427 30.9162127872
24.2948 44.5052 41.7586 28.615282737
15.6873 44.1156 35.6713 79.3616600686
12.3968 46.9443 45.5709 26.9366472479
24.0899 40.519 41.6956 30.3397287824
12.5174 44.8411 39.4463 33.2205831968
21.4256 33.9326 52.7694 31.5245515745
12.8541 34.9768 50.7941 34.4680430449
13.7537 39.0099 46.5067 31.9109895286
13.1266 37.7488 51.0551 32.2526775266
17.0114 36.1888 48.5693 32.6488395318
16.3372 48.4747 48.6372 29.5511256904
16.8846 40.6222 54.3239 28.3231346989
20.5969 39.8403 52.3899 28.9026777542
15.1549 47.1373 55.3051 28.1431664305
20.6845 35.9279 54.3821 28.4904882322
16.4605 38.6636 47.3436 31.5418838411
13.7335 41.8718 51.4292 31.7407221493
23.7474 38.5412 49.7022 32.8019199311
19.7874 36.3883 47.68 33.3171030406
23.9906 39.3522 53.5045 27.5000699676
12.901 42.2595 48.7616 31.5514155143
15.2499 44.1568 48.5983 27.3438288211
24.1607 41.1871 51.0948 27.4314190851
21.5462 38.8208 48.018 33.4837520078
23.7169 34.779 51.9678 30.9929427055
15.0631 34.7297 46.9967 31.663396487
14.8835 48.741 52.2951 25.5229933388
15.58 46.4321 46.94 28.2497920409
17.4339 42.5775 48.476 28.6361953988
19.8982 45.3341 48.1044 33.3700341329
20.0599 47.447 49.9049 33.4553026275
15.0455 41.9301 55.9908 32.8014794549
13.0293 43.6062 55.212 28.5210976821
16.2293 33.7406 53.0019 33.7361557197
13.6321 32.8046 52.4271 26.9979919531
22.8312 40.7878 55.6377 28.2343179461
19.0045 37.6606 53.0262 29.819285243
17.2662 36.1199 51.5246 35.1545142889
20.923 34.1065 48.309 34.889121752
23.591 34.4749 47.197 32.5415763361
21.84 43.4873 47.0077 30.6770175286
17.0834 37.9162 55.2245 26.9705757174
17.4308 40.0218 49.415 31.6567150678
19.9862 40.3192 49.8908 31.0604106069
22.3554 37.3665 51.8734 32.8905388622
12.6532 46.3462 49.0733 29.1985072208
15.2559 37.8788 52.7548 29.8517796371
15.8527 40.2484 51.9796 30.5758997788
19.6178 43.1519 50.4284 31.0838729106
16.8471 44.5712 50.9162 30.8491857141
15.6762 33.5579 49.7049 28.8547672721
23.2989 43.2039 49.2906 30.6379545583
14.4275 44.4359 52.8748 28.5215110578
18.8828 35.0953 56.3087 30.9349337334
17.6417 47.1051 51.0622 30.6431319905
17.9191 45.0925 46.3287 29.1587415119
21.502 44.2575 52.2368 30.2359917237
22.305 46.9151 51.4803 37.6893916938
22.7862 48.3951 53.7155 32.2878977297
17.0053 45.0491 54.151 31.4512226961
12.8409 32.767 46.9747 30.4424073725
15.7047 35.0682 55.7943 26.7655616698
19.4129 41.5563 54.2728 28.8054980589
19.8324 44.3041 54.4404 31.4089426593
23.6659 42.8175 53.4037 32.6449688889
13.1048 34.3105 54.8563 28.5997842776
21.5461 38.2966 56.0404 31.5153684981
23.2807 47.212 55.9048 31.9502497164
18.2086 48.7868 53.6357 34.679363068
12.9405 46.5937 52.2504 28.6628936857
22.0368 40.8664 45.9562 32.3907413548
13.757 48.8924 49.7965 29.9776834885
24.4724 45.5802 50.3608 37.8626020114
24.6658 33.7155 56.0213 27.8436672185
12.4903 37.0451 55.7756 29.7698362722
12.3708 39.3012 48.9381 33.5810839789
23.5881 45.7718 46.1794 34.6286141158
25.7971 3.10923 11.417 27.2094148179
28.0784 2.89442 8.26188 35.0940687719
25.4829 12.7727 4.12268 29.4470966447
31.1105 5.51627 13.5657 29.32366141
26.3396 14.6955 11.0996 32.4645838802
28.1188 15.8348 7.31656 30.7652626463
30.1109 3.81825 6.42261 33.7244509821
32.8044 6.66415 5.4388 28.2382883564
28.1513 0.127395 12.1131 30.0065382945
24.73 7.22899 12.2323 26.7162663357
27.3205 8.51348 6.81887 32.1340937925
33.3326 13.8399 6.79099 32.3129452986
30.1794 8.1774 5.7408 26.1458146423
26.6304 0.779491 6.74642 30.1768802649
34.8813 8.13643 6.00349 27.0542343275
33.5995 11.023 6.6137 30.9923650485
35.784 10.1498 8.64216 28.2306631933
30.5682 10.8662 4.27614 31.9932090084
30.0467 2.9594 12.7732 26.6314681545
34.4342 1.5677 8.42476 29.1733009002
29.1346 13.3399 5.34713 32.7562737167
26.0103 9.73002 11.5795 34.4722314478
26.4632 0.893923 9.92481 32.2400688164
25.8112 8.12269 4.11322 30.8325637154
32.0159 2.78762 9.5294 30.5106741477
32.2655 1.27053 12.0252 29.9888206767
36.5705 2.73326 10.0337 34.9725655568
33.3757 4.67829 7.25256 25.4288048697
31.1215 15.2842 5.63554 31.2644706911
24.9377 7.37011 8.84112 29.8237566079
30.4543 6.13896 7.88761 27.614949065
27.573 6.11441 8.42984 31.1399908615
34.707 7.18033 8.47046 25.6000238909
35.3714 5.69194 11.0198 30.3330487162
32.1839 7.58656 9.46595 29.2620765426
26.1178 11.8903 13.6735 29.6739504519
35.7926 15.4759 6.83761 27.4878153636
27.2494 5.94677 12.8225 29.367416435
31.264 9.58426 7.63328 31.6213768865
29.6504 7.83947 13.3798 26.7604047602
29.5015 10.3893 9.79522 32.7351371477
35.3611 11.6545 10.5316 33.4130048441
36.4965 9.89523 3.88225 28.4150559612
28.263 7.7752 10.693 29.9087294661
32.0504 8.95637 12.2027 33.5613041845
30.1437 12.7159 11.3074 28.7930921089
25.7242 11.1061 6.21504 26.4804511289
26.5002 13.9856 8.45447 31.901463202
34.6837 2.78139 12.7392 30.5112950743
35.9483 4.06317 6.3218 28.4586993109
31.0465 15.0926 9.80139 31.6755412799
25.4126 2.07611 4.6769 32.2694224817
28.2641 3.9853 10.9039 28.563791387
31.9567 15.2812 12.5701 29.2820938366
27.9001 11.6982 7.67765 31.0550031537
32.7153 4.8097 11.1694 29.2744433121
32.2651 2.23033 6.2217 28.6164361735
33.8873 13.9302 9.50381 31.9154338278
35.4074 6.34705 13.7931 29.2520747987
28.1892 13.5323 12.7396 30.249577229
33.5019 11.0879 3.77886 30.1915620433
33.0059 12.2167 12.2504 32.0797112211
36.8311 6.40709 5.03368 28.0632887888
36.4889 14.016 4.24743 29.3567245064
24.9149 10.2439 8.81984 29.85876763
30.2235 10.9331 13.8014 31.6710952116
29.8721 5.33627 3.83488 32.5466703435
34.7468 16.1728 13.099 29.1577256215
29.5097 15.9326 14.1505 29.0067974811
34.2256 4.84723 3.65522 34.0752686258
29.8174 3.728 19.4285 28.0042589667
25.0785 2.28706 14.1196 29.6501190223
34.1255 4.09584 15.2558 27.6703738906
35.3952 4.1411 17.4868 28.0038612357
28.6571 0.574449 16.7065 33.0868714831
34.2958 13.3324 14.7237 28.5388719044
29.853 15.3492 21.7902 26.9202415378
29.8552 5.48822 17.3118 28.2505157517
32.3951 6.32633 16.2644 27.7488670773
33.8828 8.32204 24.1523 87.7868773244
27.2985 15.5126 23.8101 44.5360584059
30.8102 1.44998 18.0763 34.9680652569
26.475 6.78561 16.4556 25.5908599417
33.3802 8.18512 14.5244 32.5652104118
29.9866 3.35638 24.6676 117.7453475788
30.6137 8.41913 17.873 28.6919085231
34.9627 9.70767 16.5633 32.3542371676
36.0306 3.4819 21.5268 28.5333512057
27.1953 11.3076 16.225 28.2609920374
24.6662 14.2954 15.858 31.8067356688
27.0579 16.2583 15.8683 30.8715111625
29.9474 14.372 16.5732 28.1364290481
31.8406 12.4354 15.5768 31.414425125
33.443 15.6574 16.4528 31.4545449216
28.3048 5.58805 21.9444 29.017429097
35.0198 0.628804 24.2731 93.0502735152
25.4842 8.77044 14.5956 25.8985382459
32.655 14.8224 23.6232 53.0261738848
27.7497 1.75348 14.3782 27.0857822645
28.0101 4.42459 15.5685 28.4445664051
27.5714 6.826 19.1624 26.6997558864
30.1863 7.32839 20.7468 29.1322672716
34.5062 6.44701 18.3989 30.2850925318
32.8276 6.05015 20.8232 28.6732649395
36.8296 7.80083 17.525 30.3294282404
32.3673 11.4362 20.5859 28.2434614861
32.5541 10.598 17.9643 33.757334278
33.6064 14.0859 20.5348 28.7185049732
27.179 14.1996 20.9506 28.9811397284
31.5906 0.0930568 23.9247 71.4933164026
29.0761 10.9112 18.7937 27.6811531482
35.3897 14.842 18.2572 31.3766052122
24.7682 15.4939 19.8319 26.9013859678
29.6071 5.94493 24.2102 69.9348217184
26.8574 1.10243 18.8904 29.3525569231
36.4616 12.059 15.744 30.8415135392
32.212 3.43646 20.5553 29.5700094853
30.2558 13.2021 19.4942 29.139399688
32.5134 2.70588 23.2378 31.3805509238
27.3626 13.8212 17.8989 26.1533014458
34.4519 2.59375 19.511 26.8285940411
25.381 6.42618 22.6218 35.1919087902
26.5601 3.86061 18.179 26.1711105396
36.2215 6.3284 24.0352 58.775776175
32.6188 5.90762 23.5446 38.9761675956
24.8506 10.2089 17.2716 25.1300737323
27.1116 12.7308 24.4162 83.7717470181
35.4794 6.36233 21.3327 28.9222856844
27.4549 2.84475 21.1791 29.6397541261
24.7692 2.40769 24.2152 80.08245763
27.5449 10.9657 21.3442 31.0530099378
29.454 8.88552 24.6078 115.3924915268
30.3357 9.93286 21.7455 28.0408615234
34.5685 10.4322 22.293 31.8479459887
35.905 14.1341 22.0379 26.3137607959
30.1567 13.2477 24.173 74.9810063673
27.4445 2.23183 24.0539 65.8857809713
28.7335 8.70911 15.7509 28.3854682219
31.6846 10.6783 24.0514 52.4828113202
26.8272 9.85241 23.8863 45.2740322184
31.8745 2.21287 15.1716 31.9667456142
26.2866 9.31283 19.4029 26.9778375447
35.0572 3.74227 24.4398 98.048859951
34.2001 12.3937 24.1697 79.1963556875
36.3013 12.3609 18.6958 33.0837592922
36.1105 0.276148 18.732 30.8483207659
26.6645 2.10207 36.3808 32.7735587063
24.6307 15.8275 40.0149 28.0764071561
32.7692 2.4223 41.2522 28.1002721718
25.3201 16.0418 42.9991 33.1111194979
28.1339 1.3932 38.68 28.3236239834
29.2292 2.60825 35.7073 65.0908217068
30.0467 3.63345 38.203 31.2316040505
28.1315 14.8809 35.8955 73.1316561088
34.4392 11.4034 45.1881 31.4108880467
32.8589 3.57836 36.346 50.3029406832
24.8093 8.09282 44.7299 29.014131544
25.0283 4.303 35.7282 86.3215088181
27.3549 9.10738 38.7083 32.6010917295
33.3665 13.3476 43.614 32.4747639841
29.1999 5.50388 35.3971 123.6992224343
31.6279 6.44065 36.8472 38.4529316768
35.1373 5.62342 40.3077 29.9018332675
36.179 7.75335 38.4836 32.7075746604
28.6214 14.5265 38.7916 29.2741808093
32.1351 15.9599 35.6247 99.9926663005
34.972 11.2275 36.1607 57.2621356805
32.7897 12.939 35.8054 95.4886302059
35.0085 10.4781 38.6004 30.0182525138
29.8092 10.2211 44.5298 30.2693117501
30.8311 0.277938 35.427 103.8368825994
36.1845 11.4328 41.0219 32.6705948387
36.9092 15.723 35.4924 112.3963195153
35.1822 16.2671 43.1194 29.4386550358
24.78 2.93287 43.1188 30.7107663269
26.7861 6.60785 35.9356 56.5567271305
25.4258 1.16895 44.8395 30.2659031821
26.7382 13.3401 42.6242 29.752136709
33.5873 0.92562 35.7137 90.4879192923
25.6062 9.20945 35.8037 100.1991556491
35.5701 4.31024 36.1068 64.6170166153
25.4176 15.4723 35.6293 95.1047246003
26.7687 6.25139 38.9079 31.7522515639
31.171 6.10304 39.5599 32.1696740734
33.1461 4.00141 39.3049 25.8142412467
32.7887 5.59791 44.4162 29.9861152475
26.5626 11.1716 44.4481 26.653723122
25.0969 7.36247 41.1466 27.5518377555
31.657 8.31867 41.503 32.4301307368
29.6954 10.8904 38.5152 29.8811015039
28.5579 6.50737 44.3586 34.4882424832
30.6387 12.776 43.2868 31.1472065678
32.3019 10.2794 39.5511 31.2218723241
36.2117 7.03341 35.9276 64.0243531858
25.9737 11.6137 37.5137 30.9420922817
29.1165 15.1174 43.8936 31.3499846287
25.0517 9.81463 42.1903 27.1833811849
31.5749 14.9997 38.4064 32.2805722225
32.4006 12.8229 40.5722 32.1779579788
34.9 14.187 41.0262 30.3517566032
30.4244 4.30954 44.6875 30.6816411553
29.0719 12.7127 40.8748 26.7101701994
30.5116 2.43868 42.7073 32.882634649
29.3003 8.52503 42.4813 26.095861645
34.7878 2.03668 42.9166 29.3484076121
25.9225 5.78184 43.643 31.062349705
26.2341 1.63642 40.8743 29.1971377576
25.6636 12.7797 39.9603 29.2324685655
28.4248 3.33147 41.1466 32.6310415117
28.6215 6.09621 40.8637 28.7315646984
29.8528 0.741687 44.8754 30.6093434508
33.904 7.26899 42.4999 33.1927167432
34.8152 1.54675 38.2753 29.3536875753
28.5203 12.1168 36.1043 88.1765713122
35.1561 4.20853 44.9055 28.4349880699
35.6016 9.88652 43.6636 30.921933913
27.6372 10.1795 41.1849 25.4512565411
33.9624 0.0592495 45.1637 32.2652083507
33.4971 8.49909 35.6311 114.9480804117
31.6517 10.3855 36.4505 50.4258567875
36.8443 8.24511 45.8106 30.6844356465
36.9641 4.07148 38.5037 29.0794632526
33.16 2.15965 56.2217 31.792008017
27.9757 10.4673 47.0498 27.7198022865
26.9788 1.5381 47.5531 29.902178457
31.2635 15.7654 47.1286 31.6496817118
28.9001 11.847 55.1676 26.1786639424
31.3559 10.7028 48.5539 28.5031780918
29.251 9.32829 49.3351 31.7510397477
29.6626 4.53887 49.9949 29.8104347287
28.5027 5.25999 47.4146 30.0205322033
36.6804 14.5545 48.7259 31.2006824885
35.4015 0.326895 50.8868 29.3768817616
32.0568 5.87847 50.3282 27.840930052
28.8438 0.340268 51.3207 35.5703278336
33.775 6.64195 53.3391 29.3737191759
32.1847 8.89876 54.8309 31.7903758946
25.8087 10.8475 49.2404 26.3896185375
30.0845 15.168 54.3081 31.949659652
35.1181 7.17732 47.8392 31.4520028417
26.2503 12.7515 53.2831 29.328945489
25.3985 13.3563 47.5804 28.067630043
25.386 16.1813 48.1483 28.4524475289
34.1802 13.6047 55.3945 33.0484556086
24.9902 1.27024 53.1966 37.4681949451
34.69 12.6009 47.9048 31.2292636031
26.1895 5.92361 55.6782 30.3280886148
29.6589 2.53019 47.1799 29.9676952253
32.948 12.5832 50.6112 30.3094626478
26.5132 2.06501 50.8356 35.4796038417
34.6548 4.41158 50.8129 30.7837511537
33.4415 1.99933 51.7732 32.9403900886
31.0275 1.99832 50.6817 28.9623820683
24.6819 10.7699 54.9387 27.4720398388
27.2333 5.11316 51.1745 28.9328718691
24.9364 6.25673 53.3172 27.1501212562
32.6701 10.2407 52.1218 27.2287013943
30.752 6.98535 48.1385 31.3369862486
30.6662 7.42299 52.5524 27.7108477422
36.5239 14.6501 53.5508 29.3745703982
27.9643 13.2773 46.1415 32.2171207205
32.8869 7.32775 46.4056 29.2238515892
25.6428 7.98809 51.3275 33.0959169771
28.0351 11.5712 51.3601 27.0440756955
28.2384 8.97807 52.4972 27.0099607275
35.7164 12.3185 51.4008 27.7845549695
33.9518 7.97765 50.5226 30.7781546351
32.1794 15.7793 55.9088 31.5657687406
32.8207 2.41698 46.3779 32.7710887013
25.9764 5.92583 48.3559 28.9238682437
30.4861 12.0356 52.8934 30.9553445835
31.0239 14.7122 51.6304 29.6486239471
35.2576 15.4586 51.1152 30.0854414723
34.6477 11.3742 53.6029 26.7978517398
28.8164 3.56651 54.7639 34.0028273767
26.8395 1.46191 55.1683 34.0676243694
25.4154 15.9267 50.8802 30.223144061
31.292 2.09143 53.9984 31.6515731645
34.6678 4.44395 47.9231 30.4424912891
28.7411 14.188 50.0363 33.5415580165
25.8091 8.63548 47.2724 29.0435080618
28.4764 5.95014 53.5755 25.0732430753
31.9235 5.00417 54.4453 30.2144567629
29.4851 7.96933 55.7162 25.4114533591
27.5152 9.48674 55.1052 26.5878472748
36.9204 10.2207 49.9341 27.4643937273
36.023 7.01441 55.1453 28.8641994262
25.1269 15.3441 54.5018 28.6480635194
30.4376 13.0109 47.8227 30.4711930208
33.4767 14.7589 46.2753 32.1156994054
24.9151 4.33196 46.1666 29.4790927022
35.1829 0.479668 55.0921 37.5542638328
32.0944 0.480924 48.7895 32.3743114987
27.8558 14.2454 55.629 28.2060737461
32.0256 9.98499 46.0951 31.0055542218
36.9124 7.71223 51.1425 30.1080476302
36.6644 9.60631 54.0526 28.3163993703
29.3992 21.6799 5.63524 34.7232874288
31.3693 18.1781 6.22607 29.412389169
35.364 17.5406 4.91167 28.5328549753
35.1043 19.2157 7.27431 28.6710455808
32.9913 16.8673 8.36755 26.2369612082
32.8355 20.2263 8.83851 28.1883658314
33.1674 24.1863 6.43176 30.3061704353
31.0558 22.9443 7.9268 29.6761284976
35.2388 22.2814 6.6402 27.3659604202
25.5746 31.1375 4.19694 33.2476020703
35.8488 29.2263 5.9942 32.4107873093
31.2079 19.884 12.8437 29.8787050878
26.6542 29.2085 13.6773 33.4921009386
34.7895 21.35 4.12588 29.9561884847
29.2825 17.2857 9.24473 29.116237054
35.469 28.4986 10.5908 29.6489919533
33.2675 26.2505 8.24898 30.1344295368
35.6011 27.155 7.87458 31.0876342856
26.8345 17.8746 6.10117 29.5136619939
33.7332 25.8458 3.97349 28.3174251024
26.7592 28.4937 9.03691 27.5136749163
32.9271 32.2461 10.138 33.182574953
25.2091 22.4869 10.3871 29.562284901
33.5531 30.4743 4.91004 27.8148524694
29.816 28.8308 4.83639 27.2825800804
26.9042 20.5981 7.35137 30.9289539567
30.9825 30.8742 13.6332 30.3789838652
32.1178 18.2862 10.8622 27.1418711846
33.0897 19.1497 3.99015 30.5106202446
34.1986 22.3953 9.752 25.8823060233
25.3433 22.8847 7.21952 29.5474398562
27.373 31.2048 10.3939 27.298172203
27.9889 21.8732 9.75885 30.7663951181
29.779 24.3498 9.86626 29.9376666647
30.0541 19.9269 8.35056 28.0132807813
25.7243 25.7098 4.18432 28.0942418756
26.9664 17.3733 10.8748 31.5018587233
24.8132 26.3457 8.49337 27.8326853373
27.2158 25.6624 10.8936 31.1416566128
36.2872 25.3411 3.85061 31.5920362302
29.1305 25.6491 7.37428 28.424020282
29.3672 28.2445 7.62127 31.2603658193
28.3304 28.7085 11.5414 30.3128898595
36.9616 21.9277 9.32588 25.3393569176
32.0978 29.0486 7.62529 33.3613322812
28.9417 19.1547 4.64028 33.2536548539
28.4775 25.0821 13.4061 30.3266282833
27.7805 30.7451 6.51182 29.6276248638
34.4448 21.5712 12.0988 28.3010457324
29.5103 23.631 3.5999 29.4181982133
25.2108 30.4031 7.58951 28.475819239
26.6032 25.0667 6.68939 29.2865177244
32.8376 29.5263 10.3937 33.958926619
27.5255 18.3074 13.4094 31.1623639847
30.9677 28.5796 12.3997 33.1291990879
32.3813 22.3146 14.0805 28.6173148682
25.0668 18.9082 9.28672 33.0521979382
34.7844 18.7627 11.7622 27.7035228281
28.6409 20.6212 12.3389 30.6705554707
33.4294 24.8177 10.6259 28.8428692506
32.1798 26.5345 13.8146 30.1752647252
31.1547 24.2565 12.2859 29.4923232585
35.6799 25.8422 11.756 29.9038035527
30.7726 25.7131 4.89457 29.1530445189
30.1002 32.2298 4.79052 28.1838055929
36.039 28.8973 13.4008 32.4135545389
24.8371 31.9338 11.2261 28.9833225498
25.0965 17.0444 4.01961 28.2926655213
32.1063 32.1456 6.75118 27.929434894
29.4612 32.5922 11.7692 29.488473716
36.8625 32.5328 12.2103 32.357601638
35.691 16.7164 9.80388 26.6535147419
27.0971 28.2184 3.86237 31.466191851
28.4392 31.0678 14.7555 30.9942812784
25.1031 19.0367 14.7232 32.6495907216
27.4003 19.3536 21.1305 28.8431513309
28.4235 16.4763 19.3122 27.3903646561
33.7119 20.4151 17.1462 31.5234756864
32.3951 26.9717 19.9733 29.8254531838
28.0514 22.5332 14.0363 28.8159843596
25.3844 24.1473 24.1657 61.4098949262
30.2461 25.8643 15.9165 35.2213907588
32.8913 32.7054 14.8758 35.09892458
32.1137 23.2984 17.09 30.0389956955
30.0628 21.6571 16.2754 28.179027401
32.0734 16.5862 20.4798 26.9559887618
25.9684 26.4175 15.5954 35.6904030373
34.6372 17.7902 20.209 29.7871117197
33.8837 28.1732 16.5411 29.7660643939
35.9075 27.5433 18.6258 33.3269470818
34.3941 31.5557 23.3211 31.2752429192
33.4265 32.3771 21.0261 27.2747267702
31.9585 31.739 24.5181 87.7766841139
30.3093 30.7018 16.9683 29.6192048816
25.5167 23.4335 21.4596 23.3058558138
32.8116 30.0773 19.216 34.8775132198
29.8211 20.1503 19.6709 29.1896052128
30.5976 30.4269 21.3627 28.2302934442
27.8917 18.6403 17.7435 27.5859656221
26.6337 20.9267 16.1865 28.8461862156
35.0988 24.2903 24.3168 73.3948104135
34.2741 18.3236 15.3606 29.0709857919
34.5035 20.5332 19.9666 29.4777067908
27.265 28.1669 24.4547 88.1438172486
29.9068 16.7452 24.3616 93.1252734602
36.6752 31.7661 16.4219 31.9956298782
35.5179 29.2075 24.0467 71.071908952
28.6056 22.6471 18.4984 27.0969514233
32.5856 21.8489 21.762 26.6883791055
31.0129 19.2031 17.2338 25.6389469785
26.664 24.744 17.9756 32.2679926913
28.5081 26.7706 19.4353 28.5246182094
30.7437 24.9276 18.7743 24.6711125512
35.4251 27.5552 21.6079 31.7849242695
31.1131 28.0543 17.5017 27.5532810317
35.4872 23.0856 17.8215 28.962236828
28.2594 29.4135 18.6774 34.2198675008
27.6875 31.1269 21.1443 27.7943070073
25.3169 32.0439 15.4483 27.480322927
31.7108 19.4193 22.018 26.8468214778
25.3689 21.5275 24.3766 78.118203903
33.2377 22.3955 24.3224 67.5846475572
35.6759 24.9791 21.6233 28.8369941065
34.9713 23.4418 14.8699 28.6520144217
31.1717 32.6247 18.7496 29.6077518456
30.2106 19.4337 24.2289 75.5292146592
27.7133 21.9597 21.6311 24.406030127
30.6189 24.0296 24.1218 68.6731743174
35.8831 16.8401 22.7204 31.2724456363
33.7506 24.0128 19.955 30.1483035892
26.7299 26.2949 21.6252 27.7049697863
29.8617 29.8435 24.2782 68.0900698469
26.4253 31.6533 18.0761 28.2746255321
30.7508 26.9354 24.1207 62.4433196959
30.3137 23.3407 21.3619 30.4738162375
30.3236 27.7448 21.4367 28.6334847955
26.9135 18.8234 24.0734 62.052447123
25.8896 28.8353 21.8926 26.9248738762
25.2181 16.6521 22.3684 26.8097487034
27.2022 31.4058 23.9498 53.3961246439
28.2726 21.7467 24.2275 69.2983494954
27.9034 25.3141 24.0194 53.3050246676
33.6256 26.8521 24.1294 78.2091102315
30.8956 16.6534 18.0066 25.4282329555
25.529 23.8448 14.3985 29.2342571583
34.6434 30.4262 15.3245 30.9066461496
31.5099 17.9273 14.7355 27.4757709091
25.6492 21.4689 18.8763 27.2398698771
34.6544 26.0917 14.6875 27.7876385816
24.8569 17.6904 17.9338 26.4583148828
33.4054 17.8857 23.5634 44.9690827762
34.7857 20.1759 24.6607 111.3858060718
33.2848 27.9888 36.2807 47.0587912715
24.686 21.4984 45.7099 28.4858437596
31.9965 20.8167 36.0962 77.2955544504
30.1679 17.5745 39.092 25.1738598231
35.5716 24.2892 35.6601 116.0323405948
25.2257 24.7689 41.7884 30.8736525178
31.8436 25.1212 36.2842 53.8211027566
30.3152 21.8314 40.5784 30.9487888852
26.8591 23.5514 36.0638 56.6556119672
28.8023 19.766 36.1217 54.472855994
29.8455 22.9995 36.2913 60.0477232371
35.8394 27.3887 45.5031 26.3243710189
33.6627 22.9582 37.225 31.7843998594
27.027 19.9023 45.6719 30.333776443
27.6505 26.5756 35.9719 65.7175863124
36.3344 26.661 39.1922 30.1498373215
30.2279 29.9281 36.5288 43.5408356666
26.0109 28.8584 36.0168 68.0673567258
30.1224 27.4414 35.4663 121.4037489844
34.7206 24.2968 44.3586 27.3583472863
27.884 31.3807 36.3969 53.5177152478
27.4572 31.3195 39.3561 34.8084594806
26.3327 20.6304 35.4401 95.9438675151
33.9724 30.9174 35.6094 102.5790419783
27.6565 16.3168 40.8023 27.2172801859
30.4372 17.0974 41.972 32.4581181581
27.1975 22.2859 38.9287 25.4424520387
33.8984 29.4484 43.6919 27.6278008934
30.7692 20.2876 38.5559 26.3561568048
29.3108 29.9839 40.839 28.8937646968
33.0102 18.359 39.921 29.5577615941
34.6724 19.982 44.2729 28.5734331291
29.6817 21.7847 44.0904 29.8744390654
32.7669 22.8984 41.6522 27.714959085
31.5824 25.8038 42.3361 31.6704855431
32.9467 22.1592 44.2824 28.9781345845
33.9641 20.9741 39.7515 31.4351089965
27.9409 26.181 41.799 31.5570946791
27.6394 26.4207 38.8925 25.2143542787
29.5797 24.1437 38.9394 30.0366977497
30.2019 28.0614 38.9041 27.1268016397
32.1633 26.1224 39.0023 26.046388141
34.0846 24.4429 39.9879 27.5464341777
34.1002 28.6101 39.3495 28.6833984665
35.261 30.6485 41.3027 28.0873598372
29.7433 17.2154 36.1791 52.5157728374
26.3042 28.9537 38.5112 29.2570511041
29.7049 25.7286 44.7361 28.1395781914
27.7637 28.6918 42.7595 31.5422501568
32.5424 30.7227 38.224 30.751234052
28.8517 28.2549 45.3062 28.902473191
36.3533 31.085 38.5968 27.9107038551
28.9688 19.035 43.579 27.9024728175
25.2857 18.7845 43.5499 27.282223039
35.0406 16.8373 45.6762 27.7590548025
31.3287 29.5349 45.3938 29.9545815265
27.0416 19.1388 41.5454 27.0709345107
31.7716 28.5673 41.4301 30.101598854
35.8682 27.001 36.1759 49.9519639449
36.2029 30.5185 45.449 29.4904591127
24.6983 21.8725 42.7054 31.6124973697
27.4286 21.8487 41.4863 25.8324286888
24.93 17.691 38.0326 28.8018098067
33.1875 17.9317 42.6492 35.008248581
27.7437 23.8162 43.709 27.8128026237
27.4991 19.0582 38.7405 27.9463387634
25.5636 24.6252 38.922 29.6528682216
34.5852 17.0748 36.0338 44.3755282313
25.4317 29.8312 43.1902 33.2542300492
29.6379 17.4102 45.758 29.8227714132
34.7154 19.6793 35.7923 90.5932836696
33.0542 26.5444 44.504 28.3526871262
36.677 21.951 40.5004 26.7457917723
25.4018 23.9944 45.3574 28.6212327688
26.0717 31.5657 45.0495 30.8587661772
33.238 32.2712 43.3495 29.4372873747
31.1861 32.1287 41.6622 31.0426536009
36.2656 24.5446 41.9863 33.080501456
34.5526 16.3792 39.0634 30.4185476997
26.9221 23.7384 55.5844 28.5872608579
27.6746 16.5506 53.5111 28.7206057166
35.9896 31.9539 54.6927 29.4388507821
28.5833 26.769 48.0504 35.4190468667
35.558 25.1316 51.1847 28.9732190978
36.636 21.1822 46.1077 29.6075595662
25.6406 21.9493 48.5807 29.4059324092
29.9144 21.3489 48.5749 30.3018708918
31.0028 23.1969 46.5154 27.0009387421
31.1293 19.9276 46.3708 29.4720138718
31.0045 17.7278 49.3049 28.9746865429
35.5571 28.5688 54.2684 28.3487788636
28.0123 25.0862 50.4412 28.1368244246
30.405 24.4385 51.5546 29.7080971791
24.9834 24.3948 52.9861 27.891838278
27.9548 23.6728 47.6131 30.0528543206
33.4062 26.4052 49.6351 28.7405325741
31.2202 30.7853 49.3357 32.1391771494
26.1447 29.682 54.5188 28.2854618259
35.3419 30.7672 48.1801 29.4530691303
25.6023 25.4814 47.7589 31.3413201677
35.7053 23.6739 46.7432 29.0166329473
30.337 30.5687 55.6079 27.9782208947
33.5752 17.5709 54.458 28.6026700004
36.7204 18.7363 52.5274 30.2389003802
32.902 16.9554 51.4025 30.4444848576
35.4717 21.3001 53.5674 29.2873142303
33.6199 19.0191 46.769 30.1186136605
27.4745 20.0382 49.4234 29.5418689738
27.2192 20.6464 52.3749 28.2502617314
32.2472 23.0542 50.1316 29.6896151688
31.8738 20.1198 50.7701 26.8098413368
35.0717 22.461 50.7739 32.7468162636
26.9011 27.4037 52.1595 29.6306205733
28.0316 26.4791 54.7173 29.9150800414
27.7499 23.0708 52.9568 29.7536215784
31.0442 29.4584 52.0247 33.1813291318
36.1734 28.2811 51.3994 28.9301285216
31.7636 26.8931 52.026 29.9177258447
27.2874 29.7457 50.8998 29.9278437307
33.0337 30.3828 53.8847 27.2545031845
28.6933 30.5685 53.2071 27.3239384069
28.6255 31.123 48.7614 27.2764347518
32.574 28.98 47.7659 30.5112998119
32.4887 28.453 55.9432 26.409581
28.4337 17.0902 50.5895 27.8134070083
33.3556 24.0336 47.7526 27.9622422607
32.8471 20.0921 53.6156 27.8218914355
35.4308 31.0935 51.9648 29.9494188419
27.2223 18.1391 47.7106 30.870666802
27.0862 29.8311 46.9549 29.0930525485
29.6051 19.3158 52.3337 29.4985174
35.5256 27.9167 48.3461 28.1372080907
30.4593 20.3545 54.889 32.233916957
34.086 26.2789 53.6203 28.36079066
25.3605 24.2714 50.4394 27.2177564287
33.8956 23.493 55.1497 29.9433702205
25.0701 28.0234 47.0014 30.6424528605
30.48 31.9878 46.2799 29.7252232341
30.7703 26.3371 54.8698 27.3438401387
34.2371 19.0426 49.4253 30.5759508352
31.2166 23.2213 54.1597 30.1356804314
27.4296 18.8842 54.8866 32.0290008912
33.5843 32.3079 50.3008 29.1210962818
36.7069 20.4884 48.984 30.6072381479
31.4773 26.2929 47.0748 27.6120087183
24.5016 19.9738 52.8893 30.5401892782
36.4116 17.0379 54.7731 27.3867702408
34.0973 36.0449 12.3744 28.172758137
34.638 39.8776 4.11015 30.9539716379
26.1955 37.5893 4.32403 31.3170109836
32.5658 48.3706 9.75359 27.8770310848
32.8099 34.7335 5.52093 27.8749695277
28.6543 34.6437 4.71674 29.6986782481
26.9625 47.1873 13.5385 29.3072204995
29.1889 38.2819 3.78901 31.5454173674
29.1382 45.445 10.1843 31.8095901906
25.8032 34.9147 5.18412 29.1522465168
25.068 41.0412 6.88116 30.8603340579
36.6302 36.8762 12.5321 28.3498391122
27.4559 33.6702 13.8274 30.8601772561
31.3496 45.9678 7.98375 27.4312407512
35.0703 41.4739 10.4131 36.7143085524
33.2665 45.5934 5.54864 31.6047844796
32.4098 40.4329 5.6832 30.7639007455
28.0731 32.8185 8.51975 28.1807089896
36.1443 44.0868 4.41796 30.0115293008
24.6888 45.3878 7.58388 37.1294432542
26.1936 45.9452 11.0441 33.6118323164
35.1979 44.2622 7.11793 30.7515402597
30.333 33.7687 9.62505 28.3301389201
26.1395 34.6238 7.99702 29.9038812131
30.1747 35.1417 6.93705 27.2244431736
29.5173 36.625 9.82764 26.3708196722
34.1716 33.4604 12.4931 33.1690568769
27.0228 37.0003 8.77265 27.605075988
36.2512 35.4349 8.45843 27.224741863
31.6273 38.1262 9.30443 30.2353719954
28.7017 37.9386 6.62557 28.3806121072
31.2431 43.1979 6.19719 30.0182339093
25.0415 38.3327 13.7951 32.7198448135
32.0929 41.0117 10.4026 31.4915822854
31.6714 37.9579 6.38361 25.5686108952
29.531 35.6478 12.3883 33.549684418
24.963 38.9491 8.63221 29.0941846684
28.0948 43.4271 6.32004 31.2783619844
27.9675 40.6424 7.70542 33.6788694576
30.2294 42.6307 8.85288 28.9300056284
