20.321 24.5871 35.6944 73.6648946137
14.0565 17.553 40.9309 26.3497663413
22.732 22.3339 35.8997 81.8339798195
23.1723 12.9678 38.2425 28.2331278009
23.2964 17.3003 39.804 28.4738662559
18.3691 21.1885 41.9898 29.003055162
20.3842 23.136 41.9176 29.1035987788
13.6761 14.5341 41.668 29.2819306972
13.2772 20.5526 38.6838 30.4032815309
24.0972 15.6519 35.5853 91.9412533003
12.5139 24.2671 41.3811 38.3361133281
23.8699 18.2493 53.2488 33.1940074581
17.3297 16.2364 47.9606 29.5479125739
14.9844 24.2728 43.4256 39.2930188826
23.6417 14.0839 51.0715 29.5981141014
15.276 14.6137 53.8197 30.6316633518
12.5048 18.0175 56.2004 28.5858172755
20.1164 16.5895 45.6021 30.9741147152
16.7971 15.3079 43.6412 28.5730054342
20.7631 14.2523 50.078 27.978096451
16.0653 18.8329 48.9907 31.1771754991
13.1962 19.0738 49.2608 29.5814076512
18.0091 18.5599 46.0444 29.1254059536
22.5762 18.3454 47.0448 28.3199842529
23.8814 13.7335 44.8566 27.927853746
14.0929 18.1552 53.8491 30.0048333501
14.9589 20.7706 46.5719 32.5233427465
14.6731 12.9271 49.9863 29.9644784037
23.5589 19.1373 44.6106 30.0564177907
19.1904 22.2383 45.3546 30.3660476381
12.4007 20.8511 44.9294 34.3023409066
22.9056 15.1837 46.9342 27.6906295811
20.1821 22.2679 56.1992 28.9533274323
19.3311 14.6093 47.5365 27.7141453981
14.1103 22.3918 54.2496 30.9921437408
17.5746 15.699 51.7092 31.6219765245
21.1345 18.448 53.6311 32.245375242
15.3375 15.5377 49.9797 29.4296338077
22.2755 21.3348 47.4299 28.8913792171
19.9683 17.6384 51.369 32.1257391694
24.2236 16.8816 50.8496 26.3563494598
13.7034 13.807 46.5408 27.8466705626
18.5846 20.0584 50.7954 29.6887557648
19.6896 20.2374 47.6703 31.7126609051
21.9377 16.8187 49.7143 30.1530736448
16.3468 21.7924 43.9833 30.4742331539
13.0987 12.7668 44.0482 26.5699104327
14.0095 22.4845 48.912 33.4066232848
16.1712 21.4928 50.4788 25.9909168513
24.2313 13.3412 48.6269 25.5142762069
17.2449 24.5032 51.0825 27.1643871548
21.3672 22.5174 51.6293 29.7844570023
16.5924 23.4655 53.6452 29.6096886472
23.9038 12.6111 53.8737 30.6352171155
12.7404 15.4514 55.0344 29.2244486
13.5182 16.9868 51.3248 31.0795329722
12.3141 24.1172 44.7905 33.501582341
16.293 18.2836 43.9133 27.0196315675
16.041 12.4658 44.3718 28.4841962234
17.7225 15.6701 54.6409 30.0125594482
20.1689 14.4044 54.0898 35.1920793936
17.605 22.6418 47.6176 28.4973475863
18.6188 12.8771 51.5447 28.8634357875
20.6252 21.2213 53.8739 30.7760447636
14.204 20.5778 52.2579 29.6429819467
16.8916 18.4074 54.8375 30.7446257323
17.9979 20.7005 53.5162 29.0869441096
15.2683 16.5021 46.1041 31.0477941054
22.3512 21.6669 44.4997 28.4632286068
19.2764 23.0037 49.8687 28.2816340886
16.3068 12.642 55.8809 30.9739408279
24.2024 23.8144 43.55 31.2521364195
24.0957 22.1456 50.9434 33.1621464761
23.7923 24.078 54.9079 33.3339854459
19.6163 14.8282 43.4319 31.7840480027
21.8258 23.9306 48.3767 30.0641006838
18.1894 12.4397 46.3412 30.3320664781
18.6063 24.4459 55.2881 30.2974334782
21.813 15.1986 56.1423 31.6984819604
13.5355 33.6078 6.7066 29.0873751262
12.9948 33.4711 9.83611 28.2576451146
20.3451 36.3936 5.56213 25.9968339603
20.9713 25.4927 9.61955 29.0370402303
20.8465 29.1853 4.74318 29.8110072784
22.766 29.8905 7.81482 26.3753694174
18.9818 27.1012 8.20006 28.0796969983
20.5761 30.8635 6.87772 27.2809638085
24.2958 35.6395 6.591 25.7040555582
16.5347 30.012 6.24315 31.1636783111
20.6097 35.934 14.5623 28.2854887446
18.6103 29.739 8.22838 28.4189560286
17.7025 25.7077 4.91223 29.3911735137
13.3378 36.285 10.3495 27.0577644344
15.7941 32.6089 5.25096 30.1728388325
18.013 33.885 4.38519 27.1788390233
17.5845 35.0129 7.03008 28.0657424237
12.4208 29.6886 14.4714 29.7860789732
20.5177 33.6828 6.61622 28.3461563158
13.5512 32.0005 16.115 30.7012795924
14.6219 24.3526 10.0248 28.8875594846
15.0715 28.2491 14.2764 28.9160136958
18.5958 30.9643 16.118 27.4451634805
15.5016 26.943 11.6126 32.3316998878
14.5455 28.0761 7.62377 28.7466678739
19.2806 27.7626 13.082 31.4709231863
22.1565 28.1222 12.4483 31.2988488245
15.7557 29.2933 9.93064 30.3929531258
18.1488 31.6422 10.1332 27.0293168272
16.4867 31.8015 12.1363 26.5101954552
20.0694 30.6908 12.1316 30.4871244058
22.7192 33.5018 10.1888 32.0109470216
22.7955 30.3665 10.593 28.8140639208
24.4672 32.1387 8.21562 27.1419957191
16.1507 25.6045 15.2825 26.8777042537
16.0241 33.5406 8.93792 29.6357771845
16.5613 25.8369 7.71286 33.2749463821
16.1969 35.6346 10.669 27.6069779363
14.5097 36.5292 7.53314 29.3899244092
18.7029 36.559 9.53831 28.3818437789
20.0753 33.8658 9.61394 34.5203875151
17.9473 34.6609 14.864 29.7797669085
23.6163 25.9388 15.6891 30.9687979759
13.4756 30.3671 5.6672 26.927931444
12.1954 26.7568 13.0492 29.5099640501
17.2218 29.9439 14.0247 29.0485529625
22.5569 28.4382 15.2802 31.0097057699
18.234 26.3841 11.0299 28.2945575779
20.0445 26.7403 5.60829 29.4169626109
22.9807 35.2037 13.2799 30.521743699
16.6428 28.2878 4.17078 31.6835421239
14.0483 31.4649 11.3595 27.8043627473
15.9955 34.4142 13.028 27.8928003036
14.4308 34.6471 15.8357 28.9004643923
22.7664 32.2284 13.1033 30.633343276
23.5334 33.3185 5.72548 26.6399891585
18.9291 26.3388 15.7502 29.4281917007
20.0356 32.5974 14.1666 31.5848112647
22.7976 27.0515 8.03426 30.5256832418
23.0211 25.4588 11.7466 26.8513723059
19.993 28.712 16.8756 29.7486431105
24.0965 25.9069 5.84506 26.457337246
12.8071 29.8609 9.16383 29.8210207406
12.5021 32.9713 13.3619 28.3882271365
23.7327 28.1807 4.2246 27.8783247393
20.3094 32.3452 3.91623 28.7428528523
21.9876 35.291 17.1954 29.9933978575
15.6214 27.2382 24.1499 58.9839104738
14.6026 27.9733 17.2437 31.1579254922
18.2233 27.4161 18.7385 30.4973759209
22.6962 28.8407 18.4237 27.6625983829
15.9987 31.1374 17.0748 27.8025959089
19.1132 35.0589 21.4409 30.709580737
16.436 36.2562 20.9678 26.0936727842
18.693 33.3898 19.0912 30.1332738202
16.0948 29.3567 18.9878 25.6687846645
12.4189 32.8832 21.1295 27.9100958577
17.301 36.8564 24.4925 102.5840741797
15.352 32.9747 20.8583 30.0252015665
14.2006 27.1062 21.2069 30.2748145327
14.6708 36.5925 18.6304 27.2268900875
15.1617 35.1691 23.0871 28.2716493882
21.9556 35.7209 21.7082 29.5897486588
16.4615 24.9921 17.91 28.0074137166
15.063 32.5956 24.7165 118.5999375389
14.4209 30.0314 21.281 28.7294395016
20.9134 25.781 24.7405 84.5312074744
23.27 31.6775 18.3994 28.5640299215
17.6222 31.7086 23.3431 32.5500478791
21.9206 28.4144 24.5971 84.9866510219
23.8498 25.4775 24.3282 60.68918746
14.9124 29.7742 24.0199 44.7986830444
13.4527 25.7372 18.8212 27.959418449
18.4626 27.2461 24.4109 74.7035093566
20.2505 30.0918 21.5161 30.9901276135
19.8227 30.0763 24.2891 65.950456258
23.6762 33.278 20.5493 27.9569782655
22.5297 31.4885 22.1826 28.0366880686
20.8634 27.7179 20.1634 29.7651187603
17.7782 30.9742 20.4324 29.3667663517
16.1592 33.8015 18.1038 26.0265377213
18.1082 26.3918 21.74 31.474380449
21.2636 32.9443 24.5157 85.6558456289
23.6226 34.9169 24.3747 80.5019858242
23.0332 26.2213 21.843 26.9342798647
18.7742 34.1623 24.2105 62.2121981367
23.9196 28.9616 21.1815 27.3260650252
24.4329 26.6962 18.2933 28.4776822925
14.8242 24.4264 24.5562 92.4361419429
20.3156 24.6494 21.2495 29.9957892738
20.8344 32.6702 17.5084 32.339520029
17.6612 36.2726 17.1927 28.7647077528
24.5002 29.2931 23.8375 40.9369559109
12.5282 32.8344 23.7929 32.7230966607
15.978 25.5309 35.677 69.3199385048
17.3702 25.743 38.4523 29.5741425753
22.7514 31.7397 42.338 33.1400035803
12.2619 36.0868 40.0006 29.0486592001
22.9979 28.1183 39.4065 29.3306278279
22.6101 34.8109 39.0147 31.2592029316
23.1909 28.5753 36.0166 77.65529311
22.148 27.2742 42.0293 29.6073051244
16.8463 29.162 36.0133 72.3721780952
13.8479 34.083 38.6385 30.0196782189
18.5294 26.6695 35.7456 71.8846653653
20.3034 29.5393 36.0994 60.312418709
20.3834 29.5139 39.0712 33.9271079368
20.2666 25.4737 40.4945 31.2789602473
16.1313 32.2582 42.3536 33.6277683121
23.0116 25.3234 38.9322 30.1533319712
16.5061 33.5921 36.663 42.9370716838
14.1844 36.2144 42.4667 34.4511873985
13.3248 27.6712 38.3943 26.7929366069
19.4774 32.4939 35.8008 90.8707410495
22.8029 34.804 36.2376 38.2854095572
22.4288 32.1535 35.6336 91.5505084928
13.97 30.1382 35.8957 75.7996371643
13.7426 27.2829 35.7885 71.0594680258
22.7306 25.8351 36.0432 58.9200053961
19.4085 35.6006 42.5048 31.8331990316
14.6366 25.7078 39.6251 33.7686518854
14.1585 30.0864 39.1702 32.0362573782
18.6688 35.497 36.8626 29.6534814256
19.4779 35.2312 39.6329 27.9730446075
17.0249 29.8557 38.7194 32.3110020218
17.3564 28.3588 42.6683 33.3259579383
18.4271 27.589 40.1971 30.0525701341
18.4658 32.6032 38.8367 29.3432924367
14.1623 34.6198 35.7407 91.597193383
21.4994 32.3268 40.0293 32.1955459418
20.7931 36.3483 35.3396 127.0644901005
16.1931 33.6768 40.0749 27.8789944791
15.0213 29.7211 42.1925 32.0857763044
23.7338 31.8548 38.0496 28.5684882368
16.4313 36.6311 40.6094 31.6135184365
13.3474 33.4585 42.2538 29.5266516978
15.1037 30.6108 52.7074 30.3124650542
17.0946 28.1672 48.0018 30.059495374
24.3998 31.366 46.6309 27.8961018476
20.1196 24.8811 46.3644 29.1174706098
19.2018 30.0617 44.1122 33.5924677792
21.6762 29.4968 43.4589 29.3137839146
21.1513 27.5076 47.1564 28.7527398261
21.5921 34.0989 47.3104 31.2549553944
19.1757 31.2118 49.1988 32.363716186
15.0076 29.8017 46.3017 33.6071364646
24.084 35.3894 44.4992 31.2572182354
23.3453 31.7937 49.0648 29.6697702541
19.2866 29.4558 46.8369 33.618795765
24.354 31.0212 54.6081 28.1671625455
17.2503 33.9153 45.8848 36.0526880343
12.5676 35.0903 53.2 28.4552118199
19.029 33.8646 48.1978 30.940066813
22.8893 33.0005 44.9955 33.289274752
23.8573 27.3225 51.6195 28.4729628081
19.0279 31.3522 53.8643 29.9186794112
21.9974 24.7627 52.7314 32.270077791
23.8719 34.8881 49.1792 30.2908765837
15.5221 25.0464 49.1281 28.5439238988
16.7818 28.6067 50.7788 30.3279301569
16.4933 26.4992 44.4215 35.3555348056
21.1421 27.3055 50.0019 33.4449036182
21.347 30.1424 50.1603 28.6464334576
12.513 36.0386 56.0374 28.9768692476
18.5065 26.7823 51.6858 32.2287463449
13.8861 29.1134 48.8368 32.6959795768
16.1404 34.2642 51.1069 27.2001356046
17.4531 31.6115 51.3901 30.5984593607
21.4701 30.4632 52.8964 28.4971726625
22.8816 28.721 45.6211 32.6144470397
18.8283 29.0301 55.2854 31.9768623127
12.8334 33.1519 44.8137 31.7868604781
13.4962 31.2008 50.7624 30.0582784315
14.0004 33.2805 48.9832 35.3793633499
14.944 33.6137 53.7326 28.5243624768
22.8419 28.4913 54.0777 29.4774892724
18.3397 35.3137 50.2175 28.018679057
20.8937 35.247 51.9563 35.752111189
14.279 26.8758 50.9014 30.5272303799
21.2814 35.854 55.7574 28.414136871
14.3474 25.8656 53.521 34.0065610426
19.9335 26.7453 53.9021 30.5520772151
22.5339 33.4811 55.5578 24.7863543695
18.9584 36.471 54.0612 26.539750638
24.15 25.6235 47.9689 28.2644462941
14.5416 28.4446 54.9782 33.5606065817
13.8576 27.0988 45.3798 28.9197643264
17.8679 33.9268 54.3477 28.6828265638
17.4651 25.6633 46.9089 30.4278805127
14.9048 32.4071 46.4768 32.5243373521
22.6053 33.0838 52.64 32.3060792974
21.468 24.8222 43.738 33.6774882263
18.6837 32.8212 43.7734 35.8793767677
15.7351 36.63 52.9402 24.7886249302
14.424 31.4295 55.5869 29.4715543806
21.9115 36.8173 43.3942 30.2048269772
20.5191 36.203 45.7354 29.2993600063
12.8143 28.7408 43.4473 28.2619694327
20.724 39.4753 13.5616 28.8636931451
15.8067 40.2366 11.7849 32.37742196
16.6487 37.6659 13.4407 29.232133201
16.7423 38.0516 6.62178 29.3176035295
23.8846 36.8897 10.9976 28.5488645284
13.3705 45.9278 11.6885 28.6103079857
21.4717 39.9427 5.57042 30.0753175171
14.6787 38.9016 9.62737 28.6443443006
17.6067 46.1214 4.04825 30.4399709742
14.9295 44.2259 15.9594 32.1003330525
14.2125 44.4127 7.36041 29.7871618716
19.5776 40.8556 8.96081 30.9363742649
15.6883 47.9903 9.20102 28.7976675898
20.2246 44.184 5.74235 33.6931398796
23.6121 47.877 15.9545 31.6247808003
12.8103 37.6079 5.50237 28.2008567921
20.2212 48.2402 13.671 32.5541323805
17.2527 38.8112 15.9075 32.9783245941
17.7925 37.3376 4.16525 25.8200712322
18.365 46.8455 15.4785 31.7573742382
22.5123 44.018 12.8096 39.3599465235
21.387 37.7708 9.88544 29.9954185281
18.4914 45.7095 7.32787 29.273414353
13.0433 48.9013 7.78607 32.3136038538
13.467 41.0215 12.7712 34.4764880526
13.0151 43.7967 13.6198 30.7197992618
24.3335 41.6093 15.2196 34.215090004
14.9492 42.5559 5.10944 38.8119282056
23.767 39.1439 13.3782 27.2745187727
23.8362 40.364 10.7208 30.0569624287
16.9514 45.0177 14.1712 30.3047233381
19.3008 37.3182 12.4489 32.0622684684
22.94 44.4773 8.5462 29.3288095152
13.8565 36.7347 14.0485 30.3007214734
15.6462 40.7976 7.68945 32.7397982741
16.7508 44.5848 9.34437 31.3220378413
16.1925 46.0657 11.6196 27.1012429281
21.4583 47.1918 4.75767 29.2442025885
21.3367 42.1959 7.19376 34.0132696539
18.691 47.5678 11.3736 31.0567648688
13.6928 47.2196 4.46905 27.332063234
20.3297 48.5138 9.16156 27.8689557232
19.5876 48.3176 6.48488 31.7008247857
20.1113 45.3554 9.89565 30.8823789481
12.8283 41.7589 7.77215 29.816051878
22.9183 47.3295 8.83184 33.3380346125
13.291 40.4298 5.07977 28.1575019513
22.581 37.7257 7.02806 28.4369912885
24.0983 43.0742 10.698 30.8640776333
18.7311 40.9311 15.0343 33.4075791534
17.1083 41.8276 9.78462 29.9205840765
20.0003 43.1438 11.4629 30.3913958428
22.722 46.8501 13.4902 33.3460462111
12.3135 40.0466 10.095 30.4596729808
15.8 46.5251 6.59003 29.5159580714
19.1669 38.4039 7.55089 26.6096852552
17.8257 42.5669 12.9053 33.2728151166
21.7327 39.3595 16.2195 26.6099993623
23.8031 45.2768 4.99749 30.7112513142
21.1991 40.4714 11.0325 26.4813729345
24.0057 37.3482 15.5351 27.2675248579
19.138 39.6295 3.73742 36.1802138576
13.9763 46.8864 15.7897 29.0083842371
12.6429 39.3359 14.9751 29.5632187613
16.0796 48.9938 15.6099 29.8162005999
23.5165 37.4184 4.06029 28.9854439389
13.9824 48.7514 11.2042 26.2676445651
23.5174 40.7238 3.54362 30.1448641475
13.1007 37.9302 20.7489 26.5247209974
13.8031 37.4492 24.5021 96.4621170667
15.45 39.0702 18.2369 29.9237963881
14.8968 41.1012 23.8495 45.2229678949
15.1244 41.1538 20.5354 25.3304579905
16.6398 43.4774 21.716 26.956457925
21.9695 42.7472 18.6713 28.599242437
20.9227 37.53 20.026 24.9080086988
16.7256 44.6259 18.8512 31.5162635101
22.5964 47.0137 20.4925 32.8407225575
21.1238 37.0833 24.0073 61.8145114562
17.4071 47.8424 24.5054 78.5172825951
19.1719 44.7465 21.8 27.9123701089
14.2458 42.9367 18.3612 28.2781901508
23.3806 38.6041 18.5728 27.0844496907
19.8623 41.5305 17.5239 28.6004883777
18.5798 46.6105 19.9712 30.1866891043
16.6413 43.1418 24.6709 88.5275406822
22.8842 40.0203 24.4957 97.8237091899
12.5019 44.6053 20.0842 29.4935532437
19.0643 38.7324 23.5422 31.7080728298
18.2619 40.9094 19.7355 32.4677008396
20.4151 48.6888 21.5562 27.4898451375
15.1975 38.7782 22.4259 26.3875193025
14.5524 45.2631 21.9384 30.379040161
14.6029 48.0985 24.1701 57.3006978729
20.7446 41.8941 21.0771 27.6393429002
18.7986 45.3706 24.3651 60.9012751999
18.9006 41.3423 24.1384 72.7991584982
21.9257 39.5166 21.7136 26.9277709243
21.6931 42.3678 24.0743 56.5716612511
21.693 45.6716 24.4973 75.0651911699
18.4125 38.3543 20.9323 27.3002613994
20.2073 37.5197 17.5002 26.6032820858
15.7016 47.8709 21.33 29.8828843764
12.9715 42.1335 22.2095 25.9928144301
13.3067 40.5727 17.202 28.6136877209
22.1073 44.6762 21.888 25.3836406999
20.6796 48.5504 24.4629 67.403550298
14.1225 47.8712 18.6977 34.1837244127
14.3084 45.2045 24.7422 85.6716301929
24.1155 41.2376 18.0251 26.4575917534
22.5201 45.2342 18.4836 27.5799829565
20.1 46.2487 17.7616 27.5033226895
21.2687 49.04 17.5141 31.5114209955
18.7777 44.0829 17.189 33.4824774257
17.2649 37.6982 35.8487 90.8777347053
13.9557 41.9968 35.5658 83.029684524
12.1501 45.8956 40.01 31.6697610569
20.8115 38.9912 36.1474 52.2237937528
22.9664 41.1737 35.891 84.9871672035
19.8284 46.2878 42.3758 27.3116279022
17.8766 40.231 39.1275 28.4111751307
18.3979 40.1419 36.2389 56.1249530548
15.7331 44.1349 35.4571 87.064747841
18.3801 43.2185 35.9429 65.6203319485
21.1346 44.8476 35.6426 90.6103733816
17.2798 42.959 38.8936 28.3284195366
20.0805 38.304 38.7709 30.0794499632
14.9147 39.3837 36.4205 37.8123968586
19.3595 45.1491 38.3856 27.3081585441
18.2312 46.6308 35.5095 89.4979622065
16.4054 46.1438 37.8858 26.9250968856
17.792 37.7817 42.8397 29.9677908405
24.0406 44.0364 36.1241 41.3708376903
21.2588 47.7952 36.1455 44.7068120837
22.972 45.8875 42.3865 28.1464976165
14.6145 43.2384 42.1026 24.903849626
14.3517 40.5108 41.3106 27.4737588808
24.6301 44.0689 39.0428 33.8296947655
13.005 48.7631 40.4038 31.0966044188
24.5133 47.0435 38.5675 29.586890955
22.2834 40.8766 39.0001 33.7223933044
13.6924 46.2882 36.1492 75.0157146587
14.7817 43.9472 39.5425 27.3497868617
15.2901 38.9142 39.3359 27.9694699498
19.5356 40.2207 41.4407 27.8470131557
19.0271 43.6582 41.0731 25.9590417213
21.9804 44.427 40.114 30.2267087207
24.0863 47.1211 35.8429 58.6532581231
22.325 47.7677 40.3076 28.8149739553
17.2974 41.7474 42.5034 26.9620837653
16.8771 45.8117 40.7715 28.9682184796
22.3318 37.2225 40.5198 30.7397919916
22.0448 41.4298 41.5138 25.3836708425
19.7691 47.8312 38.8775 26.7902869009
13.2503 37.4292 36.0394 67.075220661
15.5161 48.7902 38.7861 28.3608624793
18.5531 48.9131 41.5738 29.3880662097
13.8382 48.1768 43.0257 26.1416381109
12.9026 42.0626 38.2828 32.6166434893
12.6339 38.5097 38.7102 27.4127173815
12.9825 41.8284 49.9007 28.6909487599
21.7788 39.6666 43.9695 29.5117237214
21.4474 38.2184 47.8432 29.1272799273
15.6181 46.6851 55.0454 27.9635645772
12.55 40.9636 45.1928 28.0116519914
22.6247 38.8836 54.3159 30.6481132493
23.9971 40.858 44.932 27.0760963848
21.5871 43.634 43.5345 29.1597956089
15.0588 38.9235 43.4739 27.0741220615
13.003 38.8953 48.3648 28.7941340116
12.9044 39.4963 53.0028 30.8101100855
22.169 47.6741 53.3337 32.5568087835
19.6621 41.5244 44.7053 30.1896484485
16.4497 40.9959 45.2078 28.9346878257
18.489 48.1836 46.2462 28.8213312376
13.3568 37.2201 51.7361 25.1266486877
15.6134 48.6453 45.3464 31.4955221348
14.4705 42.9196 45.2978 28.3975482104
23.3981 48.0534 44.6732 27.2031094741
13.2191 38.3144 45.6274 28.9060747164
22.8156 45.1704 53.2416 32.2696987551
20.6547 47.0376 44.9982 27.8292559196
13.2949 44.014 47.9329 32.3019044596
17.0922 49.058 52.5546 30.9259178494
23.7081 43.5316 55.3302 31.3336454635
18.9281 38.0052 49.6967 32.2299041153
14.0076 47.96 50.032 31.7874295465
24.4123 49.122 54.381 34.9996658562
23.7586 39.1004 51.5395 26.3439837701
15.1246 40.1437 50.2296 27.4405534546
15.4204 37.11 49.6161 30.5351022639
13.0477 45.8646 44.2383 26.9181446992
17.3781 40.0625 47.9025 28.3056370353
20.204 40.587 47.3469 30.3813825257
17.9972 45.3132 46.6432 32.2780393111
23.5968 43.2333 45.8806 29.8071325461
18.8955 43.5536 56.0631 33.1421757341
20.0001 46.958 55.2793 26.3802394203
20.2943 44.0372 53.6306 32.4443880241
16.4176 43.2473 47.9388 33.0458407199
19.7896 47.225 50.3063 32.1146349051
20.1005 45.5339 48.1482 28.3218383703
24.0127 44.2681 50.7612 29.9404746499
15.9324 40.8159 53.0747 30.9785466061
14.2824 39.2501 55.3691 30.8863475521
18.4416 44.3288 44.3534 26.5069137426
17.8851 38.5388 52.3559 28.4064496496
22.7664 41.6295 52.12 28.6672711709
16.5027 42.2631 55.4561 30.7430505657
24.0679 39.1923 47.094 27.1083460856
15.9038 37.8441 46.8527 31.3516403563
18.3362 46.5532 52.4185 29.4494209904
16.5254 44.6666 51.5151 30.7681936346
20.181 42.7559 49.0172 32.1308554145
20.1043 41.9162 51.8689 30.1946782822
17.3689 42.2646 50.5941 28.3220873096
20.0212 39.7135 53.8123 30.6752325879
15.2449 44.0893 53.8295 34.1066885413
23.2449 42.5602 48.7178 29.0544830268
22.1119 37.1493 50.3121 31.664506657
16.0043 45.5371 43.5015 30.2646610416
22.3012 45.5864 46.9628 29.3812944034
17.8934 36.8354 45.4564 31.0302015276
15.3592 36.9618 55.5524 29.2040407298
13.3715 48.7481 47.097 27.4795086413
14.1208 45.127 50.4068 29.0173025588
24.3095 46.4211 48.905 31.6941040535
14.4715 48.0481 52.7437 26.4028555182
12.773 45.7532 53.567 28.1259434215
27.4008 12.2009 15.5998 29.4330454592
28.0202 1.49309 9.38321 33.6983777619
25.7848 2.59833 9.96235 30.1962880258
32.6171 2.51783 8.8197 28.5206854406
32.2091 12.0031 10.4184 29.333428783
28.7592 4.46509 5.69049 29.5648056732
29.3742 10.5587 11.9829 31.2558724573
31.4483 1.14082 13.2197 32.568000524
26.0878 5.08251 11.0846 33.9619767514
32.3068 9.41765 4.90996 29.3864861871
29.9734 10.3449 4.17903 29.4573281994
27.9039 4.25423 14.7682 31.1246131831
33.1233 2.78738 6.1686 33.214827627
31.0307 7.40911 7.57624 27.7793783555
25.1782 5.00669 14.7589 31.8404708325
35.3061 3.55274 9.31052 31.0329586904
35.7592 2.87546 5.34256 33.901411722
28.4829 8.4747 16.4138 32.4641772998
27.6509 10.5116 6.4943 29.7847811731
29.878 3.13446 7.79497 31.9295441508
33.9378 10.2958 7.36363 31.4638488249
29.8301 3.08327 16.61 30.8719239715
33.487 5.9533 6.3917 30.6205889831
31.1976 2.19142 3.99473 28.5379414281
25.0312 9.6447 5.78038 33.3448904916
30.1303 5.27088 9.4152 28.0986599081
26.6807 1.60537 14.1919 28.9296433996
36.1293 11.6948 12.8997 29.2625287043
28.7973 1.50258 12.1499 30.0717082304
32.5053 4.9289 10.6594 27.2704143316
33.2357 3.05268 12.5571 28.1444931038
24.8175 3.27648 7.41086 29.7771930236
26.1415 5.4563 5.92442 31.9931353269
31.4315 11.762 7.59279 33.5211377616
28.4803 8.34666 8.1881 31.1540876644
27.4173 10.8568 9.66183 33.9715354551
30.9011 8.53975 10.3319 27.9568904637
28.7484 4.60137 11.8561 34.0289017455
35.3452 9.07716 12.001 29.7613161026
34.1463 6.42494 9.10573 27.3461193589
35.5543 2.18736 15.3805 29.8956694736
33.0499 10.0638 16.298 30.4155420506
26.4128 6.49843 8.67686 34.0636054616
29.755 6.61147 14.8978 32.3513568188
35.8628 7.33609 5.35387 30.2206400946
31.2707 0.780173 15.9966 31.1098087863
33.5223 9.12546 9.8537 28.3534591393
36.324 10.3443 5.17487 32.7689653809
25.3439 1.1498 6.06567 33.1026777643
34.9246 6.85694 15.301 31.2065532069
29.9258 6.86576 4.90693 30.2261891248
25.1061 9.14507 13.3506 33.1247356997
31.6089 5.10453 16.2227 31.2513318055
33.2117 11.2458 12.7632 27.4274141837
27.9226 9.8881 14.0151 33.5128376811
33.7922 4.20535 14.7944 30.9462824537
24.9281 10.4683 11.2511 30.4379194803
35.5122 1.68646 12.0217 31.6169329783
31.2554 6.98868 12.3938 30.5195340584
33.2833 8.35747 13.9076 30.2092435624
25.7924 0.488702 16.5008 31.302811914
27.6779 0.193398 4.58728 33.5525095915
35.8043 0.0965294 6.16121 32.7528304611
34.7414 5.90208 23.6368 44.5078860495
28.4058 3.19909 18.8593 31.8556631906
33.7634 1.20384 17.2254 29.7643171756
36.5439 3.59538 24.2048 97.1190478215
24.9697 9.36186 21.2744 31.5374912588
36.0273 5.78549 21.088 25.8902592743
26.4766 7.18002 17.9352 32.4348832722
27.2207 5.52163 19.9918 32.970737053
36.2631 7.95239 24.5393 82.0248255348
30.9859 9.10625 17.7221 32.1873302267
31.4954 7.54246 20.1302 35.6253614425
32.8305 5.38631 18.7984 33.1869604883
30.2677 2.26332 20.8344 32.2347913706
28.2439 11.2118 20.4386 29.7053559436
26.4646 9.88561 19.0056 27.6854182982
32.9524 2.72547 19.3604 31.8842398014
30.5461 11.6109 18.636 30.0259161911
25.3164 11.7731 17.3528 32.4968835832
35.5209 8.39878 20.3138 25.8513262263
34.7328 2.15928 23.2262 33.0905812604
26.5116 3.64359 24.2395 88.6714067517
32.8583 11.2411 22.1383 30.9429322229
34.8083 10.4055 18.4905 32.1601322145
28.8154 2.03453 23.6041 55.9458143915
31.3551 3.11188 23.5811 67.8894173834
36.9796 0.742209 20.0116 30.3469241369
35.8162 10.6895 24.8122 93.0892227079
28.8799 7.01868 21.5102 32.2450134118
27.6235 6.32066 23.9552 62.1571767167
30.583 6.38237 24.2408 94.0873102163
33.4383 8.45441 21.7389 27.6220412156
35.2263 2.98966 20.8464 29.655322998
25.8671 0.888604 20.827 33.4212139975
32.2908 0.295745 23.7819 65.6134585031
26.304 10.2861 24.2786 111.8873713639
28.6417 9.59924 22.6184 28.9046229491
25.1214 7.71765 23.914 54.6511687045
32.6122 8.15273 24.6022 101.2656459418
30.9249 10.5514 23.8502 56.1961243866
35.344 6.53308 18.0773 31.4605830494
25.8615 2.51939 18.5832 30.6064389602
26.6205 7.85548 38.3924 25.0189654867
27.0543 1.73709 38.6921 26.6673799423
26.1024 1.43645 41.4181 27.2735489599
35.7612 5.83271 38.1826 29.6549095654
30.6476 1.76077 35.6105 86.3872275314
30.1942 1.84268 38.7146 31.6535995144
34.1096 9.76768 38.6152 31.4411290381
27.5308 7.61849 35.6184 89.2517232126
29.8887 10.7519 38.7973 27.311388023
36.6973 3.7306 40.025 29.6743104434
36.6152 11.0743 38.8889 27.8051976118
27.9262 4.50995 36.0978 53.2391088175
26.7419 10.1444 35.7357 56.8153452949
32.725 12.1077 38.969 30.026639578
26.847 11.1233 38.3913 26.7789934784
30.2 8.00474 36.0536 54.3986447031
30.563 4.97504 35.9416 65.288671916
32.001 4.37408 38.5522 30.0922725398
26.1928 4.64353 42.0414 28.4940870739
33.1797 6.51387 35.9856 60.8701078105
34.0293 3.81726 41.1162 30.1199560528
33.4061 6.98966 39.0911 29.263113512
29.2386 8.21678 38.6605 26.9044745065
29.9247 11.0582 35.9944 64.1428463553
32.2073 1.67192 40.5969 31.7318030807
25.0899 5.9621 36.375 58.2608683802
32.4579 12.0938 36.0304 51.9425087642
35.1328 4.43089 35.9572 72.0684136141
33.6891 9.22927 35.7146 85.7064220933
30.776 8.37969 41.2568 27.7590897287
26.7356 1.84614 35.7887 74.5236020586
35.3281 9.66872 42.7065 29.4917332109
35.6451 2.33617 42.9818 30.2024970728
33.3892 7.8288 41.8365 27.0979579141
29.8005 6.11251 42.0159 28.9119423423
25.4766 7.85674 41.0691 31.6856141619
35.0697 12.0506 41.1624 27.201127289
33.5572 1.91337 35.6772 87.9678334607
29.5255 5.23168 39.3047 29.0825496017
29.375 11.481 41.4655 29.5077208295
26.8648 4.91423 38.8622 28.0405612701
30.4988 2.24635 42.915 33.1874583497
31.6467 11.932 42.9315 30.1544317213
33.1044 11.1726 53.3637 30.726386973
35.2893 1.13279 51.6116 29.5213783304
31.021 4.81874 55.3137 31.0965283449
25.9264 8.25647 56.004 31.50880779
33.8256 11.4176 47.8841 27.7533664366
31.3844 0.271768 44.5108 28.8846364518
31.1403 0.718998 47.2063 30.9332798699
27.8244 4.65212 45.2812 30.5419846825
31.3132 3.60913 48.0515 32.9805850597
30.4819 5.46664 46.36 29.4309454833
31.128 4.84727 43.7765 29.3834530327
35.8102 5.17649 44.817 31.6078058624
26.338 10.9512 43.6343 26.3856282409
28.5358 8.41936 55.5296 28.5355974805
25.1224 7.94855 47.9561 26.2340951114
32.1729 9.26699 44.0851 27.3980698137
35.1632 7.50213 46.452 30.5750578609
35.4064 6.27215 54.6986 30.0812319272
34.2049 10.0108 45.7507 25.8485602853
28.1351 6.15718 48.5104 30.9561676083
27.6051 2.13549 43.5017 28.2390998449
32.1078 0.975912 54.6226 28.8079448344
33.844 11.4765 56.1153 32.273388375
33.927 0.170117 43.798 32.822328797
35.7391 11.4309 49.9478 27.9019717665
35.258 1.20618 47.1477 37.094969769
26.615 0.223574 50.7969 32.4537409697
25.5713 2.0334 52.7708 30.9195850434
26.2924 9.47434 51.4455 28.3390737712
29.7484 7.77386 52.7972 33.7520101097
29.8899 3.79639 51.9102 31.9417554584
33.3261 6.73777 48.1575 32.776645533
31.6437 8.12973 46.6612 28.4096038534
32.4304 4.88125 52.827 26.2249219269
33.2915 4.29548 50.0595 29.5331903346
29.1423 10.0721 46.4221 29.7045597658
32.4495 7.90914 53.2205 32.0218884815
28.7887 8.87366 50.0445 31.1559541788
34.1307 2.60037 53.5976 29.5581014813
26.9734 10.104 47.8833 26.6800402103
28.546 11.9529 50.919 26.8726448831
33.0804 9.48219 50.9853 31.6300445257
35.8172 3.59699 55.2954 32.1622549728
30.5674 12.0215 53.0149 29.5577753474
28.9387 9.51526 43.6359 26.969587572
26.559 3.70396 54.5795 31.3411275588
25.1183 5.50749 55.9489 33.2469217661
25.7174 5.42809 47.0465 26.9073471816
30.8289 0.932625 52.4182 29.2026605258
32.5941 1.38311 50.2427 28.9713377066
28.1812 5.33038 53.229 30.2599417589
35.983 3.06626 49.5911 30.5169311642
35.0222 8.00064 49.8406 32.0664473053
28.8928 3.87277 49.3559 29.369810206
35.0466 5.96423 52.1025 27.8954910105
27.8974 11.0163 54.186 27.8142509668
36.0455 11.7865 44.6237 28.9882809818
26.9582 2.16883 48.6673 26.5380774899
31.3888 10.4223 48.6756 29.1671455162
25.2103 9.92404 53.9405 28.2335498863
25.3074 8.51767 44.9827 27.9704165212
26.5048 6.65472 51.0042 31.0291495102
25.9838 2.31202 45.9573 26.6891885641
28.548 2.63379 56.3963 30.1051884379
33.1283 6.72849 56.1882 29.2388038057
33.6049 5.64357 43.3234 29.1269707392
27.4373 7.20523 43.3067 28.87921883
27.0881 17.5361 10.4257 31.763208492
26.2355 20.1553 7.93362 30.7793350165
30.6006 22.6983 14.4519 29.0080113025
29.9269 18.2475 6.17228 29.7178658419
34.9411 17.7496 7.17128 28.9428123248
27.9051 18.5573 3.76289 29.3175285387
28.6781 19.2304 8.67205 28.109225297
30.0526 22.6629 8.5261 31.0271713283
31.213 20.7363 6.75376 31.0099605579
33.2006 17.3644 9.60682 28.0419220232
33.9909 20.2431 6.82436 29.1516727146
34.4767 16.3315 4.93844 29.728781792
29.1762 13.8322 5.35458 26.7839644026
25.0586 13.3984 11.755 28.7004126429
32.5198 24.3218 15.9902 30.0938803423
26.1682 22.3703 6.32535 28.8258544765
27.2703 16.2794 5.88823 31.1109897932
34.3211 22.8899 9.07774 32.0452415538
24.7219 16.4567 4.48958 29.2807154778
33.8268 20.7176 4.09914 31.5512573078
34.0809 18.1213 15.9533 29.1590899279
29.4658 13.5143 16.7095 27.6846205701
27.3146 23.0684 9.09175 25.1708232793
31.1838 14.9422 13.2426 27.3456580266
34.0436 12.8555 16.2297 31.4607569423
28.0308 23.4962 11.9424 30.1900334223
33.5618 16.0888 12.3862 29.988664317
27.0114 20.1438 11.8309 28.7210117411
25.9727 15.0272 15.8621 33.4895727012
25.9747 16.3222 8.29559 27.3722686845
29.0931 16.5918 12.036 25.7351786759
29.4415 20.8089 11.0167 27.6124853108
33.7482 20.2313 10.0519 31.0226190796
31.3167 18.2412 11.67 27.5243569394
35.5401 16.6031 14.3643 31.9244904622
35.6272 22.6259 6.37637 33.1778183229
35.2722 13.5664 4.89221 28.1756780015
34.9556 22.5923 16.3247 31.2184018102
32.0211 21.5637 12.1409 28.0498641999
27.3665 19.5007 14.5154 30.5280515544
34.6062 15.066 8.88845 28.7429732482
27.5078 13.5284 12.9951 31.4133228117
31.5831 16.1361 5.00465 28.9758901518
27.8686 16.732 14.538 30.8759193591
28.1747 23.7816 15.1691 27.5853814541
36.8125 12.7911 15.4178 29.2013953505
28.9356 14.9567 9.44634 27.8990784498
29.8987 13.2375 11.4555 25.7641855504
30.4672 16.3869 15.6848 29.2795911447
35.6426 19.9787 12.0945 33.0995015076
25.7333 21.5015 15.5846 26.7205090429
31.5848 24.0786 5.80483 31.4348755511
26.0435 20.3587 4.29226 31.3598328338
29.6467 20.2504 15.5436 30.3733646894
31.4827 18.6209 14.4505 26.6362004352
27.2289 12.5234 4.02298 28.8322999986
33.9582 20.5367 14.3311 32.463086322
34.7605 13.8925 11.4706 28.9294380819
30.7283 16.6472 8.42219 28.5083978537
32.0249 14.3216 7.14732 29.0354416082
27.6894 13.1855 7.77719 28.7233361096
24.9512 13.7116 9.12309 33.1276300466
36.6872 15.2795 16.6965 30.834773816
25.1212 23.4513 12.7237 27.6663866007
36.3888 24.1658 10.4574 28.6789392629
35.0624 12.8279 7.36842 28.0089030842
31.7131 12.5933 14.844 31.2552034696
32.275 24.3428 11.9274 28.9659433703
31.0443 21.812 4.0369 34.2092615241
27.7547 16.0962 21.3739 26.8927373043
27.1453 22.987 17.658 32.0252465366
27.2474 18.8487 21.2679 27.5331796557
30.3984 15.3062 21.9973 30.1342055699
34.3176 14.8871 18.4307 28.6172083116
33.6452 12.5479 24.4541 68.896376023
35.8041 19.9914 17.0176 33.1634950173
30.2275 18.9172 17.9384 29.9987192377
32.59 17.142 18.3438 26.6226559702
26.7129 13.1852 21.0776 26.7249434379
35.7724 19.7611 19.8182 30.294351063
33.5751 23.709 24.4931 101.3037598722
28.4229 21.8495 20.2083 27.9973597859
32.8225 12.5161 19.677 30.0629169217
36.0478 22.179 24.0169 52.4280222183
27.7076 18.0428 18.5713 32.1303591314
28.3318 12.7234 23.6298 42.5684258079
30.9687 13.6305 24.1345 72.6469462643
32.4753 17.6093 24.3947 86.346598007
33.1406 16.5356 21.8931 30.1146296923
26.7376 22.7437 22.2386 28.0681513867
25.2745 20.7569 19.8274 28.6143456726
27.8015 15.3889 24.292 90.4096089274
32.3167 20.092 22.8825 28.9630527185
29.6682 17.7762 24.2415 74.4173005173
31.2651 20.9579 19.5186 32.9561934124
29.4486 19.9774 22.4075 27.0050627933
33.2249 18.9721 20.3802 28.171945092
36.1793 22.0266 21.1214 29.3484782118
34.9658 19.9105 24.5325 109.1034127799
26.0083 21.1573 24.8641 119.5243368882
34.6936 15.111 24.3059 70.2220979962
28.7021 21.3951 24.5074 77.3350164634
34.6288 23.8655 18.9741 32.0610927617
30.9136 22.9203 24.0951 52.9859077077
33.4474 22.7195 21.8033 27.1374877675
27.9407 15.2085 18.4203 26.2550765641
25.2054 19.0062 23.5751 35.1855840374
31.6829 23.7982 18.7868 31.9637049284
25.5216 14.4452 18.8756 26.8309368614
31.0421 15.0617 19.2371 29.6147041226
35.679 15.1832 20.727 30.7131108982
25.2224 19.6925 17.5596 31.1515636978
25.066 16.0164 24.0454 66.2260803036
36.532 12.7008 22.7207 31.7203631396
24.7191 24.0742 19.0404 29.0342101961
29.5265 24.2899 21.4171 27.9911207726
29.3067 17.832 35.7756 100.0744141932
27.2755 13.9026 38.4728 27.8071212624
32.7451 22.9474 43.0237 30.6630816158
30.1585 15.2147 36.3531 41.6307020258
25.9929 18.1314 38.4853 28.8155225144
34.084 16.517 37.4836 29.9895539557
25.6616 15.9792 41.3428 25.8911075836
27.3431 19.7516 35.4744 108.7092335469
29.1695 18.6513 38.7421 27.3005681543
25.2336 24.2908 35.9477 81.3807391922
32.8949 14.6215 35.5235 109.5719630892
32.3175 20.8786 36.5869 61.8792280648
31.8029 18.3532 37.4709 33.297870619
36.32 18.1105 36.5753 43.742143185
35.7118 14.2804 35.544 83.5375281263
33.0328 15.4083 40.0129 27.866138925
34.5644 21.8383 41.397 27.3344655738
26.7258 22.3235 37.431 31.5834580517
29.0512 21.4182 38.8721 25.7128861507
29.9295 21.9787 36.1181 64.202531368
34.7951 22.1753 36.4147 47.2237772941
32.2784 21.702 39.178 30.0441666489
34.897 23.4429 38.985 28.7817975725
30.2011 23.5651 41.5937 31.7961342839
25.084 15.3177 38.1821 26.073329669
28.9116 16.1801 41.0943 27.8827614601
35.8628 19.5899 41.603 29.4058342862
30.2257 14.7898 39.1889 31.5700393481
27.9373 21.5988 41.4738 29.3080182275
32.9844 14.2131 42.6446 28.4564997474
27.7355 13.1677 35.7717 83.8861130387
24.9062 18.354 35.9184 58.0240615386
36.9145 20.7429 35.6814 111.4305863574
31.4467 19.2088 40.4633 29.948591945
33.657 17.83 41.3125 31.1915424246
24.8809 12.9516 35.6792 57.1004466292
26.3983 12.9559 41.2003 27.4990825382
27.213 18.6819 41.3911 30.1225938783
29.9025 18.4191 42.8552 28.9176122347
30.2226 24.33 38.7261 28.512061741
35.3814 13.9865 38.8035 28.7330899461
36.6408 23.659 42.0636 27.868963664
25.1778 22.3011 41.0683 29.8896685138
24.4974 20.7843 38.5855 29.4526934673
28.422 14.1778 43.0517 27.4719065943
30.2875 20.4231 44.9248 29.3535014717
25.9778 15.5105 44.1568 25.1526550756
36.4603 12.5105 54.4385 32.4328709173
30.428 13.2159 49.1515 28.2075662334
28.7668 22.8997 50.4493 32.1758026563
33.6807 23.4726 55.0687 30.0025823045
31.2691 24.2765 45.2211 28.7707457131
28.3416 15.8646 48.799 28.1770084525
27.34 17.7415 44.9332 29.4236327011
30.6536 14.8621 46.6445 30.1006132069
32.2646 17.5775 45.9596 29.2651107385
34.4855 17.5659 49.674 30.3059453054
31.0281 13.173 55.668 34.8248047166
30.2876 18.2787 50.3979 27.5022945971
34.7853 13.0504 52.2018 29.2553634749
29.8222 12.6261 45.0357 28.8117210621
29.2676 17.9742 47.0108 28.1275993792
28.8247 21.015 48.0761 28.1600778827
34.8862 22.0244 48.718 32.1271953407
32.3141 21.2953 47.8392 31.3894776352
34.233 18.9444 54.5603 25.7349166449
26.879 14.5078 54.4961 27.5357014695
26.7936 12.7962 45.6324 26.3157156012
33.4741 14.0082 47.2401 28.6196228833
29.324 15.6971 55.1753 28.8466847548
25.9897 15.7976 47.1098 26.4694413006
28.5179 22.3576 44.2672 33.8021764369
36.0533 21.7715 54.7401 29.9046539779
31.2299 16.5488 52.2432 28.838380994
25.3726 17.9922 48.4298 26.1732094264
25.5588 22.1526 54.7762 32.3032066423
26.0563 20.1071 44.2502 29.4689280944
34.2633 14.76 49.6568 28.4000243404
30.1461 19.7686 54.6106 27.2825631131
28.2101 17.639 53.1648 26.430784365
31.6719 13.9755 51.3299 30.457713923
26.8455 16.2343 51.2089 28.0351549577
34.1308 16.676 52.5534 30.1799179728
32.2617 18.7434 48.4723 28.8439204531
34.5061 19.6365 51.6666 29.2897090964
27.6303 19.1549 49.9915 26.1875065697
31.8729 20.0344 52.3308 27.8721850877
30.4291 24.0825 47.758 28.3509731773
28.2339 23.064 54.4333 33.3224756821
36.6955 13.9689 48.3557 27.1832816254
34.1778 18.4821 44.1688 29.7787662696
32.1958 22.7826 52.7161 30.3314263705
25.6363 17.2169 54.7726 27.7116538726
36.5134 15.5295 53.7299 30.7407172012
36.1345 17.2986 55.958 29.2171280163
31.3119 15.8791 43.8537 28.8126652509
35.1192 22.7671 51.7097 28.8661159925
34.7504 14.4845 44.9109 31.1984029296
25.7459 20.3444 52.505 30.3902189779
33.0734 20.9835 44.9808 29.3615294083
26.5315 13.392 52.138 28.1704500905
26.611 21.4089 46.614 28.2697445235
28.6639 20.8924 52.3659 26.2659218302
31.8251 17.5991 54.9165 29.0725468367
35.431 23.1096 44.7491 27.3200230039
36.333 16.766 44.4084 30.8471304291
27.4417 24.317 48.2887 27.8910122963
24.669 20.5684 48.6768 30.4617602964
27.0804 12.9378 48.5217 27.0839604815
25.7125 24.3438 46.0148 31.0168253584
30.452 31.7684 7.27128 32.3150486525
26.5987 25.3872 7.62877 28.4488755526
27.1865 27.6579 5.24516 27.9509911999
29.4549 25.4715 4.32914 28.6927845252
25.2264 35.3538 9.32908 30.0733612851
36.8291 26.3881 15.4887 32.237860823
29.8561 25.8275 12.1796 28.4646610437
25.3366 34.8042 15.0217 26.8138169451
25.3758 31.9802 4.21942 26.0543310543
30.0588 31.9937 4.34192 28.746324077
35.9479 28.8006 4.54921 28.0125259586
35.4405 30.927 6.52007 28.6177472088
32.6052 34.6174 5.01517 35.9342471608
33.4903 31.6775 14.9717 32.0158368824
36.5756 26.7075 6.03939 29.9875630785
36.7745 33.4797 6.61444 30.5844363888
30.3158 26.2805 14.8297 27.5521500768
25.3266 29.6279 5.73723 26.1057101303
30.1164 33.798 15.9471 27.5530164657
31.954 36.0157 9.06116 31.8775296259
27.067 28.6001 15.2749 29.6107172638
27.3491 32.0561 7.17415 28.1290563532
36.1408 27.3198 8.86159 29.3273169531
30.1373 27.4033 6.65902 28.7413510107
26.096 29.4315 8.58346 28.5652064426
26.5226 27.8384 11.6764 27.5407126169
28.7961 29.6858 8.4136 31.6532754541
29.7369 35.7903 12.4699 30.2379514689
29.0219 28.0261 10.9513 25.6601475232
27.5388 32.3464 12.1428 29.9224949566
32.8624 30.2802 7.059 28.9609049794
32.8716 27.5555 8.28521 30.6271581553
34.1138 35.9736 13.2145 31.481450065
36.7318 36.1212 15.5551 27.4207086041
34.2966 31.17 9.85155 29.7576275283
30.5066 32.6752 11.5221 30.531465555
33.0876 29.1808 13.6595 32.9657448487
32.1336 24.7142 9.11319 28.8164252051
25.0835 26.381 9.88651 28.42714504
27.5764 33.8757 9.59111 30.366048661
32.1649 33.0816 9.27035 30.9781787778
31.8744 33.8123 13.8685 31.5040910598
35.9363 32.7669 11.1889 36.6360208425
35.8774 33.6545 13.9873 32.943374353
34.1517 34.6778 7.38246 30.5680039379
33.0514 29.694 4.17489 27.5342019839
29.3617 25.8674 8.8925 29.056903022
30.2609 28.9818 14.9927 26.926098498
33.7271 26.542 14.9329 27.3590031636
30.125 30.0457 12.29 27.8903502616
35.0786 24.844 4.6013 31.080772189
26.0822 26.1378 14.0788 31.2093909132
26.9093 36.0863 5.68351 30.1276387788
27.769 33.3842 4.7896 31.295842741
26.9643 24.4444 4.37811 27.6721822656
28.4781 31.3951 14.9117 31.3535094022
32.6454 29.1213 10.8034 29.702386824
27.1401 35.0205 12.752 30.5239945501
34.9823 27.726 11.2271 30.0645039612
34.7977 25.2145 12.5472 30.5906531366
32.7083 26.6168 5.22581 29.5705908574
24.7562 32.3214 16.2288 28.444642111
25.5898 30.3611 11.6006 28.4772479734
24.6179 30.2222 14.2837 28.6785423998
29.1561 36.0395 9.76546 28.2329336963
28.7089 29.5579 3.63898 30.5790622017
28.7093 24.773 24.2651 63.1328258267
31.1806 35.9106 16.9317 29.5249629843
32.7846 35.9182 21.368 28.2780492996
25.8568 25.5085 21.5064 28.4418142068
34.5571 26.7397 19.2973 30.57954811
34.7842 30.6989 19.7199 28.703734027
26.5155 29.4435 19.8314 29.4239173155
28.5465 32.9946 18.6711 28.2027600334
31.1043 31.3066 21.059 29.2385486876
31.5082 32.2352 18.1471 30.3251918439
26.8535 35.5031 21.787 28.8158711609
26.884 31.0748 17.4693 30.2653472469
29.1986 25.483 17.3239 33.4214161202
26.2545 26.8248 24.3347 70.4631550256
27.0347 27.3178 17.7616 30.1654365441
24.532 35.3033 18.6061 28.8895797897
33.4957 34.4466 18.3489 27.5255831653
32.9389 26.4439 24.1612 60.6661575518
24.7832 32.3527 24.3165 85.3049276612
34.2507 28.8525 24.2038 97.7799929194
32.4956 25.1938 21.3386 29.7036477264
28.3779 26.624 20.545 32.430218264
32.0336 30.6614 23.5572 51.2578891517
33.6108 33.1592 23.6669 58.4826988996
33.7823 28.7283 21.3546 29.481583377
26.4602 32.761 21.0812 30.2657367071
30.1166 27.1659 24.5444 90.5499398395
28.5378 29.7962 21.5221 30.0282381648
27.9213 29.2137 24.4829 91.0840744382
29.6042 33.723 24.4149 104.1308412132
32.8299 35.8803 24.2101 84.4731819033
34.2717 28.1636 17.0099 27.4688513502
30.8232 33.8204 21.994 27.1907596572
27.6266 31.9281 23.6354 34.7926828378
27.1225 34.8454 16.9588 29.2386231142
34.4591 33.1263 20.7878 28.0414974426
31.0004 28.1049 21.9104 30.2766721612
28.0836 36.2007 24.4134 85.8125141495
36.2791 33.7532 23.3713 31.1052469698
29.0634 35.3656 20.2665 28.7531133424
35.8835 30.4139 17.04 29.4304547769
36.8553 34.9758 20.6632 28.5656897116
35.2018 33.2644 16.966 25.7673337357
31.8556 29.5979 16.984 38.2523647624
27.6406 25.942 35.9557 61.2542943357
27.8584 25.9722 38.478 30.5310820767
25.5989 35.1912 36.0012 65.8362481524
32.6115 26.3272 36.0324 55.7614760892
32.654 25.888 38.8132 33.5171243498
29.7781 30.9947 42.6714 28.5577185851
36.3424 32.5693 38.3299 27.6682387256
28.2465 28.7399 35.4848 109.0348146497
30.6829 30.164 35.8735 79.0994698791
33.3355 28.9856 36.0781 58.8559358
35.7382 29.6198 38.6786 29.7658055581
35.9518 29.5869 35.7281 79.0902316288
33.426 33.9149 42.5095 30.1352809499
25.7472 35.1682 38.8234 29.1854204603
26.0665 32.1896 35.9846 72.5352225846
30.8609 34.7708 38.6868 25.915591419
28.9788 32.5398 36.0995 65.5498327264
28.8235 33.0733 39.1644 30.3838284886
30.8626 35.0925 35.8834 68.0328288093
36.2778 32.7101 35.6096 91.9732536927
35.8685 32.8024 41.4294 29.5269781025
25.9429 29.5396 36.5216 34.0944388418
33.5942 33.9432 38.5996 28.548344834
30.0044 30.2789 38.6541 27.8611472863
35.0871 25.0099 35.6754 104.918626739
27.2509 27.5325 42.3714 28.3614847775
27.1584 30.576 42.8568 32.1911760675
28.2439 36.6191 39.3991 31.8962515707
25.5824 24.7074 39.921 30.2617923584
36.8081 27.1663 39.8016 31.0510101262
35.1343 25.8148 41.0524 28.175685263
36.736 35.5642 40.7166 30.2173358265
30.493 28.719 41.3896 26.7986373203
33.686 33.9843 35.7827 74.792966937
27.7649 28.4381 39.3898 29.573658414
32.4927 28.7022 38.7014 28.6716721438
31.8574 31.8624 40.1336 26.9401507844
25.1095 31.3984 41.0851 29.600596687
33.1162 28.24 42.3102 30.4586453042
34.0703 30.3468 40.7857 29.7453255972
26.6583 33.6141 41.0625 30.8172587012
25.2339 29.52 39.1492 26.8872438442
24.8229 26.1716 41.9917 30.2159958926
30.5094 33.5838 41.9146 28.7004101768
29.6256 26.3512 42.3639 32.2433500875
34.2403 36.4178 41.8225 31.496228064
30.3588 24.7665 35.6752 98.569692052
34.2366 36.6986 35.4676 96.7099767302
34.2396 36.5294 38.6939 28.8709909777
29.5477 36.3096 43.1578 28.5916647436
36.1731 35.3865 55.0432 29.2657702828
29.1728 31.349 49.3322 29.4339879372
35.0634 34.1473 46.7017 30.7239433112
26.4783 27.0303 44.8997 31.6760897926
35.0644 32.7714 49.2325 28.8479405727
32.0438 35.9215 49.1257 30.8261488763
28.8863 27.5886 46.7694 29.8989381815
30.6566 24.5399 51.5135 25.7382257448
24.9452 35.0389 55.8166 29.7047623799
29.1587 25.6686 54.0648 29.4257742893
29.153 30.3704 46.6694 30.2939905015
31.2077 31.2436 44.9642 30.7691500192
35.5859 30.6957 47.193 29.3902065035
32.8571 29.1359 45.4265 27.227006104
26.1686 36.7872 50.6269 32.6593493623
26.5303 35.1081 43.4722 31.455638494
31.1821 35.8066 45.6946 30.5342668748
29.385 27.4459 51.0349 26.3719661091
28.5993 32.0891 53.9641 31.8799700322
34.5447 33.8063 51.9729 30.6751341003
31.2786 32.6108 53.6191 31.9924127755
29.5296 34.1761 50.2704 29.2569618112
30.9882 27.1883 49.0783 30.4428520998
27.2566 27.0134 49.1995 27.2867263891
27.7065 36.8563 47.6026 27.2328021813
33.64 25.837 53.3108 30.8929192926
32.8223 32.3061 55.9101 29.4929297625
26.5242 35.9886 53.7199 32.3994608179
35.5263 25.6993 51.2449 30.8123730008
27.0682 29.7689 53.828 29.5505485428
26.3152 29.7567 45.334 28.7152088235
24.8432 28.2706 48.0058 29.1400581223
33.8275 28.7079 47.902 29.6923329719
32.5719 30.0751 52.4343 35.7386469692
35.9791 27.9483 49.2626 28.7123134464
34.9111 28.2174 54.5368 28.6207924279
27.0417 32.6892 46.8208 32.2399520371
30.5868 36.345 56.3815 33.9257556613
32.1347 32.9995 48.2003 33.0285059629
28.2041 34.8749 45.6781 31.3331032585
35.4505 26.7187 43.8341 30.2746406034
35.569 32.8748 54.6787 31.0371902482
32.8513 33.6274 45.0838 29.1704545334
24.8626 29.8267 50.545 27.9198249918
35.079 30.5193 52.9496 28.6961355174
25.3212 32.2525 52.0207 28.2729059846
25.2137 24.833 50.3005 31.9961048565
31.4071 27.3979 53.2524 27.9534261229
35.7898 36.464 51.9114 31.2040775989
31.8012 34.8092 52.0406 32.0052892306
26.6125 26.9257 52.9877 30.6765820443
35.4904 29.7133 44.3964 35.929126509
25.5791 26.2455 55.418 27.4013763173
27.7188 29.6461 50.9913 28.7252672811
36.7039 35.6626 49.3641 27.38725825
27.3965 33.9033 52.4388 28.0773303306
31.6703 30.3057 49.4363 31.8395292903
35.1391 24.9685 48.1962 31.3718180031
33.8762 25.3822 45.7347 29.1769477813
32.4707 24.7681 49.4013 29.2131330404
26.7886 33.9391 49.3377 28.1787506443
31.0078 27.0721 44.7398 29.8260055154
31.8433 37.0063 54.145 33.4553392301
36.78 30.3462 50.7102 28.5400027895
24.7603 36.4396 46.8426 31.3617270726
30.9403 28.0949 55.8254 27.8971655888
36.0747 48.6699 13.828 28.7075036965
27.5171 38.4587 15.1504 28.0921186305
31.1218 46.1894 4.23022 31.6149884615
30.5476 41.9067 4.9484 28.9516287334
32.2091 48.856 9.48405 31.0770763203
26.162 40.523 9.27241 30.5268419016
30.0397 38.6392 5.35904 25.9414994642
24.9405 47.3498 6.69609 31.9733906168
33.2199 46.4155 16.0606 31.2104843397
27.7447 38.2652 10.3226 27.438149755
26.3121 38.1118 12.6483 30.6423332987
27.2388 44.7781 7.1626 34.570503212
36.4289 41.913 12.135 28.8801098516
29.2153 41.1514 7.7482 34.4815083745
35.6124 37.1267 8.0995 28.9033276694
28.863 44.5492 4.40999 32.4620797576
33.3373 37.389 15.3142 27.4278556845
35.4326 47.183 4.16096 31.7065449911
30.4207 47.263 8.11398 31.6597588415
32.4349 44.1634 5.61773 28.3212045176
32.4793 47.7055 12.1027 32.7238775681
34.9726 44.8108 5.349 28.0357786788
25.0436 43.4791 6.68584 29.7127251059
34.751 43.9784 11.5288 29.3444432366
27.8964 42.8997 9.71774 30.4944771163
31.6961 40.2812 9.09653 28.2819874145
25.5822 41.0439 5.42945 32.7892633019
28.1887 37.9848 7.27451 28.9803805347
30.2305 39.1342 11.4523 30.941132635
26.1637 46.4481 9.32369 30.2398870302
29.9076 46.3125 12.3055 32.5894159696
35.0128 39.2648 11.9807 26.2505346529
30.4102 43.8408 10.5521 31.6629937093
32.3517 42.5365 11.8676 31.1324176471
33.6202 41.9037 7.62001 30.8154085481
30.0061 38.186 14.9009 28.1970886881
33.2229 40.676 5.08341 33.4927377128
31.9564 38.2931 7.10321 27.2625759882
27.1008 48.1174 12.8773 30.6128885939
28.7096 47.7595 10.1821 27.7582457026
32.045 44.8207 8.25681 31.4163626547
25.0821 44.3124 14.226 29.3037344893
36.3531 43.6492 7.30083 29.5266021338
34.5989 45.3171 8.9549 30.3615324235
36.2661 46.8938 16.2333 27.6945200889
33.22 43.6256 14.8905 31.0336520907
30.8439 40.9534 13.5807 29.473876596
33.4583 39.666 14.1087 27.4568535967
24.9518 45.3785 16.6917 29.9234248744
34.5994 41.4506 16.1222 28.8411818721
34.8444 39.6427 9.13994 29.2799811247
26.9612 41.1466 15.6746 29.2468032568
25.4996 38.9008 7.02606 30.2347074349
26.7117 44.4619 11.5303 29.3832907555
34.4012 46.1833 13.3497 26.7973682972
28.4914 42.9435 13.9918 33.970908686
30.1968 48.3992 5.65809 36.7229602593
27.9639 45.7616 14.4518 27.5787710307
30.1701 47.0027 16.6933 32.2348557669
34.7893 48.1657 8.52411 32.8689454652
30.5605 44.0993 15.9078 33.0494768286
24.5574 47.8659 11.5789 30.4887741832
34.023 37.4732 5.5174 30.3866396871
32.6473 37.7245 11.2082 29.0598646075
36.6578 48.138 10.6077 29.1877404982
35.5806 41.0947 18.9298 26.5839891592
26.9374 39.8676 19.5749 26.864680575
26.5076 37.6591 17.7108 26.6268969532
25.751 48.0741 24.4104 89.43189546
33.2159 39.4451 20.6489 30.4124963031
35.3907 37.2122 20.9153 24.9066340324
26.9615 42.1222 18.0973 27.2354118343
35.3516 44.2362 24.0369 59.9863119308
29.5354 45.5265 21.3696 31.3136933159
36.297 39.9553 22.006 27.5091606648
33.2977 39.452 17.8429 27.7032447763
30.6912 38.0065 21.2411 27.9417204275
30.4137 37.6888 24.0417 69.5804667323
30.2211 42.7353 20.4384 33.7583863351
24.7376 43.2946 22.1378 31.4884232745
27.251 46.955 17.1584 31.7558601164
31.5118 47.8781 21.218 30.2155278261
33.237 46.3565 19.373 36.7417709886
34.8038 43.8426 19.9469 32.0662715026
24.6953 40.4194 21.4592 28.0160598188
