28.2045 15.7459 11.4115 32.8796528632
32.2197 2.25634 8.83082 28.804702323
35.3226 4.83378 6.66557 24.3616437381
33.9764 4.45161 9.42895 30.3317782152
36.3 2.94223 9.13613 26.5140338294
28.3123 6.01761 9.93823 31.8309153006
32.2208 6.79741 8.03131 31.031335581
29.2331 12.4981 4.25767 29.9687804208
26.2377 5.5945 7.91789 27.0093235483
26.7865 3.19053 9.9508 29.546275082
33.8583 7.28057 10.4413 33.922924672
28.9899 5.42376 5.88099 27.4891568806
25.6166 10.3801 8.17646 30.4187307712
29.4897 7.90458 8.57954 28.766643223
31.4315 11.2128 8.41597 32.2641837598
35.6636 10.8672 7.55172 30.8303139943
36.0877 8.72133 9.25341 31.0489479457
33.9059 14.0554 4.42028 33.7513362229
25.5395 14.5239 6.44928 29.8886556863
28.1714 9.6839 6.92473 28.6534483008
28.0857 10.0193 4.29477 30.6810736327
33.5257 13.4551 13.0594 28.4153089382
32.8754 9.52174 3.79589 32.3289516762
26.9127 12.7896 8.27692 30.1022291863
25.9701 1.8051 13.0641 26.9971435841
29.6411 3.93387 8.50216 27.6609682212
33.6839 15.4169 7.0979 31.5485130876
25.6033 4.53426 4.03692 29.6339714057
36.5886 4.39881 12.5406 31.5798101888
26.3022 0.492899 9.8162 30.9664232091
27.4753 6.7815 12.7033 38.1483293364
30.1605 2.4172 11.2888 30.8091643496
34.01 5.27289 12.5458 31.5008594994
35.7189 12.2514 5.08661 32.5734652677
27.898 11.6083 10.9643 33.295526603
34.0935 2.08741 6.56006 29.7139163917
29.8691 9.79371 10.3499 32.3249693766
32.3707 9.58772 11.6855 33.5128318062
34.425 11.2793 12.043 30.679693482
24.3775 12.8352 4.32252 34.1217144362
29.7038 13.5919 11.9142 29.7288384226
32.1753 14.7301 11.1896 30.5338237754
34.1277 1.28239 14.2297 31.4369212538
26.5433 12.7905 20.8959 27.8611767864
36.2251 4.14265 23.6133 36.4673911392
30.7901 10.0967 16.2477 32.4921091626
28.7679 4.81265 24.2542 74.5920609083
26.5089 5.96336 21.5843 26.387978562
25.6231 3.28824 15.8145 28.3106222253
25.8021 1.99902 21.8616 27.5088069727
27.3871 11.0976 24.1057 73.7241943421
32.079 6.048 18.4895 29.1337613229
32.6848 8.52913 17.2812 29.0548130178
25.9302 13.5182 14.9373 32.7434367359
34.2187 11.4911 16.813 30.8160418722
35.8405 6.80973 24.3676 93.2997584777
27.6822 7.82615 16.8213 33.4458593235
36.7385 15.7329 24.2746 79.8749844636
32.1637 12.6967 15.3312 29.6289103697
35.5816 15.6306 21.7523 31.3630000726
33.9981 2.14853 24.4955 96.4664882822
36.2195 13.4463 16.5451 30.5970517873
32.3246 15.5971 24.0965 73.1880204048
30.1606 1.89313 22.8019 27.9780324897
28.6277 14.2132 16.0846 30.7028231834
33.9371 12.6821 19.8597 27.5677010026
29.8969 12.1156 23.8616 64.6407110815
25.2078 15.0431 20.2566 28.0856456022
29.0332 6.62899 14.7906 30.6581422828
36.0207 10.1898 24.3876 69.1400165061
30.2935 1.20976 17.2895 29.2898878164
31.4388 3.80427 16.4304 32.3642160233
34.0596 2.94581 17.0037 30.3487368323
36.1218 6.0103 18.9036 29.5714921843
36.1401 3.79365 20.9666 28.9265756379
36.4956 8.84584 18.7478 29.1217098064
25.4885 6.7039 18.566 29.1908036324
28.9544 4.9697 21.3523 25.9948539566
34.0271 9.77437 19.6686 26.9657061987
31.7344 8.30993 21.0923 28.1523355131
26.4014 16.0091 24.1779 66.5639856765
31.3842 13.5091 19.8241 31.9650782458
33.7614 7.35534 14.6088 29.5890989402
26.3127 12.3743 17.7587 30.4156296632
32.0296 0.174494 24.0973 60.2919395895
26.8698 8.8854 22.2389 26.8920403962
28.5283 10.2177 17.7589 34.1660130675
25.9616 5.50543 24.1864 65.3861307219
33.2585 6.20875 23.5109 30.2648179788
25.5756 13.2179 23.5568 36.8757381919
31.0675 14.7968 17.2267 32.2292701608
35.4548 15.0295 18.7135 31.456037444
28.9281 12.0057 20.9786 29.8392917435
34.1758 13.6889 24.0727 55.4258236088
33.8075 2.35013 19.7613 30.4977549224
31.918 4.16697 24.0446 67.287013575
31.7592 4.40645 21.1451 27.804757196
27.3482 2.06599 24.1526 65.226950826
29.1644 9.22331 20.4193 29.2803717122
34.9541 5.61685 16.4276 27.3571204159
32.1226 11.1617 21.9223 28.6862300961
28.6743 3.90432 15.5292 26.4785469986
28.0975 2.55248 20.1146 28.8270268078
31.0196 1.4302 20.3683 27.9232906993
27.6179 4.7274 18.1789 29.07859304
36.3675 0.594606 21.4329 29.2167487774
28.8357 7.91366 24.4228 87.3723497461
31.7313 8.48492 24.1575 68.7923934551
34.0469 6.38116 20.8734 25.551595321
29.2355 6.71107 19.0441 27.1014926452
25.1701 14.9901 17.5115 27.1835049125
28.3898 1.09543 14.719 26.4195770777
25.5634 0.892784 17.4053 27.4480309699
35.6298 8.7731 22.2136 26.6282169792
35.8253 9.26838 15.4977 32.1456585906
29.4146 15.0195 23.6049 46.003368548
36.8158 1.86106 15.7979 28.3205149507
31.2599 15.712 21.2239 28.6079704923
24.7196 10.6096 21.3235 28.8607586031
35.9753 12.5779 21.7968 27.9007807062
35.3793 15.0238 14.4359 30.5517107554
29.7329 12.5601 14.2306 34.0432756358
30.0136 10.3159 35.3795 92.9577438319
33.2862 10.9869 24.5195 93.4478709772
25.3117 8.22641 24.5425 94.9581537767
28.1941 4.02833 39.2442 28.4908437038
30.0332 1.53038 39.9119 27.4563688076
28.542 4.53028 41.8216 29.4571237004
25.0699 9.62067 44.2473 29.1950090283
32.9895 14.7635 35.8776 71.527385027
36.8607 8.50962 35.906 61.9609961693
25.8421 5.44202 38.8132 29.7001755707
29.8404 14.2743 38.6507 27.0315021758
26.9231 13.6211 44.2098 28.7653347324
24.8999 10.6696 39.6934 29.0786795471
30.2386 5.30296 37.6452 30.8861275907
34.8885 9.5866 41.7473 31.4331697387
35.1116 6.257 35.5811 98.9384904493
33.5909 0.674236 41.425 29.6196649449
33.7151 2.0243 35.8431 69.5461576196
27.65 0.944912 38.7895 28.8678299049
26.419 8.53521 35.81 64.6875035316
35.286 0.0470454 43.3404 28.3733980147
28.0513 11.7412 38.5823 28.4822705819
26.7232 8.24872 39.0404 28.4694481262
32.2758 7.26431 35.5337 97.9002275648
31.3324 7.36959 38.8879 30.8180190182
33.0567 10.02 36.1134 52.5872660299
33.6545 11.5809 39.5213 29.9214622923
30.2654 11.1589 42.492 28.7345503984
30.6133 0.607839 42.1894 34.0050287194
26.703 15.7583 40.8519 26.6442538696
24.7065 13.929 36.531 36.9559965906
28.8618 14.4484 41.3178 28.2055579943
35.2926 5.50938 45.3522 28.5176603061
30.5167 13.1394 35.8904 65.3208371158
35.7045 9.41401 38.4148 25.4018040775
24.7382 12.4653 45.3489 32.2932722282
35.7115 14.3179 36.1965 50.8393643486
28.7489 2.21169 43.6362 30.253284554
30.326 11.626 45.3195 28.1550232358
27.8308 13.9509 36.0484 66.488414406
34.6656 2.82095 39.2502 26.2402685465
31.5523 2.91627 37.9756 31.3882645802
30.6947 1.34291 35.7054 90.9525251206
25.9577 4.42458 42.9838 33.2954649382
27.9909 7.43064 41.5617 34.5748587438
34.8209 5.47967 40.7371 29.8692633859
34.0302 6.99418 38.2904 31.8226161834
27.6317 11.9973 41.5192 28.1164883048
25.0493 0.582742 40.0403 27.1185191397
30.6362 8.59941 41.4933 30.4382563938
32.5136 12.3824 42.2488 30.6083038263
31.3033 11.1011 38.0463 28.474138255
33.9597 11.494 44.3821 34.0650019178
29.2525 7.38176 35.7803 64.8418320293
27.2265 11.0554 35.7533 66.259930437
29.1224 8.79199 38.2723 25.1806273027
32.5542 14.4827 38.6962 28.8282259141
25.3377 13.7252 39.2407 30.9598910434
35.802 13.3494 38.7056 29.8976266245
29.4865 14.05 45.666 27.4815849361
33.0576 3.64817 41.8541 30.5183727063
34.2854 3.05215 44.4023 30.226630968
32.6072 15.1835 42.0494 28.5653377583
27.8086 2.01253 35.9861 65.0310016409
31.0419 4.61919 43.3706 29.1997426485
31.7072 7.35531 43.5054 30.6816338876
30.6466 7.86729 45.9745 29.4861344946
34.4672 7.22541 43.1872 33.5306591538
27.2967 9.76875 43.0181 27.062303829
26.1638 1.14414 43.0224 29.9057070707
34.6214 15.9754 43.7544 27.9032707514
35.7294 3.67196 36.6482 34.2330128307
35.5925 11.3601 36.023 66.6180234178
35.9541 13.7928 44.7035 30.4418589649
30.2725 15.8762 43.5559 30.8781911484
25.3241 15.9369 43.3969 34.8394136858
28.4776 9.54594 45.5062 30.6507911954
25.7963 5.56393 45.7068 34.9102410284
27.3089 4.86858 36.0116 70.7995392476
27.706 1.25693 51.6145 33.4719863596
35.5722 10.3999 55.7407 33.8487496951
33.2049 1.37861 47.0513 34.1858817783
32.0731 8.86886 54.0193 30.953120312
25.0936 10.2739 53.2935 29.2971529601
28.9458 8.42248 50.4785 31.2381285315
29.3448 2.17853 49.0889 31.2169555752
34.437 0.750284 53.381 31.3047494422
30.6052 4.76437 48.8235 30.5456041808
33.6272 5.73902 47.3545 29.2695045569
25.4782 5.54749 49.7546 31.515730111
28.891 5.99604 46.7974 28.8643894034
27.3601 7.39751 48.7271 27.5976758046
31.7697 12.2857 55.7845 32.3427385021
32.9586 8.40538 47.8714 34.641381988
36.2318 11.6318 53.6252 31.233540331
35.5803 5.83464 54.3972 30.217063375
28.5237 14.5912 48.5317 29.0976363622
35.3002 6.27341 51.7756 32.4147153694
36.715 15.9688 54.6043 32.2461506774
32.5279 13.4858 48.2492 32.9880657331
36.6995 14.0911 47.2778 30.6934647367
31.839 1.1617 49.3811 30.53100017
24.9909 16.0273 55.7096 30.6655990281
25.4235 1.10876 47.5405 34.0277282382
31.7073 4.40277 52.5703 32.0684889057
33.4969 2.25188 51.1324 33.3889568589
31.2282 15.776 47.5461 29.4105950391
33.0124 4.73138 54.8951 26.8505937247
26.5279 3.6507 52.1869 36.6117487594
29.0128 4.91002 53.339 30.6865745282
32.3726 6.97093 52.0325 31.4615416168
34.5226 4.62754 49.7751 30.0407692853
31.8992 1.95603 55.7585 29.1491183814
28.4143 10.9853 50.7953 30.3065006732
31.1516 7.04556 49.5784 27.4609702952
30.4676 12.7754 50.2137 35.6896055529
34.9905 9.99222 49.3979 32.4280873293
26.6158 15.5363 46.6255 26.7188013961
25.2338 9.95071 56.1796 30.4253966637
26.0875 11.9746 49.6531 28.5479238315
34.8388 13.4838 49.721 35.0838315135
26.3612 7.02759 55.6207 27.6528991959
37.1677 7.92291 55.5603 31.3801089907
36.8316 11.3306 47.6961 34.2533007055
27.8399 10.9498 53.3719 28.9510592502
26.6154 15.5823 52.3142 32.960987353
34.2395 16.1565 53.3702 33.7563524677
34.4648 11.3963 51.6512 32.3700067044
34.9739 2.72468 55.6901 26.738477162
29.207 6.24525 55.9294 27.275347746
32.5163 11.0203 46.5246 31.8384322593
25.4079 0.924109 54.9639 29.4556247229
28.3321 0.366819 54.165 28.6271504627
27.6922 7.34192 52.6761 28.4336332109
35.8746 1.64772 48.6011 31.4506645731
34.6028 16.1858 50.4156 31.7579051739
24.7697 7.59222 51.8967 30.6031591202
27.8576 13.7498 54.0282 33.2215272813
32.1644 11.6776 53.0078 33.4371587613
36.9352 8.22158 50.3918 30.3021473238
27.1311 12.0013 47.0533 28.9492320257
31.9157 15.4741 55.0311 34.8265049385
29.3962 8.87638 54.5853 28.4538634324
29.1944 2.71713 55.3033 31.0287146771
26.2405 3.7991 47.7443 31.6646408193
25.8721 8.9604 47.3215 28.4818942584
30.429 14.0719 52.7917 29.5808253647
28.8017 2.9714 46.3395 29.4008960974
24.4186 14.4482 50.9211 28.9003957962
31.7427 3.95074 45.926 28.5840916491
28.6817 17.3078 8.94118 34.2196543292
27.127 20.2282 6.81735 27.4944526445
28.8433 23.9006 6.05571 29.7558459688
24.7098 18.7917 9.66511 30.955985464
31.754 31.5775 10.1789 33.0476358969
31.8689 19.4315 7.15927 31.2280237235
27.6737 18.8007 4.45767 29.8150942469
29.1076 16.2912 14.1364 31.2915176044
25.5147 16.6256 11.1843 35.3266294292
29.2782 16.7388 5.15854 32.9416631638
26.8646 27.36 11.5117 28.4057890347
35.8694 26.2678 5.85281 28.6883726136
32.2947 30.9916 13.0478 33.7325523641
27.6478 31.8153 12.0842 26.7042659198
30.8821 25.7985 6.33335 28.2593932635
24.8349 25.5854 10.0835 28.7697252347
30.337 28.5679 6.38297 33.1190075895
33.4506 27.7174 4.27196 31.7385812273
26.1383 29.4092 6.50452 29.2590348038
27.5405 26.0046 13.8903 31.0547632851
28.2169 29.749 4.71356 29.9572023002
29.4333 32.3772 4.56795 33.1185863623
28.9794 21.5006 4.43392 30.0454057438
31.8011 17.5438 11.5837 30.3915455597
36.4925 23.1047 9.17039 31.3983155466
26.0977 17.4643 7.39974 30.9014979506
29.7944 21.2241 7.48449 28.3619457616
28.9495 19.9363 9.68823 30.1168088259
33.9811 20.2425 8.81268 30.3179861134
36.1886 20.7381 7.6391 31.4242136551
35.4034 18.603 11.9956 29.7478377876
36.7984 24.237 4.10592 30.5731474917
30.1632 23.8592 8.85959 29.7362053261
27.805 24.3729 10.0146 30.1817379616
34.0169 24.313 8.99108 31.2311796855
26.7351 27.3328 8.11018 31.7670244773
29.2163 27.089 8.99921 26.6139116832
36.2745 16.3117 8.62638 31.0498918947
26.2069 24.8778 6.94941 31.1247960507
29.0043 29.3279 11.1261 27.9598398731
33.6087 26.832 10.1817 32.8245715631
31.2074 26.8686 10.9939 29.1801380493
27.2554 32.1388 8.66584 28.7405784252
30.4493 28.3854 13.4197 29.6458613284
25.4031 32.1117 6.56148 27.1603503267
29.5973 30.7259 8.55015 29.8729454334
33.1463 30.0299 6.12737 30.9578084538
32.1984 20.2596 4.4898 30.7967071539
34.5712 19.0721 3.54591 34.1199544731
34.6226 26.5045 12.7348 31.2455392769
34.7102 29.0273 8.46207 34.425015879
24.6816 31.4027 10.2282 32.1253477247
33.9708 17.6248 9.82733 28.9781155115
34.5384 21.3357 12.0584 29.9577498322
34.5364 30.9166 10.6504 31.3405760398
33.1517 22.7991 4.27502 32.7223230362
32.4882 22.642 10.6739 25.9100528098
28.8068 23.6825 12.8579 29.4897413767
26.373 21.1726 10.0657 29.4008982953
31.1005 20.4706 11.0836 29.0968009645
31.4183 24.5465 12.4797 29.7858356498
24.2128 23.0554 9.11879 28.3303586824
25.0843 21.9606 6.48604 29.2146450741
33.3435 24.7707 6.10295 31.0930538766
26.339 21.6152 12.8162 30.0389516995
35.0107 30.2737 3.87276 27.3159975228
35.5533 21.4232 4.82052 29.1596939552
31.1186 16.8151 7.2184 34.279878113
25.4278 29.6014 12.3789 29.8668891949
25.2715 23.9737 4.21406 31.5839544436
30.9045 32.9482 6.64124 30.5031931644
35.5569 16.3199 4.46361 33.7891155403
30.2298 20.9188 13.9801 29.1025482748
31.1349 26.2854 3.4832 30.9957893191
26.6177 17.2277 17.6794 27.7496295976
36.3286 18.8202 24.1176 66.5557624541
25.6027 30.8684 24.3633 95.4660636987
32.8975 17.9484 21.3834 25.3179284868
29.3274 31.2171 14.2669 32.1569364255
37.1042 23.6128 21.6433 29.7735626017
36.2138 27.8033 18.5788 31.8148261962
26.6751 23.8346 17.3474 32.0870100136
35.2997 18.4335 16.1941 31.4852273505
31.8642 22.6748 17.3116 33.2218182373
31.2951 18.2596 14.385 28.532071045
25.4063 19.2803 18.6848 29.1083333354
27.383 27.2317 18.6474 32.8812459842
29.2389 17.3971 21.0788 30.0325789906
32.0519 27.1625 16.444 31.4399059769
31.8738 28.7984 24.2947 82.1649203404
25.3337 24.705 14.7277 28.3527154268
36.1916 25.2837 17.1519 30.8780661067
26.3756 17.3535 21.7818 30.3786395038
25.5449 30.5697 15.2385 30.5700042373
26.705 17.4676 15.1199 28.7433922083
25.946 23.783 24.1433 66.6118540929
24.7915 26.2734 23.358 31.3453004842
26.6376 20.3124 21.0602 29.1247033385
36.0401 26.4538 21.5575 32.532357806
29.3733 18.2921 18.3129 32.85153296
33.6204 19.8768 19.228 30.8080088285
29.2628 22.8 15.9484 34.2472239112
27.9099 20.4942 17.5953 31.164688183
31.0389 21.957 19.7707 31.5209742244
27.0535 24.7659 19.7831 29.4659901992
35.0771 22.4145 18.488 28.6813463359
26.9295 29.8099 20.3216 28.7296008234
31.9547 29.4929 18.272 35.0454857156
33.3822 25.2596 17.8462 29.5184839528
31.6499 24.3128 21.7403 30.3581711967
32.6135 28.6171 21.1163 32.3793632515
27.5703 32.692 21.4863 32.9560185525
28.2581 29.6189 16.4087 29.4767285366
33.5667 22.0001 24.1601 66.148659858
29.2432 30.3378 18.717 26.8898141458
33.4291 24.6275 14.5541 30.8167207963
28.863 24.4502 24.6892 88.8028951051
28.5226 22.4287 21.179 31.7382116949
28.8895 21.6338 24.4713 79.1593723145
35.6722 30.2893 14.8449 30.7825724599
33.7779 31.7121 21.4102 28.1223098058
33.2205 31.0516 24.0252 74.1391500119
33.2934 32.0202 18.4853 29.2492442083
31.3236 17.2405 16.7818 27.521709496
29.2625 27.2394 15.8404 32.2605280293
29.0525 25.7916 21.6769 34.4360852837
28.446 31.524 23.8387 53.9688073461
24.4301 24.4594 20.7802 29.6104771917
25.5653 31.6296 18.0763 33.1574481055
35.6594 21.1813 15.858 31.3691386304
30.8336 19.765 21.6784 28.6662742755
31.5013 19.7268 24.2307 65.5489970115
36.5453 21.7665 24.331 75.2357416299
35.7197 19.4762 21.3767 32.6974561956
33.67 28.4473 14.6597 32.6278868705
35.9839 26.7465 24.4372 80.2416287525
29.8277 28.7928 21.378 31.3569289398
36.4716 32.1283 24.0097 71.0484942239
29.3766 29.117 24.0151 54.1072836592
34.5548 22.4456 21.3407 29.6502592628
26.6766 19.4193 24.2456 68.1491814134
33.6859 17.306 18.2419 29.8337513631
33.5388 25.9307 20.5308 28.6435915708
33.1989 26.6988 23.8352 36.9201635239
35.4999 30.4928 17.702 28.7703887228
32.0589 24.3187 24.4466 87.2896479262
29.2053 17.8822 24.3782 82.5015251317
27.6615 26.8676 24.2344 75.71339763
36.6445 31.9473 21.0953 27.1334653249
24.7692 27.6813 17.8786 28.9003535682
33.5965 17.8701 23.9934 53.7114698747
36.7878 24.3556 14.623 27.5567969618
24.5562 22.257 18.1902 31.0905041658
33.2255 21.6275 14.7122 30.5341221204
27.5746 19.9612 14.6077 33.2502424839
34.0268 17.4557 14.0192 28.8265755235
32.0345 31.5833 35.34 107.8382711129
26.1206 18.5838 43.9251 29.2747045894
36.8364 24.5031 41.5992 29.2367163377
32.7699 18.2108 38.4202 30.5051442055
28.5872 30.8351 40.5724 27.5383924287
35.4247 32.1773 40.8095 30.093774495
27.7256 21.8231 44.3397 28.0692952102
34.5351 20.2965 37.9919 29.6429410347
26.1045 17.458 35.6415 84.6055480903
33.7399 18.5147 42.4525 33.5711966456
28.5254 27.0522 45.9194 29.3852520565
30.0474 22.2789 35.8798 63.4420085152
28.615 16.3832 37.5505 27.2881461638
31.1749 28.7774 35.7426 71.1117150488
25.3386 24.8778 40.1047 29.5709642898
29.9516 21.7405 38.6675 28.5900242153
33.9213 24.7958 36.1585 57.1872836641
35.0964 24.1529 38.7443 31.0921646137
29.228 24.7087 35.7338 76.3593292786
36.3062 26.893 35.3537 110.0784307832
26.1999 27.8497 36.2674 39.9368854195
28.9404 24.5655 44.173 30.0758349314
27.3551 24.25 38.0985 25.9614854399
31.5883 25.1212 38.8853 27.6058323818
31.6142 26.1203 36.281 43.2161570956
34.2128 28.6126 35.7051 66.7359688349
25.834 21.0611 42.7501 27.3070410438
30.1207 17.767 35.7252 84.3508811159
28.2432 29.7596 35.7498 93.4392137094
25.9402 32.2471 36.0145 57.1414243265
25.705 30.4795 40.0296 32.2992560451
29.5128 30.9787 37.8637 29.6779728066
33.0318 27.0695 40.0503 31.37836693
31.2209 26.9352 44.1993 28.8670023612
30.6825 18.3531 41.6668 27.6848502182
36.3571 16.8585 35.6936 67.5475308344
26.0477 19.6101 40.1658 29.0802462348
30.0842 18.8955 38.986 30.6000554081
35.6878 19.5337 35.4889 90.532077956
32.222 31.0548 38.1656 30.9513982359
32.6524 31.1185 43.9418 30.2210395136
30.5223 18.0603 45.4872 30.839503386
36.5784 20.89 45.3054 31.8969398258
26.7629 21.341 37.9379 27.2063990207
32.6566 22.6787 38.7849 25.1636068245
33.3425 21.7745 41.5346 33.6532402733
30.4128 21.037 42.4683 27.6912726489
37.0633 20.0632 39.416 28.1815889973
29.0234 23.0833 41.3091 31.9385155532
34.3883 29.8191 41.6669 29.3542629449
24.6395 23.1639 36.1162 55.1309572285
25.1068 29.1734 42.415 28.3489226841
28.2483 19.7689 35.6177 84.5762896057
36.036 30.0917 44.0536 28.7831420114
26.2639 27.579 39.2451 30.9957483378
29.0148 25.5527 39.6004 30.1861805477
28.6847 27.8537 41.028 29.9393902052
35.2408 27.4618 44.2394 28.6752735606
31.4771 28.6991 41.9922 29.1616581304
32.9459 22.0719 35.8725 84.9278118432
28.1158 18.4038 41.6806 29.1735196754
27.2381 26.9981 43.1111 30.8338084956
26.4801 25.3587 35.4943 100.1486074023
29.9486 30.9758 42.7842 25.5848453439
34.2564 29.1443 38.588 28.9774208299
33.6473 25.867 42.4783 29.7255640494
35.0725 23.2798 43.6335 28.2831287957
34.0893 16.5431 40.123 27.7809147128
33.2079 17.4351 35.6201 78.7062308305
35.9063 20.1854 42.2698 27.858985458
25.9596 17.064 38.6989 27.2074443151
25.9066 24.0389 42.7822 30.9304470779
31.8216 23.7033 43.679 30.3850078946
25.8264 32.1165 45.4577 28.4551882533
25.9399 28.7587 45.5225 27.8571490903
36.0873 31.0808 36.0933 46.6306793703
30.4508 20.9824 45.3231 30.3584213872
28.8009 30.0606 45.7079 31.2287425459
25.2663 20.1018 36.1408 52.7996578355
32.3055 17.314 49.5735 29.7869136289
28.5665 19.4856 48.8183 29.0121842878
35.6595 24.1927 48.7414 30.5073786968
31.0726 20.9662 48.9374 32.1488077529
34.1558 31.0771 46.5003 26.9109193682
28.5454 27.5796 55.6152 34.0050997184
31.4785 29.4254 46.0063 28.5888631852
34.868 21.2718 47.4449 32.4863028054
26.9574 20.9955 46.9092 28.1060132914
33.6502 18.7578 53.7863 30.4338852582
24.6465 24.1238 51.0931 32.4598319051
34.275 24.2448 46.4155 27.5916904984
24.9279 21.5305 55.2341 31.2273003898
25.9696 26.9041 47.7479 33.1818313463
26.489 30.8364 47.9912 26.8850476323
24.9571 17.4181 49.6417 28.8022452804
27.0726 23.4959 48.6453 29.7438501356
31.6021 26.8554 48.4888 30.7414643475
34.5869 26.7073 49.9363 31.8941452974
28.0525 16.9445 50.0661 30.4663289415
30.7328 29.5997 48.9729 28.2705686712
36.8051 22.753 50.7208 30.7669340449
30.5711 16.6555 51.5675 32.4419789315
27.0271 21.1481 50.3695 29.0963775729
27.7853 18.1046 46.1866 28.8359601412
24.6727 20.0838 49.4471 30.1155936353
31.8591 22.778 46.9187 30.0299450629
29.6677 24.7105 47.6029 30.8890165359
32.8323 19.3531 47.364 30.2006363457
36.7824 29.4391 51.053 29.5111991958
28.7409 28.1237 50.6351 30.4174994202
29.3377 25.2147 50.3852 32.8297823149
32.0817 26.1184 51.5935 32.0733500079
28.7608 31.6496 49.098 30.6072975565
32.2853 28.6459 52.7063 32.8857944111
26.1884 28.8134 49.7141 31.3297018563
35.2105 28.6692 47.6868 28.1346137816
25.9858 32.2796 53.2318 29.5503465123
32.5281 30.5094 50.5973 30.8067524231
26.7476 19.5522 54.6394 30.6727447002
34.4121 16.9039 46.2794 34.5231165639
35.0498 31.1748 49.4868 26.9835014993
28.3737 20.8332 52.7657 32.1961064321
25.6954 31.8701 56.3697 27.8063114593
30.5865 18.2164 55.5289 35.9803176176
30.8267 19.4692 52.6396 32.2384414055
27.5795 24.0217 51.9603 30.1708203834
25.2228 17.6913 53.5644 31.1786673592
31.4051 23.9734 55.2518 31.2915337976
28.8893 22.9567 54.8837 29.5559320059
24.9807 29.8794 52.0226 31.3738786671
32.5455 21.3316 51.2951 35.03315008
36.7356 26.2693 54.8687 34.830736944
27.5492 25.0033 55.885 29.8197714415
26.7785 26.2948 53.2702 33.4105373416
29.2749 29.0522 53.1418 34.485193812
33.4138 26.7444 46.098 25.4297963945
34.4126 28.2347 54.3233 30.7176592371
36.2042 30.2047 53.7349 27.1658842187
36.9918 16.9797 47.2734 30.0685943702
35.7327 24.232 52.844 30.2930466131
28.1817 31.1468 54.4981 29.5146344804
35.077 20.5359 50.335 28.8699185481
32.8951 23.963 52.7854 35.4052849285
36.0773 19.9241 52.9702 30.3282847246
33.1518 32.2021 55.5975 32.8588990651
36.4726 17.9489 49.895 32.9142710886
26.8158 35.2031 7.14218 25.2242479386
30.2899 44.7586 12.1055 28.7112287788
33.6108 35.0556 13.9826 33.6133629684
35.2818 36.3473 6.5799 29.8917061443
29.7937 37.6622 13.689 26.700166506
27.2547 37.7149 5.9838 30.3101034791
29.793 37.6511 7.08268 37.3253866133
29.0621 42.2307 11.1331 26.4564892173
30.1431 49.2759 12.8568 25.723665715
36.2756 40.252 11.0953 32.9987932625
33.6022 38.4253 5.39712 30.7279149455
25.7016 33.1874 14.0722 27.1252984146
30.2839 41.6851 5.13367 30.2321994752
33.3363 42.3476 4.74079 27.5429327437
35.4751 39.9331 8.27253 31.9103219566
35.7196 46.5684 13.9825 30.3370380134
28.8609 46.6077 8.86501 29.6681325978
25.8479 46.9942 5.69092 28.0188953598
31.4704 47.5117 4.5612 28.6285842375
27.7081 34.2036 10.625 30.6633353287
35.3916 40.2636 4.11772 29.5403311932
34.3224 44.6128 6.06385 31.0880185174
29.5135 39.2158 9.46939 31.8505816419
33.1586 46.2716 12.4172 34.9925428204
37.1193 44.3554 6.84746 30.8304956204
26.0954 36.2748 9.55533 33.000412765
25.9907 44.2914 4.46382 28.3109061072
34.6011 35.2826 8.92116 30.3281933572
35.8177 37.7893 12.5856 30.7150578455
30.7257 41.6841 8.0308 29.6081881475
27.1117 42.0596 9.2692 28.5511518901
31.2752 38.6163 11.4643 32.3879431907
31.7839 34.4053 9.85592 32.0203145469
34.8811 41.5103 13.0179 34.5075283808
26.7979 45.049 7.74086 30.4613849956
27.8293 42.77 6.52817 32.634565551
26.3161 39.3368 12.7486 30.569009106
30.8187 44.2264 9.08416 31.0650942068
29.6779 34.9363 7.91701 31.7975046058
33.9116 42.1686 10.0236 31.5721127687
29.1921 47.0843 11.5093 25.5088060617
26.6408 47.905 11.9722 28.8840467024
33.2116 45.3152 8.37377 26.8923166292
34.034 47.2267 10.1374 30.2481271181
35.7237 44.3224 9.40657 30.7209413321
28.8712 40.5413 13.3627 26.6911726991
31.968 41.3441 11.9483 30.6416522241
26.7799 39.0562 9.97762 28.709800632
36.6407 35.6464 10.7075 32.0744458507
24.6071 42.402 10.2184 33.3907194065
25.0194 41.7863 4.95993 31.0018475408
27.3617 44.7817 12.6795 31.561631229
31.3087 47.2308 7.31099 34.3767950907
35.7714 32.8806 13.8391 32.089284564
30.2999 35.0714 12.4023 28.6371475788
27.0954 34.1467 4.2619 30.4048188124
30.8148 39.0281 4.66605 29.5550576217
27.2695 48.6934 7.34457 31.0155191861
34.0658 46.7359 4.21479 31.1202504319
33.2883 36.5481 11.3582 31.6969956054
25.3728 39.6426 6.82879 30.7032648395
25.4831 42.3362 12.7456 27.5842500903
33.2446 40.6922 7.02061 29.9931879618
33.6134 34.7845 4.09681 31.5483970984
36.7273 43.7289 13.9293 32.5234750555
32.3656 48.1741 14.1579 29.9402627607
31.6938 48.8183 10.0678 31.8225629807
33.708 32.6518 6.19862 27.5998759911
35.3192 32.7539 8.52046 27.8035557387
25.6032 48.114 24.4859 79.8172829131
27.8882 38.4652 16.5202 30.5385890229
36.575 43.0153 16.7117 33.2357124546
31.1059 37.7988 19.8821 32.4084935954
29.2929 40.7268 16.8664 28.7231447128
31.4006 33.8167 17.0636 32.8623593628
32.4897 36.4804 17.5797 33.3013113117
29.1164 36.0153 16.4327 28.7896879436
28.3301 46.9425 20.6188 29.3031518855
28.5112 47.4621 15.99 28.9502143686
27.9154 42.6017 15.1434 27.7215537744
30.8692 47.4094 20.4087 29.2010184408
32.261 43.2168 16.0274 35.3450112728
34.1633 43.8028 17.7637 30.7320860103
25.3752 34.5497 18.4152 30.8669793804
32.196 37.2615 14.8566 26.5794770098
36.0476 46.2326 24.4466 90.4919219242
25.2285 43.6366 15.724 30.062519513
27.5626 45.8855 23.8617 39.713573994
36.7666 34.0228 16.0167 28.8400828101
25.7842 44.3105 21.3459 27.8176278895
25.9412 38.8936 20.2364 29.7037505861
26.8408 41.9613 18.2452 28.4120233795
27.9865 35.2327 18.8898 29.3729698783
31.4464 33.2998 21.1303 31.3570445015
36.0133 46.0181 19.6858 29.8879228431
27.5685 44.5789 18.9217 26.1600910892
30.7475 40.4796 19.5927 34.401216342
34.9353 36.4818 18.9011 28.7711496397
27.9268 36.8704 23.6025 40.9247440929
24.8007 33.6658 21.5852 31.8126426767
31.6152 44.8586 21.6499 28.4872142804
33.7339 39.147 21.7098 30.1292343361
34.1368 44.051 20.4298 30.5157468524
35.6831 41.7198 21.378 31.2096039894
33.5435 47.9909 22.2015 31.4043296448
31.7484 40.5488 14.9037 32.573407885
25.6959 40.5478 24.1653 71.8872331765
25.3599 39.2641 17.4986 30.2812633307
34.6258 46.3963 16.7533 31.9152879024
30.6272 43.6241 18.551 30.8490233942
28.0578 34.5648 14.1086 27.6210473278
26.6553 36.9083 14.2974 32.2044672995
28.2438 37.1217 20.9489 31.866629998
28.164 40.767 20.9192 29.4815552707
31.2864 33.4403 14.2676 27.0777180979
28.0473 39.6531 23.5101 40.4261349292
36.1357 38.9507 20.3384 27.8812107215
31.837 40.8605 24.4249 78.9404284398
35.0285 37.6134 24.3842 105.5016938852
34.2982 34.8637 21.0638 29.3790989731
25.7805 48.13 21.6727 29.1569388227
32.5798 41.4979 21.6421 28.6930661563
29.3074 42.1556 24.4881 87.4345989
31.9583 36.113 21.8171 29.9115774068
26.2559 45.9518 17.1168 29.2950944415
34.4619 39.0144 14.7658 33.0033061894
30.8292 32.9136 24.1115 72.391402952
36.2485 35.1548 23.2961 42.2126305063
29.9147 44.5205 15.1952 31.1421050063
30.1965 45.0384 24.3236 70.5687122043
28.8343 43.4914 21.7534 27.8210385926
34.0209 42.7607 24.2033 72.7476457013
33.2453 45.4433 24.4362 80.2449834568
25.4502 48.4006 15.002 32.1886391638
30.3983 46.4562 17.7216 26.2326950028
32.3154 48.0979 17.0619 28.2142567305
26.1595 43.4767 24.1112 66.0452308793
34.6723 48.5388 19.1688 27.9475860631
30.3533 35.6284 24.5353 119.9337048942
35.7943 38.8112 17.3524 34.4420612824
25.2767 36.2391 24.4586 88.4934658819
35.6812 33.6395 18.5076 29.6774909772
32.2471 38.1408 24.3033 68.1471012644
36.8938 41.9121 23.7346 54.077161188
24.4249 35.1919 15.735 30.9041119468
27.9929 49.1511 18.5218 26.9063877782
28.9404 48.556 24.591 98.6059804308
29.3069 33.0119 19.2782 27.9238812732
24.3819 47.5538 18.7815 29.0358442637
35.9283 49.1271 24.2934 62.4292988396
34.2542 46.2837 35.6978 65.9209586789
32.3441 36.0012 39.0895 28.8784245498
31.594 48.2915 38.4093 29.4637790526
26.2031 48.3964 45.6461 28.9463949875
35.2883 41.5629 38.6583 25.7179215669
27.4391 33.6973 38.1073 26.9183594806
31.8454 36.443 36.088 63.3298340425
24.4866 39.4973 45.0975 30.743993996
25.6765 40.5003 36.0017 70.3781722601
27.2008 36.8106 37.8975 30.6292465354
28.7396 39.4865 35.6234 81.9473048451
31.3219 40.9981 35.7086 70.1040177899
31.0592 47.3098 35.5435 73.9885911571
29.0846 36.5239 35.6529 88.4685627816
28.6034 39.6995 38.4567 26.9874222086
33.541 41.796 44.5013 32.866551866
29.0297 39.8237 45.4567 29.2021522403
25.7485 35.183 35.6216 86.2276646745
28.4236 42.7962 35.5835 73.3549942044
26.1006 43.3645 39.4039 24.1790199759
32.1383 46.2554 44.9234 32.1559348637
34.647 49.1034 38.3782 28.9955213473
35.9827 41.4666 35.9234 63.5353481795
28.4635 42.7007 38.467 26.4396445146
34.0827 45.3614 42.2041 32.4778395962
31.2823 40.6027 38.2359 24.7365462246
30.6263 44.5261 35.7556 57.0780882306
30.4815 42.0059 44.3914 28.3103033326
24.8925 45.2023 38.017 25.3114868505
29.5209 45.3948 41.5666 29.995451646
28.0631 46.7688 35.4291 73.4324249026
24.7587 47.9994 38.0235 26.8967867109
35.7137 45.3075 38.1804 28.4391328936
35.2036 48.9607 35.4459 91.9633753887
28.1535 36.2661 40.562 26.5796978335
28.5069 44.2164 44.0948 25.6932079314
30.6252 36.0162 42.9004 28.3911873394
31.2126 33.2539 41.7862 30.7724166053
33.0697 38.8987 38.6098 25.566316222
34.3191 34.726 45.5874 31.5849196232
33.7002 33.5724 38.4689 29.8302726267
27.4399 42.0723 42.0786 29.1694804564
25.1661 36.8344 40.9262 28.0131122618
36.6352 44.1688 35.6105 82.294964467
27.2992 33.405 41.3071 28.6518427926
28.5251 38.5015 43.0494 28.3300179506
30.5844 38.4008 40.6893 27.2619935897
33.9064 36.4065 41.7556 29.7486304614
36.3284 36.9603 40.5422 28.1481563979
29.9247 42.3583 40.9496 26.992318578
26.3105 44.8057 35.6561 64.0243555656
30.3593 44.9549 38.6959 26.1045845955
27.0851 39.363 40.7476 27.8599759502
34.6272 39.8186 41.1161 26.5825082445
32.7483 43.0864 39.0873 26.6372686957
27.3996 47.6079 43.0056 29.7414249115
27.0245 46.6213 40.3378 27.3591637208
36.2701 38.8123 38.315 27.943298405
28.6726 47.3113 38.1928 27.8510719866
33.163 45.9357 39.5003 28.0514268523
31.7533 46.9973 42.2726 28.0237206969
34.5733 33.0247 35.6084 85.1839625703
30.0781 34.3843 39.5277 26.9521752967
28.2874 32.9204 44.1759 31.4551137338
26.933 41.5893 44.9859 30.8100685504
34.1942 33.7574 42.7448 30.2014520938
36.5085 32.9014 45.1388 29.4640436944
31.5767 40.3844 42.1798 24.9202366517
32.5812 38.0625 43.7053 26.7290684969
26.1783 45.2973 43.9673 27.8016739944
26.055 37.2371 44.1967 30.6830852349
33.8309 42.6093 41.8265 26.9242352739
36.6068 46.6641 42.2054 30.3922545444
24.79 41.2098 38.5936 27.4014926442
33.2719 43.241 35.9075 59.2467128008
29.932 33.6284 36.4697 43.3231586864
35.2282 39.2324 44.3769 31.2485084205
33.3121 38.6443 35.8782 69.516821602
36.0377 37.7798 35.849 65.9135223468
36.3053 34.6481 38.9836 29.9727135974
34.0295 48.1624 45.7559 33.1138459587
29.6923 34.903 45.2962 30.1662349395
24.6993 33.1602 41.3626 31.0041459456
36.4292 35.2936 35.9081 57.4630711479
36.8754 42.6302 41.5633 29.5919501256
25.0261 44.1896 41.735 28.9923861521
26.1939 48.6378 35.589 88.8632208795
27.6935 39.5578 48.7605 28.9090518213
30.8973 34.3358 51.0435 27.8464467644
30.2666 33.9081 48.1556 31.3816770112
25.5814 48.8793 50.1245 33.5315567692
28.4578 33.2134 51.785 30.6336160429
35.538 37.3621 46.7109 32.2220733574
36.4479 44.4183 52.4973 30.3695482452
27.3172 36.0755 46.4766 27.4040067713
28.5214 43.5206 53.0607 29.529199566
28.5748 43.3632 55.8395 27.576012989
25.4172 44.7185 48.5051 31.1614917471
34.1392 38.8232 48.4616 29.1486350624
25.2565 37.6149 51.9258 28.8227964114
35.7578 34.2038 55.2844 30.1236160608
31.2589 42.4237 47.123 27.6786453676
29.9857 47.7353 53.1213 31.7550730379
29.5258 46.0553 45.9981 32.3668584263
25.9286 44.8796 52.5733 31.4832173964
31.2124 44.772 53.7826 27.9450034978
29.2115 43.922 48.1132 28.2957826771
33.0759 33.4399 47.8721 32.5519185253
28.1037 38.5768 56.1225 27.6262114951
33.8618 45.7801 53.8624 27.9443975448
36.3282 47.289 49.8531 28.4639279579
33.1467 44.0011 46.3669 28.357625717
27.6323 35.1469 49.4199 29.2332082433
27.852 36.8182 51.8662 27.9030411574
30.6452 36.025 53.5225 30.0777399783
33.705 36.775 50.537 35.4785168607
27.3072 47.1272 55.739 33.1971461611
34.9358 34.1672 50.2673 29.1537071097
29.3927 40.5996 54.7061 27.6344120332
27.8685 39.7568 51.4025 27.6468314547
25.6453 37.9784 47.6363 30.044736169
31.6283 39.3245 47.1016 29.1324162192
29.5749 37.6882 48.2434 28.2152617249
35.7324 38.4824 51.8465 31.9990774154
30.9026 47.7307 50.5434 29.6436372009
27.0442 42.1872 47.6001 30.8702161218
31.5569 41.073 50.2169 30.5228272834
34.3587 41.0956 50.7124 26.9788331304
36.1831 41.1087 48.0577 29.6604694611
32.3098 45.0551 49.1647 31.0763212865
28.908 46.6825 49.2095 28.1813038783
33.7135 46.8201 51.0788 31.9924614774
35.899 46.8422 47.1904 31.2964719816
34.7344 43.8996 50.2178 29.8491218807
32.2637 48.2864 54.7305 26.8994420065
27.9677 36.4283 54.7682 32.2818601994
32.3024 36.921 55.5307 35.4532198368
35.7334 44.0136 47.4653 28.0460077907
34.5821 38.5244 54.7622 31.2219265057
29.8872 45.7384 56.0254 32.7427645335
26.013 40.4403 55.3645 30.0332279065
31.9637 42.3738 55.1032 28.7917888042
35.8009 32.8663 52.9508 33.1399259339
30.9527 37.4417 50.7936 28.0871222942
30.4391 43.5385 50.8225 31.9947612721
26.5525 41.5546 52.9857 27.5121898594
30.6293 33.0662 54.4784 32.5871841413
30.3918 39.8088 52.2551 29.5372257197
33.8974 41.0399 53.6341 30.3418226821
35.2131 43.2264 55.3324 28.4112649796
26.5012 46.3862 50.3034 29.8849713331
28.6161 48.6602 47.1692 35.0964339534
36.8707 36.672 54.3011 31.3594683992
25.2336 36.2475 55.8116 28.0282002348
36.6428 46.7507 54.8671 29.0288242113
25.4671 33.5992 50.5256 29.1130076419
32.8512 32.7194 52.4528 31.1730634858
24.7173 34.6677 46.2544 31.4216266002
32.1382 36.5562 45.9693 29.6598169643
37.4838 14.8691 12.6505 30.4959858924
39.9854 0.377897 13.3842 30.8989832968
42.9372 2.70366 10.3206 30.5847692122
48.4225 12.376 11.388 29.776635162
45.9176 11.6499 4.28936 33.4310442916
47.9907 4.58566 7.47935 28.9628573265
39.5094 8.77513 6.64615 29.2406638909
38.4835 4.08677 10.3345 30.4469868757
40.5677 16.4646 3.80507 31.0030368046
47.0095 7.64339 6.73822 30.6724689911
44.3857 0.316802 11.6759 34.0566025627
41.5673 8.98342 4.83179 30.506863671
42.4164 4.58796 4.94779 28.9694754262
37.1166 10.4295 12.963 35.5821487513
48.0125 15.7871 13.4601 33.8480109041
46.9273 5.53325 13.191 31.5192508416
41.0414 14.0683 6.82741 31.0031955719
40.8208 9.0398 13.6048 30.3711878405
38.5632 6.54452 4.73535 26.8287979005
48.7913 14.3582 6.40982 34.8091803596
45.3124 6.42022 4.71199 27.7560708601
40.4658 2.60273 6.25858 30.3030851566
37.5879 2.40142 6.43053 27.5922434684
40.3868 4.97366 13.4683 29.175568761
48.8551 2.44012 11.3555 34.1311760698
42.3068 1.38221 8.09443 28.5639869439
44.6299 1.19841 7.00035 31.4362099595
47.9856 0.52894 4.03313 30.6912236488
39.0136 5.04319 7.65887 29.5884937463
41.6456 0.142039 4.97264 30.9701600319
43.5025 5.61369 7.50329 31.4786887917
41.153 7.18127 8.35068 28.3356095236
45.4803 3.80923 6.28187 28.9904623062
47.2259 1.86565 14.0184 29.5824051005
38.5908 10.8334 7.8677 29.7848761408
43.504 5.26552 10.6669 29.2895971788
43.9829 10.539 6.46474 31.3948791745
46.4185 9.61953 9.89999 29.1827432333
46.9127 10.361 7.26613 27.5278954518
47.8044 5.11564 10.2266 30.2137317339
39.9132 13.948 9.38413 31.5133762862
42.3072 14.9114 10.5387 35.1760192846
43.7784 13.4023 6.34259 31.1476624142
46.0977 13.7424 7.96057 31.452598409
46.2208 13.6929 10.5572 28.9625103925
44.0406 12.8384 12.045 30.4318498799
40.6893 2.80706 11.8552 32.4153252414
37.9534 15.7134 6.00266 34.3896284915
45.1371 3.14652 12.8736 29.5307899084
38.5278 12.941 5.5958 33.2496257746
38.5652 9.01198 10.6982 33.6224493634
40.0559 6.30002 10.8149 28.6728029725
42.3987 8.0204 11.6463 26.7047343376
41.3737 11.7524 13.0313 26.9042322665
38.6819 12.5124 13.6275 31.4325010895
45.7564 6.66619 9.1039 30.2495803015
37.319 14.454 10.0692 29.0914064917
40.478 11.2844 10.2143 28.9563726726
43.8411 10.3065 11.0993 29.7185126673
42.2923 9.91514 8.57594 31.9726934972
47.4669 9.58955 12.5199 27.808596405
37.4811 -0.110462 5.22018 31.1048244664
44.5 6.79708 13.2194 28.803927873
36.9213 7.02568 7.24859 30.1964886295
48.9818 7.334 12.4098 31.4076813758
49.3769 2.13614 8.36022 32.1204411356
37.3892 4.0354 4.35105 25.3890119516
48.3097 15.6463 3.93049 29.6534192051
38.8598 3.72881 15.6012 28.3166904943
38.8912 10.2093 24.193 71.6220664146
43.9715 2.25323 18.2952 29.5557372306
39.8026 0.79089 19.3461 29.5251150644
37.0999 5.55228 14.9142 28.2180109901
43.7004 2.42562 15.4522 28.0607232475
39.0535 10.4654 17.3972 35.976933729
42.1477 10.8571 17.288 34.1082392302
44.9546 6.911 18.0237 30.9235599826
41.7881 14.065 19.3616 29.9768820273
42.5223 6.07977 17.2046 31.797612091
45.7944 4.43859 18.1425 29.9844816238
42.3996 15.4831 16.0942 31.3552585005
43.9783 4.6824 24.5513 98.2913756702
44.2306 8.1286 20.5857 31.3971751117
47.5878 4.13564 16.0265 31.7575085505
46.8317 9.02659 17.2554 30.2200396162
49.3698 9.91112 15.8843 28.0990354399
44.3098 12.823 24.077 61.5834447523
42.7303 14.5466 22.367 26.5822865145
46.667 13.5727 14.8517 32.0773618108
43.8993 1.27027 21.3819 28.1457268737
37.4237 13.0442 24.3077 72.5593066964
48.0774 15.9993 18.7727 27.0353628709
44.2076 15.641 18.4291 30.7142788897
46.7553 13.77 17.3927 29.9275789389
39.8511 5.63274 17.4473 30.3652003148
41.3726 3.37179 18.5198 28.6898776974
38.9258 3.29938 21.1856 31.5119670463
48.7613 12.0523 14.0082 28.1901809193
38.9054 13.2334 16.4971 29.9896672712
42.5565 4.01111 21.2139 28.7014002067
47.2908 4.11653 20.6046 27.9230030591
38.1736 15.9247 19.6484 30.4707922548
45.5462 7.35153 24.2725 79.7710863514
40.4272 11.0545 22.132 28.9164652478
44.9563 11.2412 17.9055 30.2586075754
48.3314 11.6504 18.5212 26.9943285769
48.3038 12.8012 20.9612 27.0176022397
46.4797 14.5626 23.758 44.991787957
42.0225 12.83 15.5493 27.229888442
44.4911 12.9547 20.5032 28.9953567116
46.2682 14.7194 21.1358 25.9704543682
38.93 3.11361 24.0981 63.9840957326
38.7126 6.3479 20.2026 30.2819467516
48.5436 7.30798 24.0611 67.7064649662
48.8235 6.31563 21.2013 32.0166225854
41.9419 2.86593 23.869 51.0411307528
48.9096 2.68944 23.845 36.9581074122
38.6453 0.554711 24.2049 65.9164925673
40.737 6.08342 22.1404 29.5717570833
41.0991 1.50911 15.7453 29.8141178866
44.8238 5.64879 21.6723 30.9879275187
41.8316 8.69077 21.7701 32.0618850192
38.9614 5.97932 24.215 92.1161626815
42.9339 9.13529 23.9767 69.0524091266
47.7985 8.78631 20.2937 29.8181756215
45.9643 2.63005 24.6649 93.7290802499
38.0544 11.3056 20.1632 31.1521520169
46.6086 1.31404 20.7354 31.6521583856
39.8479 14.1022 23.4917 30.3586687945
39.7102 15.908 17.4379 29.5594129109
38.6293 7.86897 15.7682 32.8568761998
45.9038 10.4673 21.1838 27.8464586848
48.2767 12.0535 24.2112 90.6982329629
43.9474 0.665914 24.0835 57.1165253667
45.5796 10.3503 23.9734 57.0235051798
39.5635 13.7977 20.767 26.9358030914
41.6753 11.936 24.4775 94.3578881994
38.2227 8.54138 21.6586 27.2460357766
42.866 4.96667 14.6902 28.8743602387
42.7622 8.86088 15.5531 30.8698657754
37.2671 0.466467 17.9126 30.7913629357
45.8944 9.20545 14.6767 29.5006720013
48.7522 1.4233 16.5144 33.9858307978
44.5455 11.8631 14.6842 27.473814509
44.4217 13.8267 36.0519 64.2844597578
42.3741 1.96133 38.816 27.9723973434
42.1397 15.7381 35.835 60.6991440102
43.3747 13.8755 38.9099 26.0100792161
43.8735 0.38516 41.2951 32.4014225816
42.2194 2.33328 36.0432 40.536816044
45.0994 5.03624 36.3228 42.7598412241
44.133 3.99473 44.9395 32.9949562203
48.3908 0.303408 45.403 31.450942683
38.5992 3.38687 35.9537 54.6549668317
47.5212 6.26679 35.7858 88.6691068822
39.6885 7.36028 39.2175 29.3126924822
44.3894 11.0225 45.2045 31.8307033298
44.2045 4.46534 38.9292 31.7485467099
40.9449 9.17271 35.7655 65.254629608
47.3629 9.0869 36.3508 39.1587627193
38.8598 10.7704 35.5465 81.1569671034
41.4381 9.48123 38.7675 26.3321711649
39.2443 6.98921 36.3739 37.810030383
42.3809 11.6901 35.926 51.4946313087
40.7322 4.80362 35.2967 122.2722311457
40.7662 6.25324 44.8541 30.7862221709
46.6814 8.45546 39.0885 28.2173133574
47.2164 12.2799 36.0871 68.0097421181
44.6576 9.78442 35.6491 95.7615982173
47.6696 6.36717 40.9855 28.0270139852
38.1697 0.743184 35.6768 76.0511942747
38.2462 3.9424 39.094 29.1635723843
43.2682 7.09654 36.0125 58.8300562549
37.1333 2.8136 44.7983 28.893923565
37.5273 7.13185 45.712 31.7915088954
46.1947 10.226 41.1766 28.9888184989
47.5972 11.7059 43.5591 30.4925951724
40.2066 13.3878 35.5815 83.361330739
45.8419 0.68414 43.481 29.9918866309
40.4236 2.773 42.7099 29.6576047446
41.565 8.9777 41.962 28.4132763074
44.3422 8.59298 43.4153 33.0830980446
40.4889 3.44507 40.2581 27.8449242853
37.0995 8.23372 40.312 29.7000201329
37.5945 5.49441 41.1374 30.0714934511
41.989 5.896 40.3561 31.6740743194
43.8242 7.93827 38.8715 30.2264728604
40.6271 9.75528 44.5324 28.2574506631
46.98 2.81209 38.3744 27.2805742218
46.2694 4.0955 41.0592 32.0238319358
39.2595 10.3479 41.0618 29.812821293
40.9332 13.4573 42.294 28.8740714251
47.9521 2.73022 35.648 82.9888257068
47.1658 12.4602 38.8817 31.2406866832
39.1918 14.4304 38.0546 28.7731391617
44.4476 11.0808 38.4225 26.9109199715
40.9224 12.5217 39.6409 27.354553375
41.3274 16.1721 38.5631 27.8583663811
44.5321 13.8962 41.4725 29.5898509412
45.5312 15.793 44.6201 33.6728713385
46.8153 14.3822 42.9074 28.764820556
36.6391 15.6233 40.3048 30.3506769011
41.9824 15.8299 41.6674 32.6597268204
48.3976 2.17288 41.427 28.7646682039
46.7088 3.54257 44.054 30.3753468802
45.094 0.350055 38.6205 30.5218846332
38.6348 5.01335 43.732 30.1929373712
43.4333 11.0886 41.7015 28.1156653581
42.9676 6.02249 43.3392 33.6994441399
47.2967 8.1321 43.2387 29.0273204813
37.8787 9.7183 45.1477 34.3832845584
37.9004 1.16734 42.7298 28.386309695
36.8528 11.3961 42.9337 34.1095997669
38.184 14.51 42.9247 34.5100863551
41.6335 12.3362 44.8955 35.2821454192
41.9798 2.53232 45.2605 28.3717270651
48.9512 5.57494 38.547 28.0217914882
47.3932 14.9908 39.7824 28.4696875194
44.9508 1.98163 35.6805 83.8434695411
37.0586 1.6745 40.1652 28.0326035659
38.2425 11.329 38.3246 29.9360457737
47.0243 15.9215 47.9442 32.476792139
37.6985 0.672706 50.7532 29.4535017801
37.4159 4.38089 48.9291 30.4611598669
38.408 7.09108 48.2693 27.946601128
40.5373 3.16376 47.6795 29.8294895536
42.9462 2.75126 51.529 26.1968995066
43.6389 9.39614 47.4477 31.1269978814
42.6511 0.882285 47.8731 30.3365853519
48.6487 11.0603 55.8839 33.2526574652
39.4103 10.466 48.2271 29.1860461217
44.6557 9.04824 56.4883 30.1947553901
41.1991 8.43826 46.7892 27.5187793476
40.0285 15.3323 50.4442 35.4497080974
47.7389 13.4597 52.9295 30.6235308239
40.9413 10.5988 55.4583 32.6906296546
45.021 4.41188 47.7586 32.3053807703
39.5575 15.0245 47.6298 30.8820253164
47.4605 4.23185 46.7977 29.3882161006
40.8242 12.6466 47.4753 29.6228689554
42.7196 15.3098 49.9561 28.4862427589
47.1799 11.9321 46.4055 29.8077762202
45.1762 13.9913 46.7897 32.2685740727
38.2959 13.563 53.8819 35.1132346375
46.0133 15.9424 54.9948 28.8304462185
47.5184 4.98808 56.2574 31.6553003967
45.957 2.68333 56.3835 29.1749073659
44.6231 2.01781 49.1664 29.3601040281
48.5147 9.51697 50.6625 27.0389366692
45.2783 5.84195 50.6185 30.8939796647
47.9496 4.58884 51.5529 32.3064900615
40.8525 5.91982 48.2547 30.8067179529
43.8035 10.5923 49.9569 31.0200805429
42.0275 8.86166 51.4055 29.5097536876
40.6328 1.77535 50.4649 28.9495279511
45.8558 7.69902 47.7653 33.715702393
43.271 9.97122 53.7328 28.4870427675
38.0532 10.0577 52.5834 28.0949115772
39.9975 10.8326 51.0934 31.0415598809
42.7895 12.8898 53.8602 27.2289856073
43.329 13.1149 48.4642 30.9378982997
45.8577 8.47647 50.9167 29.4592872941
40.3878 13.2205 52.2436 30.7263646424
44.155 15.2684 52.1033 28.9568556272
45.0104 12.1853 52.2147 34.867488883
48.6121 1.14828 54.2835 30.8742373485
48.0296 9.59001 47.6717 31.5204678339
38.1265 1.88064 47.0406 28.8467885546
48.7435 13.3797 47.9206 30.1917685848
41.0764 3.99881 53.5701 27.6526497416
42.3611 5.82871 50.7068 30.4589267787
41.661 6.79664 53.6436 26.1175172516
44.863 6.33478 54.5198 28.4098360938
48.2643 6.56743 53.8625 29.3330398315
48.6206 12.1547 50.4625 33.0960640911
38.6988 3.83056 51.3234 27.7880403074
39.3036 6.4806 51.795 31.2499145777
46.7426 2.15627 52.4074 30.2037592944
46.1044 8.57337 53.7895 27.9263908782
44.4734 3.84254 53.5373 27.7441742523
39.3302 8.67935 54.2137 26.3813757456
42.6799 2.40159 55.5612 26.8740875023
39.6768 2.99202 55.868 25.9543864684
40.2235 13.3848 55.9688 31.7947296748
42.1447 0.462902 53.1268 34.0343428052
37.5309 3.17622 53.9492 31.3912914785
46.339 0.272789 50.5934 30.8466857082
44.4771 13.9302 56.1045 31.4218213468
37.2333 0.264016 53.4819 29.8988942713
48.8974 9.32226 53.5107 27.341116971
48.8672 15.6763 51.5598 29.8099449731
39.3747 0.16239 55.8506 27.7597499434
41.2338 6.50386 56.5048 27.8717362773
47.8486 6.81032 45.7233 29.1473802956
38.4667 20.5224 5.16163 31.8573313654
39.2307 23.1968 4.77635 30.8434348712
43.4653 19.6974 9.8556 27.9126039586
38.4218 25.4569 10.8399 32.0263509183
41.1971 25.9211 11.5254 30.9054642117
48.2839 22.5105 8.60089 28.1106842638
39.2658 30.4745 6.19019 28.0613383061
39.8784 24.8081 6.86678 33.3388546607
48.711 29.2253 5.77448 29.4022919002
43.7122 28.6251 13.1704 32.2197129026
44.491 20.5129 7.30142 28.353739149
37.5072 26.6912 12.8008 28.0030419029
44.5108 23.2121 6.7526 28.2737598142
43.9756 26.3115 7.5725 28.4693999515
45.6356 18.7224 12.9028 29.7717659029
47.1575 24.0589 6.48754 29.3450104466
45.5118 32.148 10.1476 30.0866614543
38.8482 30.4123 10.2826 28.6509819537
48.0552 21.7866 4.98934 29.082250296
44.363 28.9639 5.37917 27.4072820236
46.6129 31.3135 6.28044 31.4870182651
43.3209 16.4493 5.37121 27.9616267906
46.7255 17.5739 5.70923 28.3821322317
40.3958 19.7524 7.18544 31.9410581038
40.7772 16.9649 6.81575 28.5393994891
42.4539 26.7921 3.58113 26.7770300809
47.1668 20.2422 7.44061 29.3716239634
44.6207 25.7243 4.65915 28.085838772
45.3932 16.4649 7.77046 27.5963573657
37.425 25.3619 7.94589 28.4066161999
41.3037 21.1873 9.76633 33.9765290094
42.2499 23.6517 8.37964 32.1826662766
45.4019 21.1265 11.3678 29.296762087
48.3359 25.3604 11.282 27.300624705
47.4136 22.748 11.1526 27.3765364495
38.02 19.1625 11.7146 32.7165158116
41.877 30.7635 11.4913 29.0615857537
43.0586 17.0684 8.75207 31.5357629508
41.496 26.7476 6.40164 30.7040530455
47.7509 25.8671 8.55206 30.8828541162
45.0931 29.3007 8.07388 25.00467376
47.7242 28.6399 8.18846 26.4404027101
40.5817 28.2839 10.135 32.4970504951
48.2406 17.3723 9.21088 29.0226869943
41.6779 29.3003 7.39513 27.9917156261
46.6058 16.4537 11.2134 32.4211022231
46.3248 28.7975 13.6458 31.1330530381
47.0937 29.8476 10.9235 29.9070755074
39.4476 21.4283 11.8673 30.3813827292
42.9412 31.4359 9.20226 30.1364542696
41.4747 21.3858 13.6284 30.3000222316
42.9015 18.7578 12.6942 31.885186169
37.2561 28.7979 4.89391 31.5571245329
49.1756 32.0459 11.3116 31.8791890644
42.7841 19.8099 5.42299 28.6055839742
37.055 29.7006 12.3667 30.5723834784
44.5582 27.6983 10.3988 32.4356270798
36.9871 22.8888 11.8798 29.7214429667
43.7069 22.7832 12.6505 31.0495082694
43.5496 24.8963 10.4995 32.9598646037
41.6292 16.1948 13.0622 35.7375951324
47.0264 25.9041 13.6117 32.9748953038
42.4604 31.1618 4.83672 30.5058311918
39.0763 17.1016 13.2253 33.2940114825
37.5232 28.4707 8.1009 33.7761621919
46.711 28.0017 3.89448 33.9330410777
38.0796 32.715 8.16331 28.7577829009
43.4622 22.3826 4.13887 29.8189557581
37.8754 18.8682 8.82571 36.0921182116
38.0677 17.6467 15.8011 33.3377478759
43.7782 17.9512 15.5876 32.3733627447
41.9731 20.0156 16.2471 34.1968842624
44.7957 20.5138 19.0213 30.7013537149
45.8056 18.038 17.3801 31.0747677826
38.4526 21.9564 16.2243 30.4320333305
42.448 21.8195 18.1588 29.4710041532
44.6639 27.0524 17.767 31.2473745176
43.5062 25.3878 15.8955 29.8911993037
37.656 24.6576 24.6112 102.6974692517
45.099 23.5161 17.8394 30.5144977963
45.931 23.2865 23.8298 52.4670681921
41.3674 23.9505 16.6976 28.4027840599
40.4755 29.2314 18.5214 29.1562518033
46.688 29.1357 24.3977 83.2314221856
47.3435 28.1002 17.8589 29.2322075339
45.8867 31.9135 24.3679 79.6666497729
38.7733 27.3395 17.6699 28.3055884423
43.0708 29.5318 17.8883 27.0659959214
39.7881 21.1286 24.0064 73.6943052126
47.4096 29.8019 15.814 29.0270782772
39.1138 32.3537 24.501 105.0938958961
45.9946 32.0503 19.7119 28.5387625074
42.5045 17.0181 20.6159 32.6690988637
39.469 19.3053 17.4527 32.2350112554
46.5128 20.0859 21.5294 26.7458458544
45.4248 23.7873 14.4307 31.2479896709
42.1327 21.7255 21.0828 29.1265587272
42.2046 29.5969 15.2883 28.8636516838
