13.3203 14.6351 46.9065 31.36297425
14.4693 23.1016 54.1422 31.4392528027
23.1623 12.2478 52.9151 32.7487615932
22.5101 15.1288 44.1924 34.430075411
16.4855 24.0565 55.8502 30.910674738
12.4546 21.0238 46.0843 33.4944139434
18.1468 20.351 43.5217 29.9724279883
23.7156 12.3987 43.4794 32.3133017944
12.6552 29.8814 15.2909 32.2335825308
19.5135 26.7327 6.30948 30.9881553054
23.433 27.0175 6.91251 30.3341536715
16.4888 27.0349 6.65057 30.1169444835
12.5721 30.1933 11.9796 27.967850383
14.9039 26.8036 4.29508 30.7603061518
17.8708 31.1511 6.33353 31.3676650349
21.5784 35.279 15.9274 28.0054500754
19.6785 24.6952 13.9939 32.1776449192
19.3619 29.4597 13.0788 30.9903607349
17.3307 33.5663 7.62152 29.3873575553
23.5971 24.5093 8.02136 29.6594100086
20.6286 30.1061 6.78844 30.1486198683
23.8832 30.783 7.24383 30.4431191996
24.5344 26.4762 11.4209 31.429001946
19.3999 34.2998 13.0846 30.6593489393
21.9919 30.0735 4.2723 28.1782596518
15.3677 36.1947 6.24938 29.8664432233
12.5015 30.1408 5.58145 32.8370048531
21.6517 35.59 7.41218 27.1102217102
21.1701 32.7078 4.91273 30.068733563
23.633 36.727 14.6025 30.7640694502
21.4684 32.632 14.4147 33.0287785437
14.1139 28.0533 11.9276 30.3439295182
15.4711 26.1108 9.23114 30.4404753449
16.3283 28.7989 10.393 29.6412216755
15.0856 28.3148 14.6152 28.6907731886
23.5003 28.5335 9.29102 29.1252309984
23.4478 25.8609 13.9525 31.3565483428
15.9067 29.4669 7.70437 32.2205286834
14.5559 33.5906 7.80905 31.1092107561
20.5429 27.6547 8.81811 29.7486770403
17.0243 31.5326 11.8876 30.9034901464
18.5234 32.2937 9.71198 31.1665844373
23.795 30.8799 11.3666 29.4631036142
22.1927 33.9666 9.61616 37.0936566837
21.9201 30.113 13.4715 31.314267218
13.5469 31.0359 8.01952 31.1979525978
14.2574 32.5 11.849 29.8496098095
19.4314 34.8302 10.3612 32.0401211634
19.6263 36.5288 14.6255 26.6166219301
21.8187 25.6223 9.96376 32.4114991085
21.1909 31.0882 9.60567 32.6715783613
12.9683 25.565 11.5505 30.0225366813
22.9615 34.5893 5.26095 31.6248901515
17.3691 36.5597 16.1746 28.73561238
18.0429 27.3411 14.1374 26.9673828401
16.9358 33.7979 13.8094 27.4941363627
20.1869 27.0833 16.062 27.8068327648
14.209 34.7087 10.3594 27.4353305903
14.1573 25.7835 14.8565 29.0245299796
18.5558 27.4011 10.9828 32.2893155363
20.4411 27.3227 3.87748 28.0593236716
17.6581 30.6309 15.2061 33.0275857984
13.2983 26.5358 6.8551 28.1634869151
19.3421 34.8751 6.17213 28.1151288429
22.5575 28.0798 15.2142 30.4102476959
13.8842 32.5656 14.6126 29.9992526618
15.8325 36.0382 12.5977 35.6754308927
18.474 35.8391 3.76819 30.8257355307
12.6833 27.851 18.8132 26.3875482966
12.405 33.4114 21.2689 28.4346973354
23.733 31.6965 23.9452 45.0647147426
17.9374 26.6564 21.4318 29.3264905521
19.9226 28.1744 19.6002 30.2649207804
23.6052 29.0524 24.5419 127.0587447165
24.0735 29.4743 17.1896 32.3889091497
24.0251 36.5131 17.8226 33.8389513399
22.5393 34.7638 24.3477 78.7243906881
24.1265 29.1396 20.0589 32.239063372
14.6953 29.9602 18.3303 30.6621811897
19.8119 25.1159 18.0817 27.4181642287
18.772 30.0534 21.3726 30.5859839499
16.8787 34.6713 19.5604 33.3711201687
23.5408 31.7035 21.1411 26.2914845579
19.6046 29.501 17.106 31.8360840535
22.1421 24.9513 19.7879 30.1980097288
24.5123 33.6034 18.8807 27.9981047006
20.328 32.5048 17.7599 29.9808410209
23.2419 32.157 16.8251 28.5771425466
14.18 30.9018 24.4022 101.5490078837
16.8094 25.3102 18.6248 30.1052901226
13.1338 27.2877 24.1448 66.3600201268
15.4037 25.6435 24.0905 58.3623869458
18.0519 26.8985 24.4037 89.6409292371
22.0886 27.569 21.0752 33.5325681185
21.2489 27.55 23.9481 54.3776711998
15.0877 25.7022 21.2016 27.6314557803
20.4952 32.114 20.5538 29.1886192509
15.8094 30.4329 20.7417 31.2821124686
16.1312 29.231 23.15 32.928667635
12.6299 33.5782 18.4287 35.8563394171
19.3293 29.4288 23.9637 67.2379042459
13.7219 28.2835 21.5572 27.6387817059
14.9711 33.4505 24.1294 62.0115953905
18.766 34.4374 24.2006 73.0603485257
15.1251 33.1011 21.3357 30.2012717416
19.0159 34.368 21.2556 30.5376763699
17.6791 33.7601 16.9317 31.655464075
16.4251 36.168 24.5102 98.9499465902
23.0512 34.3767 21.5353 27.0910409947
20.6566 32.0071 23.9407 64.2599694826
21.4261 35.01 19.0367 27.1379266743
16.5698 28.0839 17.2175 31.8952884154
13.5913 36.0817 19.5278 27.0808087732
14.133 25.8286 17.8716 26.1686144019
14.8013 32.5156 17.4023 30.8526805664
16.1638 27.0518 36.3906 34.0554103183
15.6822 30.8667 38.2324 31.0877322215
18.799 27.7374 43.0549 36.6545716814
19.1622 27.2161 38.3959 29.4092071734
16.3545 26.7796 39.2015 29.7910511131
12.5609 29.792 42.109 33.5457547261
21.6967 27.9063 43.213 30.1026498564
20.4014 27.6799 35.6918 81.7773926573
20.9534 35.7281 35.4711 80.6988499724
16.652 29.6686 35.6453 93.7323103607
18.7503 31.7495 35.9136 63.8035959131
21.7221 32.5842 38.5683 26.2007006348
21.25 30.4405 36.4029 33.1083245795
23.8039 28.231 36.0668 68.1332149087
20.4393 34.9632 38.1061 27.0560116495
22.0277 29.2137 38.665 28.6829655133
18.4664 34.4616 35.4319 100.6036678573
13.5912 30.7849 35.5262 112.1567160785
13.8496 35.8174 42.443 31.4550567279
18.1289 32.4709 38.6137 29.2578097069
15.6943 35.4622 35.9311 69.6146719488
23.5724 34.6503 35.5814 76.464694795
23.474 31.9801 35.4468 107.202863596
12.3485 26.8854 38.0865 33.9908692284
15.3857 29.9528 40.824 30.9011757271
21.1392 35.6336 41.3732 27.0760257116
13.825 27.386 40.4053 32.9176048737
21.5549 26.9772 40.4209 28.4940034138
13.6271 26.2722 35.9352 87.8184280647
19.6868 30.8 39.9124 28.6090584792
22.9676 33.1906 41.1236 29.2865811433
13.7452 32.8318 38.6795 25.8285435574
24.3571 27.4824 41.3501 31.4264158603
17.8752 28.8402 40.6095 28.3225100954
20.3881 31.8387 42.534 32.6620061329
15.1516 34.0043 40.6242 28.869097595
13.4135 33.5294 36.0096 52.4121076143
18.2014 25.4713 35.6663 100.5766841662
21.3865 24.6464 38.271 28.5095585647
24.4863 34.0054 38.2665 26.8952068071
17.8376 35.0894 39.9313 26.6961595616
13.1905 26.01 42.6252 37.0947680489
12.8157 36.0246 38.3275 27.0025169763
22.3551 25.8223 35.7309 88.976597426
18.4895 34.6066 42.8173 28.3914887549
18.7103 25.0446 41.99 31.87616781
15.9807 32.3611 42.7235 30.5178800546
24.4698 30.6984 38.6882 29.851774412
23.2838 36.4797 38.6483 28.712913797
24.0544 24.5666 42.2549 27.5861656218
14.6565 25.6582 45.0226 38.2927944335
12.5737 25.1506 46.8807 31.2772386973
21.6994 35.6326 50.4048 26.9772334648
14.2291 32.6767 47.7831 28.3264222934
17.1266 35.5562 45.1649 29.6672397944
14.1322 31.3674 45.2102 27.7647029832
18.9379 26.2195 48.9267 37.671141796
23.0452 36.4524 56.197 32.758835688
15.2472 30.0334 48.3736 29.8086213237
19.4761 28.624 47.6274 38.0225717524
24.5146 35.6296 43.4502 29.1675246734
13.4843 25.8478 53.4524 31.0478610068
12.7654 24.435 51.2876 29.846196995
12.9213 34.5882 51.2417 35.3981962769
19.051 33.204 55.6048 30.0314881418
15.2465 31.6505 52.4986 34.9309512931
14.6899 31.5904 55.3929 33.4303324329
17.3022 32.4717 47.1067 30.6071474154
23.8252 32.098 53.1461 32.9574370275
23.8463 34.672 51.9144 33.4415079645
13.4075 29.0664 52.4408 33.2991494283
22.5299 30.9503 50.9017 30.8071543704
18.6412 28.7529 55.2379 32.0405672747
13.1544 36.5049 46.5052 30.5405494113
22.631 25.9162 51.3482 33.8336753294
21.999 34.4721 44.0182 27.3166636623
14.1197 26.038 49.3233 29.7568012211
17.6735 29.2286 45.1659 34.2405338785
23.3667 31.4896 48.2942 29.7753162672
16.8349 29.6313 51.5482 30.4262055495
16.5037 34.1257 53.0202 31.5027696816
22.3198 28.7522 46.8506 32.5887170035
23.3453 28.5283 51.9448 31.1289828995
15.6301 34.2034 49.8691 32.956818808
15.4391 27.1241 51.9441 28.9094254409
17.8729 30.5178 49.0276 27.7484682609
19.8362 31.7688 50.6702 28.4615552101
19.8043 26.9658 51.5903 32.5580321989
14.5615 34.3594 44.8205 28.322587856
18.0698 35.4027 47.9707 28.6979506813
15.0698 28.8061 45.8472 31.6486970998
22.5067 30.3387 44.2454 32.9031096868
19.4934 29.4975 52.6619 30.1548086146
24.5339 36.467 53.913 31.8232383657
20.246 33.7333 48.8353 30.1106569605
20.6816 24.8961 55.3885 29.1228346261
22.0996 33.6302 46.6675 32.0542812656
16.4868 24.8075 49.5801 30.6097282954
18.8444 25.0163 53.1857 30.6364153471
19.5626 36.4815 52.3518 33.4739037216
22.4901 26.1916 45.4505 28.6275811511
22.8974 36.1226 47.7797 27.8408665518
23.2934 25.1065 53.7199 29.2946050672
17.3326 31.1374 56.4912 35.1670178234
21.5107 31.4289 54.4449 33.7531931185
24.3113 28.814 54.7439 27.5898229671
20.7061 24.5605 47.2379 34.1540584443
13.0768 28.6714 49.5645 31.7512906756
18.0351 31.8763 44.3523 30.7951301004
16.8202 26.7241 54.6105 30.8860538025
19.2588 33.7298 52.7444 32.5619028163
23.1556 24.6693 48.7342 32.0996479893
20.2858 36.722 44.5758 29.3205231215
16.0228 35.299 55.7883 30.4015206398
13.273 29.1323 55.667 28.2196597528
12.6144 28.3784 44.348 31.0992490846
13.1422 33.9236 56.0807 33.5587631791
23.1655 26.7264 56.2289 29.887374553
23.5091 38.0681 8.36614 35.8556994234
16.7157 41.8145 10.7178 29.1743921399
13.4627 46.781 8.02244 31.0851470719
18.5075 39.6014 10.6824 30.3308445983
22.9613 41.2857 4.15394 28.226296125
20.4645 45.7291 13.8129 28.2336260754
22.8256 48.9697 8.82924 34.2325625451
12.5263 43.0491 5.27699 28.1656452347
17.2634 39.7372 5.84961 29.0091306672
17.791 37.5275 7.28215 27.3974101036
19.4153 39.4353 13.3733 28.6534508788
15.9584 41.192 7.95489 32.457764691
17.2073 43.2685 6.72834 28.5771724426
20.6277 40.412 9.15264 27.2865688101
19.2614 48.3564 14.1548 27.5966260932
20.5749 43.1593 4.91582 28.407737634
21.1854 43.4097 15.1047 26.143045026
20.1955 47.8798 4.87166 28.8940699755
14.9615 37.1621 9.00194 33.9525018338
20.7337 45.363 6.56078 32.3208330243
15.5998 47.0113 4.92241 30.7694295714
13.1705 39.4493 10.0412 34.2069600136
18.5439 43.2821 16.239 32.3178597778
20.4079 39.0748 4.8898 31.2861778953
20.9951 48.303 11.0274 31.4785420231
14.4066 41.0069 12.1826 35.6028340045
20.592 38.0038 7.31049 26.6713372296
13.9917 37.7198 14.3264 33.0258307334
17.6526 37.0952 10.2652 30.968403536
19.9465 43.1258 10.3653 27.7153284202
23.9902 43.1567 6.28933 29.114043866
22.1545 40.4667 14.8918 30.1961001826
23.3387 38.5285 5.18137 28.5769132916
16.5632 44.5991 10.8094 29.0298323363
14.5782 44.7079 6.26672 33.5088514185
22.6022 42.0347 12.3673 28.1616614315
19.3647 42.3561 13.1228 28.0353601277
22.71 46.113 8.56592 32.3805459755
21.6471 37.9368 12.8709 34.5463984804
19.3628 41.366 6.66197 28.1442498242
13.3693 37.8373 5.01292 27.0624134143
23.0992 39.467 10.9505 37.7276878337
18.4842 44.9829 8.54678 29.5653511919
17.6114 47.6941 9.30605 31.5641315083
12.9605 48.0668 4.40442 28.0163771347
17.6194 39.4461 15.7394 29.2717295712
13.0357 40.7654 16.4616 30.2908638472
21.2488 45.2888 11.2446 30.1332217968
22.9696 47.2478 4.24671 29.8496601277
17.6121 44.7661 13.5002 29.9914379794
24.1394 44.1507 10.7338 31.1586441962
13.8971 43.7209 11.7694 29.8790028965
23.1352 47.6353 16.0485 30.4006610722
15.427 43.6772 15.4652 31.211338999
15.1294 40.7776 14.7723 30.2736059539
13.0755 41.4961 8.20573 29.5927842753
22.9728 42.1763 8.86937 33.8215583833
14.673 47.6641 14.3503 28.8964827345
17.3109 47.047 15.2664 29.6246024765
17.8803 43.3612 3.80947 28.7657684873
15.1441 47.0276 10.2782 31.2998487741
13.4478 45.0695 14.0172 28.3989031568
17.8894 48.2051 6.6742 30.4047406135
24.4544 45.8945 6.24354 29.1429086914
24.328 39.7209 16.5465 26.7741220752
13.5423 38.916 23.1571 35.9438777489
12.7544 39.9456 20.8029 28.6124438861
17.4389 38.5568 21.1782 29.9608354237
13.0774 47.0062 24.5807 96.4636860202
15.4598 40.2469 24.4576 101.8248941395
22.7979 40.3464 19.1497 30.9249105066
24.4261 43.4508 18.4578 32.3597047936
16.1815 39.7508 18.5637 34.1644771424
18.7551 41.3536 21.5342 29.0391055845
13.4559 48.2366 18.7709 28.2420320389
21.7354 44.0569 17.8085 27.4385394146
19.7441 37.436 17.9441 33.1797888031
14.626 37.3346 17.3972 32.9044837904
12.6184 45.3069 17.4802 28.4135587864
15.2354 37.1463 21.8952 31.1397627461
20.2627 36.7565 24.3412 73.2484122154
15.3949 46.361 23.5873 37.3615361563
22.5351 48.4146 24.3344 100.721125229
22.9231 47.6993 21.2601 29.8327911427
14.6142 43.2382 24.3408 80.4943225206
17.8914 38.5013 24.0435 46.4175491082
15.7552 41.5303 21.6778 26.8816982762
22.6912 38.4441 23.9603 48.8423360838
21.879 42.465 21.8173 30.8646534888
18.3224 45.8174 18.0536 27.9484534337
20.2779 37.073 21.1731 31.2635168383
15.0232 46.2318 20.9407 25.2762379489
17.6668 43.894 23.8108 56.7740206156
20.4098 44.8462 20.5771 29.6220899093
18.7279 41.1712 24.0845 60.7081584295
21.5623 41.0762 24.4168 91.8725315288
18.3381 47.1785 21.0529 29.898401147
21.8599 45.6636 23.3701 32.2616304814
22.8603 38.5434 21.2119 33.3321262812
13.449 43.5435 21.3593 27.5810419529
17.1938 43.9886 20.8611 28.3603338679
14.2051 41.3503 18.8672 27.3980124214
16.4698 48.1008 18.5109 26.8142315408
23.2247 43.5709 24.5553 111.3347971318
20.9354 47.784 19.2629 26.4431086278
19.1921 46.2145 23.9451 67.0126143457
20.1966 41.904 18.8882 29.6196144174
15.1346 44.3007 18.5532 30.1440124414
20.0647 39.891 16.974 28.4830169944
20.9435 46.394 16.9591 25.2670041259
16.5769 40.3256 35.6732 101.5419832808
13.5109 40.1469 38.8669 29.8607713908
15.2166 44.1055 38.4787 29.7852832829
20.3127 38.3875 35.9272 73.1883020399
14.5235 42.3433 40.5452 31.9599113747
23.9028 43.9703 40.7161 28.4658306808
12.6346 43.3786 42.5632 29.9906580603
22.8446 39.6654 35.8596 72.5362285909
14.4491 48.671 42.2677 29.3514877112
18.2419 40.7346 40.1925 30.9320215224
14.9541 46.8073 35.7131 95.5461848409
20.6919 43.1771 38.4246 28.8360276161
22.4899 45.5087 35.9061 61.5458846649
22.2642 42.6738 35.6923 81.4183124995
22.19 45.5481 39.0233 26.7783358389
15.0649 44.099 35.4664 94.9606797831
19.6173 45.6449 35.7047 82.9332184673
20.478 45.6975 41.1937 28.0644209092
18.8256 45.9221 38.4593 27.0813813761
21.6126 48.3589 38.7024 29.0081915921
23.2502 48.7841 41.034 33.9454042904
23.4473 48.1863 36.1507 52.3360540754
14.5739 37.7635 39.7264 29.9564624819
13.827 40.3085 36.1066 52.1095284372
17.6207 47.8117 35.853 61.7225321167
23.8432 37.633 41.3144 27.5895916209
18.0596 39.4107 37.6868 30.133094635
16.0931 46.7324 38.5429 29.9757018175
18.7568 37.5429 41.1598 26.9719267736
20.8559 38.0839 38.8063 27.520594678
21.4988 43.563 42.4394 26.9860499593
17.6492 43.2645 35.695 77.1963440635
15.9408 39.6539 41.4899 33.5827913944
17.4795 46.1828 42.7196 32.7948578017
17.7537 43.035 38.5873 30.4201250694
20.7249 41.3847 40.8107 28.2812395896
22.47 40.719 38.4211 27.3495527958
13.3377 48.2836 39.2229 34.2443577724
21.0362 47.8511 42.4328 27.9117978195
21.2607 38.7787 42.3024 28.8471426921
12.6081 46.1892 42.3369 29.3930234103
16.7393 36.9007 38.1293 30.426983107
24.3716 40.2452 40.4413 26.7861705522
13.1809 37.3452 35.7206 96.8485965119
24.5382 41.9644 42.9714 28.0789134632
16.831 48.6389 40.8743 32.2486303129
18.7153 48.9594 38.4651 28.4473626397
12.9083 41.587 47.6064 27.4391131038
16.2528 39.5028 48.0527 27.1257830421
14.6401 40.4716 46.0387 28.0193253601
22.3656 38.4546 50.9398 30.9537120907
18.673 37.4137 49.7917 26.9899823489
20.1982 40.3089 49.2036 32.4160702189
15.3801 44.5945 43.3089 30.7956264638
19.0323 46.93 55.1606 28.9182258349
15.1824 37.0939 51.9036 30.8976002034
12.4117 45.6661 53.1518 29.5999817605
16.6883 43.0735 47.3557 28.1953532204
22.039 46.7713 44.875 32.6841611674
19.4464 42.9884 47.4747 28.7374786214
12.3229 47.1706 47.862 27.9861023434
19.9264 45.8205 47.2608 28.1436845816
14.469 38.2697 44.0971 31.1865033804
16.4687 43.1625 52.2944 29.9019452094
22.2821 45.3868 48.5796 32.4654225137
23.2096 44.4005 56.0685 26.5854429414
22.9432 39.6638 44.4654 31.2351625931
19.4085 44.8334 44.595 28.2616751767
15.6604 41.7352 49.6529 28.0035903556
14.9917 37.1693 48.6569 30.1756630463
22.5691 39.4104 47.736 28.5829033851
13.3124 40.5781 50.4695 33.0599008783
17.0281 39.093 51.0116 29.045869519
21.6418 42.9055 50.1275 31.4446071992
13.0577 43.8891 49.3499 26.8311616537
23.8752 48.7412 52.2509 31.8112354456
19.5434 47.1474 51.6532 26.806070978
23.6403 42.3454 51.8095 29.2634658588
14.589 43.5192 54.8648 27.1287845701
16.4538 45.843 51.2462 28.8650875873
16.524 45.8595 47.0841 28.3804689828
19.4692 41.9494 44.6364 30.5937520837
18.1244 46.8948 49.1945 30.034653618
15.0609 46.874 53.4951 27.5941724299
18.4382 39.6083 45.9543 29.7270243918
21.9851 42.0318 46.0295 26.5607403339
17.6794 48.6192 53.2911 27.8977121835
20.1646 37.7196 47.2175 26.5594949952
12.6227 37.64 50.4917 28.2137939862
22.5737 46.5254 51.6187 29.8470336566
18.5106 40.471 52.8173 33.677237628
24.3429 47.8273 47.4658 29.0718399222
21.5548 45.906 54.2208 31.0004030462
15.4071 48.2353 44.8142 28.9229165268
23.2816 44.2116 44.7216 30.9990253138
19.1984 44.3184 51.7361 32.2492157528
14.475 45.8324 49.0796 31.3821453177
19.989 43.3924 54.2963 28.452621156
22.24 41.9307 54.2013 29.5954832643
21.0023 39.2849 53.3107 31.9200836415
18.3117 48.0255 45.0204 28.1042143064
14.6534 37.2727 54.615 35.2261603299
16.4917 42.4049 44.8488 32.8336245898
20.4999 37.3982 55.3685 31.9240594799
16.6115 45.5543 55.4758 26.4229380951
13.9334 45.7953 45.2069 31.0920897117
16.9759 41.406 55.0187 32.7310690944
12.4417 45.3784 56.0567 28.7017456912
24.2552 42.2898 47.7065 32.1499900182
17.481 37.9468 43.8252 28.7826149517
13.2621 43.2807 52.1625 27.0303906708
13.2244 41.2944 56.1673 30.468677786
24.3469 37.4292 45.7194 29.3729130096
15.4198 39.5344 56.4551 31.224026808
34.8603 7.82551 14.7039 32.0898190042
29.2219 3.89165 11.6773 29.8435062681
30.9833 4.73172 3.87001 28.7858705835
36.8802 6.57325 12.4951 34.6467168159
28.5792 0.355718 7.33523 28.5443198453
32.9312 6.74034 5.11263 30.7423803046
29.9215 9.39223 12.7639 28.8398275262
35.5553 11.5574 13.9619 35.4715493478
28.523 6.99806 6.99321 29.4721585344
24.7363 2.57772 8.28119 27.1105048945
31.7682 0.991423 5.96983 27.6413550762
31.2492 8.40578 6.381 29.943268538
34.8775 9.07711 12.0838 29.7798848277
35.8186 5.45133 8.49178 29.8272782499
28.9034 9.50476 4.64528 33.2834006062
24.8522 0.203816 4.51914 28.0549164787
30.5316 10.2985 9.34027 29.3280454552
34.261 11.2166 6.58156 30.5555030238
36.4863 9.95889 6.13685 30.1108000165
35.4015 3.06282 9.99753 28.1323441801
35.8851 7.7031 4.39687 28.9744826108
29.0665 10.9038 15.925 28.1853734109
25.4296 11.8727 7.7046 28.9398916381
32.2056 3.21366 7.55806 33.6791484127
28.5449 2.24174 9.69221 25.7645123347
34.3035 4.76919 6.59742 28.7233748935
35.7405 1.88198 13.9682 36.9396114907
33.1272 3.41189 11.57 29.5908219811
29.9144 3.2293 16.4135 32.0954204097
27.1897 4.07886 8.3113 27.9512632996
26.8478 5.25207 10.8751 26.2068653876
26.1763 5.2968 14.7486 27.6751450428
29.5495 6.95402 11.5306 31.4368969281
32.0711 5.87885 11.9669 32.3088914032
28.4759 8.49243 9.35837 28.7154187324
34.5476 0.219033 6.30809 28.1887794727
25.8575 8.8498 8.89426 25.8701457788
28.3719 2.47111 5.48032 27.0088648974
26.4198 0.987274 10.9619 30.6564332212
29.8345 4.51965 6.44209 29.5898187288
32.9892 9.14818 8.27846 31.2367524304
33.7149 11.3905 10.8338 30.7866178029
26.5434 9.81569 6.08941 26.4848494999
25.6984 7.1459 5.53344 27.7323653439
27.3725 0.953543 13.9685 30.0504106949
28.2621 3.56707 14.0358 29.3999045311
34.8684 2.60861 4.9391 27.0544551917
27.5641 11.4635 13.5534 28.0916577531
31.54 1.70848 10.1918 28.9746510754
32.8437 2.06398 13.8969 32.140531415
25.0797 6.3879 8.33238 24.5264396708
27.5816 7.69828 14.5483 30.4333061818
32.6136 6.35367 14.6436 32.7417712705
32.4254 10.4032 4.59926 33.6543954144
33.9954 7.25647 10.0194 34.6358222204
25.9754 10.488 11.4027 28.020943816
30.9797 11.5852 11.6704 29.6213068505
25.4908 10.1673 15.4045 28.6991142437
31.147 8.58699 15.1002 28.1445753985
33.1866 9.75652 16.1829 31.3325316734
27.2574 5.29155 4.18389 30.7740418385
35.193 3.07347 16.6485 32.0155517873
32.6246 3.96729 16.1009 28.0294936732
25.0434 3.46912 12.2476 28.4383889348
26.0494 7.87409 12.0895 25.2684609899
36.2907 0.550057 9.75351 30.052711923
26.5746 1.36029 16.648 30.967828112
26.0047 2.68235 3.77484 27.1786119965
25.4084 11.3305 3.64794 29.5502375851
31.7965 7.50536 21.8308 30.5342948095
25.9555 8.34432 17.3806 30.4527168022
26.5954 2.47296 24.3734 93.4108293295
34.3816 9.34947 18.7123 28.719385937
26.7221 2.52681 21.4183 28.4847428505
29.1934 2.83558 20.8774 27.8886292641
33.9415 3.58208 20.962 33.3505487078
26.0206 3.90409 17.3616 35.5671671307
25.9041 9.25821 21.1682 25.9775885757
28.6303 5.32428 17.806 31.6508921428
31.863 7.99179 18.974 31.6022196552
32.4547 5.01536 18.8542 31.0342344227
34.7844 7.77508 22.3774 28.5610359563
36.2135 1.73678 20.3453 30.0870581632
34.7702 6.49792 19.5981 26.0810553044
29.8083 1.12913 18.6145 31.5656577192
35.1695 0.65529 18.152 30.5162164123
34.1779 9.78868 24.3518 87.0064208828
36.628 10.1959 20.8784 26.9039151125
26.1733 12.1825 21.1153 29.7771669103
28.843 0.332702 24.0732 95.8233694026
25.9443 4.83996 20.1271 28.8686049315
27.396 5.37242 24.394 83.4435728455
31.2335 11.5654 21.449 32.9142414876
30.8967 1.8703 23.2641 35.867697231
29.8789 5.41998 20.3945 27.1980031751
33.5531 1.16837 24.0325 72.5867047066
32.0356 11.4519 24.2757 67.8456174838
28.3388 10.1535 19.4633 32.0389440054
33.6609 11.8431 20.2716 30.6631318202
25.3311 9.44763 23.9441 41.4857302933
27.5365 8.15649 24.7504 117.3471210894
34.4567 3.9296 23.8941 66.2139396037
31.9486 1.01596 20.9944 29.7140372028
30.2567 4.90745 23.5796 53.1248319743
29.2653 8.28058 17.446 28.1978875767
36.0911 6.81213 17.2423 29.3133781985
27.2726 6.79381 21.547 28.0799732914
29.265 10.8857 24.3686 78.0947781011
32.8826 6.28918 24.3125 111.1383318725
29.3306 9.09878 22.1536 29.7769603783
36.7449 10.4523 23.7966 42.1140549447
24.7098 6.36791 23.4606 43.2966423129
26.05 12.1097 23.9468 59.3661445237
32.4376 0.0417554 17.7768 30.0092925829
32.3636 1.01139 39.2675 25.0290934063
29.984 3.24502 35.6384 106.9412401966
29.2121 2.44921 38.3811 29.4117240766
27.7748 8.38108 42.2703 28.9705080798
34.5005 2.65322 35.5959 94.9727205632
36.5107 8.52919 41.3154 29.7524605714
32.6776 8.41618 36.0025 87.027826496
36.3879 2.10593 38.5627 29.4288860157
34.5013 4.09274 38.5487 27.602837563
31.5519 5.21353 36.7354 37.4152277895
31.5346 8.91875 42.1039 28.2583608631
26.4994 6.69464 36.1048 69.1857600929
34.2915 5.26756 35.9416 66.6798265951
30.4584 7.65594 37.7703 29.7204445318
28.5703 8.95286 35.729 94.2414149246
36.8244 1.5975 35.7691 63.824876758
36.4209 7.53703 35.703 95.2189585933
27.0732 2.25734 35.3414 121.5227429912
28.8573 -0.112193 39.3817 27.7586319608
31.9982 1.33647 36.343 39.2507730687
32.5971 6.03029 41.4788 30.5868216809
28.5781 11.1527 38.419 28.7328658904
34.2241 9.85751 42.374 28.0417601313
30.7984 10.9895 35.9198 60.1655089117
26.0545 2.65355 38.7435 28.6788077606
26.5716 3.40076 41.3284 29.6074200606
34.701 0.177876 39.8146 29.2729745113
31.8459 3.83558 39.6303 28.9520579851
30.8193 9.89299 39.4091 28.7635821223
36.0304 10.5757 38.6213 30.0955223944
28.6501 4.74668 39.9254 29.2904581481
34.9115 8.23863 37.6426 28.1583933774
27.5061 11.634 35.8729 56.0103247452
29.5891 6.15679 42.1637 29.1619445682
33.5988 3.07927 42.341 29.9933892505
35.1279 6.35327 39.9228 30.0265116888
33.1239 11.0512 37.9216 28.2808817107
26.0386 11.6838 41.9867 35.2309393524
26.4715 9.52752 39.9687 26.8483718156
25.321 4.08619 36.3825 40.5214079125
27.8776 7.19519 38.7579 30.6433709108
25.9817 6.17159 42.3566 32.0262364705
31.4707 0.338152 41.8095 28.5950337286
36.3277 3.19331 42.4438 31.8687247715
32.9067 12.0629 41.3107 25.8113340803
24.8241 10.9304 36.0779 63.9382168854
24.9757 5.95238 44.9842 30.6774086621
29.487 4.3081 44.3435 30.3234398385
26.9216 9.61917 46.3034 26.5258304165
31.8959 3.81267 45.0572 30.7960092331
36.8397 6.67379 48.2379 28.203247129
29.4747 3.00813 54.2839 27.920887458
29.987 10.1315 49.5762 34.1411281663
32.9586 5.01033 47.507 34.1898441995
27.1672 1.96697 54.0954 28.8958821333
27.8075 7.04114 45.1959 26.7881334778
33.8161 5.88388 44.2077 28.950303134
29.9866 8.1343 47.2604 29.4548728485
36.8206 11.726 54.0139 29.288827199
25.1095 3.59475 46.7875 30.5223274254
34.731 2.38236 49.8482 31.4395650213
28.2108 6.52152 48.641 31.4227749223
27.6002 4.57065 46.6823 27.4175921655
33.4027 8.4376 45.0481 25.2471336174
27.0696 11.1974 54.0768 33.6803787586
32.0615 11.2787 47.9743 28.4474474855
35.7331 8.9065 46.7412 26.5405863758
28.4261 1.94273 47.42 30.1032220511
27.7454 1.05988 50.6627 28.8115683195
32.1367 2.59393 49.3979 33.264318242
35.5834 4.49599 46.7323 30.1505143566
30.2964 2.29869 51.695 32.5998565023
28.5368 9.04283 54.5736 31.2136894305
31.0584 1.68822 46.9586 29.9997608627
35.608 10.7775 44.5497 24.6993223607
26.8645 6.15183 52.3993 29.96337597
26.1065 2.89157 49.443 28.3389627378
32.6978 7.79436 47.8859 27.1760326382
29.2555 5.22493 50.7716 34.3853474435
33.5021 7.74035 50.4887 28.6617651717
24.882 11.8288 46.0288 29.862661349
26.4909 8.48534 50.3448 33.6958391944
31.1126 7.0908 51.9021 33.0036155112
30.5091 9.79882 52.3524 30.7560895287
33.2691 9.795 52.5357 29.4871825143
34.366 10.4006 49.1973 27.5860258185
25.7672 3.72353 52.3578 31.1014269413
28.0911 2.05553 43.5011 34.2351732022
33.2757 0.558101 43.6934 26.4081578333
36.5991 5.20091 44.4169 27.8141658231
35.6834 3.97377 52.0188 33.183960842
32.8965 3.172 55.6653 30.5856636372
35.7506 6.35487 50.7487 28.4904304455
32.5432 6.49309 54.365 35.0836916188
25.9053 7.95292 54.4436 33.0525055021
28.5871 5.73693 54.4784 29.3373093497
34.8003 4.60499 54.4435 31.4833545091
25.0583 10.1365 52.3537 38.9036184578
30.5416 9.08034 44.5486 27.140177732
25.6498 1.49001 45.1791 33.6277580216
33.9251 8.91431 55.2499 32.2975025106
27.4519 10.7085 48.5556 31.6738672685
32.4255 11.3675 45.1451 26.9044715964
28.2071 10.7046 43.8932 27.1083280085
36.8738 9.16513 54.7344 30.5572694293
36.3026 1.93979 47.6671 33.8977585604
30.5899 12.3073 53.97 31.6531333545
36.8283 5.51964 55.998 27.1079332011
33.3554 0.147393 55.8162 27.8515262773
36.9145 11.6787 47.8192 26.8206965176
34.8766 11.762 51.9398 26.9068458007
30.0664 1.15348 56.373 28.8287526055
25.6654 21.3205 14.6097 31.3178562178
29.7072 12.7283 8.58544 29.0900340148
29.1131 17.3699 3.97906 31.4565544199
31.655 15.9781 6.40978 29.0805299481
31.7998 14.5428 8.7969 29.0505435014
35.2911 13.3167 12.0393 26.4486421761
32.8513 18.3736 6.9107 31.4560254701
28.3175 15.9581 8.97573 31.3645684494
33.1714 12.7093 15.7808 26.0492507175
28.5107 12.3789 5.86302 30.1717004068
31.5184 20.284 8.27514 31.3313422457
30.5074 13.007 15.355 27.2130919223
28.8025 20.2246 7.60724 31.5474320586
28.2387 22.7025 6.25819 30.3621068631
28.7775 20.2673 4.06435 30.4598514428
36.1647 17.2634 11.8794 31.6263224405
28.9583 15.2309 6.36108 28.7176447414
31.5119 22.5201 6.39838 30.1202975852
26.0277 13.7508 4.98158 32.0314387608
36.0461 15.6115 9.6393 26.6815191763
27.1092 14.2941 13.5747 27.9642512983
27.9037 16.5788 15.9848 30.2330255592
32.7244 16.3415 10.4592 29.8659463218
28.9397 16.8346 13.3558 28.3591985165
36.6146 20.5862 8.58034 31.4643226462
26.1662 23.8783 7.95206 28.2433348684
33.8479 18.9424 4.22946 31.5477981481
27.0657 17.8555 7.21918 30.4448727074
25.3957 18.6157 9.31629 28.3550300896
30.2182 18.168 9.87196 32.641613786
33.8248 21.1164 9.85811 31.4456196717
35.4988 17.9512 7.80477 29.2147815608
34.0675 18.9213 11.6413 32.4264395661
30.9022 24.4973 11.9731 30.5603386626
36.2827 22.3711 13.6899 29.8072431069
29.4243 22.2322 12.9081 32.4769611242
26.5766 21.3201 8.96171 31.6745113455
35.96 16.4586 14.4301 28.5682090134
36.3241 24.0307 6.12044 31.8130905856
24.8069 18.6496 13.7385 32.3328555381
27.0498 12.7408 9.6948 31.0169905209
26.7722 21.7502 11.9138 29.2136428888
26.2147 22.1319 4.12264 34.492559208
30.101 13.7524 12.8932 28.083713582
33.9304 14.6075 14.075 25.7880007675
24.5813 14.2471 14.6557 30.8660679329
33.1037 17.8421 14.4865 28.0245303905
31.0342 12.6651 4.11829 34.9882990788
33.6914 23.0046 11.9664 29.4511254863
36.6354 17.8117 5.35981 27.7857385699
30.7717 19.746 14.3945 30.551372694
34.2915 13.3711 8.74509 29.92329394
26.3369 15.2037 11.1142 27.041932831
35.4924 13.8327 6.14844 29.5417649251
32.4002 22.0655 14.4132 28.2778228879
34.4875 20.4438 14.3567 26.5587915106
36.5752 24.0672 15.8994 26.9162139579
28.985 19.2339 12.189 29.5552410499
31.6834 15.9121 12.9651 27.4883390821
27.9673 23.4088 14.9969 29.5173458417
33.066 14.7991 4.46503 32.3167875831
33.729 23.5016 7.95991 32.638464812
26.2558 16.5741 4.452 28.1052593639
26.469 18.0065 11.7106 27.0364892921
31.892 21.1956 3.99252 32.656041187
36.6399 13.045 16.0937 27.7370809449
32.4022 24.3963 16.1926 29.4136702226
29.3388 13.6453 21.6073 29.8463783312
27.5707 14.5217 19.7375 28.7612525909
36.0188 22.6597 18.256 27.8969420951
35.858 13.2848 24.2981 82.1915046674
29.6392 18.6836 16.8639 29.4778382456
26.8592 20.2658 16.9472 29.929852935
33.4811 23.4835 18.8618 28.7628629285
27.8367 19.7096 21.4908 29.3870200652
25.2326 21.3026 21.1996 27.1363661487
33.1953 13.4774 18.2078 29.6907914871
28.4856 17.6819 19.6476 30.19086314
31.4851 15.7005 18.2156 30.1381289432
32.0892 18.3068 21.8421 32.2054123343
33.2927 13.8682 24.2797 89.5853925075
35.3708 20.5584 16.8076 27.2692065857
33.7665 15.4379 22.2075 29.9735331445
30.8848 22.0264 17.5045 30.2519977462
28.3521 22.4208 21.1143 27.0446080035
35.8439 13.5687 21.061 30.1565826432
33.9314 18.956 18.4249 29.6204173977
26.9204 16.5542 23.3629 46.9668071907
28.2118 13.9539 24.1499 108.6678456739
31.2084 15.651 20.9235 32.824371286
31.3844 19.6927 18.8014 27.5720253802
26.0119 16.5631 20.68 28.645114159
25.5757 23.8076 23.8216 72.4197133794
27.2948 19.4324 24.1467 93.8965493977
29.7903 20.8675 24.1627 76.8360925816
32.4417 19.7556 24.3424 92.9274505507
34.133 17.4393 24.1486 73.8218024014
34.5632 19.0968 20.9431 28.5202930411
24.6618 21.3407 18.4221 28.6528051305
32.018 23.7712 21.714 32.3879350851
24.8558 21.0465 24.2005 74.9152141984
28.3653 23.4492 24.0244 65.1555704161
34.4594 21.8146 21.57 28.697797691
30.774 21.1613 21.2086 27.296787339
34.0744 22.0341 24.3375 66.8922714276
28.1478 22.6709 18.228 28.7722920478
29.2135 14.5338 17.1045 28.3605881216
25.8991 17.8415 17.8941 30.07298695
35.8589 14.6237 18.4016 32.2541011243
24.5474 24.1568 21.3699 31.1676508894
36.859 17.7338 24.3134 79.0496416087
27.3202 12.3328 17.7971 29.2372329109
33.9835 16.4064 16.8519 28.4352790369
29.8975 24.277 38.6119 29.9694974803
24.6209 23.8834 36.055 59.5705460458
32.6899 23.4775 38.2868 28.9561252021
33.8445 17.6351 36.0912 57.502083924
29.3654 15.1911 39.7517 31.4074904898
31.763 15.8269 36.2317 48.6810104674
30.5571 21.2982 36.0999 67.7224221771
36.8235 13.7788 38.77 29.5304233591
36.3838 16.6351 35.6972 82.6498775263
24.8172 19.5216 39.2221 26.8156421423
35.8262 13.6814 41.8038 28.4481713355
29.3458 13.6016 35.2619 117.0205116801
26.8926 15.3111 36.0269 65.2183646584
27.6138 17.3631 38.491 28.6860568272
33.339 20.2677 35.801 78.8948400448
29.1304 17.0468 35.8832 79.427828469
25.2193 13.9775 40.4769 29.1628519531
27.5948 20.6915 38.9784 27.9868003829
27.224 13.8333 38.5148 29.8775464616
35.7466 24.0205 35.6836 87.7121028746
35.9793 21.2588 35.8254 69.4797964311
25.2158 18.3959 36.715 30.9320044918
30.4242 19.1602 38.2878 32.3036397393
27.1617 23.7051 38.288 28.3434964739
27.9752 19.8157 35.9888 72.3709255505
33.9136 13.612 39.0725 29.1750524145
33.4475 18.1412 39.0418 26.3869183719
34.1194 21.2172 38.6042 30.0291308087
24.7934 20.7971 35.3999 125.9486093942
26.0234 16.283 41.8628 25.6840076235
30.2256 19.6457 41.2563 29.0500109954
27.3038 18.8663 41.3705 26.9614682935
36.6873 16.232 42.0809 29.7539552464
32.2607 23.9257 35.5552 89.3504541343
33.3363 13.2035 36.0231 66.7921206993
32.0358 15.6426 38.8325 30.9558907239
30.128 12.4659 41.1169 31.9583210684
32.4358 18.1684 41.6669 29.9977088426
35.9908 17.6235 39.8345 31.0283370995
29.0847 22.7319 41.1798 29.6167562956
25.4548 22.0297 41.0271 26.2446666286
33.1487 22.7509 41.3187 31.0758902123
31.2198 22.4702 42.8363 27.3922523319
36.0519 13.5391 35.5949 103.7349088876
36.3263 20.0829 41.2738 29.8818708875
28.7399 15.3798 42.6302 28.6845803344
24.7473 19.9462 54.9654 25.3049307142
35.6646 13.3394 49.8262 29.3145652142
33.8367 19.4993 43.6388 29.339503879
33.4088 13.5609 43.3899 28.1256979023
29.8446 12.781 47.1333 29.4863170595
25.1671 19.5922 49.9894 27.6985756659
35.3586 21.6278 54.1595 32.0723999499
28.1244 16.5178 46.3238 29.0479188733
26.8646 22.8364 52.7949 28.7297066383
27.1358 13.5055 45.254 27.6345072448
27.8946 20.4838 44.0514 29.6628328435
31.8217 16.1128 43.525 31.3834111313
30.299 15.2357 47.9318 28.404351587
35.2159 13.4521 45.7737 30.0215444865
29.3277 17.7021 43.9164 26.2194463263
25.7415 18.7 45.6302 28.0876712604
35.0447 21.9076 43.2682 28.2739630472
28.2839 22.3516 48.2918 34.3996517183
35.9545 18.3438 52.5393 29.8659055454
31.0424 19.9325 44.442 29.3443629665
30.0959 12.9856 43.8808 27.8401805053
36.3849 20.9028 51.1516 30.9760000129
27.018 13.4395 48.0791 28.1285574585
25.9572 22.6641 44.1892 30.0425942813
35.469 22.3417 46.0662 27.7537594069
32.6736 13.7138 53.0407 37.4043306587
32.1663 15.1063 50.4369 33.5833128249
30.903 17.7923 49.5101 28.2990132427
24.831 15.6115 54.6525 29.3342449129
25.3157 15.7024 48.7738 30.2499144172
32.1813 17.1743 55.6092 31.9454199136
28.7361 17.1145 51.114 27.6363826083
27.681 20.1108 51.8735 30.5856073569
31.2735 19.652 47.4547 26.6384502946
27.1898 17.8396 48.8283 26.6065443177
26.3502 23.6903 50.1352 34.6342330902
32.5535 16.669 46.1719 32.019457992
28.2417 19.905 46.968 29.4640228153
35.0293 17.7571 47.7135 29.5385489394
34.9481 16.3261 50.112 27.8851256223
32.7687 17.9816 51.6591 27.7621779464
24.9688 15.8405 51.7963 28.7331848193
32.8756 23.2226 47.4651 31.3235476687
32.6777 22.9526 52.5896 32.1371135321
33.5676 20.6323 50.6893 27.0583472526
28.1108 16.3452 54.2377 28.4103748787
33.4355 14.2216 47.8247 28.6712802551
33.9067 20.3936 48.0531 28.8781621478
31.0312 24.377 44.8087 29.6798953634
30.5919 18.5895 53.4567 31.0783908638
30.5916 21.0897 52.1042 28.2585160079
35.8213 17.9716 45.0356 31.0837192027
27.929 14.5869 51.0263 37.1628361486
36.5066 14.5081 52.9725 29.1800585863
30.8822 21.6246 49.1195 30.6521511762
33.8322 24.193 50.2024 32.5556532933
33.2753 23.0672 55.161 30.3604358339
29.8665 22.0121 54.6392 29.9319103897
27.3039 19.1324 54.4658 28.2892890557
28.5089 13.9652 53.6154 33.3255873858
25.4935 15.8649 44.4295 31.475417699
34.298 16.2053 53.8049 26.7283007213
36.3832 23.2641 49.729 30.74268922
35.7687 15.8402 56.2236 27.1532141898
36.3592 20.2768 56.2184 30.6496579649
28.8717 32.6791 14.2169 30.0369329231
30.3081 25.1525 6.18064 29.1518304751
27.1757 26.5634 7.86291 31.6451822682
34.9353 27.3542 5.64876 29.9238324705
24.9951 30.1349 4.73737 29.1363497039
31.6396 27.6878 4.72817 34.2081973035
26.745 34.5872 8.25595 31.9278608362
27.7059 34.9629 14.1271 30.428122653
29.9621 36.438 13.1332 28.9329291294
30.1956 26.0946 13.8695 27.0564492604
28.0742 29.5521 4.78276 32.272954479
26.2336 30.971 9.08914 28.9094466692
26.7179 29.2432 16.1952 30.1634201284
33.2507 30.0173 5.13163 31.0409421001
31.7367 32.3153 6.29492 31.0877994499
30.5012 32.1773 16.0849 30.5400787746
27.1989 36.3018 16.5684 27.4553662962
34.3686 31.6849 15.0293 32.5571531126
32.9438 35.7861 5.22987 30.1394730624
35.1167 35.8845 13.079 28.9717713531
33.4227 25.056 5.27335 28.8452375728
29.5393 25.2023 16.7647 25.0331300366
33.8413 34.0249 7.30793 32.2899201265
26.7491 30.7627 13.9891 32.0254444257
35.8604 24.644 11.4292 29.4145955618
28.5362 32.7045 9.89293 33.8932657444
26.459 24.484 10.9674 30.4130398999
26.0815 29.1278 11.6038 32.3677079225
31.3624 29.6544 11.666 29.4358211551
30.2842 26.9369 8.24181 28.5472018202
36.5348 29.8601 15.4003 29.3084128013
32.1834 35.679 14.8074 29.57571507
34.7721 27.173 10.1769 31.7171412505
32.5493 25.2335 9.65239 32.8319941479
29.4047 35.7788 8.03552 31.5869977422
25.7482 26.6709 15.2994 30.1837885815
30.7977 32.409 12.1932 29.2529321891
30.3269 30.9189 8.43469 32.130900665
32.136 29.0908 9.25737 32.5969452024
36.3507 34.2611 9.01423 28.1333577843
34.7873 32.817 11.1849 28.7603981586
29.0125 25.7648 10.392 30.2492932516
30.1538 35.014 10.6992 30.5723126717
28.1664 29.4229 7.68892 31.2258270134
35.4499 31.7747 5.60023 29.4557054641
32.9088 34.5927 10.0053 30.9929829899
33.0673 33.4408 13.276 26.73337953
29.0433 28.1233 12.0059 33.1322955852
30.3187 35.1713 5.36822 30.9158894151
27.4705 25.808 13.5041 26.8619461682
24.8551 33.5746 10.2827 33.1835143709
32.3425 28.7488 14.0196 32.3649211633
34.9358 28.9203 13.0058 28.8647484915
34.5525 25.8188 15.3032 32.2332031807
35.0429 30.2332 10.1998 33.3404018033
25.2121 34.9747 12.9912 40.3056964288
36.551 27.3084 7.8596 30.1146209769
25.7801 27.2681 5.51201 26.4753804267
29.5752 32.3596 4.53135 32.7512171029
25.4448 33.2779 6.00189 35.4888977749
36.4437 26.7303 13.0939 30.8004428356
26.0804 25.1634 4.13841 29.074612396
29.6059 28.0445 16.3628 33.3898142078
32.3555 30.1517 16.3633 28.6371877277
24.8693 32.5088 14.4984 33.2263240528
28.8838 25.3954 3.69169 30.616117138
26.524 25.0702 17.7625 31.7412700974
36.3299 29.3949 20.3149 28.2546158036
26.5649 25.6782 20.4049 30.5829999365
28.1911 34.0954 22.0179 27.5462856061
35.8574 31.4873 21.8881 28.9419926635
33.4738 36.0015 18.4407 28.9520538416
34.8502 35.693 24.289 74.5777243289
29.4228 30.9179 18.4699 28.4689586478
26.0755 29.0925 23.5214 31.7007369648
32.1557 36.4105 21.3441 26.6294784331
35.1607 36.5437 21.5999 30.9332751538
33.156 30.3671 21.3266 28.9163937065
29.6779 35.8454 24.245 77.4332998629
27.3505 34.1506 18.6067 29.5431345255
30.2725 31.249 21.5047 27.7101005332
30.025 33.6099 19.897 28.4615567122
26.2991 31.6124 21.5697 27.0473524569
34.6789 33.9116 19.5751 30.3208514064
29.1922 25.5972 21.6389 25.8131973333
27.5119 26.695 24.0299 73.4853811968
28.4422 30.5652 24.2646 71.1945819577
30.8136 28.5401 18.834 27.5311728235
30.1095 28.1644 24.4096 82.3654257599
32.8821 28.7691 23.7203 38.9643409285
35.4921 26.8557 21.4196 32.4142047168
35.0012 27.1562 24.175 54.6372484009
33.788 26.3243 19.2956 32.1106246244
30.7733 25.3372 24.3375 73.0266502575
29.5713 28.4632 21.6085 26.8585889312
33.6147 29.3102 18.7193 29.6962971125
30.2744 32.9882 24.3882 77.6197225154
32.7566 33.4379 24.2468 52.1940005031
32.7015 33.4362 21.6447 27.2465142565
30.8185 25.5552 19.2043 29.2251144053
26.9263 28.4403 20.9439 29.0815158357
31.341 34.7164 17.3947 30.1850942874
26.3981 32.8424 24.1504 66.2725860058
36.2743 32.8589 17.1874 33.5583416188
34.061 31.1942 24.5929 96.8305756441
35.7717 27.6967 17.1624 29.4968662827
26.6602 31.0991 18.5938 29.1162898196
25.3248 35.2674 24.2352 69.4150260124
33.6519 24.7653 24.638 95.0250782024
27.1468 36.2296 20.2458 26.2352523632
24.9739 36.4479 21.6866 29.1194208859
29.9131 25.4592 35.854 66.1390588448
28.9284 25.4428 42.9203 33.8571621254
26.5838 29.9031 40.5053 26.5710982062
26.6359 35.1744 40.0321 28.9307142284
27.8591 36.6764 35.9052 81.8080381855
26.8921 27.3067 39.5021 31.4514289834
35.1925 30.7173 39.6252 27.7861059257
26.5278 27.9954 36.5869 39.8901321852
30.1557 32.8256 42.5638 30.1563426425
28.8606 30.0348 35.7356 84.5961303788
30.5927 28.1278 35.7529 68.6649139996
32.9345 32.3948 35.7123 79.2519376937
29.0792 35.9466 41.5588 30.3244524498
33.2922 29.1985 35.7518 74.0755637926
31.733 31.0224 39.847 28.2897513542
30.2803 32.6952 35.7758 84.7362161051
32.12 35.4518 36.7387 46.0521643334
27.1558 25.2723 35.9728 85.6465634622
34.7928 35.8956 36.7263 31.6009822452
27.0713 33.8759 36.1514 58.8106027335
25.9753 31.1257 36.295 41.8242861133
29.7329 26.9407 39.8248 29.8135780822
34.3127 26.5559 35.8394 61.3820491525
30.967 35.298 39.5072 27.6132093062
33.7081 33.0288 38.2998 26.2294576797
32.6914 33.5766 41.1705 30.387460331
36.6938 28.1816 35.9069 65.041401922
34.0458 27.8527 39.7136 27.569008213
34.9475 34.5046 42.5412 29.7940127182
33.6917 30.6815 42.2696 30.4245739278
34.8725 25.0552 41.8318 28.9529117434
35.5142 30.5162 36.8354 30.5805152642
31.1141 27.3408 42.2949 32.9601715139
29.7606 30.0207 42.0232 32.2742453565
26.7061 24.5957 40.7961 25.9218949585
34.1864 27.4603 42.566 24.7572839974
28.9936 33.6211 38.3237 28.4000315376
29.0752 30.6292 38.5444 29.2095000024
35.863 34.8951 39.1597 27.7898863441
31.5536 28.4266 38.5515 28.4049321983
35.8642 33.3741 35.7039 80.0380921841
27.6381 32.4888 41.0263 26.7947184444
36.7095 30.9236 42.6513 27.6121625749
24.9313 31.8251 42.4885 27.0595053237
34.6803 25.5131 38.9952 28.1226100531
31.1273 26.7084 53.3754 33.3580807327
29.5164 27.0381 48.6848 32.7465242824
28.8986 29.498 47.0938 33.6115432365
31.3228 29.0338 54.5602 28.5375867464
36.3136 32.8634 52.7874 30.6603711398
34.1168 28.297 48.3924 30.7882673429
27.151 31.0344 50.0673 29.6816469976
35.7272 36.0443 49.8184 32.2111093067
32.7333 26.2919 44.8705 26.0489833378
25.3942 25.3639 47.2981 30.2034146241
30.0819 32.9755 45.3848 31.7102283883
34.995 25.0455 46.3915 31.7896831456
30.472 30.4007 44.9434 30.5195974168
32.9819 29.7782 45.0214 30.2319842775
29.0942 27.7857 55.5938 25.8092868775
29.3305 36.0153 48.205 30.9842826774
29.6297 24.6696 47.1475 32.3657829082
32.0053 27.6657 46.8164 30.7919713205
25.8114 32.9141 48.743 31.437402196
33.6286 34.1996 55.8675 31.0621824049
27.3481 33.6456 46.0545 30.1948542848
26.0171 28.756 50.9581 31.0101655972
26.2932 31.3842 54.229 28.9791778488
26.2179 29.9456 46.0663 32.0817103028
31.3757 27.4735 50.8257 33.3490697879
30.3584 30.9222 52.9602 31.7800754991
34.7366 30.323 52.3318 33.3571266654
27.3019 36.5399 45.8655 32.8276953392
25.576 29.2747 43.4443 31.8809602228
31.8721 30.2329 51.0895 30.1796681972
33.7676 35.333 45.2212 32.6876895734
29.8319 31.1112 49.2948 32.5082181563
35.1185 31.0377 49.0916 31.4140354534
36.5737 28.3732 43.6131 31.4373078207
35.9326 35.781 53.7261 30.5478712314
34.8145 25.433 55.6308 31.7163766574
26.9625 32.669 56.3864 29.6247498218
30.5006 33.8357 49.3211 32.3761030604
32.209 33.7477 46.8943 33.1920514839
35.6474 32.4664 55.824 28.1614439098
32.105 34.5328 51.6361 31.8846828033
27.1755 35.4346 55.2463 35.8440045416
36.321 32.998 44.3584 30.7681852825
26.7764 26.6501 49.3158 32.6759513648
24.8766 26.4696 44.3357 28.5966045335
36.126 28.3986 56.2062 29.5096201922
26.8508 34.0057 43.3206 27.5338956889
35.1007 27.3844 53.1712 31.0024307842
25.9482 25.2022 54.2298 30.8900724314
34.0692 26.8323 50.6329 29.8671552869
28.1407 32.4684 52.3795 33.5028108032
25.0293 35.3485 49.6033 32.2229796658
31.1618 33.332 55.0019 32.0399990125
34.1422 30.0669 55.2342 28.2320134879
36.1855 27.596 46.4653 33.6369712677
29.7661 34.7303 53.3656 31.3945271432
34.6247 33.4977 50.7402 32.8311267916
24.7615 28.7107 47.9831 29.7264234576
27.3774 24.8962 45.0355 31.6498831287
34.469 31.983 46.59 35.5005137768
35.9255 35.95 46.8785 34.5970484478
26.7417 28.3958 53.8558 33.0478968038
29.2218 24.6304 53.5081 36.6872627382
27.5905 36.8045 50.0599 34.3746600525
24.7205 32.4573 45.3714 27.4507470942
26.2206 41.2402 6.54334 33.7863332736
34.103 36.9607 10.7891 28.5755403081
27.1792 46.6953 5.99569 26.6741008844
32.5367 39.6194 7.27733 36.047473921
31.8913 38.8493 4.67919 30.9083298414
35.1602 37.8694 4.82329 31.4403062282
36.2035 42.5725 9.94747 27.6076434833
28.3733 44.0378 12.6917 29.5514603795
30.6976 46.3201 5.46561 29.1467189511
28.8762 45.7456 7.96199 30.430821923
26.2778 38.4194 5.56534 32.4456764657
34.5424 43.7566 6.72603 28.8397212236
31.6806 42.3919 6.83862 33.9419060434
33.0819 43.9273 9.05696 31.6264496735
36.0643 37.97 14.6062 28.5342397285
26.2194 37.3176 8.16862 33.0849800076
25.5135 49.011 7.25848 29.6526755061
28.5558 37.2257 4.28914 33.9373247761
25.6628 45.8024 15.7874 31.6294888935
27.5779 47.4623 10.3529 33.1634051674
35.3799 46.0604 5.7094 26.4180417014
32.1135 43.9974 16.7737 30.4127876344
36.6319 41.0465 13.9263 32.6278267915
26.0994 42.1899 11.8391 29.0594390757
26.1747 45.8341 11.9895 32.1753437884
26.0893 38.5638 14.7117 33.695142812
36.5108 41.7348 7.24788 31.2641810779
35.1106 43.4253 15.7614 30.1891301458
32.8705 39.0487 11.6418 28.9797223182
30.1549 38.2841 8.75479 36.1024962901
33.0307 46.6656 4.06753 28.8021400074
29.3789 43.3192 8.48413 31.1977021698
25.0682 48.2447 13.4541 33.6805477749
35.2259 39.1808 7.29641 32.6482056537
27.127 41.8247 9.06111 32.7331790586
31.947 42.102 12.7642 33.0091825911
30.1044 48.8042 13.7393 34.8298453197
34.6484 41.276 11.7974 29.1345616843
32.6942 38.2756 14.5283 28.5762862803
30.9796 47.7852 8.14055 27.4180604319
30.5235 43.7645 10.9167 30.1656174337
32.0687 46.166 11.3142 30.6797810672
24.6849 43.5949 14.1529 31.2154970874
27.6254 39.2717 9.42722 33.3376000754
32.9947 48.4837 15.1311 30.6148706014
36.8435 46.8044 7.91954 28.291037253
29.8356 38.8711 14.8213 28.6109577925
32.4517 45.797 14.2292 28.0827113097
27.0609 43.7192 4.84821 30.7103716729
35.9479 45.6011 11.5319 27.210763229
29.721 45.9683 14.3815 33.674731336
30.046 43.7076 4.46032 31.7637260417
30.2686 38.769 11.456 29.8088342243
28.1549 41.95 14.7611 29.7489860137
34.3117 44.1422 13.1389 27.815172806
31.3628 41.4246 15.5137 26.9518638004
34.2941 46.2431 9.44391 25.2191605589
27.6015 39.8848 12.5985 33.2027109873
36.3015 37.3878 8.98103 28.9164074325
33.6272 48.6931 8.93442 28.2841922303
35.8416 48.0346 14.4825 33.0919646112
30.2046 48.374 10.9207 27.0582064888
33.1992 43.1583 4.013 32.7294937573
25.745 41.948 16.141 30.6926454314
36.6922 38.7177 11.5157 26.1388356154
32.9602 39.9211 17.2163 29.8334808988
32.7911 47.4106 24.1302 72.1970829137
25.3662 46.5754 21.6845 37.9911749947
35.7221 39.5453 21.3468 26.6714064238
26.8303 43.3138 24.528 117.1780168258
29.4245 37.3538 21.5336 30.3055182635
29.3302 41.9626 17.4587 32.9366764154
27.5887 41.4692 21.385 34.3452075751
27.2214 40.6496 24.0526 54.5948632131
28.7962 39.8347 19.4517 29.1849502014
31.5265 38.6959 19.4935 27.6255538353
24.9655 43.947 22.6629 29.5565405655
34.5877 41.8899 18.8715 27.4970600083
29.6928 44.4315 18.4532 30.2372059517
29.5924 46.3836 21.257 32.409585015
34.4428 45.2538 18.3129 31.6174525982
35.6444 48.8602 22.3155 27.2595573118
32.0291 39.7259 23.839 55.6140323409
36.6121 40.8432 17.2603 28.9272188456
29.3474 38.8059 24.2257 78.8105522306
35.0325 37.9258 17.2128 28.1213656036
36.1206 41.394 24.1113 60.2130246118
33.1948 40.2633 20.8115 26.5806904814
36.1881 38.495 24.3393 78.5777263469
27.334 48.3786 21.3645 31.0585230635
33.296 47.5949 21.3659 28.3649610095
31.9285 42.6918 24.404 102.4067970934
32.1387 42.6715 21.3252 33.1998557429
29.4305 44.1213 23.9277 51.7087762522
25.01 46.4183 18.6637 31.2600178012
36.1604 42.4581 21.2214 28.4694333223
34.329 44.5083 21.3301 29.6723501728
25.5225 38.3706 24.3063 92.8497204169
30.0343 47.0463 23.8749 61.5470407065
29.4048 43.7074 21.2793 28.9555798184
32.1206 46.6811 18.8846 30.492518075
33.9127 44.8178 24.1956 58.3131614159
28.1053 46.2235 16.9905 33.4005171044
36.4726 44.2496 24.5564 88.4272950728
27.6482 48.4252 18.5735 27.8518482141
24.7597 42.1193 20.5259 31.6431298577
26.7822 38.6412 18.3439 32.8599458152
36.8454 48.8678 24.6709 108.7490791641
32.3404 36.9573 24.0427 58.7018498183
29.7421 37.106 17.129 30.577788963
28.3988 39.8296 35.4726 109.6975130185
25.7323 40.2885 36.0403 48.5843377194
26.8246 38.2508 41.7044 31.5952357725
36.3473 47.9666 35.7464 74.5579072914
32.0767 42.3488 35.9593 50.7146914918
33.5844 37.6303 39.1767 31.3414496056
33.0678 39.5874 35.7305 89.903189047
26.386 45.5957 35.6973 72.3108454184
26.9196 42.2997 41.3511 27.5423268743
29.4231 42.3747 36.0904 48.3970691056
29.344 45.1676 38.5801 28.374240915
24.9434 43.2767 35.6176 77.372183773
34.0016 44.7452 39.5543 29.242306359
30.7818 47.4768 38.5861 27.75286351
34.139 40.4598 38.511 29.2673540787
29.2953 45.2803 35.6887 84.5507800565
33.8782 46.4925 35.6998 69.8447210824
34.2482 43.7831 35.3196 115.2560805244
35.142 37.1591 41.4379 33.2966722571
36.6776 40.8433 37.1397 29.0734988099
31.0733 40.7109 40.7376 30.9375309116
26.2085 48.4584 35.8809 67.5361065415
27.8272 37.4028 38.5307 26.3239063306
30.5488 38.1831 39.4324 30.2167870741
29.1547 42.094 39.0003 30.5750440993
25.1191 42.8221 38.3807 28.2779687226
30.7446 38.0831 36.5885 40.2018283982
28.5592 40.2192 42.4868 28.3742769501
36.5885 45.6187 42.6604 30.1260762169
35.0137 48.1176 42.3653 28.5297928503
26.5047 45.3912 38.4355 28.549742048
26.1325 48.7573 38.7158 30.4772980977
32.3521 46.6605 40.9029 27.6771217348
31.1835 47.6295 35.6587 94.5410538902
31.1534 44.768 42.2818 31.1374470771
32.4177 42.7031 38.6442 29.7679712556
26.693 39.8295 38.7696 28.3600347471
28.4385 44.5624 41.3515 30.6421354154
