35.7059 17.5327 24.3104 65.2598665541
30.2138 24.8019 15.5382 28.4090998929
35.3984 24.7711 19.0654 33.1465570488
29.8139 22.9759 21.7698 28.0805081404
32.7186 30.7816 24.0185 65.4481967952
32.9009 23.5626 21.1516 28.5441853968
33.28 23.1303 23.8028 45.9306713118
28.8299 28.5289 24.2267 92.7230724202
30.5532 22.7309 24.4363 82.0230906563
29.6075 25.5951 21.5724 30.0249346276
36.8728 17.9494 21.735 28.9420222047
29.9905 26.0181 24.2037 61.8579392394
36.6299 20.0093 24.5409 104.4036085818
26.379 25.5842 17.0919 27.7073592111
32.4837 27.6543 24.5478 102.7427026582
28.4897 17.5311 14.7836 28.3444443515
26.9717 28.6267 22.0093 32.2323515815
35.8875 22.3179 23.0722 32.8660966414
27.6127 21.9002 14.3905 32.5008118899
24.6958 30.5884 18.5425 29.7234120998
35.524 31.989 23.8895 64.5036441218
33.584 16.5611 19.0578 28.8898570727
36.6716 32.496 21.1601 30.5750549984
28.7059 19.2872 24.1569 71.7430334492
28.5009 29.3342 14.8534 31.6967276562
26.9015 17.07 24.2845 97.3280117578
36.7907 16.9311 18.7316 31.1867854585
25.2862 18.2434 22.6465 27.8650108274
37.0663 28.2316 16.7537 37.7071531048
27.5789 23.5767 24.4493 92.5907796486
36.847 29.7092 37.9805 29.9821067641
32.1863 30.1515 39.1559 32.7024247504
26.2172 19.864 45.7038 30.3125799782
35.7849 28.2687 35.9812 88.1647845491
31.2365 17.4145 35.9435 66.2003474186
33.492 20.9639 35.8493 71.5174675703
26.0204 21.8245 38.8217 29.773927551
31.411 19.8196 37.3415 28.1940400624
36.4761 20.1587 35.793 81.1086494257
31.6414 23.1245 40.3264 24.7046829758
33.8297 22.1951 38.6306 31.181574135
26.6406 21.2482 42.4986 29.1852113502
28.3099 18.445 35.8597 60.8328540094
36.5035 23.0115 41.432 30.2532164587
29.6024 23.9188 35.7903 77.1878679854
26.1788 30.8733 38.9457 26.3808954817
31.9958 31.7906 43.3165 32.975265522
29.8358 21.0351 35.5999 88.8706393903
29.2819 26.9512 35.97 54.5640987328
35.0408 16.4006 44.7985 32.8211430312
24.7714 23.22 43.7358 30.1555278402
28.4625 21.3012 44.5608 30.5638089288
26.076 18.1642 42.8808 35.1270370755
36.7094 31.967 41.6749 32.6622644478
33.4819 23.8064 44.51 33.424259501
33.1987 29.4382 36.3149 44.2366028032
29.9513 24.7091 38.6463 30.2698000387
34.1173 17.5778 35.6158 89.0527782841
27.8675 31.0657 44.7307 30.4789587666
28.8218 17.0243 43.2419 28.6150914179
25.1531 24.1267 35.7075 89.9751764528
26.7724 21.7708 36.1471 44.194322551
32.8671 18.145 39.929 31.9642209765
28.9458 30.4703 38.7762 26.5699485887
36.2046 17.8724 37.9941 30.9554343066
27.8219 19.741 40.1178 33.850579181
30.6306 20.7213 40.045 30.7524849003
27.1205 24.3213 39.7137 32.8172512957
29.64 28.8108 44.734 30.0516994188
33.8342 22.4446 42.0616 29.4698099779
34.2921 30.5593 43.0207 29.9604266014
32.1695 26.9667 35.7976 78.9462769817
27.4714 24.2722 42.6601 30.9686716359
26.5799 26.7854 43.7602 29.5611255911
28.7545 27.7849 41.8185 28.2400744844
26.2879 29.0444 41.135 29.7128231021
31.3942 26.3423 41.6682 29.5999114865
28.5668 27.5429 38.7525 27.2149572686
29.3116 29.8764 35.6307 82.4633967704
34.1998 25.2568 38.646 27.7461595365
26.7729 30.6718 36.11 45.4610258088
35.8376 26.7181 40.5864 27.140826401
31.9625 26.896 38.7998 28.8764219459
31.365 31.768 35.53 94.129537601
29.8547 30.4581 41.9517 28.6252373595
34.9949 29.4758 40.5797 30.6246599011
34.9171 26.0132 43.1575 27.0942816884
34.9966 25.4424 36.0984 50.6178090521
36.5615 22.7328 38.5628 27.2287919706
30.177 19.3886 44.1056 31.6497468449
30.584 16.4917 41.2311 30.8374736454
36.9133 32.4161 35.7222 90.4565348076
31.7774 19.9923 42.3374 30.0914930491
30.2142 23.8497 42.5693 31.6679512242
31.2819 25.24 45.238 33.8053475099
34.8086 19.6107 43.2769 31.2465058522
27.222 18.0026 38.1833 27.1455543776
32.8468 28.157 43.0456 27.1243418142
35.6229 28.5521 44.8224 29.1404275493
26.0885 26.8048 35.8443 71.891547835
25.8306 27.1782 38.5477 27.7025383647
34.8295 17.201 41.8239 29.845564856
25.6285 19.3404 35.5469 87.9128555833
24.669 29.669 43.6544 27.833476882
36.7887 23.5144 35.8595 84.8890111744
35.9568 32.503 38.8591 30.836659223
25.6187 32.8444 43.1712 29.0950120766
32.7076 23.7444 35.9894 61.4842257049
27.499 19.9524 51.41 28.9450946085
34.2012 22.5066 47.0909 33.8562423392
28.9606 17.4025 47.9503 29.9684107217
33.0186 22.4087 49.9118 31.0267963421
31.6711 29.7456 54.5141 26.7186495538
29.66 24.6633 47.6249 32.7313158345
29.1469 22.0407 47.264 32.3983534218
25.2167 19.3106 56.1068 30.2783947797
33.1545 25.3901 54.637 34.9737598281
25.9028 30.1851 48.0953 33.5261343303
32.0382 19.4284 46.582 34.1874954528
35.6602 16.562 50.5267 28.8554237644
35.1249 30.2978 47.053 31.7320264345
31.8473 17.0983 48.187 27.6659251939
26.8083 30.332 55.9747 34.8490222893
31.0057 17.2155 54.762 28.6999680301
29.2476 31.4824 49.1208 30.1463653692
35.5539 17.3855 47.599 30.8589425984
32.0697 27.9341 45.8006 29.1996034247
32.5539 31.8493 53.1142 26.7697460093
25.791 26.0895 52.6974 33.6469329604
26.1654 28.2542 50.4951 32.0685881816
27.3615 17.4512 53.0078 33.2607807841
26.3784 18.9245 48.3932 31.4706720221
32.9449 17.3917 50.7401 31.0037616126
31.1241 20.8606 48.6291 30.3438452976
35.7649 26.518 51.3542 29.2350328814
36.7431 19.0197 51.3004 29.2395839536
30.1172 18.9867 50.5392 28.6587440654
28.0219 22.2565 53.2284 31.5220332024
27.9028 24.2101 51.1461 33.9059068118
31.7775 25.0327 49.3366 30.9931245256
30.5207 25.6802 51.8824 30.7093993884
35.7363 21.5687 50.6135 33.9268374893
27.8128 26.7323 48.5203 29.1796273926
35.3232 31.2041 52.5171 27.7454399602
29.5713 28.647 52.8801 31.2247407703
27.8253 30.4066 51.5081 30.7007600032
31.3239 28.6113 50.6255 27.2088713909
33.0634 27.1736 48.4547 30.7770360441
26.0258 22.2098 55.3072 27.5098545832
25.295 25.9212 47.3524 32.1445143103
31.8126 31.3399 50.5148 29.0619958939
29.9493 28.5475 47.9673 31.9713274559
34.2235 28.8598 51.0253 27.0699946439
28.4931 17.7443 55.504 30.5393585695
35.208 23.9642 52.088 27.5957412228
31.5305 19.2932 53.0398 28.2083023443
36.4426 29.2728 54.3141 27.4008498267
35.6582 21.1952 54.8111 30.143872323
34.3978 19.1829 52.8411 27.0410972054
25.4589 32.3291 51.9541 28.4716383807
27.1393 22.1467 49.3923 30.4680817081
28.2837 26.1513 53.8578 31.1096931747
33.2781 19.5461 55.8502 31.2338882865
25.6356 28.0631 55.1708 31.5268989326
30.6305 21.7787 53.742 32.1775901024
29.6573 31.4129 55.409 31.070610063
33.8085 27.9809 53.6355 28.4145563139
32.2598 23.5882 52.6412 29.7367959655
36.3897 16.3501 55.9206 31.4550856438
24.8968 23.1476 47.9101 33.0265497333
36.3645 24.0587 54.3434 26.9196923301
33.2238 32.2618 48.0867 35.9948184935
36.6335 28.888 49.0524 31.133748332
36.7379 22.9682 48.1698 33.5436015813
24.6973 16.9206 54.5335 28.7011825669
34.5248 16.5134 53.5926 33.9427363415
34.9092 19.8711 46.02 30.6723537257
27.0179 28.2628 46.0918 27.5817565957
35.3003 26.1958 46.2723 32.0634298276
27.5599 38.1758 7.31442 28.2012925164
26.5436 40.2264 8.8048 26.7274440807
32.1208 32.69 7.75215 29.7364181448
29.7584 34.7553 5.64255 28.6733528349
32.2502 36.7402 5.41021 29.1851484477
24.6763 35.4356 8.10512 29.594914666
36.0723 42.6658 11.7615 28.0587429812
35.4813 39.7859 6.06934 29.8337352342
28.1354 39.1266 4.73915 34.7829716508
31.1052 32.9045 4.15118 29.2078595755
26.7306 34.2494 4.79872 33.1168913142
34.2719 38.7016 10.7061 29.4866950835
36.9697 44.6257 8.70104 26.6009106299
30.7166 40.7675 4.91122 36.701335754
26.0454 47.6023 9.10935 36.9812753215
35.9421 33.9705 10.4222 31.0431681985
29.9051 43.1804 6.28396 29.4301525683
31.6346 45.268 7.17587 28.9678497382
25.2593 40.2368 4.72296 31.5234527906
34.4553 42.8437 5.13589 30.0299383916
32.2282 42.3325 9.11932 30.0728192071
31.2539 48.1311 6.12989 27.3184006929
25.5443 36.7033 12.2448 30.8629150613
32.231 48.7563 8.79116 27.0600500838
28.2923 42.5809 10.9356 25.7010909594
34.4053 43.6964 7.86053 29.8623663394
24.7882 36.4056 3.8544 33.5848980523
27.4615 35.2069 7.54151 26.644360041
30.6803 48.0648 13.9824 31.0899882637
36.2452 39.7361 8.68565 30.933798488
27.2867 45.6589 11.8512 29.3226768221
31.6817 35.6376 8.20188 25.6396700867
29.3829 35.6212 9.97477 28.3189189324
33.3343 34.0609 10.2343 27.3900384453
27.5147 37.9686 10.6988 29.7557534521
30.3492 38.5378 8.10434 29.7294381107
30.7835 38.3863 10.9548 29.4587556231
32.9159 36.3551 11.6898 26.1954807546
33.9404 37.0768 8.4093 29.3320273588
26.6224 44.6087 9.32298 31.1057311112
25.8968 41.4231 12.0379 28.0930943507
29.5309 41.5321 8.66201 30.5769117498
31.6994 42.0069 13.7243 28.6759828037
33.2977 41.2839 11.3033 31.0178639237
30.9738 36.6013 14.0496 27.7872019298
29.6108 34.2357 12.3454 30.6415718952
30.279 46.6222 9.43188 27.1181915912
30.0809 43.7524 12.2854 27.4786285134
24.7901 47.462 11.8356 31.2542633155
31.7145 44.6346 10.5125 26.6066197417
32.6241 39.1658 6.11709 31.0062810541
28.2547 46.7745 7.55639 28.120298731
36.3501 35.184 7.59959 32.4894123125
25.8744 42.429 6.72153 32.8714224023
27.6591 44.7544 5.73332 35.8502242888
33.8091 47.7377 10.6758 29.5164754341
34.2976 45.1541 11.0422 26.6514463483
28.6913 39.8476 12.4225 27.5111097644
32.2901 38.9189 14.2375 29.5842395536
35.0342 45.3511 4.75282 29.4336882767
36.8832 41.3865 4.01508 33.4489155362
29.0408 47.8991 11.85 31.7662894849
27.7172 33.0416 9.25327 32.9098159478
35.0085 35.5787 13.7144 29.1371053592
35.0894 35.7902 4.99016 31.4710283521
34.2603 46.6228 6.85037 26.7768124982
36.4056 47.4235 9.34694 27.6024740554
36.7469 39.5531 12.3347 27.9875650702
35.9493 37.9893 3.52831 28.7945793911
34.6806 45.547 13.7718 28.761952664
25.1939 48.7536 3.53012 35.1590026713
29.1576 36.5246 3.81305 31.921051437
25.1999 44.5454 15.2202 28.2950637753
35.9081 40.1888 24.3848 97.7331272038
31.6083 33.7046 24.2318 82.0510996015
30.6912 37.4081 18.2306 30.1954848719
35.5709 45.9804 20.8794 30.4049834782
30.6099 42.4758 17.7113 31.2070903837
25.6606 38.2707 18.8978 33.3104852778
26.2502 41.8259 16.4337 27.5423682758
29.3116 46.3232 15.8159 31.9736123743
28.1135 33.4641 17.9602 27.9177387966
27.1517 40.7711 18.9497 28.1338945375
35.7828 38.1784 18.5577 29.8293423284
26.9469 44.3428 18.0294 32.032365998
35.5442 41.8169 16.4611 27.5718479574
29.7963 39.7335 19.7985 29.0404733941
26.8728 36.4962 15.7697 28.6952473067
33.4626 48.6331 16.9532 28.0418076804
25.7384 41.0414 24.6869 102.7541947123
28.8122 39.485 24.272 69.0859476351
33.317 36.2776 23.8224 46.0509407763
26.539 47.0738 16.6239 27.3651492774
27.1115 44.5548 21.7071 28.5407595628
32.6133 43.832 24.2771 79.7213687982
29.0943 34.2336 15.2587 27.8615445028
29.2532 41.722 15.0787 27.7666662157
35.4181 35.0125 20.861 30.857332652
33.5352 40.3343 18.1744 28.8231142908
35.5997 35.9668 16.7233 28.8745262612
30.6458 48.8765 18.6564 33.4591992459
32.46 40.1163 20.6986 26.9907634422
27.987 36.4507 18.4413 29.6513984801
33.8466 37.604 21.6241 28.253287705
31.5665 39.7691 16.6303 27.2687195101
30.7713 33.7317 21.351 31.4406306151
31.5905 44.8355 16.3645 30.522337062
31.67 42.9115 21.6405 30.3557060916
34.5858 42.5064 20.5072 27.7968373199
35.1914 44.2217 18.3554 29.0514201062
27.4347 44.6033 24.391 84.7852968601
30.857 47.8597 21.1883 29.1397724898
27.6869 37.0744 23.81 49.3523850557
33.0642 46.0945 18.1881 31.3164271565
33.8605 43.4651 15.1967 29.7339413433
33.4031 47.9105 14.211 27.7011789198
35.7626 42.8624 23.2352 33.8840886119
28.7095 34.3088 24.4569 107.4174560904
28.1008 47.4952 24.3528 83.1164740983
25.4473 34.7072 14.2684 28.5935542802
30.7629 32.9956 18.286 25.5807778337
28.5907 35.753 21.5071 28.8623146888
32.229 35.7798 19.9689 28.9138916693
31.6724 34.7565 16.5561 27.5577180347
35.8129 34.7395 24.1781 76.816245981
28.1604 44.2341 14.3782 27.6144869052
30.9725 47.8003 24.0575 57.0719219699
24.8395 36.9786 23.8478 56.277325694
31.6746 38.2944 24.5627 105.7461607671
27.6031 41.4812 22.4405 30.3311438958
26.3686 34.1844 20.4556 35.8618268225
30.303 37.9588 21.859 28.5273495959
35.9058 46.6095 23.9354 50.3714124716
29.0615 43.0528 19.7312 30.9116276489
32.8876 33.8051 14.2348 27.1487632194
24.6771 47.8862 18.5843 28.2665274827
28.7737 38.4577 14.9099 30.3722907779
29.7189 42.7592 24.2133 75.0743159695
33.2287 46.2581 24.3586 83.1151888208
32.5021 45.7373 21.1077 32.6965747532
33.1902 40.7401 23.9649 50.4155971281
24.6434 44.6215 19.74 29.0446983021
34.332 34.208 18.2795 28.8931168407
24.8927 47.1827 21.427 30.8772724489
28.0511 47.58 21.6336 31.457099896
26.0216 39.5767 14.6035 29.5303462512
36.5141 40.5656 20.3017 25.8452111553
25.2298 41.893 20.6537 27.4305944506
35.3009 38.3906 14.5842 31.3559128006
32.6779 37.862 35.3568 94.5863278127
32.5037 47.0706 35.3041 111.3846446619
28.1443 33.1421 36.0576 47.9314979038
35.2322 47.1963 35.854 64.8106412262
31.1505 38.3707 38.8465 32.9585311267
28.9434 33.2598 38.7591 28.0477664525
31.4961 35.0901 38.2119 27.005957938
26.8714 35.1667 38.6098 28.6181328791
34.1911 35.545 35.8133 63.1345505716
29.2382 41.3646 35.9103 54.2527913285
26.0458 34.773 35.7679 60.9720675193
36.5686 40.085 39.4928 27.8619892865
27.2665 39.2237 44.2948 28.0982285362
29.7524 40.2649 40.5212 32.1224201936
29.9739 38.667 35.9013 53.5577242097
24.9582 48.2609 43.2607 30.3168287306
36.4504 40.9085 42.1814 28.1240143377
24.8988 41.7947 38.4027 28.2915071808
33.8238 36.714 38.4232 32.35800933
32.9583 32.8853 39.2452 28.509516111
34.2204 39.8739 35.9226 48.1621970461
35.8061 46.313 43.7327 29.1631571505
36.0591 43.9282 41.8525 27.0556271792
27.3978 44.8119 39.9159 28.8624134052
32.4387 45.6466 43.7071 31.2082491385
29.3437 48.659 38.8464 26.3382405038
29.957 45.7128 36.0735 42.846294815
26.7668 40.3413 40.2733 31.6692834802
33.9098 39.9982 38.7115 26.9549685944
26.2932 40.6278 35.194 115.0257891526
36.8453 44.7982 35.9542 60.8115592168
25.9576 38.1257 38.7083 31.4347352272
32.8406 35.6398 44.8839 29.1756224503
36.7021 36.9089 36.0243 50.1876850002
30.0865 45.7706 38.7528 26.5508944867
27.87 45.6238 42.6448 28.8125424569
26.9433 47.3228 35.9093 54.2796148059
34.549 47.3257 38.5956 26.7168446035
31.1946 43.2093 35.7817 73.2127717404
32.6947 45.906 39.7761 28.7990350295
24.8272 36.5465 40.9502 29.1720344127
32.4231 34.127 41.5015 30.7646447167
36.8008 37.0639 38.8366 27.4454878433
27.8272 42.5384 37.8802 27.1893679907
25.5598 41.0948 42.4784 29.2394142642
30.1563 43.0414 39.4932 27.8263037865
30.8686 36.3636 41.0978 29.1884947248
34.7404 35.1861 42.9115 32.6320568885
25.8099 37.9721 36.0707 36.7901907638
27.751 42.8514 44.3355 29.10348467
32.1914 47.7758 41.8424 31.5005660005
30.3279 43.9695 42.4712 28.8561000702
33.148 42.5518 38.5907 28.8358483904
34.602 38.5979 43.2999 28.8907256919
34.023 42.9131 35.7231 85.2823649609
30.9421 42.099 44.461 26.1953600484
29.5524 47.7376 41.9623 26.630718057
26.6993 47.1682 38.6909 27.8954420946
29.3535 48.5349 44.5871 29.4477029835
29.7371 39.9264 43.5136 27.2925656521
36.5409 48.2937 40.0582 28.9392346217
35.5585 44.2924 38.759 28.1728397665
33.277 43.2604 41.7484 26.6908303589
25.4271 33.4156 39.9841 26.8588273438
27.2263 44.4441 35.5955 82.453122669
28.4198 35.4686 41.6433 36.3293270778
25.4667 44.0689 42.2171 30.1230622011
28.4143 36.4953 35.6646 71.8682357244
33.741 41.4867 44.2537 31.1980973964
31.0498 34.9678 35.5526 73.2223731638
26.6305 36.8399 43.3009 31.257190907
31.8159 37.8896 43.2348 32.0659580466
32.6268 40.4585 41.4261 28.3545558731
31.8101 33.4492 45.8121 34.9197942187
36.5764 37.0761 41.7937 32.3032762626
24.9218 35.241 44.8032 31.8546533581
34.0276 32.8036 36.3936 36.8318845352
25.6454 42.0517 45.4829 30.3597325866
35.976 38.1534 46.0003 31.2593035182
28.0755 32.5954 41.6182 29.1913313084
26.7929 48.6125 45.5105 29.0713858065
30.7533 46.6301 45.8045 31.8745455737
30.721 34.2493 51.9498 27.9003964334
26.8415 38.7355 48.8307 31.61697609
34.8191 33.9621 56.238 28.9040452597
32.38 38.9392 47.7654 36.3611832669
30.8145 46.8801 56.4399 32.0524294007
34.1872 34.7715 49.031 34.4107305647
34.1523 36.5731 47.0364 32.1699046481
29.2126 48.3257 54.5339 30.6936767664
34.4225 38.4264 54.2859 31.2430687116
25.032 47.634 49.564 29.9693325454
26.8652 33.554 49.5721 29.1268796742
32.4973 42.1416 56.2812 38.4074276566
27.1352 34.9763 54.917 29.380360631
27.9714 44.4648 54.8808 33.9124547704
25.6543 33.4982 46.9501 30.2680906843
28.5942 32.8808 46.4694 31.7980649963
36.0555 40.4983 51.8131 32.4307873065
29.6608 35.5959 46.801 37.2484455129
33.5598 43.6525 47.9049 30.4961177565
26.9047 38.2148 55.1011 30.2590592272
35.7862 33.6428 53.6498 29.8112065581
35.9324 44.2138 49.6784 30.6273000989
33.3665 48.0743 48.6352 30.8749437076
25.2321 40.84 54.9894 33.1427297753
34.7542 45.7721 46.2985 32.6109371033
33.1336 48.2799 55.4022 32.4044156982
29.3704 34.8561 49.3547 32.4918638757
29.9764 39.698 46.5463 32.3090171014
24.8535 45.4304 54.7236 36.9870461495
25.8212 45.0046 49.0724 28.9773736425
27.5238 41.2042 49.6639 31.5679675211
25.1698 41.524 50.6879 29.0213915218
31.8607 41.1082 51.5986 36.7632736366
32.6142 38.5224 50.6184 35.5831823035
33.9471 34.955 51.7622 31.7762361096
28.6417 43.6745 48.5663 29.7896360509
30.8467 42.4274 47.2487 31.8116001748
29.7911 45.5606 50.208 35.4532695751
28.2532 45.2317 46.0427 31.3369088309
36.2026 41.4747 49.1254 34.8786088256
35.8346 45.1501 53.6228 32.2352918052
35.4129 46.9183 55.6786 32.639015275
30.8497 47.4819 48.3492 32.0127410724
31.9775 43.5852 50.3204 32.7395799445
34.0537 44.7351 51.5943 34.7617291894
34.2568 47.2726 51.0296 30.9310426439
30.3825 44.3345 56.5064 37.2392643236
25.228 35.1873 51.6305 28.7617461148
27.6377 36.9401 50.6313 33.5946070153
32.2387 34.0903 54.9003 27.1592574135
32.0991 36.7495 55.1377 34.0843289353
31.0024 36.913 52.5652 30.8802781325
35.977 42.5556 54.4031 31.2596574536
25.4971 46.511 46.6974 30.7934211823
28.9261 40.7421 52.0704 36.9987730401
28.537 38.1357 52.7682 32.3351687093
25.8796 44.6603 51.8476 30.2226300891
27.0666 42.0714 53.2575 32.5787648453
28.3321 45.9935 52.5684 38.7194546377
35.2212 37.7075 51.6188 30.9756620993
33.6046 40.9715 53.8815 32.3272405168
35.2358 49.0029 46.5467 30.2779193961
25.5141 32.7971 54.5333 28.9544870831
28.74 32.9595 53.2978 30.8884349926
34.4205 41.1427 47.0786 28.4726168214
27.9711 37.9679 46.576 31.8082145485
24.3557 36.4237 53.9612 25.9820596894
27.165 46.5792 56.333 31.8225281612
39.662 2.08473 7.16879 29.5573334167
38.7456 12.5495 11.5507 34.7742074713
41.4161 14.421 5.40637 27.8834659146
43.1473 5.2074 6.79196 28.9691597299
45.683 5.31637 5.15207 28.2811004702
39.6311 6.55262 6.57977 28.8460409857
40.9083 4.18972 5.82174 26.4202509936
37.2507 3.17281 7.69106 29.7265495135
41.377 16.0312 11.0949 28.4945886699
43.113 10.3278 4.91615 30.6701659912
46.7099 2.45341 5.80891 30.2176060226
41.0805 15.1073 8.29559 27.4408256007
43.1778 0.987808 13.4597 30.3817001805
40.9142 8.52513 4.75675 29.4165717063
40.3003 11.8407 6.06949 27.3190021809
44.3989 2.92165 7.35527 26.7499824037
45.2125 10.1172 10.1004 32.8770055783
37.0797 10.3446 7.09727 25.6392476824
37.1022 4.39305 10.2172 27.078931329
48.8965 15.8984 13.653 31.4084353868
49.0805 10.3528 9.62384 32.97902228
44.4869 11.3514 7.14471 27.9812773088
47.2341 12.3209 3.53801 28.920758421
47.2044 11.7385 8.28126 27.9866983583
47.3913 14.5546 8.15234 31.0230455045
48.3782 11.207 5.83018 29.2411081869
39.0954 2.04072 12.1852 29.9698940817
40.2741 2.8424 9.7444 29.0804340852
41.071 13.6134 12.5655 30.1638065772
45.5036 2.6014 9.95822 27.2483326879
48.3244 1.72975 7.85286 28.0027039299
38.547 8.79335 8.51847 29.8870005096
39.0816 9.53734 11.4944 32.2132747985
39.9128 5.33415 9.22976 25.6666369015
42.6469 6.20291 9.30543 31.0401745281
43.8461 8.57418 8.12491 29.4243138904
46.8876 4.83544 9.29453 30.0095506121
41.3682 9.43212 7.7119 29.3534705618
42.1571 12.2251 8.7916 34.2262308218
46.4499 7.10572 7.13599 37.7192905233
47.3165 9.23965 11.4475 30.8164286248
40.088 6.5135 11.9056 31.0492598684
46.9847 1.12982 12.5322 30.0598151787
42.5681 1.40349 10.0682 29.1893251896
44.4977 13.419 12.6918 33.205274222
46.2988 14.5793 10.5378 30.9457734646
43.1878 0.409694 7.55756 30.5350237867
42.7834 6.48554 13.7323 29.4756135117
45.1566 16.0257 6.74222 30.0799869942
38.2664 14.5338 9.36384 34.0368702469
42.7458 11.5535 11.5166 28.9558259386
37.4911 7.71682 13.215 25.8776064601
42.6534 1.63755 4.74383 31.4571485409
44.2799 3.10813 12.2875 26.9190152747
41.6691 9.54134 13.0573 31.8587706808
48.1068 8.5048 5.27869 31.1871726976
37.0648 5.23776 5.98251 32.0259300828
44.0804 5.68844 11.5345 29.8074280805
44.1053 13.6114 5.7786 28.6593190149
46.9454 6.46727 11.4745 28.3928842599
37.9603 12.8513 6.98193 32.8340838506
48.2035 13.421 12.2006 31.1422976637
45.6089 14.3341 3.61389 29.5906524507
47.4676 6.48672 14.1911 27.3545096979
39.1438 4.49929 13.6606 29.1780800557
37.1604 0.257219 3.76775 31.8450783241
46.1651 11.1022 13.516 31.0706184588
48.6975 8.88287 15.1721 30.5645150393
47.4973 7.96775 24.0686 67.2487717979
43.73 10.7885 17.0047 32.6290815704
37.345 11.9278 23.7297 43.4569045205
41.4632 5.27302 18.2928 30.3723219363
46.5169 2.28886 17.4713 28.331926653
42.916 1.85373 17.5802 27.818810905
45.4232 4.0799 14.6334 29.7212050381
39.7713 9.53076 15.0167 29.061274484
43.3305 14.2517 15.212 35.6681627516
47.6795 8.13427 21.1083 29.5255566067
42.5548 15.9825 21.2466 33.2465962999
37.1557 5.08213 24.6022 90.076802677
47.6728 2.40582 15.1549 26.3631097668
40.102 13.9253 22.1567 26.0402298306
39.0716 15.2194 19.5126 32.9079514282
45.7335 15.0501 24.3651 74.2846398314
38.575 7.14751 21.1423 28.4529209432
48.4082 9.11573 17.8725 28.1721439713
39.0221 15.9328 23.836 48.9001101338
46.7321 15.7151 21.7667 30.4386140715
37.5212 6.14057 15.8442 29.5141241029
37.2472 0.0318896 24.0162 66.1222099968
41.2876 2.91024 19.9123 26.7977214979
46.7461 0.595796 23.5046 34.1987563591
42.285 7.59515 19.8093 30.2581955816
44.5001 9.21963 18.9679 30.4758983149
48.2041 5.05391 20.9544 27.8347783124
45.3684 4.62512 20.0998 28.6984091175
44.2166 4.24023 17.6479 26.2629602307
38.2307 7.74472 23.9275 60.1352290049
41.0766 11.3041 16.8336 30.5852584577
46.3629 6.90352 18.6262 26.5104657299
42.7934 12.7108 21.6882 32.7191220858
41.2495 4.80383 15.2473 29.286022211
45.149 9.26493 24.3318 92.8955802359
49.0452 5.94751 17.9419 28.9236798661
37.7116 4.13893 18.237 35.4673793647
46.1465 15.7206 16.5459 33.3039789777
45.2246 13.2484 17.4542 30.5170291482
44.9191 14.0042 20.034 33.1410285334
38.0592 12.2503 20.9534 26.1075386113
48.9454 11.6071 14.5035 29.2211931118
46.9335 12.0727 20.9344 24.4181589481
47.4606 11.7672 18.3976 30.0508333063
38.867 1.47981 19.6903 26.0000387325
40.7457 5.00857 21.8717 28.6483264023
40.4519 11.7171 19.5373 32.5475239326
49.04 4.62067 15.7341 25.7612778355
39.7856 7.31736 16.5784 31.0839421698
43.2098 2.52963 23.9815 36.2922531799
47.8473 5.04275 24.0037 57.8110465778
43.7641 2.42873 21.1593 32.6208424456
45.7822 3.02964 24.4793 113.1040836073
40.42 13.8165 15.5462 37.6162126895
48.1437 12.8007 24.5337 88.8936823193
37.9702 13.6408 17.2133 30.2799837437
41.2508 4.03987 24.6472 107.6372576705
43.3631 6.28186 21.8127 33.4958934817
42.7551 7.72248 24.164 80.2932574823
38.8786 2.75308 24.3726 69.2628454396
38.0135 4.03086 21.8076 28.9946902142
39.8981 12.09 24.6395 119.7829245641
40.5823 9.07733 21.2672 29.8928036697
39.6857 0.369873 17.1842 30.0184819705
42.8352 13.4087 24.2071 75.7565921178
40.5215 9.19411 23.9961 56.3561238802
45.4985 9.89684 21.3478 28.9952982257
48.1499 2.57067 19.5675 27.8372278418
47.8719 0.29973 20.9052 30.6033927855
38.0711 15.8363 14.7136 33.1857906467
45.4512 12.104 23.7828 37.662649747
44.4305 9.23752 14.4945 33.4778373577
38.5799 9.32764 18.4489 28.5410664061
45.2143 6.71579 15.8561 30.4084873636
41.1657 1.85964 15.3783 29.6272804765
49.1286 14.207 21.4942 29.5526695665
46.0289 -0.00597233 38.3042 28.3002088877
41.7468 13.3281 44.8018 30.8801099956
46.4321 9.98028 36.0104 58.2965096662
41.1872 2.81217 42.2806 30.3094582496
42.7568 3.29269 36.0578 46.414417748
42.8756 7.33388 36.8498 29.0299420116
48.3031 3.77701 38.5607 25.4690677797
38.2546 8.99535 41.4719 28.39737648
45.9754 15.0517 42.9172 26.1207130044
40.4969 12.6947 35.6039 80.7794627696
38.381 4.93999 35.9144 57.9725847
45.9477 14.9904 35.6841 66.2607381829
46.7264 6.90518 35.9925 60.4030938672
45.5238 7.61057 38.6746 29.8391740455
47.6996 6.42897 42.7955 27.8690564662
46.4103 5.54447 40.4567 28.4402864088
39.0656 1.87274 44.9142 26.0840700186
42.8901 10.0247 40.3894 28.9945017768
38.8364 9.7965 35.6332 82.5749436349
39.7754 8.69386 38.5347 27.6856739709
47.7492 12.581 37.1268 28.8774122542
46.8596 10.1101 38.8622 30.2269406729
38.057 1.13596 38.6265 30.3086384683
37.7879 14.3106 41.0478 28.6673500972
48.2642 14.9908 38.3586 28.4993606805
41.9007 11.1685 42.6061 27.3463470598
41.422 10.7105 37.77 28.3524536619
48.1926 13.0952 43.0092 26.8048505263
39.1341 12.9789 38.7373 27.2950015501
42.162 14.3258 41.7101 28.8144186746
42.9217 10.3118 35.6105 87.2902748175
42.6117 14.6883 35.9564 52.477266482
37.8598 3.53808 42.4469 30.6735602841
38.9801 8.47104 44.3457 29.8157290911
37.4383 4.0698 38.5725 31.1103504007
38.787 0.48825 42.4665 27.5111783721
42.4898 3.46369 38.8973 32.1660544661
38.1849 6.15411 40.7096 24.8971764825
45.8545 3.15358 38.019 29.5934814188
40.4336 5.55686 42.2575 27.3705061147
40.3417 5.52765 38.8955 28.0515942111
43.2044 6.54012 42.5729 27.5897944331
44.2906 3.95367 41.1177 34.0461355161
40.189 7.02804 36.0686 61.5157156302
40.2042 15.4951 44.0871 28.2265407743
42.5615 7.2127 39.711 27.4151929307
39.3929 11.6198 41.4256 30.2999814168
44.9475 11.9249 40.2 29.7005353313
44.6907 12.4885 42.8937 27.9213536654
39.4196 0.082 35.978 70.3890443965
46.8286 10.4831 43.1993 28.8616479822
48.8381 4.54133 35.9881 64.3202499447
46.847 6.99515 45.4393 29.8004227146
42.1796 2.56212 45.2184 27.994793087
37.9343 15.4713 37.3724 29.9595814269
40.727 1.01275 39.8145 33.5543411244
37.4594 14.7318 44.5652 31.3680150769
45.5822 2.58946 45.7119 27.7806785409
46.6463 2.43113 35.8205 66.9004107546
48.5042 16.1429 35.5267 80.8334778219
44.7529 13.894 38.5718 29.093231213
42.8494 5.58586 45.1878 28.9836419838
44.1647 1.86316 43.2804 32.8688700235
41.9009 14.3333 38.9684 29.6639848062
41.7043 8.68801 43.7412 29.4563170687
43.939 0.71368 35.8466 79.5246741289
45.4825 8.41325 41.6914 30.1142262987
45.9376 9.50086 45.9436 29.4334728617
44.1982 5.64652 35.385 118.5842087426
38.3672 5.72125 44.3926 26.9587213359
44.5809 12.436 35.6182 75.9842343842
49.1651 2.58042 41.6717 30.0088720848
49.0749 0.835717 35.8153 69.109270606
46.1905 15.9741 40.2078 28.3289464148
47.8744 1.95672 44.4431 29.7802984157
37.5552 12.6806 35.7214 75.5843981387
37.0516 12.2565 43.0371 29.4270619454
36.8315 11.0143 38.2428 30.1977403345
46.5485 13.1909 45.6335 26.6335555894
40.1007 2.82369 35.8665 76.2490321993
39.0412 2.30531 47.7353 29.8007348316
41.2789 2.49577 49.2825 31.4236782795
46.9606 16.1329 50.2418 29.9004781893
40.2523 4.97711 46.2442 28.8787931297
37.8551 1.48823 52.3472 36.0442739444
42.0449 5.23863 50.07 31.9001332746
44.9861 9.1956 49.0119 28.8001417155
40.2272 6.34499 48.6013 31.4729339766
47.4016 6.01504 52.2013 30.4492645304
46.8215 15.6472 47.0991 29.5339814459
43.344 14.1234 54.5747 29.4502714371
40.1741 12.5063 47.0742 31.8934415541
41.4252 8.78819 48.0187 31.1541234121
41.7583 11.2384 49.2137 30.4203955067
47.6391 9.35507 48.4284 28.0103962711
45.6813 14.9576 53.1109 29.1306943123
37.419 14.3958 51.244 31.0211893609
44.0137 13.5002 46.4121 30.3229929967
48.4714 2.42269 53.2338 31.0328386899
48.4436 11.391 46.37 28.1863664991
39.2433 15.135 53.1756 30.9750024745
38.3442 9.18296 56.3532 35.6902977853
47.6033 2.24908 49.2732 30.525131379
42.3981 1.77003 51.9779 31.4840926341
44.762 1.24582 52.9365 29.660448571
45.6611 0.735114 47.6385 29.8013911176
39.0304 10.0392 46.95 34.618232659
48.9972 0.839035 46.7989 28.3577540516
38.5549 4.95283 51.9686 28.445170956
40.4946 6.84055 53.4611 29.690025681
45.9438 3.29707 54.2499 29.0669394777
42.8155 4.82559 52.7475 29.3006385127
45.9492 3.7122 50.8911 32.8835286387
48.71 0.679618 51.0241 32.8918908222
37.7552 10.048 51.8342 32.6904644035
40.4315 11.0561 51.6405 33.708453054
37.5741 6.34896 49.8192 33.8969797575
44.3796 8.97667 52.0742 30.2335892698
41.8024 9.39681 53.1929 32.3234252006
47.5762 9.22482 52.553 28.3428602203
47.4583 11.3825 50.6206 32.4379705386
38.6286 14.2356 48.6839 30.9813697501
49.0867 12.6888 54.6093 29.8976017994
44.4083 11.8026 48.8676 31.9974799478
47.984 13.5341 52.4892 26.9415699044
45.6639 10.1836 55.9999 28.5408694958
40.26 3.15393 53.1582 26.9658001726
41.3831 13.7745 52.0996 30.4607843647
41.1657 15.4063 49.7771 29.747291926
49.0748 6.8716 47.1562 30.4071217
44.4219 6.54331 56.1637 32.8012103382
44.8066 5.86957 49.3323 36.039991291
39.3108 0.608285 54.9118 31.8280230653
46.9128 7.98108 55.7126 27.3645120758
47.8576 4.42209 56.3383 28.7902984359
44.6293 6.67643 53.2907 27.3703244999
42.5024 11.4336 55.0557 29.6850014412
45.4236 10.9754 53.5546 30.4041620022
38.0579 7.99116 53.7884 29.369551867
43.1264 16.012 47.3306 28.333390822
42.7713 1.17789 47.4115 30.2086366336
40.3485 3.64006 56.0137 31.6044912128
44.3342 14.3424 50.7807 32.8743142301
48.7093 3.9922 47.0677 30.4148913891
41.5838 6.42317 56.0008 30.9126646134
42.0287 15.7565 56.2679 27.7578271863
45.0023 1.61838 56.4998 30.3229915386
39.9156 11.8104 56.185 34.0256598834
39.0819 14.4275 56.0284 29.5521463705
43.0918 8.52448 46.0879 32.2628737316
45.2068 5.15668 46.5129 30.415413478
49.1607 6.10033 54.6046 29.346672556
37.749 4.62413 56.305 34.3445787615
44.1606 32.439 4.01243 32.2248123684
38.2424 30.1179 11.4412 29.305045506
39.6303 17.4421 7.80436 26.6613809739
42.0533 19.0513 8.38386 29.5833029605
45.0799 22.2981 4.00932 33.7998317095
45.9205 32.6833 10.4734 39.8527781096
43.7156 18.2847 3.91786 30.8859719551
45.6511 22.1191 12.6526 26.0114436927
38.391 22.6809 9.6425 28.6459665753
43.2117 25.4976 4.16316 30.4990660514
47.1679 26.096 6.0628 32.6820521597
38.2999 26.9687 8.25765 30.9137218609
42.519 22.3277 5.21864 31.8730172194
40.7767 24.9582 5.46835 27.6893557458
46.6977 30.9233 5.89245 39.1539069499
37.8976 23.2356 4.7276 29.1482873207
44.7631 26.2217 13.4862 31.5598903338
48.9626 20.7566 11.7864 29.0513561739
46.1706 17.2979 11.2091 27.6721924836
42.2744 30.2091 5.17019 33.6928712139
40.2297 23.0315 12.7356 27.8157905901
39.4141 17.4196 12.6189 34.6684431018
48.9738 24.697 8.02412 34.128314676
38.2868 24.367 7.4995 28.0622854126
47.595 18.1442 7.63372 29.957993322
47.0392 16.5811 4.61039 28.4947081129
43.5337 16.6551 9.04963 29.4049333309
45.0898 28.6763 11.8386 31.5146403275
45.5547 19.9537 5.8423 38.8966104079
39.2412 18.7447 10.1959 28.2434782165
40.9403 21.0604 10.1828 29.4889423787
39.5512 17.2238 4.9082 28.9129056896
43.3903 20.4385 11.7114 28.8914876934
41.6968 23.343 8.30736 33.6763306685
45.874 21.9581 9.92025 33.6435829817
45.1921 19.5139 8.96435 30.0437132783
45.8128 31.0168 12.7397 31.8365192487
41.0373 26.4033 7.90631 29.1068612687
46.9422 24.6305 13.5024 33.7606414487
44.2067 24.2379 9.67197 37.4446421143
42.587 28.7805 8.35072 31.1492002615
46.6456 28.0036 9.66348 32.6543114204
44.7685 26.3878 8.04081 32.6616203606
38.296 29.2065 6.32314 30.2009174543
38.8071 20.1922 5.02407 31.6548157443
40.9563 31.1311 10.8165 32.2081365058
39.9147 29.0027 3.98386 28.6691173873
43.6629 27.8122 5.74657 27.5540313103
47.2025 30.5617 8.95339 35.3405982663
43.4897 17.6253 12.2485 29.2809993039
48.808 18.2295 10.2828 33.9407083755
46.0628 28.5175 4.83557 30.7513176227
49.0482 26.5499 9.97601 32.098990552
46.3564 24.8558 3.65759 28.3055574528
41.7911 19.5171 5.66034 30.5104989734
41.8001 31.3924 7.92903 32.4590546176
40.2163 24.981 10.5606 28.0459963499
38.1554 27.4124 10.9932 34.4950055963
38.9712 31.2501 7.83554 28.0689675153
43.4278 23.6999 12.8999 29.6872756753
42.648 28.7844 11.1046 33.3134912339
37.112 20.0876 9.40663 28.1374075583
41.9674 26.4727 12.4037 29.2688552612
48.8373 22.2894 9.33793 33.0819507062
39.3749 31.3684 13.8369 29.2183182493
37.6679 21.3442 13.8557 26.9124802934
37.0524 23.4747 12.0243 29.0805569805
46.6934 17.4974 13.8494 29.521038875
48.1043 30.3608 14.0049 35.167074701
37.9732 18.0911 16.4476 29.9623981885
40.7126 19.0905 17.2747 34.1711122018
45.1071 20.9757 15.7926 29.6452727428
43.4603 18.8993 16.7376 33.6996230044
40.9086 30.6159 17.6321 36.664924294
36.8869 25.0443 16.289 32.9158629932
39.4919 21.6757 17.4806 33.3763191479
37.1768 28.43 19.6435 36.7637770097
46.4407 26.8463 24.3445 83.8856348185
45.3006 23.2309 17.7753 30.5910592239
41.1904 23.2299 15.9919 30.0784399356
48.9193 20.5072 16.4542 29.9061099515
46.7904 20.2769 17.8917 31.612672437
40.775 27.4762 14.7636 37.5418018918
43.5831 27.2197 16.0044 34.2590512958
43.022 24.4967 17.2703 33.0122516349
46.9949 24.7282 16.2394 29.036788511
45.0457 26.964 18.557 28.7126977955
47.5314 27.0137 17.6302 30.738085874
39.3752 20.1286 24.3667 58.0396713295
43.5026 30.0831 16.7612 32.8685684862
40.8945 17.766 24.6486 106.492945177
45.329 29.888 18.6863 28.5012487815
47.9824 28.0179 20.4028 26.9484865585
37.0406 22.2092 16.2292 27.9226089999
39.4302 19.5407 21.8174 30.2872392632
45.5426 17.8093 18.4427 34.3687426859
42.3427 25.0156 24.5096 101.107903007
40.5369 31.9735 24.5485 98.3682461881
42.5232 29.8567 24.2548 68.6578777981
44.7894 25.1482 21.2207 26.5343537174
45.8748 22.3366 20.4063 28.4043599021
48.3257 24.4876 21.2431 29.2516257124
43.6106 32.4618 21.0452 31.5172069226
42.2564 24.9805 20.2155 41.8042248554
41.3629 27.795 20.962 36.4937400704
38.5609 28.0074 24.4625 114.1392555761
39.0395 29.3934 15.6475 31.4337552266
48.6432 25.4878 23.7327 44.8917944663
39.8086 19.5764 14.4385 29.735149264
39.7781 29.3331 19.8617 31.4425814598
40.6283 17.7574 19.919 37.8121200346
43.5743 29.3962 21.4938 30.6801954904
38.9705 21.7966 20.2722 38.0787936738
48.604 21.4434 20.6362 31.2374744003
43.3391 20.634 24.4567 71.7779059153
44.9307 17.7774 20.9672 31.587789782
43.4751 16.473 23.789 32.918215473
47.7249 17.664 23.6071 34.350938993
47.9131 30.8446 21.2136 28.9429969125
38.2911 23.536 23.9064 69.2928347324
47.4274 20.2699 14.0143 29.1439651712
41.928 22.3442 21.5689 36.9696509688
44.3316 20.7561 21.7424 33.6116155784
43.9416 17.1261 14.8083 30.8199084173
48.8 21.7512 23.3121 26.9925696978
38.1109 30.7029 24.1366 64.1160800507
39.3011 24.9079 14.9317 33.536720115
44.9383 24.4526 23.9125 41.8918613704
45.741 27.417 21.744 25.6843576868
46.1349 21.9121 24.3215 84.5728501358
44.3721 32.2195 15.0531 32.9012202094
47.805 29.8044 16.8533 37.5407707443
40.9644 22.6689 24.3788 65.3262279531
41.0761 27.4926 23.8504 40.8143584381
45.2762 29.6335 24.4011 81.4530004465
48.1542 30.3545 23.9992 45.4212170444
39.2093 31.2684 21.5735 32.3709961954
36.9648 26.0746 23.5419 38.5293600796
44.9464 32.9293 18.2981 27.8410747177
42.3562 20.9509 14.3085 27.7857120248
45.0846 18.5096 24.4789 79.9791150454
39.8298 17.157 35.9587 78.0929225921
46.1991 30.6441 40.1613 28.1040660026
46.7459 29.6036 44.8838 31.1773189858
38.9397 19.7234 36.3961 31.162412451
45.9995 18.5526 38.3664 29.6126701137
45.5144 17.9701 35.6507 63.909578244
47.8965 24.2328 35.8841 61.425302879
38.9338 25.7443 36.1576 64.3541184742
41.6179 23.7935 38.6729 30.3429892787
41.3321 24.1739 35.9218 62.5897567294
45.042 21.4279 37.8381 30.062325808
45.5546 23.3085 35.4462 97.9471630477
37.3783 20.5871 42.068 30.9862086938
44.6975 27.3589 38.2921 27.4377385146
40.3042 28.1949 36.2686 47.2423178973
43.7576 20.3821 35.5895 71.5552700567
42.4507 17.4697 35.7707 66.2551474026
43.8574 25.3275 35.9167 48.5609652046
49.0396 26.9217 35.6178 89.3866094215
38.9649 30.4585 41.8571 29.695629489
37.6124 25.0138 42.8867 31.6543157764
38.1791 20.4858 38.7922 28.3257635235
47.4282 27.4826 43.0392 30.4371643983
37.3206 18.2763 40.6612 30.2906800402
40.8397 32.5499 38.341 30.8318085234
43.0321 28.0804 35.5689 99.2318147119
42.158 19.0536 38.5618 30.9250415977
45.8986 31.2655 42.8614 27.7303279417
41.0738 18.6417 43.2193 32.6709661835
46.9692 17.1481 44.4884 27.7976920578
41.4689 21.9648 42.3037 26.7672092728
43.4524 28.8983 44.7864 28.3895748604
48.982 19.0352 45.6565 30.9789278422
48.9713 29.607 41.3723 27.7347229637
37.5867 25.6285 38.6868 29.6616481522
44.0553 21.37 40.8019 27.6812738202
48.5731 19.9033 38.8188 27.9949980126
43.227 23.4216 44.8775 29.7910897871
47.6951 26.4896 39.6228 28.0492280052
44.1529 24.4642 42.1191 29.9636526659
44.2793 24.1445 39.0752 26.6946243622
43.5394 29.8997 38.873 27.1839535094
43.5332 29.7139 42.1198 30.4869637558
46.4905 27.6417 35.8476 58.9556045077
48.238 22.0245 40.4775 29.819364814
41.2692 28.0152 38.9201 30.7385309685
40.4372 16.7864 38.7167 28.3409285189
45.9871 19.6068 42.9302 26.2870244827
39.407 30.0076 39.399 28.9098290687
48.2217 29.0622 38.3488 27.2577180975
46.3873 24.7542 44.165 30.3855247179
44.3883 17.3989 45.3057 28.2539560315
43.6244 16.5922 42.5023 28.266387345
41.1117 24.8938 42.7774 27.472128459
48.6266 21.7524 44.8267 26.6582316276
44.291 18.4644 40.5998 27.9475725552
38.5563 27.5955 41.6402 28.7577702218
40.8718 21.225 39.7288 31.0728482276
39.1078 30.7474 35.8883 75.2245429849
43.5297 20.6067 44.2599 25.7273017809
40.9651 31.3124 43.4649 26.1587674266
38.6867 28.2176 44.6161 25.3233580195
41.3357 27.5061 44.0427 30.5836392054
39.4943 16.491 41.3406 29.0243827426
40.2322 25.7204 39.9536 29.348644665
45.2214 27.3655 41.081 30.8900729445
46.2845 22.5776 42.6729 27.6474572385
44.0295 30.7205 36.1311 49.0119474957
39.219 30.5249 45.7939 29.0657833993
40.849 21.4447 35.478 102.8745274381
47.0055 24.0883 38.6143 29.2107889037
41.7768 32.4729 35.8623 74.4696669645
39.5626 20.8733 43.9169 27.1959347848
39.7792 23.8438 44.8616 30.3858109126
47.2668 30.1376 35.8694 59.2679840038
48.8937 32.2044 42.6563 33.7102986952
48.1749 19.1726 35.6955 80.4221192024
48.6362 19.5023 42.2573 26.3291701079
48.7398 17.1107 40.8821 28.683281714
37.912 19.7037 45.9891 34.2816064688
46.4197 19.3545 51.123 30.215631362
49.1769 27.2014 55.642 28.7959160094
47.5246 18.6101 48.2888 31.9016805917
44.0517 17.2406 49.775 27.2816947929
42.5826 19.5823 54.5523 27.3629487311
40.9155 32.5664 51.7071 30.1588615084
40.1049 17.6093 54.8066 28.7983336102
47.1421 22.209 47.7395 33.6164546068
44.3439 22.9065 48.6458 29.8738194408
40.1856 20.8627 53.9404 27.0616814701
45.9454 20.281 46.2182 26.8323020037
38.2057 31.0377 55.7799 28.5682987806
39.7109 28.9441 48.3074 29.386528628
41.5571 29.2714 54.8179 31.5415613554
42.5454 26.6415 54.7229 32.3127068398
44.2185 27.5315 47.3503 30.7100133028
45.1822 24.981 46.7125 28.8060974901
42.3439 31.2003 46.1315 26.7581310602
41.8907 31.3711 48.8029 30.9130524114
41.1491 27.2307 46.8751 26.5038921271
48.9582 19.4075 54.5345 27.7672052152
46.6397 18.5386 55.7247 32.0985105361
45.3565 30.4115 47.246 30.7843240021
38.3453 17.3617 47.7474 27.1043018039
46.5692 25.1232 51.7118 30.5467955612
40.2697 24.7685 54.5313 28.1742834642
39.0634 21.3391 47.9641 29.9818695778
40.4568 17.2659 51.6819 26.8644658209
37.0319 32.1845 46.3877 32.2729946596
44.471 30.5922 50.0152 32.3333295234
39.3049 18.843 49.7671 30.4939127973
43.8379 31.031 54.648 34.4658858184
40.6326 21.5244 50.943 33.3219621268
37.386 31.3444 50.4037 31.3851129573
43.7268 24.8573 50.7377 28.1607465778
41.34 22.5985 46.9466 27.2128152215
44.0459 19.76 48.3821 29.0654074879
48.7042 20.5831 52.2388 33.2218425487
41.8103 25.0747 48.5542 27.5015096421
43.7602 20.7051 51.0926 29.1570920054
47.224 29.7075 53.2359 31.016833539
43.5774 27.6911 50.0203 28.4507302582
38.8959 23.5564 52.5169 29.4099777194
46.9265 22.5303 53.3244 30.6164193473
37.2471 25.5894 49.067 29.6415822444
44.7769 25.2238 53.9887 27.442270534
46.3251 32.166 54.0243 27.2349070943
38.69 31.2019 52.6047 26.6686055341
41.0455 27.7437 50.4891 29.222475075
47.6877 30.4144 49.4105 30.2925376285
46.2932 28.2402 51.1069 34.9594734438
38.4126 26.1281 46.42 29.2415301785
37.8254 19.4946 53.9727 30.0359667068
39.7286 28.6216 52.6284 31.3236600671
45.5065 17.7401 53.2593 30.4608159774
42.8537 18.2175 52.2616 26.9099181096
46.2677 27.6654 55.0858 32.2971250962
41.8993 19.7992 46.2916 27.9117458807
47.33 25.1469 48.637 33.8331285355
42.462 23.3397 52.7297 28.2107958735
44.4696 21.8765 54.3185 28.8838603239
39.7753 25.0562 50.5571 30.6288929462
40.5322 22.249 56.3277 29.1348094988
48.2143 22.9956 55.697 32.6206639404
37.5824 26.9781 53.6494 27.6365916277
38.9212 26.3118 56.523 29.1820302257
40.5028 17.1547 46.2191 29.1488434041
37.8646 41.8171 9.8546 28.0368409845
38.4996 33.338 6.30224 29.8343998068
47.2054 44.8316 12.0749 31.3455090455
43.1773 34.9263 4.30127 29.1339419534
40.3233 34.7381 4.74949 28.9380000183
40.527 40.7053 10.5187 28.6577410474
37.6612 48.5223 6.23644 28.1143976058
38.0965 37.3824 8.15937 29.0908328146
41.3532 35.7706 14.1399 25.9082650442
39.8665 37.2362 3.66037 29.7479703233
38.4728 38.7758 5.65859 28.6193818525
44.8172 36.9429 5.75185 34.8042903585
43.14 39.1283 4.80452 32.4365537103
41.4993 46.5276 5.15142 31.1463389505
39.509 41.7236 5.02959 30.6465047521
40.9201 39.2421 6.65378 30.0924939082
42.7113 44.0188 3.85247 30.5856460579
48.2304 47.2836 13.039 31.4195323793
47.8631 43.6797 6.18222 31.289323077
44.1911 41.8471 4.63323 29.2670511761
37.4128 34.5589 12.6436 31.4530091583
40.1161 48.722 13.4335 32.9830167674
40.375 48.3089 7.51852 30.0066573559
43.6489 44.6698 6.42803 29.5048117553
41.8779 34.1439 7.28749 32.8999288307
46.1641 46.2685 5.70194 34.4388842318
39.9854 47.0052 10.0815 28.4558205634
46.8708 39.119 6.11516 29.6342854613
47.2922 48.929 9.84065 29.9664354424
45.3222 47.4998 8.27 33.2371902481
43.909 46.2753 12.2856 30.3319609357
48.5254 37.8886 7.99801 30.9501618957
43.6927 36.2662 8.26192 32.5756583003
38.6983 38.5334 10.7563 26.7537585969
49.0344 48.6793 4.27167 32.0272643458
40.0161 35.548 9.151 30.6476972152
41.486 37.7809 9.05637 27.2934366724
45.9778 37.6036 9.93628 32.1713530626
46.1295 40.4131 13.0419 30.2354606398
48.2661 33.8084 11.1025 35.3813926364
39.2157 43.411 7.2582 28.8884545473
41.5927 41.6915 8.09755 30.8073940204
41.1763 45.0613 8.133 28.8680187808
45.6657 40.581 9.78005 30.7613382118
45.9802 41.6354 6.90366 29.0771289003
37.6899 45.7787 5.73711 29.6951607107
46.4158 48.2702 3.7567 31.2626000866
48.7605 44.4206 10.0442 27.9273207265
41.8742 48.0145 11.4246 27.955545717
45.2331 45.2822 10.2326 31.0987874974
37.6231 47.764 12.1439 27.2310095998
43.4114 41.4445 11.8671 29.6498431535
41.1891 33.8354 11.392 29.0768126184
40.4216 43.6559 10.5679 27.2298258333
43.8212 34.685 10.6349 34.4222519926
48.3884 36.7628 11.1748 29.0853215422
43.9146 43.1345 8.97552 28.4887910171
39.51 36.4385 12.3664 29.4908457264
43.7071 36.7629 13.031 29.8773299648
43.5036 38.685 10.943 29.1209701518
48.5074 46.4515 7.94624 30.2741046851
42.204 44.3128 12.9818 31.9991783829
48.7031 40.5783 11.6642 29.7327975621
48.3809 41.9617 9.15645 27.2359702928
47.5166 37.8324 13.4403 26.2387682723
38.1053 45.0172 11.3805 25.1934439601
46.7878 36.2893 3.4593 29.7464119958
37.2044 41.6243 14.229 27.6658832056
47.0795 33.1064 3.84452 36.0223421602
48.2857 42.926 3.48483 29.8121759475
37.6885 33.1565 14.938 29.5954421198
48.3931 42.2616 18.5276 28.207720049
47.0562 33.5367 15.3276 29.4964770474
43.505 35.0687 17.1891 29.4268059717
37.8284 36.3984 24.4401 84.6603786272
43.1992 48.7367 19.7307 27.2148531027
47.4296 33.5445 17.9059 28.8827971357
41.5733 37.6285 17.5157 28.628645518
45.5517 44.3351 16.5983 32.3453258637
47.3538 40.7189 15.9109 28.8761273781
48.3573 44.1359 21.2166 30.3338976558
45.7148 36.9625 17.2025 30.1137067864
47.4357 35.4148 24.1633 81.1729969987
39.3939 37.213 15.7841 28.1976733794
41.8641 43.7939 15.7174 29.134071799
37.0371 38.52 22.5919 27.5603724518
38.7054 41.7386 24.2645 67.9603213104
42.0177 34.2417 19.5153 28.0374604532
46.4098 38.0646 20.7478 31.5207960794
45.9484 36.028 14.5605 30.8939200973
38.0197 34.9341 17.2751 32.2213247652
46.2092 47.5541 19.5268 29.4836039579
43.5555 46.1354 15.576 31.6682536075
48.1287 39.8743 24.4632 83.1085143689
45.9712 37.8675 23.4464 37.8652633772
47.5297 35.4284 21.3381 27.7184854142
39.79 38.2079 21.241 28.2646823074
45.6744 41.9132 24.3888 70.506263841
40.614 33.6291 16.9003 31.3867089786
44.7981 39.7384 17.1315 29.5271631055
37.6828 47.6932 19.4065 26.2295332274
44.037 42.4031 17.5428 31.6753392501
46.6821 41.9793 21.6314 29.1318690279
38.2134 44.7304 21.5967 29.5217781684
37.5509 45.5804 17.3514 31.5030899463
42.757 38.7386 15.297 28.7603181853
40.396 45.9044 20.2534 27.8751152589
44.4408 42.6391 20.3981 29.3703191248
40.9372 46.0113 24.6393 100.3753771667
42.9761 44.7216 21.1652 28.8648703657
41.465 36.9922 24.7766 122.5152822734
37.0285 46.4762 14.7865 28.0267786457
40.234 44.8621 17.5241 31.4307660206
41.8889 47.3605 17.6463 31.9368721365
39.9314 34.8468 24.0723 42.1537562856
42.5781 40.8714 21.1699 27.6281726035
42.372 44.3206 23.8809 34.2054987147
45.9165 32.8524 24.1936 80.1833377538
43.7047 36.2249 23.4571 35.4519442041
42.5687 48.9176 24.355 80.2247771939
47.5743 45.176 18.4985 28.9639812474
42.1457 36.54 20.982 30.466296396
40.3559 39.8569 18.9713 32.0539700397
39.716 38.9469 24.0407 46.3033814435
48.1766 45.1754 24.1357 64.235879902
43.5825 38.7811 19.6527 29.1590621795
37.4573 39.0366 16.3235 25.4260076284
39.7705 34.2706 21.2818 31.4943815647
40.7288 48.7941 20.9581 28.5568090095
41.6475 41.7639 24.212 72.4959027733
45.4364 48.4909 14.2439 29.8093970599
43.9297 40.1585 23.9154 53.01739178
44.6655 46.6557 21.5429 32.0084880816
46.3972 32.9626 21.3822 27.9364141385
41.6695 33.0711 14.0518 30.5052527382
47.9146 36.2656 18.5727 30.8733502006
37.2204 48.8612 15.7975 30.3210510561
40.7887 42.6303 19.9423 28.9973321607
38.5751 42.1957 21.4374 26.9105553155
37.9247 36.4009 19.9676 30.6988695156
45.2866 47.5447 24.2358 74.5328053727
38.1341 44.9187 24.4431 90.5988060962
37.7698 41.1047 18.2456 31.0015234333
43.2923 33.6908 23.7192 44.8509350436
48.5316 39.9008 19.9244 28.3004823166
45.3805 48.6661 17.1047 30.8603694932
45.3032 44.5338 24.4983 83.6897862082
42.4046 41.1522 14.5211 31.3919054493
39.6173 39.8011 14.1464 34.5152492643
46.7054 43.0842 14.406 32.510626359
49.1259 49.0823 15.7049 27.6290165348
49.1303 42.4746 24.2382 62.789723247
38.8526 43.9378 14.0222 35.8589654198
39.9364 48.9127 23.6067 36.0162435698
41.4208 45.1943 35.4198 113.0790721841
38.1978 34.4015 38.5157 31.3777149376
40.4617 35.6276 39.6453 28.4752251901
49.1757 46.4494 39.204 27.1820656242
43.0429 35.0627 35.8112 60.5222792935
45.5672 37.3563 38.1751 26.8271448159
43.6866 38.8404 35.7194 62.2643808993
45.4858 36.388 35.7447 72.6847166924
38.8686 37.447 43.2733 27.6981860267
39.5108 39.824 41.2624 27.8881815735
39.58 38.8745 36.2091 34.5991590318
46.2948 32.6887 35.929 71.0989899781
41.8207 47.1433 44.2785 28.9849090398
48.0784 39.8252 36.3471 36.6994202194
38.3306 34.9655 35.784 62.0061719987
45.5745 43.3001 36.3724 41.6029075595
41.3209 43.0064 36.9064 30.8671553154
48.301 43.8582 35.9135 87.1806811539
36.9071 39.9764 35.6949 81.0543654346
48.9718 46.5346 36.217 42.0851703644
44.4401 46.0886 35.7921 75.411278638
45.0282 44.2732 42.6684 23.9779392395
41.1349 44.9307 41.1437 27.1193931773
38.3991 42.2914 35.9378 61.5333581024
46.1625 46.7543 43.56 28.2993405186
42.8131 33.15 42.0792 28.3104280904
46.9699 48.0304 35.6899 78.280937864
42.0936 47.8474 36.7082 31.7613226551
46.4255 33.116 38.6323 31.1427474578
45.6948 40.6876 35.7335 85.4699520564
39.5825 38.1323 38.87 27.0550299738
48.0906 48.8517 42.673 30.0780894529
42.3186 38.6215 38.4235 29.111821424
45.7297 35.6043 40.2074 27.8689628078
42.6953 44.6791 43.8897 31.5030060556
49.3024 34.2785 35.9172 59.4249882428
48.0922 35.8312 41.8536 29.9778779467
44.1702 47.7155 40.112 30.2143947586
44.8702 33.6788 43.762 28.5387864662
44.0635 39.3838 42.5812 30.0529712155
42.311 40.6331 40.4598 32.6775514171
45.1857 40.2808 38.4244 26.712468993
45.4493 41.4986 41.2852 27.2013130449
48.2713 39.71 39.2607 31.60737935
46.6719 40.0138 43.871 27.7319197012
43.6653 42.6643 38.4953 26.6772242356
39.4631 42.5696 41.1591 30.3395764049
45.2609 45.7577 38.5371 27.922358688
45.6038 42.6665 44.6897 29.1156637553
39.5804 45.0287 38.4606 28.6429481236
47.4519 43.8967 39.4664 28.553453797
39.6071 47.0042 42.8394 25.8471257068
48.0475 48.8679 39.7719 28.1992490779
43.6927 44.5116 40.5008 25.1629866903
38.1558 43.109 43.94 28.6281953696
48.0224 45.3453 41.8767 29.2429907881
39.9881 33.8838 44.1244 29.3132526686
44.0114 48.2169 42.764 30.9698473208
37.6352 42.4186 38.572 28.6428152478
48.6184 36.6027 38.6246 28.4979622847
41.143 35.8348 42.2059 30.4531735276
