28.8096 3.26731 7.97763 34.8632312768
36.1545 5.20521 12.1458 28.7982242758
34.515 3.45954 10.8955 29.5897828582
29.1552 1.23376 12.9406 31.2514367598
26.6163 9.46772 10.1688 27.4306310251
30.3615 5.32593 12.0311 28.3149187727
26.8254 6.50038 9.9902 27.504035314
32.1882 5.27086 6.98323 31.0222222964
33.706 4.77634 4.84272 27.3595321891
25.3139 0.570567 9.36528 28.8483953102
36.4525 8.79494 8.31599 34.5431428007
30.3145 7.27643 7.64381 28.9607360752
26.0908 9.23638 14.4291 31.0861096769
28.7443 7.85867 13.5111 30.8189220058
30.951 0.280458 15.9129 31.04916233
32.9622 9.64199 9.71266 28.7140119212
33.8043 6.41949 13.4487 24.2845582334
34.2283 9.99021 6.85399 28.3691017198
26.6181 1.07012 4.8025 31.3836398888
28.738 3.17892 10.9466 32.3643432838
31.5036 2.48154 6.94254 32.0889241021
25.8794 2.69272 11.1224 30.9989735703
32.2655 3.60909 12.5292 28.7080646166
29.8549 11.1168 4.50207 32.437904923
29.6112 7.54644 10.314 26.9940080584
31.8873 0.794737 13.0082 28.6219275519
29.3521 10.9093 14.5731 29.0488239494
26.4108 5.07139 12.2806 27.6701939449
30.3435 5.26057 15.1756 31.4801317614
31.9359 7.52924 14.9096 28.7098837142
32.743 7.01832 10.8512 31.4402840407
33.9491 5.20094 9.10484 30.4200517396
25.3097 5.14344 5.03861 31.28408799
36.82 0.163835 12.5199 28.6823566164
25.1257 9.72073 6.5606 30.9018190385
29.1379 7.11904 3.65229 33.5247840166
36.5616 5.69128 8.35654 28.1557208604
27.3928 8.20865 16.6915 28.3287244646
36.1997 6.33169 4.84656 29.5736701025
25.1384 12.3827 9.92391 29.5083754394
36.1168 0.93255 17.4949 32.5678878195
29.1577 6.10641 19.3513 28.373086891
36.0057 0.803097 21.2543 29.7284709466
33.4715 4.51771 24.3839 75.9436059526
36.2904 0.84702 23.9619 59.3048361628
25.1092 2.54897 23.8292 63.4358043512
33.2636 0.511738 21.579 28.5956109071
36.5476 3.31522 19.7603 30.8510189637
26.2321 5.10121 23.5632 67.4117950113
32.1314 5.83791 18.9983 27.4624120459
29.4814 8.8421 20.2852 28.2859273069
24.5558 12.2098 19.0082 29.6091682288
32.8099 7.94146 17.5121 28.8888361754
30.6425 1.57612 21.3468 32.160036332
35.5604 7.08627 24.1693 71.8193806656
25.5916 9.68133 18.766 28.7046432517
31.7524 10.3205 18.0758 29.7599269416
32.1362 3.37633 17.6248 29.8443488484
34.9028 6.91748 21.4004 27.626237726
33.6603 1.7098 24.4368 92.2678687514
34.0656 9.7566 21.2915 29.2642689937
31.1763 11.3484 20.9914 31.5569853016
27.3726 0.854506 23.9323 68.2038936202
26.9672 5.55932 17.8522 26.0161619085
30.9805 5.44779 24.613 92.3946601488
29.1351 3.43566 17.4367 29.7753437154
35.1332 7.75266 18.542 26.6410939173
30.8945 1.43921 24.1734 52.6730052249
26.9398 8.91536 21.1306 29.7118729015
36.3917 10.5791 19.7335 30.1869947128
26.3563 5.97846 20.9747 34.7712017419
28.6533 4.07107 21.4593 29.5932884135
29.107 3.36518 24.1323 65.7854977925
30.9304 7.65615 22.4112 28.185665329
28.2664 7.45486 23.9711 73.0840525846
32.4488 5.71735 21.6748 31.4320251916
26.7206 9.88235 24.135 73.9911570853
35.0218 4.91338 18.2906 28.6176098973
26.5271 2.44123 20.0798 32.1704367731
34.9621 9.79581 24.057 51.6923382972
32.3646 8.85706 24.639 110.4634371673
27.8695 0.715878 17.4304 27.39648431
29.1627 10.127 17.4588 28.0710906512
33.209 0.844906 18.5678 30.0480725791
31.8922 11.5092 23.662 34.2105195099
30.2475 -0.129856 19.029 27.2072656526
25.3967 11.7647 41.7044 29.9600335978
24.8706 10.5996 38.7744 28.9198930507
35.2326 5.65838 42.2061 31.5465923756
31.9754 5.64267 36.0821 63.5130502412
31.866 3.89655 40.0639 33.2062033753
32.8875 2.14702 36.4151 36.1833188621
35.9938 6.89548 35.8967 65.3581026557
27.3567 2.57897 37.9902 33.4492567359
29.5724 4.41615 37.2159 32.8593839526
32.8503 6.29925 38.6826 28.4791349572
31.3327 8.49802 36.109 62.0741579936
34.3966 4.26753 35.5163 86.9251727886
35.4525 6.97108 39.5924 30.5104547813
34.1674 8.78523 36.3416 35.6139177533
35.7505 4.08837 38.2052 29.722260379
28.13 6.71464 35.7448 101.9075280989
28.0892 9.4636 35.8112 69.1545994589
29.3176 11.9986 35.809 64.0609128297
25.6002 10.6344 35.9219 65.179502515
32.65 4.60123 42.7295 28.7481155136
31.994 9.79931 41.6006 32.8575620896
32.8547 1.27531 39.2339 29.6632207043
25.2277 9.119 43.1923 27.619806365
25.411 5.98104 36.1895 57.9244903724
30.9394 7.06888 42.1898 32.4666523688
36.5729 2.39635 35.3841 98.5245337124
27.6247 4.4427 41.9773 28.7143164782
27.5198 7.71682 42.3362 26.4178919775
27.5152 9.7647 40.4708 27.0202827278
29.4761 5.39265 40.1018 27.0783667903
30.0103 1.47795 35.9086 115.6893307884
26.8725 0.467102 41.253 31.7083864276
25.8424 3.07946 40.2347 26.9054866709
35.0691 2.82553 40.7302 30.7989214025
31.0243 8.52147 38.9828 26.7733540382
24.7773 3.13922 35.9705 77.29761505
35.6698 11.1143 40.9246 31.1549127612
33.7625 10.0878 39.1294 30.0743781727
26.0349 5.78162 38.8566 28.8876786914
28.179 7.44522 38.6115 26.8592228786
29.638 11.4217 38.5615 28.9519629271
29.6664 11.2605 41.6046 28.9358578677
34.1366 11.3803 35.1626 116.2389397099
28.7293 4.94071 45.3893 26.9124456445
30.959 2.92944 44.579 29.588025426
30.8356 0.635795 52.1295 33.0073555313
33.9175 5.21608 45.3847 30.399107297
33.2432 1.13419 43.8484 33.3439219622
35.0859 2.57661 45.3238 26.1671963855
35.0421 9.85436 54.6852 26.6658155992
25.83 4.82124 47.6766 28.3053599376
27.5238 7.38264 49.2996 29.6869760487
33.7342 7.79943 46.9216 31.3638019225
29.5544 7.47992 44.4983 31.1985649139
34.3835 11.6727 47.9133 31.6607830244
26.3936 9.4947 51.9978 27.8913398666
33.6513 0.039505 47.2221 27.3240599518
26.5255 9.60079 45.843 28.0588526595
34.2515 6.38116 53.3607 31.7377189718
34.4943 2.59257 54.2173 33.2900657556
27.3139 5.06135 55.7148 31.8101168835
33.9464 3.02463 48.2416 28.9181117913
26.1906 5.58511 44.1721 24.5203848766
29.7072 0.565331 46.2402 30.1347363078
35.3828 10.1289 50.1682 32.2604111001
32.4486 4.17933 54.9838 27.8602112818
31.6995 4.23135 47.1772 30.0521737086
28.6587 0.365601 48.8583 26.7530092021
35.1119 0.514141 52.2256 34.1749215428
25.357 7.29319 46.4394 26.7059909423
35.7569 5.94387 50.0797 31.8238620622
28.7449 3.0153 49.8789 29.2798942824
31.346 7.00309 48.3358 29.194586985
30.1707 9.26244 46.5816 30.7248571083
28.7022 5.01507 48.1543 26.9663890151
36.5256 4.27698 48.1083 29.0331072725
36.1934 8.18849 48.545 33.2106618583
24.815 0.485737 49.5344 31.5192289877
27.8998 9.90157 48.4281 29.1022439942
28.401 2.09745 43.4906 35.8012880724
33.0475 10.3321 45.8681 29.6262315482
33.4598 10.679 52.2573 29.0282962356
28.542 10.7607 43.9455 27.7157242669
25.9362 10.6722 54.5152 28.7161805052
35.9519 1.12374 49.5359 30.5842942383
26.6629 3.08694 51.7598 29.4934507173
27.844 7.35126 52.1581 28.7266478592
28.6056 2.0655 53.2833 27.8695455043
24.786 3.13706 44.7078 29.8275371972
31.5961 3.05964 50.6897 32.8957557746
26.1712 5.41145 53.2213 29.1019256233
29.3087 10.5279 51.9752 28.0975432795
28.4123 2.71222 56.1113 33.337847309
30.6536 7.46921 53.0363 27.5613733863
32.8879 5.81376 50.5464 31.8773119341
30.4 4.45297 52.9138 32.1642000895
28.7081 9.53363 54.89 32.5508347185
34.2116 10.3449 43.3113 30.8048043724
31.5297 8.92288 50.6882 35.4909864938
27.0767 2.3149 46.2424 29.4067533492
32.73 8.34149 54.5431 27.4861975665
36.4748 5.92356 54.8306 26.5953669406
25.53 12.2738 46.8648 28.5562913201
25.0767 10.1307 49.5205 31.1641883871
35.4167 7.8271 44.2134 33.5756844392
33.1703 0.915245 56.3446 28.5414169092
25.2586 19.5195 16.3786 33.3190359777
27.9865 24.1622 11.7661 27.356437312
32.1608 13.7532 6.43541 31.5540842871
27.3158 23.9308 16.1075 31.6761711909
35.1703 15.9282 13.0201 33.8640031368
36.2684 17.342 9.13147 27.3966095566
29.6673 22.3885 16.6918 31.0276361186
26.9938 13.4923 16.6249 30.8205011101
25.6036 17.3743 5.92668 31.2016473091
30.1183 13.1896 8.41964 30.7201217851
32.2238 13.2243 3.75384 29.4163814395
28.2712 18.0595 6.01197 34.5060005792
33.3136 19.4264 5.36429 29.2936940359
26.9291 17.3581 15.356 35.8126705958
25.2108 22.1913 15.2306 29.9888899845
35.8246 16.4265 6.69741 26.4093393059
26.2174 20.086 8.934 32.8810299141
29.499 20.8498 5.81308 28.2106846506
25.0775 17.6577 8.67994 29.2480109986
31.5645 21.7191 7.86522 31.543254113
24.6174 24.248 5.92763 35.5626579631
36.1966 19.6155 7.09213 32.219291269
36.4107 14.9961 15.8438 28.8819097874
33.3785 12.2454 16.7726 30.7851188379
27.1669 14.0358 8.74562 35.0287797945
32.3115 21.8087 4.38697 28.4220294118
31.7124 14.4592 16.2273 32.1691267425
25.5351 15.7036 17.0232 28.3703124053
27.953 22.0021 7.85859 32.138841578
32.1685 16.892 8.68532 36.2132209631
27.5115 16.4948 9.58331 29.6133852508
29.511 18.2465 8.60094 31.8386536656
33.3966 16.6531 6.10396 29.2787643867
30.9287 13.4852 11.0009 29.4981953331
34.5793 20.9321 16.3395 27.3092052879
30.0719 22.4328 10.0166 28.250636229
35.0807 22.9312 9.85139 26.6695961413
27.0836 17.223 12.2161 30.571809652
36.1599 19.5024 11.9761 28.3663863423
29.3134 13.7558 14.9251 31.3843767737
34.1086 20.7279 8.66643 31.0701723769
36.5391 13.7634 6.54953 30.6723501274
33.539 16.6695 15.4517 28.5162363772
29.106 14.6501 12.3505 29.691298857
31.3782 19.0882 15.3053 29.2118480384
33.076 15.2708 11.0621 28.9564510703
34.7062 24.0277 15.2163 30.916249135
33.9767 23.4515 12.2168 30.6069634892
35.0465 13.5171 10.2215 29.8065077175
34.3217 12.7326 7.46006 29.4767477353
31.1623 23.7152 12.0941 32.3205833609
29.4757 19.8263 10.8795 30.864281157
26.7183 19.8601 11.9348 27.8721058611
35.9942 12.2459 15.3368 29.5010004405
34.0976 20.988 13.5328 30.5970983173
32.0465 19.4118 12.4778 29.9093778179
34.1255 18.5567 10.3774 26.4189857638
31.5801 16.5941 13.2945 34.0139589092
27.4592 22.1444 13.3918 28.1664949003
29.9384 21.5301 14.0107 32.4613239415
25.5093 15.4184 3.8812 29.0283221976
28.3169 22.2053 3.65778 33.4394038778
35.6382 18.1057 17.0453 30.5729702846
29.1693 16.0959 3.9149 32.0825952211
30.8192 18.7564 3.92435 30.6603405092
32.5446 24.0819 6.18162 30.6435027629
27.655 24.2745 5.6343 29.3070813099
25.3322 24.2703 10.5375 34.4364170439
27.2967 12.3875 11.8644 28.545115578
30.0965 13.3921 24.6017 90.2807899501
33.1397 23.5674 17.817 28.085892621
30.4764 15.8779 18.153 30.7621707092
34.6762 14.1437 18.3986 29.9001394139
25.0753 14.3436 24.2318 68.1275007598
29.3426 18.1232 16.9459 32.2675464097
25.2998 23.9477 18.1088 26.8056448276
25.23 13.9918 21.143 26.5155827928
25.7202 16.2967 19.6806 30.4961050102
27.6243 13.316 21.8293 28.5400917245
32.0585 20.7371 17.7102 30.3983720296
36.0977 18.2638 21.0262 35.8010367479
26.2381 21.3654 24.2942 63.3888543254
33.4708 21.2639 21.6899 31.4105213513
27.0208 18.8208 24.7784 105.9019538539
26.7947 22.0982 20.1586 30.8500380553
33.2096 17.9686 21.3341 28.0439372446
33.8068 23.7584 20.3187 27.0596562536
28.9891 22.5697 23.5937 33.7596894893
29.3079 22.9775 21.0244 28.9911124527
27.7082 15.9737 23.0738 30.7586791012
30.1405 16.5506 24.5759 82.9223044813
33.41 16.8781 18.5753 30.3941023022
32.8448 15.0965 21.4862 31.5002362682
34.4813 12.7343 24.2538 70.6464718147
28.5569 16.6774 20.3415 30.8321580944
30.223 14.0237 20.5129 31.2808872571
29.6714 20.0038 24.636 79.2394407577
30.1447 18.2564 22.1055 31.8944990903
32.7259 15.3472 24.245 63.9269217616
30.9234 20.719 20.3117 29.1504285421
32.4172 20.5612 24.4456 86.4516667213
36.3992 18.1951 24.3534 98.0972950524
33.7506 18.0362 24.1855 57.1671142712
27.5048 12.4445 24.4357 80.2250287242
34.7435 12.8117 21.1123 29.4080661945
28.739 20.2443 18.648 32.9165802582
33.1094 23.4016 23.9548 48.243319375
36.1618 22.1848 18.4297 30.3379822677
36.7174 21.0718 21.043 27.8249143385
24.6076 23.5959 21.9542 29.3031727598
36.7995 24.3343 21.7791 31.0289205773
25.6661 20.0668 21.7722 32.7101201067
27.7195 12.053 18.8287 30.8139125024
36.3179 21.2391 35.8304 72.12483567
36.2881 19.2268 39.0703 26.5490233555
25.3668 13.6474 36.1963 53.9217279092
26.9985 17.5371 36.0225 74.5017626205
30.9709 15.3993 35.7509 84.8278037794
35.1227 16.4041 35.8595 75.0324752645
35.8983 15.8359 38.6213 26.2445637988
24.7834 19.9071 36.3967 54.699270476
25.2499 20.0348 39.3312 26.3331407466
28.9459 20.0672 35.8404 80.9137827762
32.6517 17.8281 36.108 50.9925349643
31.8376 12.6028 35.6266 61.8874011662
35.5819 21.9392 40.6784 34.834882193
31.0797 19.8653 41.9526 37.6610972239
32.8196 18.2526 43.2664 30.8020209438
26.3757 22.4023 36.2006 62.1938553625
25.6078 13.4309 38.9826 28.4355680883
31.0559 20.8963 39.0514 33.325386575
30.9109 21.8789 35.615 89.3262525905
33.6941 20.4727 35.6202 88.2824963994
35.1844 19.863 42.9188 30.3950583694
28.0141 19.419 42.3701 30.0223136129
36.369 24.1297 36.1965 54.5808039328
26.5199 18.0179 40.6089 29.0874471117
27.9337 21.6832 38.3478 29.3587090182
27.8658 16.5872 38.7431 30.0017625817
30.7298 15.579 42.3716 32.0289873948
33.8197 20.7683 38.3006 30.8119797845
35.8058 14.2177 41.6869 29.2933625666
33.5188 15.9437 41.2483 31.7009350157
35.4344 13.124 38.6797 26.2968460952
32.42 12.8986 38.4007 33.757797455
33.5374 17.784 38.9675 29.6439653044
28.7291 14.068 41.5675 27.8654876978
30.0561 23.8862 38.715 29.0068368131
30.2371 18.3745 37.7313 30.6882301965
26.5682 14.2102 43.2042 28.6466992733
28.1912 13.8756 39.0346 24.7826137999
31.165 15.4656 38.9668 31.2301358995
35.5148 24.2805 38.7103 30.8229430244
27.7952 14.6917 35.8246 75.33175741
26.6956 21.8346 40.9602 27.5751715513
35.9593 13.6787 35.809 63.8686597099
28.1638 24.1599 41.2653 27.9674315816
36.8902 18.7902 35.9657 54.8444722045
24.7186 24.0834 38.2237 28.3497615769
24.9572 15.5578 40.6144 27.2811155752
35.4169 15.6426 50.1137 28.8111063888
32.2837 21.5103 45.6642 33.8452499316
30.719 19.4051 53.5629 28.2724393684
28.58 15.451 47.107 28.3095705293
32.2373 14.4259 44.5013 31.9089554554
32.7138 15.6022 46.8274 29.0036114111
26.3401 19.1461 49.3235 30.4894955376
30.2068 21.9684 43.7555 30.773126347
28.4874 16.8367 44.0725 30.7855843479
36.3501 23.449 53.6096 28.4812071276
30.387 16.6809 51.9427 28.4558134371
29.6511 18.2507 46.1719 30.1399565713
35.0009 18.4355 49.8753 29.4795471254
32.4199 18.4796 45.9081 29.0041696418
25.1846 19.7188 43.6746 28.2328285382
25.8921 22.6308 54.173 27.4313237387
27.5569 21.6943 44.6611 30.960732582
34.7434 12.4565 55.7096 33.0191816421
28.0358 20.1922 47.1973 29.0124131552
35.2684 18.8079 47.1828 31.1471513725
27.6649 13.2031 45.4665 28.9659014402
32.891 14.1436 52.0446 28.2983067464
30.6686 13.1771 48.2613 29.3006234754
26.4345 15.8139 48.4099 27.3225879077
27.0696 16.7651 55.0092 27.1648138577
30.6824 16.2852 48.9139 29.9477698123
29.4758 14.2144 52.5106 28.4654190839
33.1011 13.7278 49.1595 28.1422130723
35.7223 15.7912 47.1783 29.1453695274
30.6998 23.3005 55.446 29.285630666
28.305 22.6974 51.799 31.1997817518
26.4004 12.7673 56.2233 27.4124582361
27.2293 17.0733 51.1856 29.9191321673
35.8291 22.2527 51.1874 27.4893619902
36.3439 16.1329 53.5285 31.2240776917
36.7103 21.4159 46.9178 30.2707048383
34.7485 13.1584 44.1163 34.0117886463
30.9744 22.8938 52.6284 26.0254220671
30.7344 18.9899 49.392 28.9952642788
29.2455 13.6434 55.4775 28.7092210747
25.4598 16.9739 44.2706 29.3718535213
31.6037 22.1189 48.5874 32.5372316949
26.0851 23.9054 45.9782 32.0825614175
26.3863 13.2305 49.3809 28.7866347502
26.6784 15.0271 53.2865 28.4042991071
35.1744 22.0571 44.6033 30.1937695612
28.7824 19.9412 50.8497 27.4541171506
25.98 19.0317 54.2541 27.9770922632
36.4256 13.0414 46.6523 27.8791831708
35.3382 13.3426 52.8976 29.3368488545
28.9124 22.4588 48.901 32.2396412888
32.6715 16.5295 53.6479 30.066069002
35.6238 19.2945 56.3833 29.4014690862
28.2327 20.6362 54.0197 27.6090265529
25.201 19.9188 46.3155 26.8243698179
34.8846 18.6698 53.9433 26.2986003602
32.8619 19.2865 51.4618 26.2171695664
33.1401 21.8642 51.1311 25.1083792857
33.2023 20.8813 54.3637 28.4411609232
33.7197 24.0037 54.214 27.108585216
24.211 18.3711 52.0904 29.0435286876
36.7947 19.9783 50.6282 24.1481373087
32.049 16.0601 56.2918 29.9047003232
31.2932 11.999 53.4414 29.3484592643
29.0502 12.5508 50.1317 28.9012825001
30.7419 12.1651 45.438 29.9756563858
35.1458 26.1514 13.3473 32.1812697972
30.2657 25.6527 6.06013 30.9554868137
37.1696 25.866 7.26257 28.8897721605
33.8588 31.6273 16.5333 32.458533048
27.5392 34.4862 3.82639 35.1230663841
30.6821 26.4671 12.2676 30.7665425087
36.1799 29.9962 14.879 30.7686049194
26.3729 27.0294 8.42475 28.6090543064
34.6253 24.8663 4.17919 35.5548257405
33.4264 32.8546 5.17134 31.625367979
25.4495 34.9678 10.8894 29.3572920717
34.763 34.8221 9.60673 28.9751094618
30.8617 28.6163 6.09264 29.857587736
26.6911 34.3585 8.64954 32.215217426
30.9079 34.9176 10.5469 28.3573020646
30.9767 34.8437 6.32874 31.137266562
36.7421 34.6421 4.67428 25.7148139419
33.0969 33.4173 11.7634 29.0001655493
28.4603 28.4358 8.84398 29.1705603201
35.5742 33.558 6.96646 33.225259484
33.2427 26.6202 16.2446 32.2930532051
28.4376 26.5743 15.5235 33.2662296414
27.5616 35.9774 12.4491 33.7804992864
36.8987 28.6812 7.41557 28.6814271427
30.1372 34.3244 13.5466 25.889391163
28.8413 33.3472 9.78397 29.5201262782
34.5808 24.9855 8.2436 32.2848163425
33.0317 27.2465 9.15805 31.8819840172
28.6941 30.4051 6.89915 28.0950098232
30.202 32.5443 7.65512 29.3865967473
32.3882 31.1792 7.61328 29.1026206678
33.8329 28.8947 6.98666 28.4598888952
26.4336 34.5807 14.6036 28.2556518621
33.0395 30.8679 10.4913 31.8100169064
34.0742 28.4708 11.4074 28.3494090366
26.7084 26.6652 4.17302 32.1301408699
28.2527 35.8499 6.43446 33.0184878454
36.998 25.4639 10.6831 30.4339996013
27.2539 31.5681 14.5646 36.497678322
28.8605 31.6184 12.1755 29.835111946
34.1976 33.6031 14.4205 27.7635878137
32.5473 36.005 8.44282 28.3723645964
27.4715 26.7503 12.7373 33.6917895742
32.629 35.908 14.9348 29.1348297065
29.6061 30.215 3.83153 33.8259903619
30.8932 27.7558 15.0351 27.5489428833
33.3999 27.9652 4.26214 29.6115235603
30.9483 29.4531 12.2813 29.5471656499
35.3684 36.0686 12.8883 25.1830809874
26.3195 30.4705 6.07857 33.16600447
33.5035 29.3809 14.3 29.0809625212
27.884 29.2036 11.3125 29.0758357476
24.5319 31.1926 13.9149 30.1075087984
36.6314 28.39 10.1599 30.0891055869
30.8773 30.1326 16.4427 32.7440456295
31.4135 31.9658 14.1794 28.4094725176
30.217 26.3111 9.39513 30.1109804011
35.4553 31.0385 8.45238 27.7248907167
29.715 34.9799 16.2186 32.9491132285
24.8467 27.9417 5.96058 28.7336077637
25.3154 30.6896 10.4878 30.8635401827
25.2237 32.1415 8.07423 32.6737005527
27.8049 24.8353 8.7648 26.0411199462
27.2018 31.4443 3.45981 34.9695661188
26.422 26.0754 19.8748 28.4318446096
27.8408 35.9095 23.6769 50.4924796473
30.7519 25.1474 17.237 32.0221384747
29.4602 25.2005 19.7674 29.6289352055
32.0974 25.6892 21.1806 29.1553152022
32.8099 30.619 19.2762 29.0651578417
26.0649 30.099 21.5293 26.3919117517
29.6053 33.3516 18.3273 29.6898119664
35.8798 32.3432 18.8031 28.1782259461
33.2968 27.8529 18.8942 33.9776473101
36.9839 31.4087 21.6296 29.8237425065
26.3229 27.4472 17.4181 30.0126851629
27.6273 35.7554 20.7772 30.3317294477
33.1657 31.4017 23.5903 50.0868003102
29.9307 30.7112 18.9907 28.3400344354
26.8222 30.2849 17.401 28.9043245736
26.9638 32.8886 18.3552 28.9829282621
29.6969 30.2351 22.217 31.6414502863
33.8921 32.8806 21.1299 29.4735009329
36.7458 24.6534 17.1904 31.5566277453
32.2745 34.5513 19.8116 32.6886113822
28.3711 26.7967 24.361 95.4092286348
35.7591 26.2243 19.5077 28.2384899141
32.8101 26.7983 23.7238 68.377810132
30.5995 24.7159 24.4916 100.776749481
35.497 28.3834 21.365 28.806574212
35.8209 27.4051 23.9135 66.1073877645
26.2331 29.0507 24.1303 59.133828934
29.3333 27.2628 21.7214 30.2873830601
35.8761 35.4353 23.8038 43.3152138464
27.821 31.6323 24.0607 69.2564246237
32.7861 29.0725 21.9345 28.0866854793
30.8695 32.6654 24.3546 113.2463728517
26.8492 32.8152 21.1846 27.2967340609
25.8891 33.8779 24.061 57.6880101139
35.7971 35.3794 21.0985 29.1446245946
26.3857 35.4493 17.2028 28.6167480732
27.7127 28.8406 19.9278 27.490857293
29.8624 33.0258 21.6387 27.5439821728
30.6228 35.7339 24.0167 61.5339639208
35.4688 32.7125 24.4942 118.0049020073
30.4594 36.1257 21.3624 30.4222160816
26.2943 24.6322 24.2829 75.9981600126
35.5 24.6434 24.2088 78.1150412222
36.7834 34.5619 17.2686 29.3160203577
32.9418 36.7205 17.8732 32.3763491956
24.6585 26.2572 40.0481 28.0942285146
36.8335 32.9477 36.0945 62.4960235464
36.966 32.7079 38.7717 27.1531555336
31.1658 27.8231 39.0856 29.3562317252
32.7159 25.3655 38.8044 32.1138405872
33.5139 25.878 35.7816 94.5938713924
35.0315 30.0254 36.0777 55.5535564653
35.9228 27.301 35.7634 74.4880215435
26.1203 25.2546 43.3075 28.8986120524
27.0358 30.4807 35.6337 95.8498830861
32.6842 25.5887 41.6103 34.024571448
27.486 31.6027 41.5781 29.0508360742
27.5692 25.3356 38.7838 26.1207270431
27.9704 27.8882 36.1959 44.9431503725
30.8716 27.8953 36.1588 58.5285739933
32.8895 35.448 43.178 30.8783981552
34.9106 30.6338 38.8372 31.2511432084
33.6032 31.4326 41.4829 31.8571232952
35.5808 35.3507 38.7603 27.5529263644
28.2754 33.8688 38.669 25.6559588983
28.1868 33.2901 35.962 71.5163127269
32.2115 30.2668 35.7424 89.2946713541
25.0529 30.9724 38.2683 28.5232025886
32.5767 35.3172 36.1105 59.7137901344
34.8426 33.3824 43.404 28.9331430378
25.2663 29.5889 42.6725 29.5182175105
31.0598 32.8768 35.5909 101.8556739044
25.6386 34.9493 36.1333 69.4710350815
28.5057 27.9175 39.0274 28.4879038242
24.9506 27.4856 35.6264 85.7121161636
27.0752 27.5087 41.6221 29.5207775365
30.1897 31.3717 41.2103 28.9757608574
32.8972 34.9476 38.8026 32.5931311887
32.6859 28.4893 41.5185 29.0340096304
28.5318 35.4409 41.0138 27.214376971
30.4078 24.5332 36.0541 55.8003297076
27.3133 25.0006 35.7273 91.4899802006
27.7266 30.7125 38.6263 29.7342586375
30.6199 33.9154 42.7013 28.0701661117
32.0594 30.5338 38.747 27.313570448
30.8594 32.9734 38.4139 27.9820180324
25.853 33.88 40.5055 26.8862008503
35.7647 28.5075 40.728 27.8544989029
35.509 35.6006 35.9425 86.4140124178
36.6945 26.9066 38.6896 31.6371385658
36.6891 26.2787 42.5353 28.356923777
28.8279 36.8492 37.9961 31.3416084669
30.3629 24.34 42.8243 32.2372416249
35.0874 25.1682 48.5387 29.4785804901
28.1507 25.0766 47.7672 29.710336674
30.2268 25.6735 45.5822 30.1391687933
27.4823 35.491 46.7463 28.6132531706
35.6766 35.8828 49.2353 35.600468771
31.2512 25.9683 48.8395 30.2571933641
26.3943 27.0766 45.9176 26.7758206367
32.5124 34.9691 56.336 30.2877685371
35.3396 27.9226 48.8994 28.0910494355
27.871 32.7602 44.2431 27.7436459029
28.3457 28.8865 47.8368 28.2782683078
34.932 36.8534 45.0961 32.7482879638
30.7521 32.1206 45.161 30.2090439263
25.2312 31.3112 49.809 34.115667602
29.0455 27.5898 55.5416 30.9063074939
25.8826 30.9259 53.8645 33.4081599343
24.6676 33.5833 45.1926 32.0278227309
32.9622 33.6978 46.151 26.4753714871
34.5778 32.4496 47.9035 28.4210108922
25.724 35.7948 51.3951 28.1391120625
28.8441 28.968 51.1531 31.4577942572
33.3412 30.8745 44.5144 26.0071432922
28.852 27.6514 43.9319 29.1537447881
33.4088 24.6196 50.9668 29.1627795438
34.5005 26.2421 45.7662 28.9983609582
36.4576 33.2995 45.8606 28.9955522281
32.0999 27.6652 45.6687 27.3208626547
28.7864 31.9933 48.6947 31.4712744111
27.8231 29.9622 45.35 27.6552883907
26.7478 32.9666 47.2917 30.7774181568
31.244 28.7308 48.1465 29.2035062818
30.4026 31.8003 52.0182 31.0962439637
33.869 29.6921 47.1461 28.9913425611
34.5788 29.0222 51.4031 33.2291501415
29.2423 36.0899 49.0649 31.0269218754
25.1893 34.7723 54.73 28.064965806
31.9155 35.4983 52.8236 31.7648099206
30.8806 33.8876 48.3757 29.1665569717
26.8188 26.9374 49.931 29.6405324492
31.9547 33.5434 50.6175 29.471993721
34.7063 33.5379 50.6346 30.7141056359
29.9426 35.6916 55.1485 37.4118733818
31.2125 26.0655 56.063 26.5199445921
28.3657 26.8619 52.9021 28.9134292213
36.1504 28.0944 55.3734 32.8815885262
30.7285 29.5979 43.6187 27.0081522326
29.4609 36.8821 51.9444 28.1118472647
36.411 30.9747 50.5197 29.8759629702
30.7977 25.6215 51.8033 29.2590793385
34.914 26.7743 53.3104 28.2790760218
27.4697 31.9431 51.5122 29.3869992956
24.905 26.4587 55.1153 28.28001058
31.582 30.58 54.4355 33.0938488006
33.405 33.1358 53.9916 32.9291850523
31.7102 29.4702 50.859 31.443106834
32.0762 27.4998 53.5634 29.2709524047
24.7444 30.4727 45.3982 30.3712947941
36.2223 33.2895 53.3051 31.9583153204
27.7056 34.4564 53.0345 32.4229863217
33.477 36.2336 47.4456 32.1506473768
36.431 31.0939 55.1557 31.430114854
25.2638 28.8852 48.6383 28.0019488278
25.1735 28.472 52.9368 33.2330499229
32.5698 24.4303 47.0277 27.9543134836
35.282 28.851 43.7468 28.785942843
26.4055 24.8377 52.6875 29.3683515418
29.2811 35.6865 44.2931 29.1043678122
34.5962 24.7394 43.5059 31.5786401639
24.8993 24.916 48.8686 30.0113705479
33.7742 30.6222 56.1988 29.9118812375
26.4473 35.6168 43.7182 31.0119493146
25.9099 37.013 48.6917 29.4714534123
28.6194 47.2138 16.5371 28.4310576713
34.6771 38.0185 15.2539 28.9673447783
29.6605 38.3003 8.73456 38.1421016783
34.4442 47.6088 6.53144 26.6067453488
30.8708 41.1411 9.77156 32.4285501844
34.6015 40.8464 7.90693 28.6203566496
26.984 42.5828 7.60314 32.8544079903
33.8509 45.4038 8.6591 28.0699238799
28.5083 39.3867 6.13555 32.2835037719
30.1913 48.6968 7.13796 30.7828254411
26.6087 41.9062 4.86587 31.488258805
34.6979 36.5442 4.08807 31.076843738
27.8913 40.6288 9.35714 30.0265347484
29.9918 45.1642 9.82563 29.8692547472
29.0882 46.1041 6.26912 33.6332676909
33.0371 45.1594 11.4629 28.4070085085
36.2903 41.0573 4.09708 32.7756244383
26.0021 45.4131 5.44697 29.5868629376
34.2121 48.6349 14.3857 33.1603410198
27.6055 42.0601 16.6861 32.241867406
32.4353 44.7523 4.44584 29.4927187878
25.391 41.1029 15.4185 32.3729467802
35.3533 45.5097 14.0941 29.7222054833
35.3544 38.9859 6.04633 30.4442333996
32.5986 38.005 5.85743 34.363131906
35.6937 43.4269 8.13053 29.5945947946
25.5422 39.8851 10.6629 34.8557648948
35.5611 47.7345 10.0666 27.1312155298
28.315 42.1211 12.0197 27.3824491793
33.7267 37.9738 12.1086 27.1562352561
26.1459 37.8962 6.19083 33.0802309391
25.506 47.1091 13.0622 31.360191474
33.0965 48.1369 11.1639 30.3058348382
34.0586 40.7425 14.8254 31.0177309019
31.6922 44.6835 7.30067 29.3399002514
26.6306 44.4096 11.3457 27.3026485259
35.7461 37.8137 9.45987 28.2379114355
33.0967 40.9944 12.2323 30.6083636681
30.9897 43.2506 11.7841 28.0006743692
35.6476 43.6076 11.4719 30.1869122006
31.9923 41.9504 7.16494 31.9812547911
26.4561 47.3195 10.3429 27.1424787458
27.6071 45.1799 8.49304 25.750653817
32.7704 38.5784 9.10611 26.9604737857
29.3861 41.9664 14.6017 26.9992451204
31.1157 40.3098 5.29477 33.1990605888
32.2175 46.1775 14.3065 26.8228608877
30.5262 48.1236 9.8377 33.7197155716
27.3891 44.7055 14.1084 29.9909767278
36.0794 42.8571 15.4591 33.5749302108
28.7709 38.3073 13.5816 28.6994161536
31.1194 39.6823 14.6581 28.980642228
26.8489 40.0397 13.2274 29.859951224
28.6589 47.8576 11.7664 26.9228256418
32.2109 48.049 5.23774 28.5382317135
31.6802 43.5455 15.4433 31.5760399361
31.1628 36.9858 12.4278 28.7504585581
35.6229 40.6734 10.6667 28.5626241645
36.7503 48.7811 5.32093 30.6987069675
29.5232 46.4709 13.9925 28.5352057779
35.3006 45.3747 4.64053 29.5651407362
24.3476 37.1381 14.777 31.5704055661
27.9515 37.4656 16.2322 31.2034503477
25.6491 48.6957 15.5839 31.8519800517
26.3825 39.3298 3.51897 26.9242797455
25.4407 37.6799 21.0695 27.6295671252
34.4737 44.7441 20.6502 30.4428351088
30.3304 38.8346 21.724 26.6292382164
35.3944 47.4595 19.9384 27.48994853
32.5921 46.9402 21.8592 30.6338710001
27.767 39.305 20.6159 27.1026106819
32.4104 37.8011 24.6404 105.9672896389
30.4345 47.6244 24.5649 93.004903953
27.3577 41.772 21.6389 28.7584695553
28.6652 48.0264 21.9003 26.3790289905
30.5095 42.115 21.6851 31.3480262529
32.2538 43.3893 19.6404 33.6715243382
32.3904 39.9553 20.3795 31.204529001
31.3507 39.1263 17.4395 29.8321388988
26.0068 45.5763 19.6493 30.3570399694
24.8277 40.8212 20.2662 30.3601858227
32.5506 41.5878 17.2467 36.31579197
30.3503 46.2686 20.2558 26.8127683657
25.0674 38.0072 24.1568 62.6752008135
35.0788 38.0239 24.2959 68.3212777727
35.4802 47.0005 17.0654 27.6172449306
30.6809 39.8129 24.3445 74.317260736
28.5748 39.5094 17.8582 34.7711286692
32.4998 47.1226 17.2685 29.1523555781
36.3101 37.2824 17.5425 30.8550448353
26.8579 41.778 24.4198 88.7575951806
27.638 39.0145 23.9093 51.7573645363
31.407 42.693 24.2614 66.6928527551
34.2775 42.0393 23.9757 72.800109519
34.4276 44.6321 23.3659 31.3509946038
34.7571 40.1339 22.0827 31.1821347214
27.691 44.5692 17.7438 31.7298283422
30.6965 44.991 17.7639 27.2788860234
26.5205 48.2467 20.1283 29.9579584811
28.2506 44.5723 21.0594 28.728672199
28.6606 44.0773 23.9057 50.0586297473
27.4432 46.6793 24.1871 69.7118203101
34.6962 37.8397 19.9337 34.304372207
32.1022 45.4436 24.4668 95.3699991624
28.0475 44.2493 42.1296 30.160925529
27.2857 43.0601 39.7881 28.2977419004
27.7781 41.2817 36.6096 33.76794702
32.5924 43.2127 35.5438 94.1457457684
28.0494 38.5938 35.7034 108.0088695991
25.6277 37.744 36.0076 55.6785937801
31.5202 39.823 38.331 30.6386354849
32.5587 40.0481 35.6739 81.394117674
30.3412 37.7334 40.2497 28.9163686517
33.4178 46.1116 35.949 57.9272108603
28.7157 45.903 35.7864 81.0241849906
33.3033 43.171 38.3663 25.8205594891
35.3727 39.8914 35.5188 106.638068777
33.0244 36.9562 40.5891 31.2366036891
25.22 42.0163 35.87 82.030220735
35.4486 40.3931 42.8064 29.2657022183
36.1576 37.7939 39.6865 29.37907751
27.2734 40.3783 39.3256 28.4052257829
26.4688 46.9457 38.277 28.1888589825
34.8244 48.3738 38.2237 28.7634417877
30.8515 47.6234 36.0196 61.1875823376
29.5011 40.2496 40.9998 27.5813294206
33.4839 46.1394 41.3286 30.2200756787
24.9085 38.4343 38.4807 27.5085495537
29.7383 43.0586 35.9351 73.0745409962
26.1151 39.1138 42.6437 27.1640482088
35.6131 43.1039 43.067 31.2121523977
31.0894 37.5648 36.1259 60.4591039361
30.642 42.4465 39.2618 28.5710919956
34.8932 48.3831 42.3657 34.5115462558
35.1058 45.3736 38.8808 28.4483484964
31.0908 46.3808 42.6714 30.1254611792
35.2995 41.4761 38.2512 28.431738249
25.7432 46.8261 35.4939 105.5928358458
31.9353 46.3024 38.6616 26.7179792742
28.4042 49.0229 38.7713 31.9730319059
26.5903 37.4491 40.4628 29.5304747346
34.4172 48.8904 35.6591 81.7142147139
29.271 45.0439 38.5591 28.07694494
32.7995 43.1215 41.5784 30.2639000806
33.9402 39.8708 40.2829 27.8080052879
36.3136 45.8862 36.1967 50.7485506183
32.0396 40.1781 42.5867 29.936469735
28.6554 46.9584 41.0727 28.4880284659
36.8316 37.8788 36.9987 30.9651604804
25.3267 44.2602 38.6206 29.0295679118
31.1473 48.3845 40.0975 32.3785003802
36.7014 42.8095 35.8056 74.5996549113
25.0924 41.5289 46.359 26.4268438187
29.5916 40.3046 45.7794 27.071592257
36.2343 47.4999 44.8237 30.1698174771
36.4326 45.0442 48.9191 26.4376428208
31.5709 39.8102 48.9786 28.7584253787
31.0157 39.3644 51.6966 28.8983984812
34.1496 39.4995 44.6576 29.168623057
28.2427 38.3131 54.6172 32.7424890441
30.9807 37.5702 47.5363 29.7052113201
26.6368 43.8513 47.0827 29.5160873489
35.2419 41.4037 46.4403 27.7587519932
26.3419 42.5853 49.8212 31.3008436997
30.198 45.5326 45.87 28.2456607449
28.5749 41.5039 43.6471 28.4838670789
33.3766 43.2485 45.1228 28.2244459037
32.6401 44.5442 48.3567 27.542676666
33.929 46.0781 46.2104 29.0523511854
26.2797 44.5964 44.361 28.1935519567
28.1896 46.9289 44.3239 35.1852455429
27.3992 38.4406 44.8095 28.3354178025
26.4799 48.6247 47.4483 27.1912394135
25.9018 38.9046 52.6942 31.0344986028
28.4758 46.6756 55.966 29.9036246367
30.1229 43.5586 54.8308 29.8757401154
31.4043 41.1055 55.3382 31.3231760938
31.5439 47.6844 45.4586 26.1091523525
28.0486 48.3331 53.4324 32.7277489535
31.4037 42.0237 46.8961 28.1875596993
29.5053 41.9819 49.9948 27.0468870962
35.3376 38.3678 50.4978 32.7777304587
32.2819 42.5763 51.4838 28.6911280362
34.188 37.472 52.7838 32.6946835843
27.4207 38.6601 50.4318 29.2952624708
25.7826 45.2724 51.62 35.6100376469
29.5923 44.0872 48.1745 28.3892838191
29.4186 45.1715 51.0577 31.7379979298
24.9401 48.2943 53.6435 30.0395244688
34.5186 43.0034 49.7059 27.5953231473
34.5336 43.8428 54.0469 29.9160765732
32.4949 46.5142 50.6336 31.2485554256
30.7013 43.6501 43.8553 27.5140452286
26.032 45.9705 48.7365 28.5358288277
30.9438 46.4149 55.4013 27.8433087087
25.4209 38.8157 46.7193 28.4766064617
31.14 38.0684 44.7885 30.6228045859
36.8833 44.4362 46.1448 27.3563426862
27.8558 47.4477 50.727 28.8301439905
34.7821 47.5301 49.2203 28.3097207644
27.468 40.2658 48.112 29.4267269895
25.8736 41.3556 54.0805 32.6738894743
29.3682 40.4933 53.4671 27.8094179708
32.6618 48.4274 54.0845 29.5267435165
33.287 40.2385 53.25 31.3226835713
35.8571 37.643 54.6667 30.8699287133
28.0083 43.048 52.5315 27.2411516632
27.3809 43.9519 55.5551 34.1942381028
34.3139 40.4639 48.8631 29.4295451547
35.8389 41.9196 52.2139 28.6933315565
32.2404 44.7291 53.0985 26.3545787879
34.9419 46.5588 54.6327 32.5963692452
25.5838 41.8376 43.6629 28.1228159596
31.4107 48.3347 48.9112 32.1237846224
33.8342 42.4429 56.2297 30.0169320706
25.9412 47.9928 56.3616 29.5130822972
36.8727 7.94495 16.544 28.3047947003
38.5102 1.67874 9.19226 27.9050311718
40.7849 0.762542 5.81692 31.9877331848
46.2184 0.559935 4.92208 30.9365882751
40.7536 1.19237 15.8278 26.4019711173
43.5564 6.90386 3.85345 33.3123180123
45.5093 0.0812472 15.0925 29.2183633445
41.9626 9.44289 6.02117 26.9659082044
45.5634 2.77721 14.3419 30.6917017713
47.1913 9.73929 6.81337 33.1438563287
43.132 4.68603 15.0076 29.0167681945
48.819 10.8967 4.74128 31.0351829031
44.7315 6.09144 6.39096 29.1372207629
48.0361 8.15763 9.09369 31.1426218457
48.2074 11.147 14.5098 27.6822506568
42.0131 1.14291 9.7724 27.1504788392
38.2196 10.2472 10.8373 28.0760273853
40.5299 7.51872 4.0968 30.3138273452
44.4554 11.2897 13.023 27.1708607115
47.1412 7.27791 5.71262 27.5524558985
38.416 7.91921 12.0687 29.8879739315
48.7115 12.3938 10.0393 35.7427010187
40.1927 10.0072 16.1353 31.8940264972
39.9363 3.95848 6.28146 30.0616172327
44.5426 11.0137 7.14822 28.1367185592
48.1231 1.01198 12.4384 33.5731819476
45.1094 1.23285 8.97337 29.8812392615
40.0594 3.65611 11.0495 29.2858551588
41.6492 11.1262 10.7693 29.5402371568
45.7602 3.81821 7.85968 28.1958715783
42.2097 9.18548 13.9663 27.2525508537
38.1446 5.73127 10.6261 25.6594991271
43.8464 2.34908 4.94432 29.0371691966
42.4923 3.17253 7.33858 27.4947290095
47.3308 5.02039 10.0643 33.0847675429
42.3705 4.5426 9.72169 28.7045347339
39.6739 11.7615 8.64393 30.6192735019
38.7083 6.46199 6.00496 27.4934542908
39.0354 9.22592 6.93215 29.6946491997
40.6802 6.63318 9.32737 30.2339491887
48.277 8.10143 15.9677 29.9307679577
42.9549 7.86836 7.82589 29.8411883941
47.6709 7.40609 11.9273 30.5309129408
44.9883 8.5729 12.0513 28.7381465456
47.8911 3.11226 6.19094 25.9139293636
38.7503 4.20607 16.5847 30.2474935442
44.6844 3.85523 11.4492 32.6437773795
39.5211 7.45429 16.2738 27.4001574549
37.5152 10.0831 4.74519 29.5074438438
43.3363 6.26786 12.8452 27.77510572
40.3111 6.52409 13.7923 30.0152256734
44.2627 11.8669 10.1701 28.8272437238
40.0697 3.29686 14.0384 27.7041245251
44.8303 9.01068 9.27593 30.1044841863
46.4982 6.71882 14.4226 26.8081867162
44.4744 8.55906 15.5433 28.8766695067
38.0101 12.3085 12.6767 34.7841484476
41.6576 8.32918 11.3034 26.8914327649
37.1007 2.7936 13.9441 34.1963666031
47.755 4.15791 15.0507 30.1867481435
39.5645 0.814964 12.1622 26.1911759853
46.0091 10.9365 16.1149 30.7752206553
41.9953 12.0215 3.98959 28.7309612976
43.8954 1.04869 12.0798 29.6723387369
37.3857 3.32957 7.18692 27.6673422979
41.0212 11.8704 13.2971 33.7989165845
45.7964 4.3025 4.21459 30.5304065137
39.1454 2.55611 19.0792 28.52275546
45.1136 5.37896 16.9281 27.9038342236
41.2557 5.94659 17.7901 27.5814179314
48.6218 2.19658 24.5671 77.1573834357
48.6636 2.57459 17.4825 26.3971029883
41.9015 3.26017 17.1443 26.2557562042
40.9509 3.01568 23.8897 51.3795862812
42.3861 9.03694 22.1721 27.0454896537
47.9378 5.4444 17.9875 27.7480320015
44.5263 4.23058 21.7885 31.2646273828
38.6877 11.6043 21.3763 28.48420231
47.5477 6.27629 20.3997 28.4083664838
43.666 0.299678 19.4928 30.2292317358
37.5853 10.5806 16.8138 32.5789773667
41.6456 9.32817 18.4104 31.7640204385
46.7535 9.03529 18.0844 27.545019172
46.1772 9.29363 21.0197 29.1384850373
38.1086 3.05321 24.0226 91.1036354045
48.5057 0.571568 22.0054 27.4389964312
41.6606 2.86012 20.845 30.8304025561
37.889 5.48473 20.7649 31.0038917685
41.1313 6.23785 23.7853 46.3334731456
47.0183 2.10115 19.6672 29.9315942595
47.786 3.80507 21.819 24.34434334
45.8494 2.32001 24.2941 64.8081777551
38.1442 5.80034 23.4902 39.4931037518
38.6456 0.0330721 17.392 26.9089170225
44.305 2.89838 18.9057 30.5496277036
43.5755 4.49151 24.4397 88.5414598581
45.7382 6.53324 24.2114 76.1252821337
48.2142 5.31526 24.0011 46.9797656898
40.7206 5.78436 20.4893 28.2186208972
40.9292 8.79165 24.5629 95.4701289722
38.1633 8.8594 24.1381 61.6376827137
38.7994 11.7308 23.9839 48.7888152791
37.6027 8.64533 21.4699 27.0672958237
42.9916 10.7929 24.6137 87.5180175846
40.4514 8.37558 20.5808 27.3484493642
44.577 7.08423 21.2922 28.0288901376
45.5824 9.31432 23.9683 47.1850560833
48.3897 10.0474 24.4307 95.8218986302
48.4694 11.0008 18.8209 30.9904885204
43.892 7.46138 18.238 28.8257646303
41.0607 11.652 19.8353 27.3806801245
42.7927 11.8895 21.5848 29.2532592962
45.6378 12.2901 21.4122 29.7139318493
42.2384 0.47449 24.5565 103.9840108826
45.0745 -0.218107 24.1468 61.9334229018
40.7425 4.86521 36.0199 64.4344820916
42.0291 8.32202 40.1577 30.5433820711
46.5076 2.42933 35.9605 51.7370682483
43.8152 3.11562 35.5356 94.5410662752
43.5917 2.26015 39.6187 29.3082228123
45.6433 10.64 41.7981 27.6352208704
46.4789 6.80464 35.8885 66.919179823
38.3319 6.36585 38.28 28.4135552466
42.2904 8.87506 36.0807 64.3294338968
43.4465 6.43826 35.8293 72.8745836789
47.3681 9.43718 35.9077 65.7870913089
45.4117 5.74021 38.3582 27.9711270943
48.1791 4.61202 35.6021 86.5855849604
37.6777 8.74477 40.6308 34.1429935366
48.0685 7.29587 39.9107 31.6252842407
44.7813 7.99807 40.0794 30.6851210656
40.9702 9.74265 38.2151 28.4161089426
44.6784 10.5544 35.8426 68.4214147344
44.4255 10.9104 38.4572 26.5977310589
37.5629 9.06032 35.5203 108.6136780724
46.9434 9.93774 38.9872 29.4505059871
41.718 0.290775 38.5145 28.0233892093
38.0657 9.99983 38.0199 30.7524178883
42.045 0.612483 35.7728 68.5389838146
47.7351 4.42095 41.7247 28.6988785893
39.7573 2.21788 40.0365 29.3572350624
38.5348 3.64739 38.273 27.7640945724
42.8295 2.22194 42.2708 30.0411841881
40.6886 4.22262 41.8985 33.0442850618
47.1038 3.66827 39.156 26.0438501497
41.3391 8.84104 42.8681 31.4356991565
38.9025 7.63943 42.994 28.8341684631
39.6798 7.39146 36.0793 54.2405771912
43.0643 4.50108 38.2478 27.4038204821
40.9568 5.76089 39.6078 30.1843850197
39.6408 2.1578 35.8578 63.6043075425
41.5176 11.5919 42.5902 31.8947645895
46.3776 6.85665 42.3334 31.211633832
46.2803 1.07673 38.7529 25.1039251449
45.7677 0.419057 41.7437 28.750389335
47.9638 1.75261 42.8347 29.6036555438
44.7902 4.25421 43.2882 33.2484613376
37.625 0.0928879 38.7281 32.3848190763
48.3124 10.7817 42.2395 27.9446507734
38.7204 12.072 43.2959 35.6780529602
37.4337 1.17222 41.7207 30.4093310539
48.6478 0.195027 39.7791 27.0231214146
42.9017 1.21921 45.8268 29.7033205535
43.4607 2.13009 52.8619 30.4213713265
43.0564 5.49323 45.3675 33.8541734908
45.7363 3.4348 52.8489 29.3928002591
46.14 11.2988 54.7468 29.3336073832
39.7411 3.50333 56.3083 30.3461475503
39.8836 1.58249 45.9062 29.4736537739
40.627 4.19291 46.0136 28.8362897039
39.3224 5.14565 43.8901 27.8612803362
47.7614 8.68326 44.0365 31.7900865153
44.2664 6.44493 49.6957 29.3083133214
48.8918 6.53719 46.21 30.6676896445
38.4214 1.4686 53.6804 31.7888041692
46.5826 12.1801 46.267 31.9905006415
37.2769 8.6605 53.4802 28.8554346167
40.8624 11.5665 46.8517 32.1625510753
37.9936 5.93014 51.9483 30.4858919032
39.9754 -0.0800594 55.5371 28.7054968732
38.1375 10.0993 51.1383 38.3956099328
42.7487 8.37501 45.0598 29.5510840348
48.7293 8.3815 48.3092 31.0322497283
38.0815 8.28758 45.3423 29.8598963058
43.4671 10.3395 53.5348 34.3939646598
42.2887 2.17744 55.397 34.37967134
44.1143 2.25164 48.4046 34.9836405652
41.5237 3.5531 51.2917 30.253613766
38.6474 2.35925 49.0744 28.715688819
48.7872 6.03744 54.1839 30.4013130502
46.9083 8.41742 55.9585 28.7989762644
46.7051 3.51769 48.2599 31.4404730557
47.8489 1.30863 51.5552 32.2617109222
42.3736 4.70367 48.9548 29.4707000263
39.6755 0.192874 43.4965 31.6733657069
46.4814 5.41818 45.5937 29.3823274629
46.4648 5.06653 50.3059 29.8630390681
46.2593 2.4057 44.9537 30.8742935483
40.6162 6.96046 48.3375 30.3793275752
47.6882 3.14239 54.7178 29.3092136597
46.5476 10.1833 48.1215 29.3669608068
42.015 9.17121 47.6079 28.2507239278
43.7596 10.2988 49.2951 32.8631689407
42.841 8.44367 51.0458 31.7105868213
47.8672 11.2229 50.3682 29.0611786169
41.0305 11.2867 54.1572 31.9277656315
44.9624 7.59659 47.2269 31.1990501963
39.6021 5.73355 54.7442 28.8042873205
38.884 3.25943 51.4755 30.9948896137
42.6206 12.2169 44.7878 29.7095357291
44.053 0.616821 50.5214 28.9632410707
39.1025 9.32112 55.2411 31.8194737971
48.8486 11.9057 44.9893 27.9080972163
48.1331 7.0727 50.692 28.9338105753
38.2904 6.12854 46.9649 29.8728935701
48.8267 2.82641 46.4954 28.136571297
44.7334 10.3501 44.4835 30.8405745084
40.2475 7.69924 50.8835 31.9387218014
44.1999 5.51574 54.1271 29.652797252
41.7571 5.71507 52.9683 31.0144143101
46.4687 7.21939 53.5323 30.3025523087
38.4058 11.0426 45.8325 33.676739654
48.0124 9.81671 52.6579 32.796627746
44.3296 9.76166 56.6979 29.4369995877
36.8421 3.25659 55.4661 27.4795991577
48.1923 0.752749 55.4924 25.7827412894
37.0472 0.837703 46.5711 27.1512515684
36.9222 3.42861 43.4229 32.4558140149
37.3684 19.0655 14.6549 29.9172039167
44.912 15.9169 12.8166 25.5972452898
40.123 14.0324 4.55552 29.832524725
40.8416 15.3282 6.92031 30.3295983014
37.33 17.7333 4.75498 28.1361628704
37.3419 12.825 4.01066 31.25713397
40.191 21.2488 16.8144 30.5703057825
45.6709 13.4917 5.80159 33.9044367687
45.2767 14.5572 10.4916 26.5117572854
39.5398 18.2467 6.3159 28.9668200775
46.1837 20.2736 15.8229 26.9642969662
45.2598 18.779 5.90374 31.8083115312
47.4347 13.0926 3.7316 26.9641992673
42.4923 22.0583 6.22615 36.6781976631
44.9533 15.7105 7.15509 31.9326430934
38.0714 23.4222 8.42616 31.2913721158
41.2609 21.5375 13.2257 27.31853473
38.7396 20.8466 7.1152 28.5118337218
37.5174 14.414 10.9036 30.1643834491
48.2254 15.9118 5.60839 29.7292127705
47.344 18.621 9.93988 27.4548064356
48.5799 18.7876 12.9526 31.308222076
48.5984 23.2747 4.57855 30.3461146227
47.1772 12.5021 12.5004 28.7075551899
43.9863 13.8895 14.2263 30.268971534
37.6275 21.8346 11.1762 29.092856596
39.0435 17.4172 8.93751 29.6561449395
38.7844 22.4622 4.67057 37.1682240957
42.8304 16.9466 10.9477 32.3538845428
38.6263 14.1538 8.38111 28.2272706783
46.7998 16.0599 9.05633 29.0509121252
43.4896 20.4346 4.20354 33.9538713889
38.9604 22.9027 13.2863 30.2780100186
39.6511 20.4567 9.794 28.2270428328
40.3624 19.2142 14.4572 28.3128839034
44.7645 19.1087 10.9409 27.5572152745
42.7984 14.6525 9.2558 33.1586652989
47.4257 19.999 7.488 34.645560592
38.9327 16.2171 14.7539 35.7639852715
45.9563 23.1589 9.98531 28.4010038435
41.8091 22.2117 10.2444 29.8449455829
43.9523 21.4845 8.58332 31.1557047735
43.4372 18.7221 8.36053 34.6885170616
39.7506 24.5572 16.6942 27.744729253
46.8148 24.0346 12.5703 29.5579973177
48.0021 15.0034 13.1007 32.5499044768
41.2917 14.0297 15.3845 32.653691658
37.789 21.6393 15.5393 28.7248813296
44.7511 16.8327 15.9958 30.1077308383
45.8518 18.6156 13.7222 30.5467645361
42.6703 22.7589 15.3039 28.0607355974
45.2384 22.5183 14.4463 28.6501191556
48.269 22.5546 8.78302 28.0351240412
37.8492 16.9254 12.1477 26.5730587989
40.3495 18.4097 11.5219 30.6656224291
42.2348 16.7763 14.7328 30.5623556242
44.3644 21.5484 12.0432 27.2582829181
41.631 17.9009 4.60793 34.4524294426
41.9289 12.4451 7.02083 28.7232052164
40.2238 24.8927 9.97502 29.5338177351
48.6398 21.4085 16.8799 29.2084811108
42.6491 23.8076 21.2455 29.6385913323
40.0652 23.8042 19.5278 31.5025790616
42.6996 15.7313 18.5492 31.3715129791
42.6813 24.2464 18.0018 29.9929169743
40.5882 13.7012 18.3062 30.412516527
47.2109 23.2498 18.2347 26.6429609915
40.2461 16.2651 21.9055 31.9654083246
37.1802 16.8426 18.8523 29.5741980088
48.7637 21.7276 24.1354 57.5185022109
41.8726 18.4058 17.1993 30.3066562374
47.5842 21.5225 21.3166 28.9052313256
44.3381 19.9649 17.6868 30.9551987149
39.9577 17.5583 19.22 33.4332950146
48.5679 24.3987 20.1013 27.3161619762
39.1968 21.1404 19.5437 31.190834396
46.858 12.5997 23.974 43.3621812329
46.3374 17.9064 20.3548 31.0764783741
48.3794 15.9052 22.2308 30.3850834227
44.557 22.4586 18.8316 29.3509494411
43.7754 21.6856 24.1933 68.0071280266
43.9505 13.8332 17.0629 32.7261172904
46.3743 22.885 24.7696 118.7021494444
41.5261 23.4064 24.0068 62.7005486868
37.1162 13.7131 24.2421 71.9469391178
47.0267 17.897 17.6757 27.6031839945
38.2842 16.0519 24.2236 74.2267071165
37.4603 14.1675 21.4486 31.5554541595
42.5521 14.971 21.3302 30.1284020301
41.2567 17.9957 24.0348 74.2664495545
44.2329 19.5467 21.0143 31.202071802
42.809 15.2014 24.2099 56.01819572
45.5109 14.898 24.7027 96.9559839379
45.6064 14.9916 21.8358 29.9098143441
37.8311 13.9673 18.3975 30.1336222106
37.5521 20.8639 23.6647 49.5957393123
41.263 19.9071 21.1443 33.4452208723
40.4413 20.7365 23.6267 48.315685744
45.1908 22.249 21.9175 23.5101534064
43.8841 18.9288 23.8908 52.8951796712
48.6364 18.8309 21.7559 24.2780506044
41.4373 12.9712 24.5382 83.9986902324
46.4042 17.7316 24.1585 69.7070567204
47.872 15.1449 18.0001 31.3991038681
46.272 12.8865 18.3991 31.6345076496
38.3443 23.593 24.5091 106.1590930778
38.4606 14.4867 35.9854 49.5341029106
39.1702 17.0483 35.6617 76.437547616
36.7371 17.7718 41.6003 26.9361994296
41.7308 17.8106 35.482 93.2983845641
45.9199 13.7928 38.3711 29.2261406698
42.8161 15.3099 35.9041 51.8629273662
47.6041 24.3871 38.769 31.2346506655
42.9057 21.664 42.7748 36.0575829383
39.1357 21.338 36.3651 48.2219327086
42.0609 20.8765 35.8412 71.2712332908
42.7187 21.0173 38.6236 30.8588201548
45.2156 22.1877 36.1145 43.1439576302
44.7481 19.3886 35.7215 89.6785922289
45.0996 19.8569 41.9129 32.0953292383
38.1442 12.7856 38.3411 29.8274635619
38.67 21.2101 39.0166 30.6617734758
43.2607 12.672 40.378 27.7349272616
40.9213 13.4673 35.7132 93.3449169188
44.8087 22.898 38.4946 27.2051005262
41.2344 12.5438 38.2228 28.8843859823
46.6941 17.6032 36.5366 33.1491929911
46.5212 20.2512 38.4356 29.2242412297
46.7419 22.1095 40.7816 28.3174095092
37.7718 23.9119 41.1443 29.5999720496
39.7109 14.9589 39.9999 29.8212447634
43.1629 15.3021 39.0598 31.7774368953
47.1175 16.3598 41.5167 28.7768486667
45.5956 13.4748 41.8408 28.969954009
43.8979 18.7267 39.6263 29.8065071246
46.8818 15.117 35.3972 109.2094941175
39.2091 19.1384 40.9266 30.802321446
38.0489 15.5748 41.977 27.0569482036
40.9064 22.2851 40.3614 30.0100513141
38.52 16.6729 38.6115 29.3679847464
42.772 23.811 35.9019 78.8474178377
41.6096 17.2904 40.7887 32.7974634322
48.7398 12.9347 38.7773 26.9005868618
47.7774 22.8181 35.5541 108.1854495625
45.9894 16.6372 39.2456 26.9683381464
44.6782 13.1551 35.5965 75.2685472181
48.6786 13.6295 41.6093 28.805266466
49.1772 18.8003 36.6217 33.5006004947
41.8597 16.1812 43.3549 34.1132211385
48.2655 22.6972 46.5198 27.0937021541
41.4125 18.2801 45.1399 31.2699227711
43.9498 13.053 49.3775 30.9957105428
43.5611 24.0357 46.5732 29.314379756
43.9841 14.5309 43.9036 31.5521194284
48.0266 15.9649 48.2066 33.6683472464
44.1042 17.2441 47.7588 36.1232488041
37.622 12.8298 51.5042 29.1437394839
45.3433 14.7362 47.1952 31.2210456084
44.2217 21.3525 47.9094 30.7201213506
39.4564 14.521 44.1468 30.3550272637
43.0824 18.874 49.967 30.4412815339
43.8434 13.0727 52.6449 28.8883989674
38.9652 19.6551 46.0558 31.2938543066
38.3842 24.0133 45.9928 30.9815450486
49.0453 14.5104 44.7055 28.8708610752
48.5647 18.8039 48.6547 33.6957380404
37.7444 15.6866 55.9038 30.7496277216
42.9923 15.7675 55.4791 32.6839629515
46.8549 21.5104 48.2806 32.8657413634
40.2249 20.5167 43.2541 32.0662210688
47.2308 22.2031 44.0895 25.9050826028
40.6639 14.0508 48.3274 32.5635993019
46.4752 15.8584 44.6192 30.3406680015
41.0926 16.9229 47.724 31.1571022153
46.1161 13.2677 51.1009 31.1592566947
40.1239 21.1609 53.2898 35.4548441195
40.2518 18.2438 50.0937 27.0598838305
44.3662 13.2176 55.6709 27.7099516338
38.817 20.0401 49.0475 27.7141527968
37.4876 19.4513 53.1306 26.972568104
43.9864 19.2505 45.9094 32.5060483862
42.6182 16.9066 52.08 28.9984117094
40.2108 22.3392 49.7767 29.6348428878
40.0327 13.2996 52.6578 31.5400285246
