36.2741 23.9379 42.6497 26.2625931451
25.093 23.9876 35.7942 65.8494483491
28.3722 12.969 36.1829 44.6823864701
25.3299 16.1864 42.6137 31.5344071827
36.776 12.9865 36.08 47.0823242782
36.325 23.2404 39.9751 33.9680593925
27.9453 21.1542 53.8602 32.1071579508
28.6259 18.7838 45.1663 26.1991632242
31.8474 15.4203 45.7935 30.9715918604
24.5847 17.9872 53.0585 29.0469882084
26.8531 20.6098 48.6568 30.3037658906
34.6044 19.6497 51.242 28.4493653072
36.3427 23.5157 51.6294 27.7912278303
29.1775 18.0001 53.9677 28.4517141705
28.6842 16.2528 46.5249 27.6409229635
36.5243 18.0196 50.741 30.3775866793
29.0522 13.9436 45.2507 28.5031467687
30.4381 20.6117 44.0835 26.3734262343
32.1337 18.1273 44.9286 27.9960066817
35.9481 22.818 48.8329 28.008739942
25.1748 20.0076 50.9452 29.5680025203
31.9949 22.1102 45.8678 27.0919429738
33.7047 19.7517 47.4461 30.9204107867
35.2804 23.6995 46.5554 28.8623532857
25.9843 21.6279 43.9008 28.9772027873
28.3229 12.4612 49.7485 27.5251672088
34.1514 24.2701 52.8424 27.1778512281
31.2423 24.3558 53.0147 30.1666555694
33.3154 14.3894 48.5431 32.9763839986
25.8416 16.2299 45.9452 32.0077571024
35.6077 14.7434 54.0195 30.6278965956
28.7384 15.6579 49.1142 30.6806795021
29.569 16.0474 52.1354 26.7470812491
26.5602 17.0417 49.8898 35.2318659137
36.1505 16.4845 46.7797 35.1622204753
31.6663 16.4085 50.0503 28.5010154938
28.1458 19.0323 51.6358 28.2697176245
31.4289 22.8089 50.6014 31.1285242694
33.7224 14.2192 43.9838 30.3766942333
35.9088 19.3252 45.9488 29.9391472163
29.488 20.8131 47.4489 29.4624689086
25.8647 13.5845 44.0685 27.7708491324
30.3463 20.1249 50.2654 31.7618955844
34.3863 19.3137 43.3739 26.5785578131
31.557 18.0306 47.6867 29.3037612507
34.5479 22.2767 44.2877 27.7502103728
33.6614 21.5022 49.578 27.5792966708
25.3716 21.3036 56.3461 28.5237966144
27.3507 14.4935 53.5692 28.7272288963
24.8872 13.8806 47.4434 33.7976462906
36.0805 15.4792 49.5718 31.8162159657
28.5217 22.9626 44.1375 29.332712296
28.4072 23.8435 46.8758 27.0305627302
33.9704 14.3504 51.7715 31.1538089919
31.3996 14.2055 52.8428 28.9044997408
25.7848 15.2773 55.7007 27.3355620763
25.8025 13.6805 50.0981 29.1461587258
32.1912 18.6375 54.402 29.7846280697
32.2652 18.4351 51.5976 29.7458228671
34.6951 19.828 54.4045 29.6245761126
26.5563 18.1845 55.2672 29.7567413897
26.06 19.4283 46.1874 30.1791389906
28.6014 23.6444 52.7187 33.2514375075
24.7309 21.7608 53.191 31.594718064
32.0665 13.4266 55.3267 30.0319248251
33.9681 22.4302 54.9318 28.8941370422
26.3529 23.2028 48.3416 28.6684496437
30.3076 20.5987 55.6999 31.866615425
30.9765 23.6218 48.0924 27.7722133566
31.7006 16.4022 55.957 28.7469111832
25.4388 15.658 52.0809 26.9435067016
31.6095 23.0109 56.1132 33.7119905009
34.4198 15.8155 56.081 30.4268510056
36.6186 14.9423 44.235 31.3330337228
25.1846 24.0566 56.041 27.3849227046
35.8174 23.2624 56.2778 27.2324921568
25.8211 29.7751 7.36595 32.8951773793
35.191 25.8736 4.46576 28.2983587344
28.8223 26.7057 4.86113 33.3182215404
28.4281 31.4657 5.54384 28.721481568
32.344 29.0084 6.11096 29.6625631345
32.3011 26.4537 4.67631 30.5081082685
25.0126 29.9269 14.2581 30.0300547011
35.1784 26.229 8.67849 31.3482612
34.6746 29.2325 7.64679 33.6244860244
29.7227 25.5853 7.37304 29.6522368834
32.6006 27.5955 14.3339 31.6505392302
27.3123 29.2254 4.54517 32.5840656937
31.075 31.6078 5.99052 28.7503853179
35.3988 29.7684 13.5724 31.9443521823
27.3697 27.824 15.0793 32.3035703679
26.7169 34.9038 3.90264 30.2968454473
28.4905 35.9521 7.39442 27.5823309835
26.9958 33.5969 6.49805 32.9182822315
32.7322 33.7958 6.36122 29.2143831571
34.349 35.1173 10.4781 30.5450691357
31.6739 34.953 13.4194 30.0363260081
36.4763 36.3182 9.54262 29.4874741314
31.9885 25.0432 13.4208 26.0093114399
26.5552 28.656 9.91153 29.9392564056
29.2231 29.6329 9.10239 31.705272118
28.0792 34.6455 16.6838 31.5542627079
30.8521 27.8347 8.01716 28.5546496399
32.7774 27.1864 9.95455 32.7366490266
32.7576 29.4415 11.8227 35.3984202735
31.0666 35.9606 6.93701 29.8544909688
26.7203 30.5906 12.0432 30.4465301311
27.9126 33.5366 12.1857 28.8671136694
29.1502 34.0891 9.82434 31.1252754224
30.7676 31.9283 8.72677 32.6560267408
33.57 31.0253 9.26892 29.1066007238
35.6347 31.3748 11.2998 33.6788402501
35.2671 33.9583 12.8058 26.4986844128
27.6989 24.6862 8.7874 30.659987065
25.1192 34.912 11.9984 30.3484698353
31.5638 35.456 10.7703 30.3716830394
34.4617 33.4796 8.2699 31.9131517848
27.1781 36.1815 10.2348 28.7126554024
27.4924 26.3167 10.8165 26.445117433
34.4621 32.2989 14.6745 31.4137510711
25.3154 25.4763 12.0068 29.243753472
24.7918 32.3616 10.8451 34.4368529248
29.2358 26.2884 12.7264 28.8743411895
29.7619 29.1221 11.8463 31.5086165976
33.384 33.8204 3.9848 30.7409079221
26.1581 25.4679 5.44966 32.0577007299
35.4712 27.2671 14.8491 29.9206192391
27.6577 30.7913 16.0516 28.2679502498
31.5119 33.0344 15.4908 29.7135274741
25.7864 35.3127 14.8712 30.3243995947
34.6971 36.0094 14.5281 29.2132532582
29.3338 31.4381 13.7429 34.7285694812
28.2602 25.4092 15.6162 28.7721802657
29.1052 35.3951 13.8844 28.4499403634
24.737 36.7835 8.72389 32.7038930714
32.2389 28.6851 16.6382 32.6025694764
34.3793 34.1492 18.2401 30.5566915404
34.3977 35.6907 21.1934 30.371239491
34.3832 28.2466 20.8931 31.2526350187
27.7949 28.4355 24.6286 116.416402826
28.181 24.4965 24.4289 81.1880961239
29.014 30.9211 19.624 28.3962873938
27.5628 35.9951 21.1118 32.5845985593
27.2032 28.7583 19.7857 32.7564143455
27.8023 32.4426 22.1211 30.5315576869
33.6603 30.9949 20.3217 32.2199852609
25.7508 28.6657 17.2708 29.86540842
30.6044 36.7202 23.5716 63.736806362
31.9756 34.7483 17.6617 32.8157639473
34.9188 35.9093 24.0681 81.1980588665
31.2025 35.1914 21.1606 28.1529441704
25.1718 27.0747 24.0795 45.2339696537
36.005 32.7294 21.1298 31.5115253102
35.2412 24.5793 21.2128 25.3202246119
34.4575 30.6898 17.4004 30.9742945331
30.2188 26.78 20.9902 27.975772391
30.0091 26.4906 23.9399 46.9276803861
30.8736 29.5665 20.9252 28.9654470795
32.9288 28.8444 23.7037 45.6823356065
31.4137 26.4263 18.1078 32.1533538676
32.8711 26.1752 24.2381 92.3489854404
30.1267 29.9729 23.6162 45.1515786037
29.9187 32.8009 23.9772 90.7642712705
35.0122 30.7224 24.6278 130.9246790739
34.2799 32.9734 23.4501 40.914455833
25.216 29.941 21.167 27.73837187
35.5395 28.0796 17.3441 28.8123916927
24.5605 26.4883 21.4911 30.9314957986
31.9124 32.5659 22.1654 28.7236845989
28.0171 35.5112 24.185 78.361682339
26.3706 33.2776 24.2959 85.493133484
26.4888 25.1572 17.7074 30.4360129983
25.6817 30.4901 23.8253 43.2874451062
26.2094 32.5962 17.5856 31.7587225404
27.5612 25.8744 20.3312 29.5915659627
32.5341 25.528 21.5743 25.6021430924
33.9118 26.145 18.651 28.170484727
30.2502 30.9869 16.9634 33.0955252321
29.1154 33.9557 19.5735 29.6569365982
36.0683 35.8707 16.952 27.880152696
27.255 34.0023 42.8978 28.7625775644
26.965 27.1361 38.4213 26.2598261804
32.2329 26.1462 36.1519 49.983130791
27.3775 26.3459 35.7869 55.1738605419
32.421 26.069 38.8774 28.1832002104
31.3325 29.0177 37.9445 26.6060491923
35.1243 26.7905 39.7997 30.3470074553
33.3427 32.2703 40.4471 30.1661234236
33.5248 25.1333 42.69 29.2982289189
28.3718 30.5653 35.861 64.6613701916
25.5593 30.2727 35.6259 82.0642264385
29.5848 28.1458 35.7087 86.5360646081
34.2478 28.8686 35.9465 63.813594064
32.8625 31.1507 35.721 82.4935418302
31.3188 31.6386 38.7445 28.8203186562
31.9163 36.654 39.8819 33.8367892601
35.1162 32.0647 38.2044 25.9402420801
33.4108 36.2141 35.7377 81.9255687396
30.4043 32.6877 35.9324 64.2128070465
28.3222 29.6722 38.903 26.9282972437
34.8371 33.7411 35.9329 63.0758135362
34.1269 34.8099 40.728 30.474628563
35.2094 36.2048 38.3118 29.2289867696
30.7669 27.9921 40.5597 30.2599495495
29.0898 32.8692 39.8993 28.9735321952
30.804 35.5551 35.6238 82.2829223475
24.9391 27.3503 35.5097 87.1009170149
29.1679 25.6968 40.101 28.7938808448
34.8245 27.7049 42.3757 31.5642780321
35.3463 34.7631 43.1305 26.6697970939
30.6085 32.8325 42.2757 31.4906098262
25.563 30.7948 38.3685 26.0877489095
34.7352 29.3297 38.5009 31.1908518689
26.5004 31.4373 41.552 31.1996030723
27.9121 28.6748 41.5245 25.8729653205
26.3932 33.6065 39.087 26.3864899521
34.9081 24.7528 35.7213 88.3619030521
26.4329 33.6518 36.3723 48.1169481952
27.3472 36.439 41.7742 27.4388301386
30.1344 35.2328 38.1668 30.3271441219
27.5575 36.6445 38.9229 29.1146885984
36.4704 30.5447 35.5694 77.0380939416
25.6318 26.3677 40.5606 27.6996992202
28.5028 25.3713 42.4914 28.7838527274
27.3812 36.0259 35.8366 77.5910710994
28.3211 26.3598 47.0016 29.5843965966
32.0868 28.232 43.2354 27.3822133726
32.9202 36.2008 49.0319 27.9455023291
30.4427 27.1847 48.885 28.8298793139
27.2805 25.2517 54.6987 33.2994367337
28.058 27.4635 50.3521 30.2377191688
30.5914 29.9367 47.8449 29.1725982135
28.5557 30.3786 45.9333 32.7809405883
33.0679 25.6577 47.4397 29.08874254
32.6617 31.7366 47.0848 31.4297075461
32.4691 28.3539 46.3332 30.9109742047
35.1367 25.7368 49.6246 29.7549981511
34.9408 29.4051 46.6247 30.1966786156
27.8084 33.3128 45.6688 30.1475388566
25.7201 32.5807 47.4386 25.9049714428
30.809 34.2983 47.1053 30.4936818687
30.2858 35.1517 44.1431 27.2010462532
30.4688 26.1984 55.2976 31.0833211956
25.8984 35.5122 46.9987 26.0696023303
32.3875 26.1469 50.6857 30.3828645514
35.7904 32.1571 52.8951 31.9934455234
33.0449 34.8316 44.5715 30.5868258721
32.6192 29.8663 55.936 32.9675368555
29.4841 30.1456 43.3647 30.1158602876
27.4875 33.2039 52.8863 29.1617707982
26.368 28.4644 46.1566 28.7594420306
25.4528 31.0548 49.6303 34.5842389067
28.5098 29.2727 52.3387 30.1468619394
31.0991 31.0091 50.3787 30.2727688348
34.8121 29.3764 52.2152 29.7358022534
32.2072 28.7807 51.8564 31.0245009196
35.2859 29.4055 55.0533 29.8983650075
32.7818 36.4712 56.1433 30.0737900333
28.4156 34.2983 48.8837 29.5806476422
28.0093 31.8746 50.3844 30.6043319377
25.6742 28.1247 49.1393 28.3186207012
34.0535 31.6664 50.0706 29.0965486159
30.6891 35.1549 50.4101 28.960932229
34.864 34.2962 49.2217 31.3136509932
26.3646 27.6115 53.5337 29.3349751186
26.9866 30.4439 54.6952 29.7237493426
29.3917 27.1055 44.4315 28.3345817958
36.3496 35.908 53.609 27.9332124501
36.7554 27.3519 51.4125 29.274025771
36.0076 34.6666 56.064 30.7734199021
30.7333 28.8382 54.1065 32.8619774784
28.498 32.69 55.8583 32.7532794887
25.9749 27.4763 43.4885 28.404535666
30.6931 33.172 52.7252 31.423563669
36.0984 30.6666 48.8633 28.5827748045
32.1069 35.5803 53.561 30.5560962633
36.2027 30.3367 43.2056 33.5687721175
31.6053 32.324 55.4901 31.7217846352
34.3536 34.4564 52.1457 30.2513730364
36.9172 27.5007 47.9693 29.5856553263
24.7841 33.5209 53.4014 28.3632978063
35.0355 26.4889 54.3521 30.7286845473
31.7966 24.8509 44.8633 31.3515216939
28.7951 35.8725 53.4337 31.4294423164
34.4427 32.2711 44.9754 26.721357507
26.7224 36.6611 51.3822 31.6094828654
26.8601 24.8591 50.624 31.3906469582
32.7478 31.0286 43.2224 30.6547194279
36.1944 41.6215 6.90231 27.9578984696
36.584 46.3278 7.06732 33.909432516
31.5916 43.0694 5.17639 29.5282663826
25.7221 44.7533 15.8402 31.0512854188
31.5215 40.7555 7.68777 29.9516012002
27.0264 43.8537 5.55653 29.7090798752
34.1675 38.4262 4.67186 28.6228084981
28.8492 44.7488 7.58594 31.661012567
25.2578 46.5154 8.48544 30.463889106
25.9448 37.1369 5.83181 27.8274076422
34.6012 47.354 8.93074 28.7177620679
28.3176 46.0415 3.71437 28.9953753327
25.2224 38.9546 13.1349 31.3843620124
27.9941 39.1185 5.81626 26.2488122165
35.6185 38.6431 8.04209 27.5602832633
28.8778 41.4623 4.15984 30.847467305
30.5194 45.7534 5.78269 32.9359238873
34.473 48.826 5.34307 31.437055905
28.4313 48.9138 11.4037 28.5402497488
26.6904 48.3634 14.2309 29.0728192229
31.5472 44.817 10.1865 27.5817252161
34.3719 45.6186 13.6258 30.7756222024
29.3409 39.7956 10.9598 28.5553918491
31.4708 37.9728 10.1822 29.283420687
32.9577 39.1623 12.4965 28.8664504559
32.7687 38.1113 7.62963 29.8838970966
33.8141 40.6147 10.0157 31.2337082795
35.364 42.5364 11.147 27.9624130673
29.4448 46.423 12.8683 29.334545129
28.0161 38.7759 8.8106 29.1788652901
31.4542 40.0722 4.64224 26.3538710448
29.7603 42.2289 12.8146 32.8156961188
29.994 42.7116 9.34604 31.5278502597
29.4906 38.6191 14.7134 28.3550208748
31.6487 41.2116 16.3803 30.7188886176
33.5698 42.578 7.26003 32.446212993
30.801 47.0579 9.22376 28.3691163911
35.6378 41.1166 4.25518 28.8612602296
35.1064 42.4534 13.8016 30.2219362613
27.8398 47.4644 8.89608 28.4647578291
27.3317 45.586 11.2727 32.9591124863
25.8783 40.5145 8.76654 33.7258397495
31.6725 44.6735 12.9101 33.7058068113
35.7507 38.4047 13.4779 32.4382684434
25.2962 41.6234 12.6381 27.6233361735
35.7597 41.166 16.2424 31.5248690342
34.1485 46.9369 15.9503 31.0725367054
34.1531 44.3193 9.40637 29.8077776226
27.4126 42.4789 10.9423 32.720982726
25.1229 37.8773 15.8377 29.9407309758
26.2025 42.0401 15.1084 28.9503135716
35.9502 46.9774 11.5077 32.1146029136
32.2159 37.7371 14.5203 27.6558128443
27.8572 37.996 12.688 29.4872686887
25.2609 46.2983 13.1684 29.7066263417
32.387 48.101 7.06944 30.535792996
26.2228 47.5372 4.61334 27.334212037
28.7478 41.3314 15.6339 28.4334727137
26.305 41.2823 6.0485 29.6820838095
31.5881 48.0771 11.5963 26.875959209
32.375 41.613 13.805 29.346816707
29.0123 47.6727 15.5038 29.1389500004
31.8831 48.2633 14.6996 32.2862060703
24.6495 39.6394 4.31886 30.5756583891
30.2694 37.5326 4.8407 29.5541089844
36.8463 44.7002 14.9679 27.3765480574
36.8222 47.2723 4.21258 29.4685922349
26.2024 37.6636 24.1102 75.8019700295
26.8607 47.2478 19.0588 28.194732431
25.2969 40.4228 17.0498 30.2174936968
33.4531 40.396 19.265 29.5272399294
25.2947 44.4975 23.2765 43.3029420805
35.8866 38.6774 22.1104 28.3742834926
26.5704 44.8336 20.7938 33.1354475461
31.2392 39.4638 23.5605 51.3751536088
32.183 42.7504 18.7335 32.0207509215
29.4041 38.0541 21.0238 28.9179692155
33.7822 43.5042 21.5807 30.2714225155
35.587 38.4887 17.8675 32.936868676
35.6699 41.3555 20.7845 31.4773936243
29.0931 42.723 17.9468 30.6978864149
30.6497 46.8638 21.316 28.4463980101
28.2498 45.3624 17.2546 32.5594387826
33.2485 45.6487 18.4258 32.5614478414
35.1331 45.6038 20.3852 28.532839269
27.561 39.9164 18.6558 30.2269111151
25.3347 39.9834 23.2608 29.9787547201
27.9509 40.3557 21.8271 28.4128003854
34.1679 38.8228 24.2725 75.8944965402
25.193 40.0221 20.2895 29.9382722088
35.0059 41.2643 24.8377 129.1541886966
28.5281 42.766 20.6842 31.0445683968
30.5228 46.8198 18.5274 30.1586912645
29.1994 41.5901 24.3864 101.285769836
32.8088 38.2425 21.1604 31.0723309269
31.001 43.9522 21.1367 27.9745169662
30.751 43.9389 23.7975 45.9048526232
33.5694 43.6784 24.1221 49.9890279866
25.9906 47.3065 23.9949 72.0380231016
27.9566 48.1339 21.6406 29.8634784321
26.579 42.3009 24.6035 135.0101912814
32.4051 38.7854 17.1628 29.5115785821
30.8791 46.6072 24.3464 82.5073253454
33.2836 47.7653 21.1837 30.2927532779
33.1571 47.7487 23.9266 35.8353645505
34.9315 46.0175 24.7193 117.8029786009
36.3179 44.9012 17.751 30.0802843195
30.3696 37.0806 18.3861 29.5955909072
28.5927 48.3716 24.3795 75.2331325493
27.9153 37.6698 16.9434 29.6787962739
35.4441 47.1721 42.9059 28.2239334979
32.4636 40.2774 41.5795 29.1453125299
29.67 37.9768 35.9621 62.1572852674
33.8114 45.4038 41.4403 27.9352814989
31.3124 40.6896 35.9473 59.305820889
35.4885 43.9693 38.7864 30.2259527774
27.3269 39.3238 38.5747 30.7935569546
26.5587 48.102 40.8744 28.8742332003
33.4849 39.1515 35.8836 68.7899471889
35.1483 48.692 38.8386 24.8996083452
25.0596 39.9969 40.3918 31.2332596158
28.0142 40.5919 35.8649 72.9354330132
28.0508 43.1921 36.0586 55.1286912104
28.2246 43.5344 39.0488 33.2098855805
32.2114 43.2371 35.7781 72.3654867008
35.7963 40.7122 35.9601 67.4887106926
32.7384 43.1273 38.6554 31.144776394
25.8928 47.683 36.4523 38.9973340308
28.3137 40.8006 42.6418 30.5876036421
25.7141 44.6396 35.9788 75.6818207
30.9489 48.0656 36.2121 49.6014114055
30.1516 45.2235 35.7027 90.8916275114
25.113 40.0367 35.8782 62.8230666741
33.431 46.1772 35.6169 89.3584281651
36.319 40.0166 38.6518 26.675769876
35.948 48.3067 35.9441 65.6744769829
33.6392 38.5026 38.8295 26.0145760936
28.1499 47.4516 38.6737 30.6497905304
24.8795 41.7434 43.0092 31.146160036
24.7392 37.3541 35.7671 72.8031016132
30.8262 48.6764 39.1235 31.0256033054
30.6947 46.3043 41.1893 26.7963380581
35.0672 39.1251 41.2856 33.1189288265
36.6457 37.4118 43.1204 30.4125947677
35.3256 43.4186 36.2799 54.7585617193
26.0586 44.4062 41.3102 29.0075013987
30.4676 45.2374 38.679 26.2736056275
29.0743 41.0846 39.8609 30.6770405817
28.008 46.1027 42.2778 27.3445693157
31.4245 40.845 38.7764 28.6357456772
33.305 46.4352 38.781 27.2590507113
25.3508 45.3185 38.7159 28.4811269803
36.6388 46.5693 39.7078 28.6482153212
36.5033 41.7932 41.0391 29.2885797725
35.4836 43.7198 42.8212 30.9805643745
30.6265 39.3583 43.052 26.45330908
30.0548 37.0645 42.1225 30.9724014527
32.9834 42.2032 43.1847 30.9197561017
25.8015 46.7472 53.2416 31.1835718758
26.7792 44.0623 53.7897 30.2870630973
35.0658 39.8303 45.8605 30.7802798124
31.6755 38.8352 45.5661 29.7427686346
33.8389 46.0435 53.7007 27.2907051795
26.5138 40.3707 47.9126 26.1133921229
30.5239 48.4428 48.1188 30.8460149781
27.2709 44.5033 47.1926 28.8169322803
27.2787 46.9661 50.7753 31.8649246921
33.2656 48.3203 48.4872 29.6772498004
31.4548 44.5481 43.1863 30.9630273573
27.9816 36.8267 45.5328 27.1734411023
33.3923 43.042 55.8884 31.5092242483
32.0342 45.2514 48.2839 28.8675340033
32.8361 41.3957 45.921 31.8344151187
29.5566 46.2125 52.5001 28.8272819298
25.9229 48.2952 45.494 27.8797053128
29.915 48.0376 45.2607 28.9557009988
31.9352 46.1976 45.6416 33.0956029138
27.8929 46.3827 45.1272 27.8987178343
27.9264 39.9834 54.4433 31.093869551
34.3355 47.5844 45.6006 30.8977277423
26.0354 39.0979 52.5251 29.6521968124
27.3472 40.9319 50.4105 28.5249205915
30.6483 41.1554 47.815 26.0515380615
29.7355 39.4418 49.8979 26.0442550807
36.5242 48.2947 54.0691 28.6661669959
30.7122 47.6858 55.8242 27.4013006472
35.7571 39.3268 48.5719 29.8660281882
33.8313 36.8413 46.2334 30.4532226159
33.5716 48.5413 54.9592 32.2823144052
28.7843 43.3267 50.7227 28.9199056343
32.8878 44.0627 51.4599 28.1572797369
32.4553 40.8015 50.343 27.2506700496
24.7959 38.3275 47.4327 32.9393559287
26.6647 38.4224 43.6709 27.4913571783
35.7218 43.3877 51.2214 27.5323426881
25.7825 45.1508 49.4424 26.3189189423
29.5484 43.6025 54.5637 27.3791704427
35.0936 38.358 54.3856 29.9533039365
31.6193 46.6124 50.8175 31.7732792585
29.7595 43.592 48.0897 30.9199658982
30.2015 37.0803 47.4712 26.3335646604
32.6173 40.2125 54.9028 27.8558505721
28.7178 39.8427 46.1112 27.773152864
36.7946 36.8567 46.0437 29.5767932165
30.4175 39.8752 53.4431 27.9474816213
26.7574 42.1999 45.6021 27.7269549743
30.7514 37.8115 51.765 27.2649836876
33.7743 38.5453 50.5657 29.9182887182
34.6651 40.9282 52.7596 30.9966708404
36.1013 42.1369 48.8182 33.2566464752
28.074 37.5859 55.7098 28.2256875478
33.3385 42.9171 48.518 30.5958795081
30.7645 42.513 52.3524 26.300538054
28.6996 48.4399 53.9781 30.2678918486
34.1471 47.8809 51.0871 29.5868702304
31.5673 45.2019 55.1871 26.9745803574
28.778 43.6137 43.8724 33.9016815488
36.7277 38.5199 51.6466 28.7903494268
35.8645 44.9242 55.5836 32.3450078135
25.5689 43.2196 51.5074 27.1959662629
36.3796 46.1556 50.8903 31.9995065528
36.8768 46.8487 46.381 31.9378961297
24.8366 37.9074 54.9795 28.1337770869
27.654 37.6661 48.8395 26.5093597075
39.5448 4.05927 3.99435 31.0687273914
43.2292 2.18528 15.5587 31.1274645211
48.8247 10.0889 12.8906 31.0262186338
40.685 6.69255 5.10383 31.1977299341
41.1353 11.79 13.3374 27.9504691793
47.7271 11.8172 8.88156 32.3693059148
41.0894 0.256308 3.71349 31.730190334
44.9524 3.62557 6.62449 28.8000896669
41.6208 10.6517 10.8 28.7808065297
41.2204 0.749057 10.8944 30.7764679087
38.813 7.39798 6.87373 31.8438653586
38.0519 4.91568 6.69169 29.3199843935
41.7502 1.20126 6.17667 31.1697687046
43.095 5.52767 6.34883 29.0966472047
47.9073 6.66221 5.1844 33.1042705058
46.8059 5.56429 7.59528 29.9055226921
47.2218 8.596 14.9516 29.1326196193
39.9745 11.2064 4.7149 31.7443272313
40.4389 0.519388 15.2584 31.228016557
44.535 8.96297 8.06268 32.8874881664
41.2069 11.3708 7.31222 36.7834105246
39.9608 1.17337 8.32529 29.1941590191
46.916 5.98141 13.976 29.5991834415
45.1684 7.53617 5.44939 33.2630823715
44.453 0.747362 5.18498 31.1815096818
39.4806 3.7809 8.805 29.5395571955
45.1945 11.5294 8.42385 26.091687814
38.0718 3.7851 11.292 25.7615940758
43.8452 1.70489 10.8067 33.6387671682
39.0211 4.48634 14.9205 29.0273015972
48.4375 1.61537 10.6903 28.9087212105
38.3227 8.93118 4.49696 29.5680261512
45.2147 1.22083 13.3433 29.4998322392
38.2149 6.60511 11.4179 33.304154489
39.572 8.00204 9.45858 29.5680167462
45.3593 6.04976 11.5362 31.3875514725
42.4656 8.15833 9.72395 29.0838861116
41.8068 5.27539 8.97635 33.1838849402
46.3159 7.46899 9.41823 31.0875159633
43.1333 4.22335 11.2329 29.1697129301
47.882 0.402443 15.4245 31.705529207
38.2701 10.3173 10.0544 32.8124770652
39.7163 9.96523 15.1051 29.3559882234
42.2954 3.58911 4.50618 28.05215137
43.0583 7.44733 12.4093 31.0909950604
44.6204 11.9353 12.8974 27.6188982383
48.2588 9.23427 10.2687 36.3722300949
39.7085 2.32087 12.8551 25.8701811822
44.4899 9.35992 13.7957 33.1334453116
46.3666 3.21614 15.5822 30.8981303403
41.9464 3.94926 13.5886 30.0019500666
46.1128 1.67988 8.68003 32.4680441579
38.9977 7.15203 14.2909 32.283331907
42.3895 10.2927 15.5512 29.7211822554
41.8234 6.40982 14.7342 30.37600548
46.8716 3.30805 12.3067 31.4270928955
37.9597 0.498152 14.0026 31.6717136791
37.8601 10.6655 12.9341 31.6070172352
45.6048 10.0505 3.9683 28.3620888018
37.2865 2.05917 5.29893 30.0147438903
48.466 3.30233 8.07695 32.0725960902
47.3682 11.641 15.8667 33.1969932804
43.8499 11.852 3.76813 25.4006152767
45.6873 6.00545 16.6786 32.0372566378
46.1108 3.58494 4.12103 32.0240056262
48.1923 7.79271 17.932 30.8896518607
39.8436 1.8149 21.2514 29.3345202363
45.1454 5.35031 21.1833 32.6057541051
45.628 3.56809 18.7309 30.5155209175
39.284 3.99799 17.653 32.2635657084
48.1781 2.14815 18.0681 27.713327412
42.7704 3.05552 18.4731 30.2817815362
37.5641 6.25063 20.9228 30.8261220917
41.4995 5.31074 18.5561 32.9443073642
46.9747 1.01725 24.2211 75.7762225388
43.8968 2.56213 21.5238 29.4578867847
46.3805 9.98051 18.7728 31.1840224275
40.1961 1.38201 18.0003 30.9505469287
39.8482 10.4261 21.5754 30.2298180355
38.2029 8.69469 19.9106 37.2772555388
42.5741 9.51256 21.2153 29.9874219577
37.4287 0.358069 21.2515 29.1514949209
47.7478 9.39547 21.284 27.9053313459
46.3209 1.49159 21.5303 29.0663642516
41.856 0.969751 24.3655 93.8970386663
39.5526 2.48782 23.7669 44.4263064412
43.5717 9.55001 18.402 31.651150625
44.3913 2.28579 24.2051 71.0063064656
40.0574 4.88402 21.1453 31.723799004
40.1251 5.19696 24.368 100.2395836613
37.9163 6.36045 23.718 44.5442192508
42.6073 6.60554 21.415 33.3966009492
42.6325 6.70403 24.2616 77.0072283847
42.0176 0.262618 21.5953 31.7962318179
48.1013 9.49518 24.1244 73.8959475643
45.3234 5.11943 24.2869 83.2190304156
47.8597 6.52567 24.3147 73.0508721363
37.4984 9.16948 24.3395 93.0253281012
39.9989 10.3565 24.4669 90.5787435572
47.459 6.71744 21.5647 30.9251118168
38.6377 10.8073 17.2024 30.8933049934
42.7173 9.53144 24.3082 70.4098356327
37.2291 1.00767 23.928 67.1532640806
45.0205 10.9581 21.5121 26.7528027533
45.2348 10.9334 24.3068 76.2833659056
43.2782 7.11218 16.935 31.5443107954
40.8914 11.4809 18.7327 30.6151433229
48.9881 4.88774 18.1056 31.2356259974
48.9356 2.34378 21.021 29.2201367383
42.8853 2.9186 41.259 32.5989760106
37.3891 4.41688 41.218 30.2985081611
38.0866 5.80048 36.5523 29.5479170564
47.1139 1.81558 40.7388 31.6647163801
39.2711 3.86676 35.4538 124.0543354812
39.6237 7.84808 42.9793 33.1743015777
46.0919 2.15498 35.7206 94.5737170367
42.1454 4.44637 36.771 44.1713552788
38.8982 5.43804 39.0635 33.2033009534
38.8591 8.23898 35.6898 102.5884837628
39.9958 11.8345 39.0741 28.8750191539
45.4717 4.85219 35.8579 97.2770554632
42.0185 1.01313 43.1714 31.2411660256
47.7061 9.78075 35.8496 66.5385772802
47.4752 7.16299 39.4135 28.5386710262
44.2061 5.39521 38.7423 30.5484335302
39.6624 11.2104 36.2826 42.4552163346
43.0262 1.73876 36.073 62.5760017566
45.0296 8.84394 35.6893 97.0746246727
41.9476 9.34349 35.9666 81.9654419842
48.5917 1.91536 37.5164 31.3533313097
42.8141 0.894103 38.7647 28.7064158299
47.0381 11.2242 41.3867 30.3091068334
40.9147 3.02303 39.1278 28.0777889046
41.226 4.8742 42.355 29.9161116453
38.0643 1.2487 35.8068 73.7205239216
41.6214 6.17746 39.6132 29.5748998185
46.3878 4.58151 40.352 31.1804273449
47.2107 10.3606 38.6793 27.539724732
39.7228 0.212169 41.4212 27.6850720512
43.8379 11.7423 36.2496 48.7958745914
41.3729 8.94058 39.1169 30.8969975381
43.7805 8.77331 42.8616 34.8962166279
39.7397 0.31954 38.465 27.3923561885
47.6521 6.6841 36.5486 48.8696380731
38.906 9.46041 40.7078 34.2348708289
37.6255 2.00195 41.6489 27.373237037
45.1443 8.2223 38.5826 27.7687087597
43.6653 9.76398 40.2934 31.9343265952
45.6339 0.832262 38.5628 29.5471440638
48.7523 8.19251 41.8364 32.365501325
37.2523 1.76022 38.689 28.562933701
43.808 5.93279 43.2059 31.385286153
41.0376 3.2329 44.9529 26.5812886271
46.6462 10.8831 50.5155 33.3201039385
43.3658 0.1371 54.9452 30.3153618399
37.0942 3.79387 50.3371 27.2951492464
45.2699 2.45013 47.048 31.0057990945
39.4442 4.98821 46.6023 29.3815367515
40.318 7.39167 47.0869 29.9944450193
37.6667 1.44337 52.6038 30.2616450663
43.4789 6.57063 46.0891 31.1582146955
43.1519 3.80199 46.757 27.8958223475
44.0336 10.3093 52.4292 29.2962679694
47.0724 4.52677 47.9387 30.1125467577
46.4166 7.16295 47.5086 30.3404361664
48.605 5.84426 43.878 28.3562690961
37.2734 9.01238 44.7158 32.5063692934
41.6025 8.78061 44.8592 30.5247840776
43.6085 0.822394 50.7973 31.4706898084
48.7822 1.70661 45.493 30.6929160968
42.7627 10.8618 48.2465 30.049541153
46.1616 1.93926 44.5915 35.0623670761
47.3376 7.99991 44.9424 29.3519684645
39.2746 0.904422 50.4887 31.1795166596
41.4262 8.29201 55.7814 29.4200202987
48.0693 7.27557 53.2697 31.7514151177
41.0372 1.02675 46.9311 30.7314289634
38.0446 7.39696 54.9052 31.1100265036
48.9291 0.835049 53.7706 29.5108681878
47.9361 10.7415 55.5921 31.4643362104
38.3295 5.57578 43.9622 27.7005209466
41.0275 6.96186 50.2011 29.1924577783
49.0218 2.0283 51.2942 29.2350087909
37.1156 9.76256 53.5881 29.9008844927
39.9195 4.28066 50.4116 29.2239139217
43.3301 5.47285 49.5116 29.1535127053
44.8918 4.68783 51.5998 29.0631095973
48.9824 5.87921 51.0575 29.6632742808
47.1881 3.86834 50.4838 29.3196370759
38.7644 10.0128 47.0858 26.8277924556
38.7756 3.5295 54.3496 27.6903327377
38.2898 8.14079 51.4007 26.378205687
41.438 9.80202 51.9584 28.9697725947
43.9995 8.3811 48.6135 32.6683050043
40.3188 10.4475 49.59 27.4816578971
45.2529 7.59038 51.739 30.2552232879
47.4973 8.36264 49.7383 28.6930996485
41.8528 2.65617 49.267 29.2129437845
39.8454 11.8045 53.741 33.1073633823
44.1693 8.60031 54.8888 29.6514689027
44.9588 1.85731 53.0308 30.9513253233
43.4934 4.19605 54.7919 32.5654121432
37.4006 8.54497 48.9328 26.3324072856
38.3063 2.02347 44.5275 29.5982508397
38.1248 0.313327 48.0053 29.5053299304
41.0689 4.45366 52.972 34.5565828215
40.4732 7.20176 53.4182 29.250240326
45.4551 6.16531 54.3324 29.1439574888
46.0741 10.2207 43.8867 33.4237214251
48.9181 12.2367 51.5344 31.6787103801
42.3299 11.358 45.4848 32.8304530497
45.8249 0.236705 48.8656 29.4888289482
46.5782 0.886206 55.54 27.4201553388
41.479 10.8809 55.4959 25.6293524391
48.3255 5.40315 55.5135 30.1826266682
49.1253 2.73541 56.0853 29.024997032
38.2302 0.898509 55.6983 30.0645381934
48.2504 11.8836 47.0455 35.9407145719
46.0597 4.57949 43.3539 32.4871501511
48.5047 20.5578 13.1253 30.7251560339
46.9078 14.3745 14.6834 30.8935713559
38.9534 13.7269 3.79023 31.4808080021
40.4464 15.1297 8.13854 35.0390731826
47.2177 12.4212 12.7367 29.5259426693
45.9812 14.7283 3.78342 28.8877575437
41.9149 17.9606 5.09315 29.0090968745
38.9982 18.9721 4.74878 31.1022316206
37.3867 17.3054 6.71136 32.2296034429
40.7086 18.4511 7.50464 29.1088431494
44.801 19.8598 5.69484 28.539098685
48.144 19.0152 4.45116 34.1493410084
46.0963 20.849 8.03501 30.7586586872
42.9461 15.3208 6.45675 29.2654512133
37.5352 22.8544 7.55771 31.4618134893
44.238 22.8185 12.0324 29.653782531
46.03 22.1885 16.0491 32.5677949685
39.5797 21.6421 5.67171 34.433578032
42.2715 23.4518 5.88516 27.4091758957
47.0237 14.1187 10.2484 28.6194067007
46.7526 23.1432 6.90119 31.0303555964
45.5886 17.4861 4.37345 29.9580204539
43.7592 12.3585 10.3465 30.4141085055
43.3934 12.7008 6.51607 28.0561067044
42.2926 16.1298 12.9197 27.6055576687
40.026 15.3124 11.4145 31.4082990728
43.5206 18.7923 11.1044 29.5900130901
37.4422 14.8862 15.1064 30.8387870403
48.9603 15.9782 10.4854 29.409718255
37.4601 14.4597 5.92166 31.319714871
40.7509 21.62 8.22137 30.4442657677
43.4583 18.9783 8.30499 27.130559187
39.958 17.5102 10.1601 28.5971226002
44.8768 16.3844 8.21154 32.6610020056
46.2967 23.8365 13.7758 32.1259701708
43.5598 21.8825 3.89356 30.2816006542
40.3227 21.8977 12.3091 30.1044144353
44.4378 24.2237 7.29598 27.4241207437
39.7152 22.9641 10.0741 27.8400787396
41.861 22.183 16.6934 34.7952405376
44.5081 15.2967 10.9881 30.3371435161
43.6965 21.7204 9.10369 29.1017452221
48.3128 19.3586 8.83113 36.0063095732
41.0688 14.2514 14.5717 26.7133004907
43.8486 13.8685 14.988 27.549070555
38.1733 17.5946 14.7957 33.9912327433
39.8725 12.6817 9.50314 26.4678325111
45.4305 20.3955 12.3479 31.8139799403
40.9617 19.2192 11.9447 31.7932456725
47.5825 16.5012 8.02164 30.2043637802
41.0888 18.1597 14.7799 31.6382988786
44.7812 16.69 15.4491 27.6446299698
43.0983 19.3463 16.5334 29.2675401413
45.5751 19.6324 15.1242 28.1717198005
42.2453 22.9676 13.8013 32.5544132491
45.7676 17.2024 12.6721 29.7287182962
48.1581 15.0088 5.845 28.9678594512
38.021 22.4552 13.7559 29.3100859392
48.6642 17.7166 12.4129 28.5619350493
46.8811 21.6319 4.48724 28.508195525
38.2892 13.4844 12.8971 29.7507189175
37.5203 21.4882 16.1867 29.4412967884
37.3036 13.3632 8.37772 28.3423618484
48.893 16.3702 14.9929 28.8470321041
49.2377 23.3029 12.9316 30.1102294899
37.0028 17.8089 9.61926 38.7177849722
46.4813 12.5478 5.70847 29.5975718307
47.8038 18.5635 16.9271 33.9068103849
38.1014 13.4944 17.4867 32.844279659
47.6413 12.7694 21.5098 27.3958818272
43.4517 13.2851 24.2242 70.6287627734
44.4633 24.3587 24.5246 123.8167188638
39.2719 20.7686 20.5814 31.3855944492
38.9298 17.3631 20.0963 31.60406231
44.1865 21.5427 20.0528 29.8296732211
45.9737 16.6363 18.2802 30.7100785218
47.9229 20.6045 23.8923 54.54120481
39.8453 17.3029 17.4722 29.0507847176
47.9928 16.6839 24.0499 53.5101510716
37.2313 22.1617 24.6574 106.6882710599
48.4525 15.0653 18.4517 28.5804904649
39.9025 20.4708 17.5316 30.1773579109
46.0786 13.1958 18.9584 28.2631641792
44.1494 23.3768 17.5734 27.9835080764
46.8674 22.6287 19.0001 31.7267181869
38.5006 14.58 21.1585 32.136522233
43.9105 13.3424 21.0558 29.0677180171
38.3158 14.8985 23.9736 61.7195578343
42.5732 15.9535 21.032 31.1494036715
42.1864 17.2677 24.2508 76.2831418581
39.7841 23.5103 21.3618 35.1790337823
45.3003 17.0244 20.953 28.5962465989
39.149 17.3603 24.2477 76.2218495453
44.7402 16.1839 23.9093 41.6456854179
42.8063 16.685 18.0046 28.9883795841
40.8061 18.4002 21.7933 29.7098109767
42.2944 19.5941 19.2573 29.8696123976
43.087 19.784 24.0842 65.7950210404
42.4067 22.4263 23.7497 41.1799707896
45.6425 18.9697 24.5812 104.9870820131
40.8258 13.0294 21.2864 27.6833724475
40.7551 14.4855 17.1978 29.2523970791
47.9435 20.8405 21.0154 28.9377684966
47.8852 15.6478 21.3864 27.8473411231
42.7055 23.5289 20.9632 33.4065069289
39.9354 23.0894 24.2288 73.305602227
45.3555 19.6876 21.7077 29.7158910195
46.783 23.0705 23.5253 38.7775609132
46.9048 13.977 24.5212 92.5946940429
40.6063 13.3095 24.1956 70.3424754985
36.857 19.0016 24.4981 82.1708910942
48.22 24.094 21.2295 27.6580248924
43.6981 12.6998 17.5469 30.5595114394
37.7825 24.1454 17.4804 33.5906923443
37.0875 20.5448 22.1998 29.3653354174
42.6372 21.7909 42.2614 31.0203655379
48.7728 14.7527 38.3929 26.2684434501
37.3543 19.7914 36.4466 36.0066238969
43.7978 15.7718 35.5909 92.9266315712
39.2917 14.0292 35.4787 101.9691165594
47.5272 19.8938 42.1902 32.4916868356
38.7439 16.8633 35.5788 81.7162601671
39.5264 21.372 35.4627 106.4370365266
38.9943 15.9423 38.2969 31.4432155001
41.5874 17.6596 35.9046 62.6544342914
42.0085 20.4268 36.0702 54.3471992869
43.0053 17.6104 38.5246 28.3135202622
42.4197 17.6887 42.1905 28.6970292547
46.2773 16.3919 36.2404 35.9942490798
47.2931 19.2707 38.1564 26.2312822927
44.7191 24.3876 35.9443 65.5118048675
40.0544 23.9888 38.5899 34.2278983195
49.0582 23.8644 39.1071 28.2684349255
44.532 21.8824 38.6784 32.4932978221
44.6847 21.3789 35.9938 67.0028721846
46.4985 19.4692 35.7272 86.1059209171
49.2454 21.4387 35.6016 102.4147171895
41.4874 15.5664 38.9816 28.2792282742
38.608 18.6691 38.7589 28.6336607273
43.2716 24.4976 41.7505 31.4964372298
41.8654 13.8001 36.5602 32.270034679
42.3147 14.8704 41.8841 33.8608610103
46.5976 14.857 39.5986 28.6173885328
45.0633 12.3665 38.5598 28.6391094943
46.0367 13.5749 35.5258 84.2329300924
39.9979 21.5693 41.6098 29.5642708953
45.0913 18.7619 41.3356 31.7412807312
37.0797 18.5812 42.7271 25.7542319711
45.5006 17.182 38.8972 26.5370988353
42.8015 20.3091 39.9908 24.9583934216
46.8708 14.0887 41.9544 29.2069900311
39.8629 18.7213 41.5228 30.4770480944
40.486 20.879 38.4579 29.2250090361
39.8122 14.4434 43.094 30.8756360156
47.465 21.6062 39.5989 37.7948514786
48.6261 12.7905 35.5757 75.6468497352
39.9531 24.2185 35.7969 71.0355233443
42.5312 12.7121 39.5402 31.8851639835
36.9123 12.8686 39.194 28.6888368189
39.8124 24.3285 42.8792 29.0144350267
38.3925 12.5325 41.6569 35.8659332823
40.9356 14.8734 47.5277 30.4164313509
48.7277 15.2193 43.5414 34.1849125918
40.7996 18.7347 45.4861 39.033800118
37.9582 18.6401 54.7064 27.6587441138
44.5482 17.3766 54.6005 31.3420722204
40.2469 13.2299 49.6231 30.7984505773
38.5392 20.4757 46.2418 28.7245806711
45.4901 13.7676 47.4896 29.5915977184
40.2117 23.695 49.458 28.4791983224
39.1457 16.7051 46.9893 29.0737999408
44.7346 14.5756 43.507 32.2241706728
48.343 17.2908 49.9142 31.7134759905
44.9808 17.2223 44.4204 31.7556559246
43.1713 19.804 44.2166 31.0934964143
48.1077 19.8826 46.259 31.7433371879
47.4367 15.7211 47.7643 31.0954050038
47.626 17.2475 45.4282 34.3598378651
40.0729 22.7097 45.2469 30.4633011455
42.6379 23.4484 46.3786 32.6828499384
44.8299 21.7399 45.5503 34.0870993562
46.5255 24.0003 44.7063 33.052993039
45.9266 23.205 55.2688 30.5080543348
36.9847 20.9325 52.8278 27.9000982407
41.1651 13.9641 52.0965 32.0517046027
43.7135 16.0384 46.7879 36.2195242282
38.1574 22.8871 54.744 31.4849095033
44.982 15.0833 50.4902 28.4216443879
44.5506 21.1049 52.9667 29.1991602191
38.759 18.5594 49.1636 31.9463442893
40.4781 19.5825 53.8152 30.8054716592
40.932 17.824 50.8812 30.6520444136
43.198 16.9461 49.5196 33.3552795657
47.3993 15.2128 51.848 30.4206360816
45.3486 18.9023 50.0167 34.7369230397
38.5628 21.7809 48.8555 29.9454929082
39.7976 20.867 51.3299 26.5475637346
46.2829 20.8805 47.9109 33.2837706362
42.8925 22.6695 49.179 37.7578633626
42.6391 20.0584 51.1661 31.53401187
46.7225 22.6888 52.2315 27.6662984727
45.051 12.6695 54.1044 29.4160818397
46.3145 18.8387 52.8918 30.1720579225
44.3334 12.3593 49.9548 29.6038528546
40.32 23.35 52.8268 30.1383660422
40.0543 16.3537 53.163 29.7021826928
39.0022 16.7699 43.9478 27.8453017927
43.6187 14.6108 53.0272 29.4354737745
43.0234 14.8781 56.1552 30.4072073869
47.8365 22.5139 49.4892 31.9243393432
49.1872 20.1117 49.6838 27.6082216988
44.9029 24.4019 50.2452 33.674455138
47.9696 13.6264 54.3169 30.402527223
48.1926 21.9019 44.0352 31.3403382827
37.5382 13.1968 49.0631 33.0672446
42.6889 23.5602 54.3694 28.5224689357
42.876 19.3844 55.0589 29.8793460687
48.7008 17.7076 53.4569 31.2427235665
48.8227 20.8232 52.5435 38.4876038183
40.3356 13.1579 45.5414 31.4859046394
37.7569 21.448 43.5062 29.2556710353
37.0028 12.6665 54.8372 29.0624929545
37.4896 16.6311 52.9549 32.1105399293
44.7718 12.3973 45.2307 31.5526379615
40.3103 16.2493 56.2165 31.8318391758
37.7153 12.3327 46.4307 28.8790105832
38.3366 27.3252 7.9194 28.7035979766
45.1997 30.9492 5.83083 31.5037873346
39.1664 25.681 15.5739 34.0453850056
37.5124 30.7806 14.933 29.4606293363
42.3484 27.808 6.15241 28.6185262583
39.4214 24.7356 4.61056 28.957818243
38.3411 35.2444 4.96886 28.502449256
44.7407 26.9603 6.83296 28.1600971517
46.5824 29.2947 7.81182 30.7807042614
37.9116 31.627 5.81259 33.7889937469
41.0788 28.4618 15.419 31.9309234594
46.7706 36.4005 7.79208 32.1976718366
40.7252 31.4573 5.82752 30.5644036698
41.8218 30.0899 7.97763 30.5349481638
45.2853 34.66 6.18682 32.021872724
43.9404 32.4431 7.98475 31.8144773803
48.5144 24.7117 8.50046 34.4554159578
37.066 25.413 6.41287 25.2942801634
41.1853 34.7528 5.14119 30.389044958
41.9095 25.5395 15.0126 29.6459133578
43.7555 36.0422 4.16659 28.0500597972
37.1745 25.4976 10.7569 35.2963227654
48.3278 27.1361 7.10823 32.0801877688
41.6499 34.3113 12.1673 27.3852901235
40.6014 26.005 6.87784 27.0772209708
48.4104 27.8853 14.4835 32.2782780761
44.9503 27.483 9.8109 28.6014790214
48.473 25.3773 11.1791 31.8876435344
38.371 31.6011 10.8622 30.7952849247
39.1288 33.5253 9.3517 28.5048821239
39.6458 29.2747 9.74889 33.995478792
43.0881 29.3796 10.668 27.8887303321
47.5583 30.2131 10.6584 31.869385259
45.0744 31.0706 11.9836 29.8954847923
38.1026 34.4531 13.0987 29.0058756039
41.4234 33.5212 7.72237 27.4556485047
48.2093 27.6465 4.38001 31.8196974182
43.7355 33.1113 10.7879 29.7687662937
44.287 30.1936 16.3378 28.7288900567
45.4169 33.9735 15.4596 30.8666527336
45.7515 35.139 10.1125 29.2409231216
47.8329 33.0428 11.4313 31.7925356636
37.1904 34.2109 7.31497 30.7995883352
39.9403 26.832 11.0046 33.6796688598
41.6444 30.0909 12.9194 30.4838669646
39.5439 35.5875 10.8198 29.1518465192
42.3696 26.7863 12.2132 29.028831848
43.6962 24.9365 10.1886 28.7586272685
44.3723 28.5454 13.8889 27.9591432977
45.5942 26.405 14.8623 27.4807517368
48.0004 32.7391 16.5086 32.2728892701
38.8097 35.368 15.4642 29.8841800081
46.5313 27.0996 11.9863 28.5632627212
39.3372 31.8226 13.3608 27.2658414904
41.3964 33.5976 14.7617 28.7544970807
43.8321 32.0981 14.2894 26.7806105493
46.4044 32.9411 4.17674 25.9235559166
42.0066 36.5444 7.91294 31.1114162507
45.2872 28.7452 3.83767 28.1136140078
45.6539 35.7205 13.3623 28.6799697557
41.1413 25.0091 9.32987 27.1911268658
48.2693 36.1618 11.4125 30.4989795108
43.0683 36.5206 12.8075 28.25255664
37.0185 29.2536 6.51691 30.7990637588
47.8104 36.1368 16.2216 27.2369666208
38.3499 28.6298 16.4822 29.1948835674
48.6466 32.6038 5.83989 32.0075704036
37.3058 25.2282 13.499 31.0790225731
37.1246 28.2191 3.83834 28.8393703122
41.2349 27.8718 20.9193 31.9932944772
37.5716 25.0966 20.1464 31.8557097932
47.0526 26.565 17.399 31.2464295834
42.0074 31.3748 17.3741 29.8413988572
44.382 34.7805 18.0922 33.0256949498
46.6435 30.6031 17.5834 29.1298738151
47.0502 28.1822 19.8093 30.8148746898
38.9068 34.6997 18.4247 27.5516020614
43.7714 26.0323 17.3479 30.7767806814
39.5917 31.6264 19.0092 31.082984189
39.6601 25.8157 24.1746 77.921963421
43.2578 32.4469 19.5562 29.4620628793
42.5464 28.3885 18.1959 31.734971914
39.3262 33.8537 21.2035 29.860538534
45.774 36.593 20.1948 30.347661547
37.4925 29.8369 24.1265 48.3244076834
46.3926 31.9575 20.0774 28.4223333713
48.2812 35.1242 21.1606 26.1933276269
37.0607 32.4563 17.245 32.4458653598
41.6901 27.85 24.0132 65.4473558567
45.9449 26.3999 21.5762 31.4765416196
44.5179 27.156 23.9849 51.6752665387
43.3277 26.249 20.6656 31.2576444768
46.8411 28.6921 24.4675 102.3242976689
48.9384 32.3559 21.4389 30.775264907
41.7183 30.5018 24.1003 52.6803274059
39.2819 31.6196 24.7183 103.0120179436
42.7461 30.1949 21.4531 30.4126563356
42.4667 35.1896 24.2445 57.9304319868
43.6143 32.6697 24.5968 90.1463016476
46.2524 31.3425 24.1454 54.2578715828
45.3738 30.0152 21.5452 29.2532200081
49.1753 27.2512 23.7609 46.8725014859
39.725 34.2173 24.2596 53.7441243524
38.9532 28.5217 19.1791 32.4481280665
42.5876 34.816 21.6008 30.5393994646
45.9475 35.0515 24.5265 80.8562321013
45.4946 34.1381 21.8947 27.4020206107
48.7501 35.4883 24.1127 60.1467031277
49.298 32.2566 24.2777 75.0267330462
37.2698 26.9478 23.9717 67.7293197762
37.4862 35.8209 21.6257 27.431808869
37.8357 35.9175 24.4164 83.5444047138
48.9224 24.5957 17.7751 30.2979566261
38.148 31.0344 21.5688 31.7451007451
41.6705 35.2512 17.4399 29.6430186318
37.058 27.6983 21.1809 28.9855605269
48.9304 29.2408 16.8962 29.1287574067
41.2823 28.8893 35.8909 75.5663952943
42.9591 26.7985 38.1306 26.4452706579
42.2481 26.0864 35.7157 87.8108327651
46.8063 26.0145 35.607 107.2679106063
44.8402 24.8883 38.8632 31.0817380885
42.9413 35.3573 42.824 37.1180086743
45.2371 29.6083 40.8147 27.4023584645
36.8938 33.5987 39.2 28.3565998182
38.8829 31.9888 38.228 26.579060756
40.225 31.8846 35.7307 74.9177865726
42.2506 29.6068 38.4952 29.4640413386
44.2432 33.7876 37.54 30.3249926688
46.3133 29.0496 35.8483 78.5102566708
40.7686 31.5434 42.3469 29.1892177759
45.3478 28.6145 38.325 29.7443754297
46.9058 35.0649 35.948 50.7848157832
45.4651 31.9777 35.7001 86.0758446594
37.6092 33.5058 35.8643 62.1568020341
45.8007 25.4236 42.7831 31.8823406207
41.9522 34.0084 35.6898 95.6703711103
46.3788 35.351 39.0592 28.1288973886
40.9907 35.721 39.1457 29.8716125423
37.5738 25.5473 38.7499 27.7093734773
38.658 36.2811 35.8655 77.8675477902
38.2666 28.3167 35.567 89.8472859582
48.2711 32.5486 35.256 110.1187032139
37.4271 25.5809 36.0153 51.5984064691
38.0844 29.2638 38.4027 33.1361493175
41.4828 25.7629 40.2019 24.1677452041
41.1065 32.919 39.5757 30.2245559128
47.2022 27.5029 41.411 26.511745336
40.2825 29.6004 40.3642 25.5984113436
47.1729 26.5119 38.8298 26.1152416706
42.6985 28.5641 41.7469 27.6443567777
39.2268 26.9779 40.5411 28.3989532559
43.8216 32.0145 39.7941 27.4602573292
43.3986 32.4118 42.4909 29.3487288453
41.0554 36.5223 36.6366 32.6083178002
46.7722 33.2003 40.5523 33.4286837771
47.7624 30.3845 41.8297 27.912556679
49.2967 24.6043 36.4018 47.5519970876
43.5243 36.3116 40.1377 30.6435988798
48.8675 29.982 36.6591 35.1009738607
37.0537 32.7975 42.0308 31.6620456719
38.5626 36.7102 40.8489 30.606834105
40.3143 35.7879 43.0993 33.9180382524
45.8567 33.6212 43.3047 31.7238379717
37.3298 35.8489 50.5158 32.6961324135
46.6248 36.4058 47.0182 31.0761908833
41.5092 36.1253 48.8808 28.0526054464
48.5404 29.8397 55.0064 31.3574819608
39.0019 33.3174 43.8406 31.5224277315
37.457 25.411 53.4481 23.260498144
42.8195 26.3593 46.0467 28.4690776427
44.7631 27.4473 44.398 28.8048784367
47.0007 29.1565 52.5058 30.7967702227
48.4274 34.4615 49.3019 27.268932667
48.0719 25.8441 46.447 31.4437810053
41.0786 27.0864 53.4732 27.7884012169
46.2262 36.2807 44.1137 31.2492201382
37.5475 29.2649 45.2721 27.1332443525
43.4038 30.0264 44.2818 29.1114480668
45.1771 31.0399 46.3806 34.0255999185
47.9545 33.5963 46.6643 27.6739228577
37.1556 25.5486 45.8792 31.229823595
47.6386 28.3996 44.9116 27.4915594186
47.2748 32.1692 54.3889 27.4758085177
43.9099 31.1184 55.2638 30.0398434467
44.3482 35.324 48.7784 35.0260583717
36.966 33.9192 45.9684 30.6810222533
39.0913 26.4101 55.2407 27.3550704754
39.1138 35.36 54.53 28.7275042264
44.1555 35.2579 53.1144 30.0464573115
36.9389 31.8729 55.6963 31.2510624046
44.4342 26.4117 48.5072 34.4888784474
42.4752 31.3657 48.7384 32.2799357114
38.6506 28.8969 49.9422 30.4686098853
40.7524 27.6298 47.8348 29.4992296159
39.6703 26.0397 51.3613 28.3563105512
42.2664 27.33 50.1585 30.3537711688
46.3164 28.4196 47.7319 31.8072784124
39.0335 31.4366 46.1616 29.3155568421
47.0049 30.6458 49.871 30.3305562469
37.7253 32.8853 48.4088 26.4453715396
41.3981 26.572 43.4065 27.0376113206
41.4013 34.6155 52.7772 30.6085433364
40.3208 33.7545 48.3624 36.6297024734
44.8263 32.622 48.7469 27.8578548191
41.907 32.5791 56.1058 31.890674272
48.2801 32.7835 51.6175 25.8623848546
40.2859 36.5815 51.3082 28.7283009906
45.3606 33.1784 51.3587 28.7162962266
39.5414 32.5322 54.2978 28.3467320587
40.2733 29.7455 52.8027 30.228247517
43.6429 25.2994 52.6078 30.3252248971
37.3812 26.383 43.3486 27.4750422734
46.0144 26.5151 53.4961 34.2291332952
38.2813 31.6168 51.4434 29.3451515225
41.2835 29.986 46.2798 31.81850499
39.8525 25.0276 47.1273 29.5204695846
44.886 30.7957 52.8357 27.9210385976
42.7359 29.9297 51.2011 32.9147851854
47.3112 31.7087 44.6584 26.2094599237
45.4474 36.6218 51.0361 28.5776257655
40.6554 32.6567 50.8163 29.2924157532
48.5033 25.0079 53.2451 31.8328017326
39.6171 28.678 43.4367 28.9154619435
39.7037 29.5931 55.6244 31.3502407883
42.4808 25.4734 56.4489 27.3819265613
42.5151 28.504 56.2437 29.5872322481
45.3391 26.0617 56.446 30.4124245129
45.8235 35.1815 55.377 28.672419172
49.1343 34.787 55.2441 27.043030849
48.8863 27.288 48.8275 30.5803930308
41.7426 39.0431 4.21328 29.7227734482
38.0422 39.2002 15.2025 29.8160291591
39.9486 43.4404 7.13216 30.3429430258
48.4561 47.0523 6.34547 35.971093894
41.435 46.9819 14.1435 28.6236752841
48.3198 37.2492 4.90256 29.805521764
42.9043 44.2393 15.6155 30.9606998089
45.1745 46.1496 6.04383 28.0417474902
37.2526 43.7099 7.93763 28.6128517059
48.3867 40.145 14.5143 27.9620916202
43.4414 44.102 6.60917 32.7339245112
43.6418 48.4635 15.5034 28.7523539961
37.1501 40.1721 10.002 29.6832344287
36.9253 37.7417 5.57502 29.9684448153
38.8518 47.5971 8.68123 28.6240878181
46.01 47.3286 14.6571 28.8319385662
39.8325 46.9111 4.04823 29.2453831237
43.013 47.6258 7.5707 30.3383012292
40.5141 46.4163 6.83809 30.0709573759
48.8822 39.7825 6.1097 28.9624375475
45.3256 40.6696 4.35404 32.7916159159
46.1692 43.3233 7.24922 31.7938001749
46.2815 40.7211 6.87684 29.6478741901
43.5779 37.1451 10.085 34.2510026414
40.2231 41.613 12.462 32.4431235126
38.8704 39.8203 7.518 29.5578436666
43.4117 38.2401 6.29076 35.9735634701
45.504 44.9105 12.6873 28.5375479501
44.0438 41.2932 10.1446 31.9755104282
39.9225 38.8589 13.0673 33.8705156874
39.56 40.6007 5.07391 28.5583848018
47.0869 38.6427 11.2522 28.4522682925
40.4313 41.7845 9.5998 34.0770404479
38.1756 43.1832 10.657 30.1222271656
45.2951 39.1316 8.88993 27.4559728697
42.5861 43.5926 9.1414 30.3098776476
47.0359 44.3323 9.67482 31.6483384269
37.7047 37.9915 11.7397 28.0762751593
39.2075 37.1496 7.63868 31.5386235291
38.5245 46.1174 10.8984 29.7411831624
41.1042 47.35 11.4555 28.2261197374
43.2319 46.2043 10.0732 29.6323369732
42.105 45.1187 3.98104 29.173043804
47.4977 48.3187 12.0285 29.1026570253
39.8562 43.1113 4.19038 28.4312385298
42.9194 44.4589 12.7826 30.4930610341
43.8493 39.4008 14.3202 30.500850789
45.7677 42.1005 14.2509 27.7364771952
46.4809 38.2613 13.8107 27.0975355523
38.214 46.7172 13.6522 29.5831458617
47.8179 44.2483 14.6804 30.2877560451
38.6307 42.468 14.9982 31.4267746133
40.0706 45.011 15.8524 32.4036917907
46.0437 47.9789 8.01935 29.4669776667
46.0395 46.7698 10.4263 27.9497291357
43.1077 41.4056 12.6801 29.2969848984
46.4233 42.0887 11.3164 28.9457212298
41.3956 37.2491 15.0133 30.0555270149
48.943 40.6414 10.872 28.5130548249
48.3594 42.0275 16.6234 27.4103136566
39.055 38.4641 21.2226 27.0093292234
38.9336 38.4313 24.3001 77.5864507213
45.678 42.5427 17.2535 29.6311816423
41.7837 37.5254 21.2839 28.7531035642
42.9253 40.184 21.6226 31.8654641191
39.2067 45.9535 18.4739 35.7213266803
40.4144 42.9258 21.5437 30.2080125375
39.7943 41.2773 17.5776 28.5777493836
43.9738 45.2273 20.903 30.2487810472
42.8607 42.5399 20.0974 34.6396021043
49.4385 48.26 17.8374 28.698474054
37.6029 40.8809 23.8093 39.7854417912
47.5799 42.2443 20.7891 31.6971701976
42.41 42.0293 17.2937 31.6106555233
41.9905 46.92 20.0508 31.446215198
37.4616 46.5531 21.0757 30.5445639437
46.5175 38.1411 17.7155 29.9581643965
47.4621 46.5444 21.2885 32.0825372155
47.8844 45.7213 17.1037 30.2107512979
43.9806 48.0584 18.3128 33.7108090016
44.8199 37.8045 24.5312 94.96995055
47.8336 39.9134 19.4715 26.9273048988
47.1756 39.9539 24.066 64.3381711687
37.9691 48.7171 18.4459 34.4452435575
45.7282 38.9799 21.9731 30.3760274128
47.147 42.5325 23.5717 32.6525172173
39.7191 42.6884 24.1356 72.3508995861
38.8064 41.1332 20.3578 29.4574130355
42.0989 41.1632 24.2116 77.5442934351
